448	447	447	443	438	440	445	445	453	454	452	457	457	458	458	447	446	440	440	438	436	442	443	445	446	446	451	454	452	449	444	442	442	440	440	440	444	446	448	450	450	453	455	449	441	436	439	443	448	449	449	447	448	443	444	445	449	446	442	441	443	450	450	453	458	457	453	449	448	448	448	448	446	445	442	443	442	442	442	445	445	449	449	447	446	446	446	444	444	443	444	447	447	446	446	443	439	437	437	434	432	434	442	445	444	442	455	455	451	449	452	453	455	453	448	446	444	446	452	457	458	451	449	448	450	448	444	441	435	433	431	430	432	436	438	439	435	434	433	433	434	437	437	440	442	442	442	444	444	447	442	436	436	435	436	439	441	445	445	442	441	444	443	443	441	440	440	438	440	440	442	444	446	440	438	439	439	439	438	435	437	436	433	427	427	430	432	434	431	425	423	422	426	426	432	439	439	434	431	427	429	430	434	432	428	436	435	433	431	432	433	435	437	437	439	436	435	433	430	431	434	437	434	428	422	422	425	427	434	435	429	427	425	423	422	420	419	418	423	422	422	422	422	423	422	424	423	423	423	428	435	435	430	424	424	428	428	422	419	419	418	428	437	440	432	430	430	433	432	431	431	434	439	439	436	433	430	430	428	428	430	432	436	436	427	422	422	422	424	428	430	429	429	429	428	428	427	427	428	430	432	430	430	432	432	428	423	420	418	422	424	424	425	425	423	421	421	420	420	420	424	423	421	419	413	414	422	419	422	420	415	418	418	416	417	409	415	419	424	419	416	428	429	430	430	429	428	426	422	415	415	418	419	419	419	420	418	416	422	419	416	411	412	413	418	422	416	416	417	419	420	418	421	426	427	426	423	424	427	434	434	435	436	437	434	429	424	418	416	418	413	412	413	420	428	431	432	430	428	421	419	419	420	421	424	419	420	418	430	428	428	427	428	429	429	430	425	424	432	423	424	423	422	418	413	414	418	421	422	421	419	418	414	414	415	418	420	421	419	427	426	420	403	407	412	414	414	413	413	418	421	421	419	417	419	421	420	418	420	424	426	426	424	422	425	424	422	422	423	420	415	414	418	420	424	422	420	411	410	413	417	419	414	413	413	414	415	418	415	411	409	413	420	419	416	414	410	412	414	413	415	417	420	416	411	409	408	407	406	408	410	412	412	415	415	416	416	411	409	416	416	415	413	412	415	417	416	421	427	425	428	431	430	428	422	418	414	407	405	409	409	413	416	416	414	415	421	421	424	427	428	427	426	415	413	414	417	416	416	414	413	413	413	411	412	415	412	409	407	405	408	400	400	406	409	412	415	423	425	425	425	421	416	414	412	414	415	414	415	417	416	416	416	416	414	411	409	408	410	409	408	412	419	420	420	416	414	410	412	414	416	417	415	413	410	409	410	408	411	414	415	417	416	414	414	412	417	420	405	405	411	416	0	0	0	0	0	0	0	0
443	440	440	436	432	433	439	439	443	444	443	445	450	450	452	442	437	434	431	431	431	433	437	445	449	449	450	451	450	444	441	439	439	439	439	440	442	446	447	451	451	450	446	439	435	433	439	448	447	447	438	434	436	434	437	438	436	434	434	435	437	440	440	442	445	446	448	441	441	446	449	446	442	441	441	441	442	442	441	440	443	443	445	444	444	439	441	441	441	441	439	441	445	440	438	438	433	428	425	427	431	433	435	437	437	435	434	439	439	437	442	443	442	438	437	437	439	441	442	442	441	441	441	444	443	438	435	433	432	430	429	428	430	434	438	439	432	434	436	436	435	433	434	438	438	436	434	433	438	441	435	434	435	434	433	434	436	435	435	436	434	434	437	438	438	435	435	436	438	438	435	434	435	436	436	427	429	429	435	436	435	431	425	422	424	425	427	427	426	421	418	419	421	421	428	434	435	430	428	423	417	414	424	425	422	416	413	413	426	430	431	433	433	432	432	431	430	430	427	423	425	428	422	418	416	420	425	425	428	427	426	420	419	420	420	417	416	416	420	420	417	418	420	421	421	420	420	420	421	426	431	428	423	418	421	418	417	414	410	412	415	415	408	414	414	414	417	421	419	421	427	430	432	434	433	429	429	429	428	415	417	418	419	419	418	415	414	414	418	422	424	423	421	419	423	422	420	422	423	424	425	422	421	421	421	421	416	413	414	417	420	422	422	419	416	412	414	417	417	417	415	414	414	406	405	410	410	412	412	411	411	412	412	406	406	409	413	417	420	415	412	412	412	414	419	421	413	415	413	411	410	412	408	405	406	407	406	408	411	404	402	403	403	404	407	410	411	410	412	411	410	410	413	417	418	417	419	421	421	416	419	420	421	416	412	411	411	411	412	413	412	412	414	417	422	427	427	427	425	422	420	419	416	414	413	411	410	406	410	415	416	417	417	418	423	425	421	410	411	417	420	417	414	410	409	410	412	414	417	418	416	414	411	409	410	413	415	416	415	415	410	403	404	406	408	408	410	411	409	409	413	414	412	412	414	416	415	415	417	420	422	422	421	417	418	417	417	417	418	417	414	399	407	412	416	415	413	409	409	410	413	414	411	408	410	408	407	408	410	410	409	409	418	417	411	409	409	410	410	410	410	412	412	407	404	403	402	408	407	405	404	404	406	409	412	414	414	413	411	411	413	409	405	407	409	409	413	417	420	417	420	421	419	417	417	412	408	404	405	404	406	408	406	410	407	405	402	399	398	403	407	415	417	413	409	409	413	414	409	409	411	409	407	405	408	413	412	408	408	407	405	400	401	402	410	416	412	407	405	421	420	417	406	406	409	410	409	407	406	408	411	411	411	411	410	407	407	407	406	406	408	413	414	412	412	410	407	406	408	410	412	411	414	413	411	407	406	408	408	411	412	409	404	401	401	398	406	414	413	411	410	415	0	0	0	0	0	0	0	0
435	435	435	432	430	428	430	430	433	435	439	442	443	443	444	436	432	429	428	428	427	430	437	440	440	440	438	432	428	436	439	438	439	439	440	442	444	446	449	450	445	445	444	441	440	441	440	442	438	438	427	426	426	431	434	435	434	431	431	434	436	435	435	432	433	434	437	435	437	435	436	434	433	434	436	437	431	429	427	428	423	423	426	426	430	433	434	436	437	435	430	431	431	431	434	436	432	427	425	423	425	425	429	434	433	432	428	425	421	423	422	429	431	423	422	422	426	430	430	431	432	432	437	437	436	433	430	427	428	426	424	425	427	430	434	434	432	430	427	430	435	436	435	436	434	430	430	432	434	431	428	428	430	431	429	429	428	430	431	434	430	432	434	435	433	433	428	432	429	428	421	414	411	411	414	421	424	423	425	424	418	418	418	418	418	421	422	422	422	421	419	418	415	410	420	424	426	426	408	404	404	404	418	421	420	414	410	410	411	414	430	429	428	426	424	426	426	425	422	417	416	417	415	415	416	416	417	419	417	418	421	419	417	416	414	413	411	414	416	415	415	413	415	417	418	418	417	417	419	421	417	416	415	412	411	411	403	403	403	408	410	412	410	410	412	413	414	416	417	413	414	416	421	423	426	426	426	423	411	408	411	413	413	414	407	409	408	409	411	416	418	419	415	412	413	409	411	413	413	414	414	414	409	408	413	409	407	407	408	410	415	417	417	410	408	404	401	402	406	411	411	408	406	404	404	406	406	406	405	405	407	405	403	403	405	406	410	412	411	409	408	407	405	407	410	410	409	411	406	404	403	401	402	403	403	402	404	409	408	404	398	399	402	407	409	406	407	408	408	404	403	405	409	413	413	412	413	416	417	415	413	411	413	411	411	409	408	412	411	410	410	412	414	413	413	418	420	418	418	420	419	416	414	412	411	408	405	401	403	406	409	410	410	413	413	406	406	402	405	409	412	409	404	405	404	404	406	408	409	412	411	407	403	403	402	403	408	408	408	407	405	402	404	407	404	401	395	402	408	407	408	409	409	408	409	410	410	407	404	410	418	419	418	414	411	401	400	396	393	396	393	395	395	397	397	397	400	398	397	394	397	409	406	404	405	404	402	403	406	408	408	406	414	412	398	394	393	392	395	403	404	407	405	402	399	399	402	404	405	403	401	400	400	404	410	412	413	412	411	409	410	403	403	410	416	420	410	406	403	409	407	405	406	406	404	405	399	399	403	404	401	401	402	400	400	400	398	397	396	399	403	404	409	411	408	405	408	411	407	409	408	403	399	399	399	407	407	405	405	405	402	401	403	407	412	404	401	398	399	400	398	393	391	390	396	406	406	402	401	403	404	402	405	404	402	404	407	409	406	398	393	394	401	401	406	403	401	397	394	394	396	402	405	402	401	400	402	402	401	399	398	398	395	395	395	396	396	399	404	403	400	400	0	0	0	0	0	0	0	0
429	431	431	430	424	421	422	426	426	432	437	438	437	437	436	429	427	424	424	424	424	429	430	430	431	425	425	418	417	423	432	435	437	437	443	444	435	436	436	440	438	438	435	434	433	431	431	432	428	420	421	421	425	428	429	432	431	427	429	430	432	429	424	424	424	427	430	428	427	424	423	423	427	428	428	426	426	423	420	414	412	413	413	420	423	424	430	433	431	430	427	424	425	428	431	435	431	425	423	418	419	420	422	428	430	429	422	419	418	418	419	423	424	419	420	421	423	425	425	421	422	422	426	428	427	424	422	421	411	416	419	418	423	426	427	427	425	424	422	419	418	421	422	421	422	424	429	432	432	430	427	423	428	428	429	429	428	428	428	428	426	428	430	425	423	423	419	420	412	421	418	411	407	407	410	415	419	419	415	410	409	411	413	414	417	417	412	412	420	420	416	405	403	404	412	421	423	412	404	402	403	406	411	410	409	406	400	400	404	404	407	415	421	416	413	415	419	419	419	416	413	413	415	414	413	407	408	413	412	416	416	412	409	410	407	407	407	407	411	409	411	411	410	411	409	402	401	402	404	405	405	403	404	404	402	400	395	395	396	404	410	410	410	410	411	410	408	411	409	409	407	407	407	411	414	417	418	413	408	403	408	410	411	409	403	401	403	403	407	412	414	413	411	404	399	401	405	409	407	407	407	405	405	402	401	397	396	400	404	405	405	405	407	407	404	401	400	402	404	408	411	407	404	402	399	403	402	402	399	397	397	401	401	403	404	403	407	408	406	401	400	399	400	405	407	407	407	406	406	403	399	396	396	398	401	398	399	401	399	400	399	399	402	404	406	405	405	402	401	399	394	401	405	409	411	411	410	409	409	409	414	412	409	409	409	405	404	404	407	408	408	410	409	406	403	404	408	408	408	408	408	408	412	412	411	406	401	398	399	402	403	401	401	394	397	399	401	398	398	400	402	403	398	394	394	396	397	401	402	404	401	401	397	393	392	393	395	399	403	405	405	402	402	404	399	394	393	395	395	396	400	404	405	404	404	402	400	397	396	388	396	400	400	399	396	391	388	389	389	390	391	392	393	394	394	395	395	394	392	391	390	395	399	401	401	399	396	396	398	403	403	402	401	400	399	397	395	392	390	398	401	401	400	394	395	397	400	404	404	401	399	399	400	403	408	408	407	406	400	398	396	398	398	400	405	404	402	402	402	399	396	398	396	395	392	392	393	395	398	400	396	395	396	399	399	397	395	394	392	398	400	401	400	396	394	392	393	395	398	400	398	391	388	389	394	389	391	392	394	393	396	396	392	398	399	399	397	396	395	396	395	392	388	388	390	394	396	393	391	396	397	396	395	394	396	399	400	401	401	398	399	397	397	397	401	400	398	395	392	386	387	390	393	397	396	400	398	396	393	388	391	392	393	393	394	396	394	391	397	398	398	396	0	0	0	0	0	0	0	0
426	428	424	424	418	415	415	424	424	432	433	433	430	430	430	425	423	417	415	415	418	420	421	422	422	417	417	413	417	419	421	429	433	433	435	427	427	429	428	427	428	428	426	423	423	422	423	425	415	417	420	420	424	424	424	426	427	424	424	425	420	419	418	418	421	423	425	423	417	411	411	414	418	424	423	419	421	422	416	415	414	415	415	417	415	416	417	421	424	423	423	418	421	425	430	432	429	424	421	416	413	412	414	418	422	419	416	415	416	417	418	421	416	414	413	415	414	413	414	415	416	406	404	404	408	407	406	408	404	408	410	413	412	413	415	416	418	414	415	414	413	413	413	415	417	418	419	423	423	418	417	419	423	426	426	427	425	425	424	423	422	418	417	410	407	400	396	402	411	421	417	413	406	406	407	412	417	415	410	407	403	401	402	405	407	410	410	407	406	413	413	400	397	394	398	406	409	406	403	401	401	404	405	402	400	397	395	398	401	403	402	403	402	404	403	411	410	413	412	410	411	413	413	413	407	404	404	406	408	409	404	404	404	405	406	406	403	401	400	404	404	405	403	400	399	400	399	400	400	400	398	398	399	400	398	394	391	389	396	402	404	405	405	407	407	399	397	397	401	394	396	394	399	404	406	408	408	408	406	401	401	403	405	401	398	395	396	398	400	408	412	412	409	405	398	400	405	404	401	401	397	402	399	398	397	396	390	390	388	387	391	399	403	405	404	402	400	401	403	406	408	409	401	399	399	404	403	403	398	396	396	397	401	402	401	400	401	400	400	397	396	395	397	401	405	406	405	404	402	399	394	394	394	393	391	395	394	394	396	396	397	395	394	399	398	400	396	394	395	403	402	398	394	395	396	403	406	405	405	403	411	409	405	403	404	403	402	401	401	400	403	406	402	402	400	401	401	399	398	397	400	405	409	410	409	405	400	397	397	399	394	388	387	388	391	397	390	390	391	392	394	393	391	391	395	397	394	393	389	391	389	396	398	399	396	389	385	388	395	401	397	395	397	400	393	390	390	392	393	391	389	389	391	395	395	393	392	395	391	392	392	391	391	388	380	377	385	385	387	385	381	383	388	390	390	391	393	389	387	388	389	391	390	390	393	393	392	391	394	399	399	394	393	397	399	400	396	391	391	391	395	397	397	396	398	399	401	399	395	391	393	397	400	407	408	406	399	394	394	392	393	396	396	394	390	386	392	396	397	398	400	399	397	394	387	386	385	391	397	394	391	389	390	390	395	393	392	390	389	390	393	393	392	391	391	392	393	388	386	386	388	393	392	392	387	385	387	388	388	388	387	387	393	394	393	395	394	394	394	394	394	390	389	388	387	383	385	387	388	389	389	390	392	394	396	397	394	392	392	392	394	395	395	395	393	393	393	392	392	390	388	387	388	387	388	391	393	390	386	384	387	388	389	389	392	393	389	386	394	396	395	393	0	0	0	0	0	0	0	0
425	426	421	421	416	411	415	424	424	430	430	428	426	426	427	424	418	414	409	409	409	411	414	416	417	412	412	412	415	416	417	420	420	420	420	420	418	418	415	419	420	420	420	418	414	413	414	416	413	413	414	414	416	417	417	419	422	423	418	415	414	415	417	417	420	417	414	411	409	411	410	410	410	411	413	416	416	417	414	410	409	412	412	412	411	413	414	413	418	418	416	413	415	416	415	415	416	418	417	414	411	409	408	408	409	409	410	401	401	401	403	407	407	409	411	407	407	406	408	411	404	399	397	400	403	404	403	405	409	410	410	403	402	402	408	414	413	408	408	405	401	397	401	404	406	397	410	408	407	411	412	413	415	420	421	417	415	415	417	416	415	412	411	404	400	397	392	394	405	408	410	407	403	403	404	409	415	412	407	403	398	395	395	395	401	405	403	397	401	401	402	401	397	394	394	393	391	393	393	396	401	402	400	396	395	392	391	392	395	397	398	398	398	397	398	398	399	410	408	407	401	401	401	401	399	396	397	399	401	401	396	396	397	399	403	405	406	401	398	398	398	399	394	392	394	393	395	395	397	394	392	393	395	394	393	391	390	391	392	391	390	389	391	392	388	389	391	391	389	391	392	391	395	394	398	400	404	403	400	397	395	395	399	397	393	390	389	393	392	400	406	408	406	400	397	400	399	398	395	393	390	387	390	394	393	393	393	388	385	385	389	391	398	401	399	397	392	393	394	394	394	396	401	396	394	393	391	387	387	387	393	398	397	395	393	392	386	387	394	395	395	392	396	397	402	405	402	400	398	393	393	388	390	388	387	386	386	388	392	392	393	391	395	393	394	394	391	390	393	394	394	395	398	399	396	395	396	399	401	400	394	392	396	400	400	399	393	394	396	397	394	392	393	393	397	400	401	402	398	394	397	401	406	405	405	405	400	400	397	392	388	384	380	382	387	393	388	387	387	388	389	389	390	391	392	394	392	390	385	383	388	391	390	389	390	389	384	383	389	393	387	384	393	386	388	387	389	388	388	389	385	384	388	388	384	383	384	390	388	390	391	391	382	380	380	380	382	382	385	384	380	378	381	381	385	388	392	390	388	386	387	386	386	386	387	388	386	388	391	392	383	384	387	389	392	392	391	389	389	390	389	391	390	386	385	392	390	388	389	388	387	387	390	393	392	392	389	389	392	392	396	393	388	387	380	383	389	390	393	397	396	395	393	392	392	391	388	382	383	388	384	384	384	383	383	387	387	385	382	380	381	384	385	387	390	393	394	389	388	384	384	387	389	387	383	382	382	384	385	385	384	384	386	386	386	387	390	391	391	391	391	389	388	386	385	379	379	381	383	387	389	391	390	390	389	393	392	390	390	391	393	393	393	393	392	393	394	392	390	387	384	383	383	383	382	387	388	384	383	383	383	384	384	384	384	385	386	385	384	391	389	388	0	0	0	0	0	0	0	0
419	420	418	418	415	415	418	424	424	427	427	419	422	426	426	424	419	411	407	405	405	406	408	408	411	411	411	411	412	412	413	413	413	413	415	417	418	415	412	413	416	416	416	414	412	410	410	408	410	410	410	410	407	407	411	413	414	412	411	410	411	413	416	412	412	410	408	407	407	407	408	406	406	408	410	412	414	409	406	406	405	405	406	406	404	404	398	396	398	404	403	402	403	404	405	409	411	412	411	411	409	406	398	396	395	397	399	397	397	398	400	402	402	402	403	401	401	399	397	395	394	393	395	397	396	396	396	397	398	398	395	395	394	396	399	400	402	399	393	394	397	392	397	394	392	393	393	394	397	400	404	407	402	414	401	401	398	395	396	400	409	407	405	402	402	400	397	397	400	400	401	400	400	400	402	401	405	404	397	396	397	397	395	394	396	397	391	397	401	401	398	398	397	394	391	390	390	392	394	392	392	398	397	392	390	387	385	388	390	389	389	392	391	389	394	396	397	398	394	402	400	399	397	397	396	392	390	391	392	395	392	389	390	395	402	406	406	403	399	396	394	389	387	387	387	388	387	389	391	391	390	387	392	391	389	388	389	390	390	387	386	386	386	382	382	385	387	390	391	391	391	388	387	386	393	393	398	398	395	391	388	385	387	389	390	390	385	385	387	394	388	389	389	390	390	393	387	388	388	387	384	384	385	387	389	390	391	386	382	384	382	382	384	390	389	384	386	390	392	393	390	388	391	392	387	383	387	387	392	392	392	394	398	394	391	388	382	381	382	388	395	395	394	388	388	388	392	391	389	388	386	386	385	383	381	384	384	385	387	390	390	391	392	393	394	394	393	383	381	378	377	381	385	389	389	389	392	394	392	386	385	384	382	391	393	392	389	389	392	389	389	386	383	380	380	385	387	388	391	392	393	396	395	389	392	398	386	382	382	381	374	377	375	376	383	387	387	385	384	384	388	388	386	387	383	384	382	381	379	381	384	383	384	384	386	382	379	380	381	382	388	389	390	382	386	386	386	385	384	381	384	382	384	383	383	382	383	382	388	390	380	379	379	379	378	379	378	380	381	383	382	375	380	380	377	379	385	390	393	391	387	384	386	384	383	383	383	385	382	378	378	380	380	380	380	381	384	384	384	387	390	389	387	384	382	382	380	380	382	386	386	384	386	387	388	387	386	380	384	387	386	387	385	383	374	378	384	386	387	386	385	387	388	390	391	390	383	379	377	381	380	380	381	380	378	378	378	377	375	375	378	381	385	384	386	387	387	387	386	385	384	385	387	384	381	375	375	379	383	383	382	381	381	381	381	383	385	387	388	387	387	385	385	381	377	378	377	379	381	383	388	392	389	387	387	383	381	384	388	389	391	391	390	391	391	389	387	387	387	384	379	379	379	379	379	381	373	374	380	381	383	382	382	382	381	382	382	382	382	379	379	378	0	0	0	0	0	0	0	0
413	413	413	413	410	414	418	425	425	423	414	410	418	423	423	421	417	411	404	401	401	400	397	397	396	399	399	405	407	407	409	411	412	411	411	414	415	415	413	413	412	410	410	409	408	405	407	405	406	407	406	404	404	404	406	407	408	407	408	407	408	407	407	401	401	399	402	404	405	405	403	402	402	404	403	403	400	398	400	400	400	402	402	402	400	398	394	392	391	395	396	395	394	396	398	401	404	406	399	397	394	393	393	391	394	397	399	401	400	398	398	398	394	389	386	391	390	390	391	391	391	391	391	393	392	391	389	391	394	391	388	387	391	394	395	398	396	394	389	388	386	384	385	386	390	390	390	393	395	396	396	392	398	397	391	387	384	382	379	389	397	403	404	403	400	394	393	396	395	392	391	394	395	397	395	395	393	392	392	393	395	395	394	393	390	391	392	395	399	396	394	395	392	392	391	390	391	394	393	391	391	393	394	395	391	385	380	375	370	367	367	373	378	379	380	381	386	396	393	391	394	395	394	394	391	389	385	384	385	385	383	381	383	389	393	394	389	388	389	386	382	377	379	382	383	379	379	384	391	391	389	388	390	389	389	386	388	388	389	384	380	384	384	382	381	384	385	388	388	391	388	385	384	382	381	377	374	391	388	385	381	381	383	383	388	390	391	388	388	385	387	387	384	383	383	383	384	385	386	383	381	377	377	381	385	386	388	385	378	377	375	375	377	379	379	381	384	389	393	394	384	382	377	376	378	383	387	390	393	386	387	385	387	386	386	382	379	376	377	378	384	385	383	381	381	387	389	386	376	375	377	379	382	380	377	379	378	378	376	379	384	385	387	388	380	379	379	384	383	380	375	377	382	385	385	385	388	391	384	381	376	373	373	379	383	385	384	383	388	388	385	380	378	374	377	380	381	386	390	390	390	388	385	377	377	381	378	377	377	378	376	371	369	375	378	382	380	378	375	375	380	381	374	376	378	376	374	373	370	369	369	372	379	377	377	377	376	379	382	381	385	384	373	377	383	383	383	381	379	378	377	376	374	377	376	376	379	377	381	382	380	379	378	377	376	375	377	375	374	378	381	377	377	379	379	377	379	378	378	377	380	383	384	381	378	379	380	379	381	381	377	378	379	378	377	377	377	378	381	385	388	387	386	384	380	379	379	379	377	377	381	380	381	370	375	373	374	377	383	384	384	382	380	377	371	368	375	379	376	379	381	385	386	389	389	386	377	375	376	379	376	373	373	372	373	374	373	373	373	375	380	379	379	381	381	381	381	380	381	381	380	381	382	381	374	367	367	369	372	373	374	377	378	379	378	377	378	377	377	383	377	375	373	372	372	374	378	378	381	382	382	380	379	382	380	377	378	378	382	383	386	386	385	385	385	378	379	382	382	375	371	376	378	380	379	376	372	373	375	375	380	381	381	379	378	378	377	376	370	369	369	370	0	0	0	0	0	0	0	0
400	400	401	401	403	409	415	417	409	409	399	405	414	418	418	411	412	407	400	394	394	393	390	391	393	398	402	402	403	404	407	408	404	402	402	401	409	412	413	411	410	407	407	403	401	402	400	403	404	403	404	402	402	401	402	401	400	399	398	399	400	397	396	395	395	395	396	400	402	403	399	395	395	391	391	390	393	394	392	395	396	398	399	399	399	397	392	391	390	390	391	394	392	390	393	389	391	391	390	389	391	391	392	392	391	391	394	394	397	397	395	392	388	379	378	377	382	383	385	387	386	386	375	375	379	381	385	389	391	387	385	386	389	392	394	398	396	391	387	385	383	383	381	382	385	387	388	389	386	385	385	388	389	390	387	384	381	382	380	378	382	386	393	396	393	391	393	394	391	387	385	389	390	389	385	387	389	388	389	390	393	392	389	387	388	391	392	395	395	393	390	389	389	388	387	385	386	392	390	387	385	390	393	391	385	385	383	381	378	377	375	372	374	373	371	370	373	385	387	384	381	381	376	378	388	386	382	381	380	380	379	379	381	386	384	387	387	387	387	387	386	380	378	375	374	373	374	377	382	393	392	391	391	387	384	383	384	387	385	380	379	380	383	382	379	377	383	383	377	379	382	381	379	385	382	379	374	374	375	376	372	375	373	375	376	380	385	387	382	380	382	386	384	382	381	379	380	380	376	378	376	373	373	375	377	380	384	382	375	372	370	373	375	377	375	375	377	386	392	382	377	375	373	374	373	373	374	378	382	384	383	383	381	382	382	380	373	372	375	375	378	380	381	381	380	379	375	374	374	377	376	375	375	375	378	380	384	381	375	371	377	377	379	379	378	377	377	376	382	381	378	374	376	378	379	377	382	381	380	375	371	372	372	376	379	381	381	381	381	383	384	376	375	373	377	377	379	381	383	389	384	380	373	371	370	371	372	371	373	375	374	372	370	374	377	373	370	370	366	361	361	362	366	373	375	375	372	372	369	368	367	368	368	372	374	375	375	381	380	380	376	374	373	373	378	381	381	378	376	375	375	375	376	379	377	379	375	374	377	378	380	377	376	375	372	372	375	373	370	368	376	382	378	378	376	377	378	376	376	377	380	384	380	375	372	370	371	371	373	379	377	376	377	377	375	375	375	373	376	379	384	385	382	374	375	377	376	376	372	370	359	364	364	365	367	367	371	376	377	375	375	378	376	375	372	366	364	365	374	375	377	381	385	382	372	370	366	373	374	376	373	370	368	363	365	366	367	369	372	374	376	375	372	375	376	378	375	375	376	375	376	378	375	369	367	360	359	360	363	367	372	373	375	373	370	366	360	364	370	367	366	364	365	364	366	370	377	378	380	379	378	368	368	370	378	376	374	374	374	374	374	369	378	377	372	374	375	376	372	371	370	373	374	376	379	376	372	371	366	371	376	377	377	374	372	371	369	369	368	368	368	367	0	0	0	0	0	0	0	0
387	389	390	392	392	397	398	399	395	395	395	397	404	410	410	411	403	397	392	389	389	385	386	389	394	397	400	400	399	400	402	403	403	397	397	395	400	405	407	409	406	404	404	399	399	398	395	397	396	399	400	399	399	398	396	397	397	396	392	390	392	393	392	391	391	391	393	392	394	395	397	391	387	384	386	386	388	392	391	391	392	393	396	397	397	398	394	394	392	390	389	392	390	386	388	388	384	384	385	382	384	387	388	387	387	388	390	388	389	390	388	381	379	380	379	375	373	378	381	383	383	377	373	374	375	380	383	387	386	385	383	384	387	387	388	390	388	382	381	379	378	379	378	378	382	382	383	385	384	383	384	385	388	386	381	380	380	380	383	381	383	386	389	379	389	387	389	389	386	384	384	386	386	383	377	381	383	384	383	384	391	390	384	381	386	388	388	380	378	380	381	383	383	384	383	381	379	384	382	383	383	379	377	375	380	381	380	379	379	377	374	372	374	375	380	381	376	377	377	379	379	377	372	371	374	375	378	379	378	378	376	372	370	374	379	382	383	383	382	380	381	381	380	373	369	369	372	375	380	383	381	378	373	374	374	374	374	376	377	376	375	377	380	378	377	370	364	366	368	376	377	374	376	377	375	375	375	373	374	377	380	378	377	378	376	375	376	375	377	378	378	379	382	378	376	377	375	373	371	372	370	371	372	372	373	369	367	366	366	367	369	371	373	374	373	371	374	380	377	378	375	372	371	372	373	372	373	375	378	381	380	379	379	377	378	375	372	368	369	372	373	376	378	379	377	370	373	371	371	371	370	371	372	373	377	380	382	377	372	369	368	375	379	378	375	375	375	375	372	372	372	374	376	378	380	381	378	379	378	383	384	380	379	377	376	379	378	376	372	370	378	378	375	377	376	376	377	377	375	378	374	370	365	365	364	366	365	365	366	368	370	369	368	367	364	365	367	368	367	361	360	361	364	370	372	375	375	372	366	365	365	364	364	366	371	372	366	369	379	378	370	368	366	369	371	374	367	366	368	373	373	371	375	375	375	374	374	371	371	373	375	373	372	371	369	370	370	369	366	364	367	374	376	372	371	372	376	375	373	374	374	374	374	372	370	368	368	367	368	369	377	378	378	378	375	372	371	372	373	373	369	380	375	370	374	376	374	366	362	359	359	359	361	362	363	363	367	369	368	366	363	370	372	371	369	364	359	359	368	371	373	378	379	370	365	358	365	362	367	372	372	370	363	360	363	361	363	366	370	371	372	371	368	372	374	372	367	368	372	371	371	369	366	362	359	356	357	358	361	364	367	370	367	362	358	354	357	363	365	363	360	355	356	356	360	367	370	377	378	376	369	363	359	360	363	362	361	360	358	358	358	359	360	366	370	368	365	365	369	370	373	373	371	375	376	372	367	366	366	369	372	372	373	370	368	367	367	367	367	366	365	364	0	0	0	0	0	0	0	0
383	385	385	389	389	394	397	393	390	390	389	390	390	397	402	402	385	384	383	380	379	379	380	383	387	393	395	395	397	396	397	396	393	391	391	393	394	400	403	399	399	398	397	397	396	389	390	393	396	400	396	389	389	391	391	390	389	387	388	386	386	383	382	383	389	389	390	391	391	389	389	390	388	383	385	387	385	388	390	389	389	390	393	397	399	399	395	391	387	384	384	385	386	389	391	389	389	386	380	375	376	380	382	382	382	384	385	385	383	383	382	381	379	379	382	382	375	373	375	374	377	378	376	373	372	375	379	382	382	382	380	378	375	376	378	380	380	377	372	369	369	371	374	373	378	377	378	379	381	380	381	382	382	372	373	375	377	380	383	384	386	386	385	376	384	381	378	375	374	376	378	383	385	380	378	376	375	373	373	379	379	378	376	377	377	376	377	375	372	376	379	380	380	380	380	378	376	378	378	379	378	370	368	372	377	379	377	376	375	374	371	369	370	373	376	381	382	382	373	371	376	379	373	371	369	368	371	365	377	377	372	366	365	368	373	379	379	378	373	373	374	375	374	372	371	371	370	371	369	368	368	366	367	367	368	370	369	370	370	373	373	371	369	369	369	366	364	366	367	369	373	371	371	370	370	363	360	365	370	376	381	382	378	369	370	374	373	374	376	375	374	372	372	374	371	371	368	368	370	366	367	369	370	369	365	367	364	366	366	367	370	375	372	368	368	367	368	370	372	375	374	372	369	371	372	371	371	374	374	376	377	377	376	375	372	371	368	365	368	367	371	372	374	377	375	369	372	369	369	369	369	369	371	369	368	365	361	356	366	367	369	372	377	375	372	373	377	373	370	370	371	373	374	367	368	371	370	369	369	373	380	381	378	375	375	378	379	376	372	369	368	370	375	374	371	364	365	364	367	367	366	364	362	359	352	351	354	362	363	364	365	364	366	367	365	366	366	366	364	361	361	361	362	367	370	374	375	371	362	360	359	360	362	364	366	364	362	356	363	363	364	362	360	361	365	364	363	363	365	367	370	363	365	372	373	371	371	365	364	364	364	365	366	365	366	367	370	368	363	363	363	369	372	368	368	366	364	366	367	368	369	369	366	365	365	365	365	364	362	369	372	375	375	369	363	361	364	367	368	370	367	366	368	361	362	364	366	363	362	361	359	359	359	358	360	363	366	367	367	365	361	364	366	365	363	360	359	360	363	364	368	372	364	363	356	356	358	355	358	366	363	362	354	353	355	356	358	363	368	368	367	362	366	370	371	362	364	366	368	370	369	366	364	359	356	350	354	357	360	363	364	362	356	351	348	348	355	359	361	359	355	354	354	356	356	355	360	363	364	363	359	353	352	355	356	356	357	357	356	356	356	356	355	356	356	363	366	364	361	366	372	369	367	368	367	360	359	360	362	362	364	364	362	363	364	364	364	364	363	360	357	355	0	0	0	0	0	0	0	0
378	379	382	388	388	391	388	383	383	383	381	380	382	388	390	390	379	381	379	380	376	376	376	378	384	389	391	391	393	394	392	391	394	395	394	394	386	385	386	389	390	387	388	388	389	383	384	389	392	391	388	385	385	385	382	380	381	383	384	384	385	384	382	383	386	386	388	388	386	386	388	387	387	389	389	389	395	398	395	391	388	387	389	393	393	393	390	381	380	379	381	382	384	388	385	382	375	376	377	378	378	379	378	379	379	380	379	380	380	382	382	381	381	379	377	382	379	374	371	372	373	375	377	375	374	373	374	377	380	379	376	375	372	368	369	377	380	381	374	372	369	370	366	368	372	371	372	374	374	375	373	368	364	365	368	370	373	378	381	385	384	382	383	381	377	372	372	370	373	376	375	367	367	365	372	370	370	369	370	371	373	372	375	376	375	373	373	371	368	369	372	371	371	372	376	375	373	367	367	372	369	368	368	368	374	378	376	374	374	371	368	367	361	363	372	373	370	366	361	363	362	369	368	367	365	364	365	365	364	362	365	362	362	364	369	372	371	371	366	360	359	361	365	367	368	367	364	363	363	364	366	366	364	367	368	368	367	368	369	364	358	355	353	354	359	360	364	364	365	366	368	369	368	367	359	357	359	361	365	368	369	370	363	362	364	364	372	372	374	370	368	367	366	367	367	366	365	361	356	357	361	366	366	364	365	361	363	363	363	367	368	370	367	366	365	366	366	367	370	373	373	370	367	368	370	370	369	369	371	371	372	371	367	366	366	368	366	365	366	366	367	366	367	374	372	367	369	370	368	367	367	371	371	368	365	364	362	357	362	365	367	369	371	373	370	374	374	371	367	366	368	369	365	362	366	365	369	366	369	371	373	373	372	370	371	371	378	375	371	367	365	362	361	363	364	362	361	362	362	365	365	363	362	361	358	357	358	359	361	362	360	363	365	364	360	359	364	366	364	364	362	361	360	363	368	372	369	362	357	354	356	357	358	363	363	362	355	353	355	357	358	359	358	361	363	360	359	364	362	355	355	358	360	361	364	365	365	360	358	358	358	359	359	360	358	358	359	359	359	360	360	362	363	363	362	362	362	363	366	366	365	363	361	359	359	360	361	360	358	363	364	366	365	362	358	356	357	360	367	368	364	362	360	363	362	361	362	362	363	364	361	358	355	355	358	361	363	365	361	360	360	359	361	361	360	358	359	361	362	363	363	361	358	356	355	353	352	352	352	353	350	350	351	354	355	353	355	360	361	360	357	360	365	367	359	361	360	362	361	359	358	364	361	354	351	351	347	352	357	359	360	357	352	349	345	345	351	351	353	355	350	351	350	352	356	359	356	357	356	355	351	348	346	351	351	349	347	347	347	350	352	351	351	351	353	356	357	358	357	355	356	357	357	357	359	354	353	353	352	355	358	358	362	362	361	361	361	360	360	360	359	357	0	0	0	0	0	0	0	0
374	376	377	384	384	382	378	378	378	378	377	378	380	381	379	379	374	376	377	379	374	374	375	376	377	379	380	381	381	386	386	388	389	389	380	380	382	383	381	379	378	378	381	381	377	376	376	377	380	381	378	377	377	377	377	382	384	383	382	381	381	381	380	379	379	383	383	383	382	383	381	382	382	387	391	396	396	392	388	384	381	381	384	388	383	380	371	366	366	367	375	374	374	373	375	372	372	372	374	375	376	377	377	378	376	374	373	374	375	378	382	380	374	367	368	371	374	372	370	369	369	368	370	371	372	371	374	375	378	378	376	370	362	363	365	370	370	370	375	372	369	360	356	355	356	359	364	366	368	370	369	366	365	363	363	365	368	371	376	375	377	377	375	371	368	367	370	369	369	373	371	365	362	360	360	362	363	367	369	370	372	373	375	375	374	371	372	371	367	365	368	368	369	370	372	374	365	363	360	358	359	363	366	365	363	371	369	365	360	359	356	354	357	360	363	363	361	359	353	352	362	365	367	364	360	362	364	363	362	361	360	359	360	362	365	366	368	366	362	357	354	356	358	362	364	364	363	361	363	363	364	363	363	365	366	365	362	362	360	357	354	352	352	357	359	358	358	363	363	364	361	355	356	355	356	358	357	359	363	366	363	361	359	360	361	362	358	358	358	357	353	358	358	360	364	369	370	368	367	361	363	367	368	366	362	363	365	370	371	371	363	358	357	365	366	365	364	365	367	369	368	365	363	365	367	368	368	367	368	369	367	361	357	353	355	360	357	358	360	361	361	361	361	358	358	362	362	363	363	365	367	372	374	370	364	365	364	359	360	364	365	365	365	356	358	362	368	368	364	362	363	363	363	360	361	361	362	363	365	366	367	368	367	367	364	366	368	373	371	359	357	357	356	355	360	362	360	359	360	362	364	363	362	359	358	355	355	355	356	360	358	356	364	362	359	357	356	359	360	362	363	366	366	365	366	362	360	357	356	355	353	353	354	356	357	356	353	350	353	354	354	356	355	359	358	358	349	344	342	348	350	354	356	358	361	362	361	357	357	355	356	354	355	354	351	351	352	354	357	357	355	354	357	357	355	356	358	359	363	362	360	359	357	355	355	356	356	357	359	362	364	364	362	359	354	352	353	352	353	352	353	353	352	357	357	357	359	360	360	359	357	354	351	351	352	355	358	355	356	347	352	355	358	359	353	355	357	360	359	356	355	356	354	354	354	352	349	347	347	351	350	349	350	351	354	350	350	352	356	357	357	359	360	355	357	356	357	358	357	357	353	352	351	350	350	350	351	351	354	355	356	353	349	345	343	343	345	345	343	340	342	344	345	349	353	357	354	351	351	349	349	346	343	346	347	345	343	345	345	346	346	348	348	350	351	353	352	353	351	352	350	350	352	352	349	347	348	350	351	352	352	354	353	352	353	355	356	358	358	358	356	351	0	0	0	0	0	0	0	0
369	370	373	374	374	370	372	374	375	376	376	378	379	377	375	375	371	376	376	375	371	371	371	369	371	370	373	373	373	372	376	378	378	376	376	376	379	382	381	377	375	375	377	377	368	365	365	369	371	372	372	372	373	373	375	379	379	379	381	381	379	380	380	377	375	371	371	369	369	372	376	377	379	382	386	379	376	379	380	379	371	371	374	375	373	372	372	370	368	369	368	368	369	369	370	369	370	371	372	372	372	373	374	373	372	370	368	367	369	372	371	367	363	365	365	367	370	370	367	365	364	364	363	366	366	365	369	372	375	376	373	365	360	360	361	362	365	365	365	362	360	357	355	354	354	353	362	363	364	366	366	364	363	360	360	361	364	366	364	365	366	364	363	363	364	366	365	365	366	366	365	362	361	359	360	358	360	360	367	366	366	370	373	371	368	367	366	371	368	358	359	359	359	360	363	365	364	362	359	357	357	355	358	359	358	357	355	351	353	353	354	353	355	358	361	362	360	356	352	352	355	362	362	354	356	360	361	361	361	361	359	357	357	359	360	364	364	362	358	356	354	353	352	358	361	362	361	360	363	363	361	360	361	363	362	361	357	355	353	352	350	350	352	357	359	357	354	356	361	361	355	348	348	350	351	357	356	357	358	361	359	358	358	358	358	359	360	354	351	353	351	352	352	354	369	370	367	365	366	367	366	363	361	361	360	363	356	357	356	356	357	356	354	358	357	358	357	360	363	362	360	358	358	364	366	364	364	363	360	361	360	358	354	352	352	356	357	357	358	360	361	361	358	356	356	358	358	359	351	352	353	364	365	364	361	360	360	360	364	362	362	357	352	351	352	355	360	366	362	360	360	362	362	357	358	360	361	363	361	363	364	363	362	360	359	361	354	356	357	356	355	351	350	350	354	356	357	357	359	361	362	356	352	344	348	349	349	352	360	356	349	349	359	359	347	347	348	355	358	359	361	366	364	358	357	355	354	355	355	351	351	349	348	345	347	348	345	347	352	352	353	353	353	354	344	346	343	340	335	336	340	345	349	352	353	354	349	347	347	349	354	356	356	360	355	351	348	351	350	352	352	350	349	355	354	353	355	354	358	359	357	355	354	353	353	356	356	353	358	361	363	361	360	356	354	349	349	348	348	349	348	348	350	350	349	350	351	353	356	354	350	347	346	345	347	348	349	348	346	344	343	350	348	349	349	351	355	356	354	350	348	350	349	349	350	349	347	346	345	348	349	348	347	348	347	346	347	348	350	355	361	358	356	353	353	355	356	357	355	352	349	345	346	346	348	347	351	350	350	349	349	349	345	342	342	342	342	342	339	339	340	342	343	344	351	353	351	348	346	344	342	341	342	340	341	341	341	341	343	343	343	345	349	350	349	344	342	345	344	346	345	347	347	345	348	348	346	345	346	349	349	350	351	349	349	348	352	352	353	352	350	344	0	0	0	0	0	0	0	0
367	366	366	363	364	364	367	369	369	372	372	374	374	374	372	372	369	373	373	372	370	367	367	363	363	363	363	364	364	368	370	371	373	373	373	373	378	378	376	373	371	370	369	364	364	365	368	370	371	368	367	367	365	364	364	364	365	366	369	370	363	362	360	356	355	359	359	363	366	369	372	376	377	377	375	373	373	371	370	366	367	369	371	372	371	370	368	368	368	369	369	366	366	368	367	368	369	369	370	368	368	367	370	367	367	364	361	363	365	365	364	363	364	363	364	366	367	367	366	364	362	362	362	362	362	364	365	367	367	362	359	359	358	358	354	352	353	356	359	360	358	353	352	354	353	351	351	359	360	359	358	356	358	358	358	361	364	363	362	360	353	349	351	353	357	359	359	360	361	361	359	359	359	358	355	358	358	355	356	352	352	353	355	357	365	364	362	358	355	357	357	358	358	360	361	361	361	361	360	357	355	354	355	358	359	356	351	348	348	348	350	349	353	356	359	362	359	355	354	352	355	351	351	351	353	359	360	359	360	359	357	355	354	354	356	357	358	357	356	356	354	352	351	356	357	358	358	358	360	358	359	359	359	359	358	358	353	348	345	341	342	345	349	349	353	353	351	352	353	354	348	345	347	349	351	357	356	355	351	353	353	354	353	349	350	349	351	347	349	350	349	349	350	350	351	352	357	356	362	357	357	355	354	351	351	351	356	355	354	355	356	356	354	352	353	355	357	358	362	359	358	357	358	358	357	353	347	347	355	357	357	354	352	349	352	355	356	353	354	358	358	357	357	357	357	356	346	345	345	346	346	346	347	347	350	349	352	358	364	364	358	351	351	348	346	345	345	349	356	356	354	352	353	356	357	355	354	353	350	350	353	358	349	349	349	349	347	348	350	354	354	349	347	350	351	351	352	354	352	352	351	349	348	348	344	345	347	348	354	345	344	343	343	345	345	345	348	353	357	356	353	354	351	350	347	352	350	348	345	345	346	345	344	344	344	345	343	344	349	351	351	347	345	342	338	338	339	335	333	333	336	338	340	344	349	349	343	341	344	346	346	350	352	348	351	346	340	341	340	340	338	347	346	344	342	343	346	346	348	350	351	352	345	350	349	349	347	353	357	360	360	360	345	346	350	348	348	347	347	347	345	345	345	345	341	342	344	345	346	346	344	345	345	340	341	341	342	343	343	343	341	343	349	343	342	344	349	351	350	347	345	346	345	346	346	346	341	340	341	341	345	345	344	344	341	342	345	346	343	345	347	347	344	342	341	341	349	351	350	344	344	343	343	345	344	344	344	344	344	342	340	340	337	339	340	341	343	341	340	339	338	340	337	340	345	348	347	346	345	344	342	338	339	339	337	339	339	342	342	340	341	344	345	345	344	341	340	337	335	337	340	336	339	343	349	347	343	341	341	344	344	348	349	354	349	347	348	347	348	347	343	341	0	0	0	0	0	0	0	0
363	364	361	358	358	358	362	364	365	365	365	366	368	367	367	369	364	366	368	366	361	359	359	358	358	357	358	360	360	363	364	364	365	365	369	371	371	372	372	369	367	366	366	360	360	363	366	368	365	365	363	363	362	362	362	363	364	365	366	365	363	361	358	353	351	355	360	360	362	362	365	374	375	372	369	362	359	359	358	359	362	361	362	361	361	360	361	361	362	366	363	358	357	357	354	355	354	354	352	356	356	353	355	362	359	357	358	361	361	363	363	363	362	362	364	362	362	364	365	362	361	361	360	359	358	358	359	358	352	352	353	356	357	356	354	353	355	356	352	349	349	350	351	351	352	350	349	352	355	355	352	352	352	355	357	361	364	362	358	352	347	345	344	346	344	349	350	350	354	357	358	356	357	353	355	352	352	352	351	349	350	351	351	351	353	353	354	352	352	356	357	357	358	360	359	358	357	357	359	358	356	353	355	355	357	354	347	345	344	346	348	349	350	354	357	356	354	356	355	355	356	352	351	351	353	355	357	357	357	356	354	352	350	350	350	352	355	349	348	353	354	352	350	351	355	355	354	353	353	351	351	352	355	356	356	353	349	336	336	337	339	343	347	347	344	343	348	348	349	349	347	346	346	347	349	354	354	347	347	343	346	348	346	345	345	343	343	343	344	343	344	344	345	345	344	346	345	349	348	349	348	349	350	348	350	351	353	354	350	353	355	355	356	355	353	354	353	356	354	357	355	355	356	356	350	348	345	346	348	351	352	349	346	348	349	352	347	346	349	353	354	355	349	346	343	343	343	341	344	346	346	341	339	340	344	346	348	352	351	351	352	351	351	348	344	342	344	344	347	351	351	349	350	351	353	354	353	351	347	346	349	348	347	344	344	344	345	346	346	347	348	350	348	346	349	347	348	348	344	351	350	348	348	347	345	344	344	343	341	342	340	341	343	344	341	346	347	346	347	346	348	346	346	347	346	345	345	343	343	340	339	339	339	341	343	344	344	344	347	349	344	343	343	343	340	340	340	340	334	333	334	336	339	340	347	342	340	341	342	342	341	339	339	344	341	334	336	337	338	338	336	337	338	339	339	341	341	343	345	347	348	347	347	336	343	342	343	351	343	345	345	345	344	344	344	348	347	347	346	340	339	336	338	338	334	335	337	339	341	342	344	344	343	341	335	335	339	338	338	340	339	339	334	336	337	339	339	338	345	344	343	342	344	345	345	341	340	339	337	337	339	342	340	337	336	337	338	341	341	342	342	341	339	337	331	332	333	341	340	340	342	343	342	342	343	341	339	340	342	338	337	333	331	336	339	341	344	343	341	340	336	333	336	337	340	341	343	343	343	342	340	337	337	339	339	341	341	339	340	341	341	341	341	336	334	335	338	337	335	333	332	334	336	338	346	345	339	336	338	338	340	345	341	343	339	346	345	344	341	347	343	340	340	0	0	0	0	0	0	0
352	356	354	353	355	355	359	360	361	358	358	357	356	357	360	364	357	359	359	358	356	354	354	353	354	355	354	355	357	357	358	358	358	358	360	362	362	365	365	364	361	359	360	356	356	362	363	363	362	359	359	360	359	361	361	361	363	363	364	364	363	359	356	354	357	357	358	358	359	360	360	364	373	370	362	357	358	359	359	359	355	353	356	356	356	355	354	355	355	356	357	356	354	354	354	352	348	345	345	347	348	349	347	352	353	343	343	348	354	359	361	361	362	360	359	355	356	356	359	360	359	360	360	354	351	349	349	352	351	351	351	352	354	354	352	352	356	355	350	346	344	345	347	349	348	347	346	348	349	350	350	349	352	352	352	352	354	355	354	349	346	345	343	343	343	345	346	348	350	351	350	351	353	348	348	350	345	345	346	344	345	347	347	344	345	344	347	347	346	346	354	356	356	357	358	355	353	354	356	356	354	350	351	353	353	351	344	342	341	342	344	348	349	346	346	347	352	355	354	354	353	350	350	350	350	351	354	355	354	352	350	350	347	346	347	349	349	346	346	347	347	348	348	346	351	352	350	347	347	347	346	345	343	344	347	345	338	337	336	335	337	341	342	346	344	343	343	343	345	347	348	348	349	346	348	348	347	341	342	344	346	347	348	348	340	340	342	344	343	338	335	335	336	340	342	341	342	336	336	342	342	342	342	345	343	341	343	341	338	345	346	347	349	351	351	350	347	345	343	350	352	352	350	349	348	344	342	344	345	346	347	346	345	348	350	350	349	345	346	348	346	349	348	347	344	343	341	344	344	344	344	343	341	340	338	338	340	345	350	351	351	352	353	350	344	340	343	345	343	343	349	349	352	352	350	350	349	349	347	344	345	344	342	343	341	338	341	346	346	344	341	340	342	341	341	344	342	341	338	338	340	344	343	342	343	344	340	338	338	336	337	340	341	341	339	340	344	344	343	344	345	344	342	342	342	344	342	338	338	337	335	335	336	338	338	340	340	331	333	335	337	338	338	338	338	335	333	334	331	332	333	337	338	339	342	340	340	338	340	340	338	335	335	334	335	330	331	336	336	333	334	335	337	337	338	340	342	342	343	344	344	342	340	332	332	336	331	342	343	345	345	340	335	335	337	334	334	335	334	333	329	329	331	330	330	330	331	336	338	339	337	336	333	327	325	325	323	329	335	338	335	332	332	333	333	332	332	332	336	336	334	338	341	340	337	336	334	335	335	332	335	333	336	336	335	335	336	337	339	339	338	336	333	329	328	330	331	333	335	335	337	335	336	338	339	337	335	338	339	336	335	333	333	334	340	343	341	337	333	329	329	331	334	335	338	340	342	341	341	338	337	332	332	331	331	331	335	337	339	340	341	336	335	331	330	325	330	334	335	331	331	329	329	331	337	336	335	334	334	334	336	340	338	336	332	336	338	340	339	336	337	336	336	0	0	0	0	0	0	0
349	350	349	350	353	353	355	357	355	355	351	351	347	349	355	357	346	349	351	352	352	352	352	351	348	350	350	351	352	352	351	351	351	352	355	355	355	359	361	359	356	354	352	354	357	357	358	357	353	352	354	355	354	352	352	352	354	356	359	359	356	351	349	351	354	358	357	357	357	359	358	358	359	359	356	357	357	357	359	351	351	351	353	354	356	356	355	354	350	350	349	343	343	345	348	351	351	349	346	345	343	343	345	343	341	343	345	346	349	354	354	354	354	352	350	349	351	351	351	351	347	347	346	345	345	346	347	347	348	348	349	351	350	350	349	348	350	348	347	344	343	342	344	344	343	342	345	346	347	347	346	346	346	347	347	340	340	339	344	350	348	346	344	344	345	346	346	346	346	346	345	346	347	344	343	342	341	344	343	344	344	344	343	340	341	341	344	345	346	345	348	346	343	346	348	348	348	348	347	347	352	348	347	345	346	345	342	339	340	342	342	339	338	339	341	341	345	345	348	349	350	349	340	346	346	344	345	352	352	349	346	345	345	345	347	346	346	345	345	344	345	345	340	339	340	344	344	343	342	342	342	340	339	339	339	338	338	338	337	334	334	338	340	343	345	344	341	340	338	340	334	335	335	337	343	343	341	339	338	339	342	348	344	340	336	338	340	342	339	334	334	336	338	338	340	341	339	333	330	331	336	338	339	340	338	335	332	334	333	340	342	345	347	347	346	346	338	335	336	337	340	343	344	344	342	335	333	335	342	344	344	343	339	339	342	342	336	335	336	341	342	343	342	343	344	344	342	341	339	340	342	343	346	347	342	340	339	340	342	340	347	351	353	348	338	336	337	342	340	337	338	346	349	349	346	347	348	347	346	343	344	342	338	336	333	337	342	342	341	338	338	336	334	337	338	340	340	338	336	336	338	338	336	334	338	341	340	337	334	332	333	335	337	339	334	337	340	342	338	338	337	338	337	338	338	331	329	330	332	332	332	333	332	335	338	335	333	330	330	332	331	332	332	332	331	331	332	332	333	334	333	335	337	335	337	339	337	336	336	337	334	332	329	325	325	327	329	330	330	330	330	333	337	336	335	335	338	340	338	337	334	334	333	331	324	324	336	334	336	336	336	336	330	325	327	330	332	332	332	330	329	328	328	331	330	328	329	331	335	336	332	330	327	323	321	322	323	325	328	330	330	328	330	330	331	329	329	330	332	335	333	332	335	335	332	332	331	330	325	323	327	332	334	333	332	332	332	333	334	334	334	332	329	325	325	327	329	330	332	333	332	331	330	330	332	334	335	335	335	336	335	332	328	328	331	331	329	326	322	320	322	323	328	331	332	337	340	338	333	331	330	328	328	327	327	328	329	332	334	336	338	332	331	329	326	325	325	327	329	329	328	326	324	323	331	333	333	332	332	332	330	336	335	334	326	329	336	337	337	334	332	331	331	0	0	0	0	0	0	0
347	347	346	346	347	347	351	353	350	352	345	345	342	345	347	346	339	340	345	346	347	347	345	345	343	344	347	348	348	348	348	348	346	345	348	352	356	356	357	355	351	351	348	351	353	353	351	349	346	346	347	351	351	349	346	346	348	351	352	352	347	347	348	351	353	356	356	354	354	354	356	353	351	350	350	351	352	349	347	345	345	344	346	348	351	351	350	350	351	351	349	347	341	341	341	342	341	346	345	343	342	342	342	343	343	344	344	344	346	347	347	347	347	346	345	345	345	346	346	344	344	344	343	344	344	345	345	343	343	345	349	349	348	345	343	343	346	346	347	343	340	338	337	336	338	340	342	345	347	346	345	340	339	340	341	342	342	341	341	341	348	342	344	344	338	332	331	337	338	342	341	340	342	341	341	342	343	341	342	343	343	341	338	338	341	343	344	346	346	344	339	333	336	338	338	345	346	347	346	346	346	345	343	342	339	338	335	337	339	342	339	338	337	337	337	336	336	338	340	342	344	333	333	330	334	336	340	340	337	338	339	333	336	343	344	339	339	341	342	343	343	342	341	339	337	336	338	337	336	337	340	339	337	338	339	338	341	337	334	331	330	336	339	339	340	339	337	335	335	335	332	331	330	333	339	339	337	335	335	337	340	342	342	335	333	332	336	338	335	330	331	335	335	338	338	338	336	337	332	332	334	335	335	337	337	334	331	331	333	337	330	330	330	325	323	322	326	335	336	339	341	338	337	339	340	337	337	337	337	337	338	339	340	340	340	339	337	338	338	332	333	337	342	342	341	341	343	338	338	339	339	341	347	348	342	341	339	336	333	329	330	334	337	335	333	330	329	332	331	331	331	342	346	347	346	346	344	342	341	338	337	340	337	332	330	326	332	334	334	333	335	335	331	325	325	329	330	337	334	333	331	331	333	333	333	339	337	335	330	328	331	334	334	334	332	336	339	337	336	334	334	335	335	335	333	324	324	329	334	331	330	331	333	331	333	330	326	326	329	328	330	330	330	329	329	328	327	327	327	328	328	328	324	329	328	328	330	330	330	329	333	330	325	323	323	326	327	330	329	329	330	336	336	334	332	332	332	336	333	332	329	329	329	325	324	326	330	334	334	335	335	336	329	323	324	326	329	329	327	329	327	326	327	331	330	328	330	336	336	333	328	325	323	323	319	319	321	320	321	326	327	324	324	324	323	325	325	327	328	329	329	330	329	329	320	323	324	322	323	326	328	332	332	331	329	328	329	329	331	332	334	330	325	323	324	325	327	328	330	328	328	328	328	328	327	327	333	334	337	335	333	332	328	326	327	325	321	321	321	319	319	324	325	329	331	330	329	328	325	325	324	324	325	325	329	331	328	328	325	324	325	327	327	326	324	325	325	326	327	328	329	327	323	323	322	322	332	327	327	327	327	326	329	323	322	326	328	330	330	329	328	328	325	0	0	0	0	0	0	0
346	346	342	342	341	346	346	347	347	345	338	338	334	338	339	339	335	335	338	339	337	336	334	334	334	337	337	336	339	339	343	343	342	342	346	349	351	351	348	347	347	347	345	347	348	348	348	346	341	340	341	344	348	348	344	344	343	344	345	347	346	346	347	349	352	353	354	352	352	350	347	344	343	342	342	345	338	339	335	332	332	332	336	340	345	347	348	348	349	347	347	346	345	342	340	341	341	339	340	339	339	339	340	341	342	342	342	342	341	343	341	341	342	343	344	344	342	341	342	343	345	343	341	340	342	345	344	343	340	337	334	343	347	342	341	339	339	337	338	339	337	334	334	335	337	339	343	346	344	342	341	337	335	335	343	341	340	336	337	337	338	339	340	340	336	332	329	332	336	339	339	336	332	331	331	332	333	335	336	339	337	335	334	337	339	342	345	343	340	339	338	332	333	335	335	334	335	339	344	343	341	341	340	337	335	334	334	335	339	341	341	339	337	334	333	332	329	329	333	335	335	331	329	326	326	332	336	336	336	338	338	336	329	327	328	331	333	335	338	340	339	339	339	337	335	336	335	332	330	334	337	338	338	340	334	331	335	340	332	328	327	336	337	338	337	337	336	333	332	327	327	327	326	325	327	333	329	329	332	332	335	339	329	330	332	330	329	327	325	325	326	333	333	334	332	338	335	335	333	332	333	333	333	334	334	331	329	330	329	331	329	330	330	327	320	321	325	331	339	339	337	331	334	335	336	338	338	337	335	336	336	337	337	337	338	339	336	336	337	332	333	336	340	338	338	340	342	336	337	333	333	335	337	337	338	339	326	324	323	325	327	332	334	334	332	327	326	325	327	327	326	334	334	333	331	330	329	326	329	335	338	334	333	333	323	328	331	332	330	328	329	329	325	325	326	329	325	323	321	319	317	319	326	325	326	328	328	326	325	324	331	334	334	334	333	329	336	334	330	326	330	330	331	330	329	326	326	330	335	333	331	328	325	327	331	327	324	325	327	321	325	326	327	326	326	322	324	325	325	325	325	323	321	319	322	323	326	327	327	322	321	320	322	323	323	328	328	332	328	327	327	327	325	322	322	324	323	322	324	318	321	324	323	320	325	324	323	325	327	329	330	333	329	325	321	322	323	321	321	323	327	327	331	331	330	328	331	335	336	331	324	321	319	322	320	317	316	315	316	319	320	318	319	318	318	321	323	324	326	327	326	324	324	318	316	316	320	319	318	319	319	325	324	327	327	326	325	326	328	329	326	324	322	321	321	321	322	323	319	318	321	322	322	324	325	323	324	326	327	326	326	328	327	321	319	317	319	321	323	324	321	320	320	321	328	327	323	321	321	322	321	322	322	324	329	328	326	325	323	319	317	319	320	319	323	325	324	324	325	326	327	325	322	321	321	321	320	324	324	323	324	323	323	322	321	323	324	327	326	325	320	320	319	0	0	0	0	0	0	0
338	338	333	332	335	341	341	338	335	336	339	339	338	336	334	334	329	329	332	332	332	332	332	332	332	334	335	335	334	335	335	341	340	340	344	344	342	342	338	339	341	343	340	343	347	346	346	346	341	338	337	341	345	345	339	336	336	335	334	334	336	336	335	338	340	340	338	338	337	337	338	337	338	336	335	340	337	335	329	327	330	331	335	338	340	342	345	348	347	344	344	344	341	339	337	337	338	336	334	335	335	335	329	330	329	333	333	334	338	339	338	336	341	342	344	338	338	339	342	344	341	336	334	335	336	331	328	328	329	329	333	333	333	338	338	328	327	326	329	331	334	333	333	333	334	336	346	346	342	341	336	333	332	331	335	338	332	331	334	337	338	337	336	332	330	328	327	328	335	337	337	334	330	331	324	322	323	331	332	332	333	331	331	333	337	341	341	337	336	338	338	335	333	333	332	328	328	332	332	332	331	333	337	334	331	329	331	334	340	339	339	337	335	331	329	327	324	324	330	331	332	329	330	329	328	326	329	332	334	335	336	330	329	326	325	327	328	330	333	337	337	331	329	326	325	331	329	327	327	329	326	330	332	334	331	331	327	333	328	321	330	334	334	335	336	334	332	329	325	325	324	325	321	321	323	327	326	325	325	327	329	326	327	331	331	330	331	327	324	322	329	330	329	325	327	323	323	323	324	327	329	326	326	323	325	325	321	323	322	319	319	321	323	324	323	321	321	332	336	333	335	334	330	330	331	330	331	333	329	328	328	329	330	332	333	330	327	330	332	331	330	332	332	326	330	335	336	333	328	325	326	327	328	327	328	327	325	322	322	324	328	330	331	332	328	323	323	323	324	325	323	323	321	324	324	324	321	322	325	326	332	332	333	326	323	326	330	330	328	325	324	324	327	327	329	327	323	321	318	315	314	315	317	325	326	327	328	325	324	329	332	333	334	332	330	329	335	333	329	324	322	322	323	324	326	326	326	328	328	331	327	327	325	329	326	324	321	318	316	318	321	320	319	324	319	317	317	320	321	323	321	321	319	315	317	320	324	326	324	321	321	319	318	318	318	321	328	328	323	323	323	323	324	322	320	322	318	314	313	314	316	320	321	319	317	321	322	322	319	315	323	325	326	323	318	319	319	317	317	320	321	319	321	329	328	326	330	334	335	329	323	320	320	322	322	315	315	313	312	312	314	315	315	315	315	316	319	321	323	323	322	323	323	320	316	318	318	314	316	314	314	313	318	321	325	324	323	322	321	325	324	323	319	319	320	321	321	318	314	314	319	319	317	316	317	317	318	318	316	316	324	323	320	316	313	310	310	315	318	320	317	310	309	309	310	317	319	320	320	324	319	320	320	321	324	323	318	317	320	318	316	314	317	319	319	318	321	322	322	321	318	321	317	316	316	316	315	315	320	319	320	319	322	321	321	321	321	324	325	322	319	319	316	0	0	0	0	0	0	0
333	333	331	330	332	329	329	329	332	335	336	337	337	336	333	330	329	331	331	332	332	330	330	330	329	330	331	331	330	332	332	335	337	344	344	341	339	339	338	337	333	335	333	335	341	344	344	342	332	329	326	328	334	341	337	336	336	337	339	339	338	331	331	332	332	327	322	324	325	325	327	334	338	340	340	339	337	331	326	325	328	331	333	331	332	336	336	334	332	331	335	335	335	332	332	334	336	334	333	331	331	329	329	332	332	337	338	336	333	329	328	331	336	337	340	338	335	332	331	330	329	330	333	334	333	331	330	327	327	326	324	320	322	325	326	324	324	323	326	322	320	318	319	322	328	342	335	337	329	328	330	330	328	326	326	329	330	331	334	336	338	336	333	330	326	325	323	325	327	335	334	330	331	332	322	322	320	318	327	329	333	332	329	327	327	332	330	330	331	330	333	333	332	332	325	326	327	328	330	330	327	325	322	321	322	323	323	322	325	326	330	331	329	329	329	325	324	324	326	331	328	333	331	332	329	325	330	330	331	328	327	327	326	324	322	323	326	328	331	331	327	322	320	312	314	318	327	324	327	327	325	323	323	324	326	323	321	322	324	324	329	329	323	324	329	331	334	329	324	321	322	322	323	320	322	324	323	318	319	320	321	322	321	322	319	320	321	329	325	324	325	327	327	321	318	316	320	322	324	323	322	322	324	317	318	318	321	319	317	318	319	322	323	322	322	320	317	319	328	323	323	324	325	325	325	323	324	325	324	324	324	324	328	328	328	330	326	322	319	317	325	324	323	323	327	327	327	325	322	320	318	316	317	318	319	319	319	318	319	322	327	327	327	326	323	320	322	321	320	320	318	315	316	320	321	321	320	318	319	324	328	330	328	325	323	326	327	329	327	323	323	324	325	329	328	328	324	317	316	312	312	315	316	323	326	327	324	319	324	325	326	329	329	329	326	325	325	328	326	323	321	321	321	322	324	326	323	323	324	326	325	324	321	322	321	319	318	316	316	319	315	313	312	312	311	313	315	315	318	316	318	320	317	314	314	318	318	319	319	318	320	319	318	317	321	325	326	323	319	317	321	322	322	323	318	316	313	312	312	312	313	317	319	318	317	315	316	314	313	318	320	321	319	316	315	318	317	318	317	318	318	317	321	323	325	325	330	323	320	317	316	315	315	310	310	309	308	309	309	314	320	319	317	315	313	317	318	318	314	321	320	321	323	325	322	317	315	314	315	312	309	310	315	316	322	322	321	314	315	317	318	321	319	318	318	318	318	317	315	312	311	313	314	313	312	314	312	309	307	309	318	319	318	317	313	310	306	306	308	315	315	313	314	313	315	314	316	317	317	316	314	314	314	316	314	312	314	315	316	316	311	314	313	317	317	316	316	320	319	320	319	315	313	312	312	312	311	311	311	317	317	318	317	315	314	315	317	320	319	313	313	312	312	0	0	0	0	0	0	0
328	328	328	325	318	320	320	324	329	334	333	332	332	334	333	331	331	331	328	328	328	327	328	328	328	327	326	327	327	332	332	335	339	341	342	340	340	339	339	336	332	327	324	323	326	331	331	338	329	326	326	328	330	325	327	328	328	329	331	332	334	328	330	330	328	325	323	323	326	326	327	332	334	331	329	329	328	324	324	325	326	326	327	328	328	330	331	331	329	326	325	329	329	329	330	331	331	331	329	328	328	329	330	331	336	334	335	335	328	325	324	324	331	339	339	336	333	327	327	327	325	326	330	333	332	332	331	329	326	322	320	319	319	319	321	321	320	321	321	322	321	319	319	322	324	331	329	321	320	319	319	323	324	323	324	331	330	333	334	335	334	332	331	328	322	322	322	322	320	320	326	330	323	322	321	319	316	317	317	319	321	324	325	325	324	323	322	323	324	323	325	325	323	322	322	323	324	326	324	324	325	322	321	322	325	325	322	320	319	319	318	324	326	324	322	323	321	321	323	326	331	332	331	331	329	320	324	326	327	326	324	323	323	323	324	325	324	323	321	324	322	316	315	315	315	317	317	314	316	314	317	322	320	318	320	323	327	327	323	318	319	320	320	320	320	324	327	331	321	317	319	322	326	327	325	322	320	318	316	317	319	319	318	318	313	312	313	313	317	320	323	325	324	320	316	317	316	314	313	319	319	320	319	322	311	313	318	315	314	315	319	324	321	321	321	320	313	314	317	319	320	320	321	320	316	317	318	319	317	320	321	321	322	323	324	321	319	315	315	314	313	313	315	318	321	318	320	316	316	315	312	307	305	304	310	312	315	318	319	320	320	321	318	315	312	311	312	313	314	315	316	314	312	318	318	319	318	317	317	317	318	321	317	316	320	319	324	326	324	321	322	323	327	323	317	318	316	313	313	311	311	313	314	319	326	326	324	316	321	322	319	320	324	325	323	321	321	324	325	321	318	319	320	318	320	319	318	317	317	318	324	322	321	321	318	314	316	318	316	312	311	311	312	312	310	308	310	314	311	312	314	315	315	312	311	313	317	319	319	317	317	318	318	319	321	323	322	320	319	317	317	314	315	311	320	313	311	308	307	308	310	313	315	316	315	313	313	312	314	317	319	319	317	316	314	315	315	314	314	313	312	311	314	314	314	313	314	315	312	309	309	310	312	312	308	308	307	307	317	315	314	313	313	313	313	312	309	312	317	313	316	314	316	315	310	308	307	305	316	314	316	316	308	307	310	312	311	310	309	310	313	313	316	315	313	314	314	314	314	311	311	311	311	311	312	313	311	310	307	307	311	316	315	314	312	308	306	306	307	312	313	314	316	318	320	314	313	315	312	311	311	311	311	313	311	311	311	312	311	308	308	313	314	313	316	315	314	312	312	314	307	308	309	310	311	309	309	308	306	307	314	311	311	312	314	313	313	312	312	311	311	310	309	0	0	0	0	0	0	0
322	319	319	317	315	318	324	324	328	330	329	329	329	330	331	331	331	323	323	327	328	331	334	334	334	333	331	331	328	336	338	338	337	333	332	340	339	329	329	327	331	319	320	322	325	328	332	332	334	331	329	328	325	321	321	321	322	322	322	324	325	326	329	328	328	331	330	330	332	332	332	330	329	330	328	325	329	328	324	324	325	325	323	324	326	328	328	328	326	323	321	325	325	327	327	328	328	324	325	323	324	327	326	327	328	330	332	330	324	323	321	323	324	328	331	330	321	321	323	323	322	323	325	330	330	327	325	326	325	324	320	319	318	317	316	316	320	321	321	327	326	325	324	321	320	321	322	320	320	320	321	321	321	320	322	329	334	335	335	328	323	322	323	322	322	323	322	320	317	315	319	320	318	318	318	313	315	316	317	317	318	320	322	321	323	323	320	321	322	320	322	321	316	316	316	315	310	311	314	318	319	319	315	314	318	318	319	316	313	317	317	327	319	317	317	313	315	316	318	319	320	327	332	329	317	317	319	322	324	322	319	321	322	323	324	324	321	318	312	313	315	320	320	318	318	315	313	312	313	313	313	316	316	316	318	317	318	316	314	313	312	313	317	317	312	318	322	321	319	317	313	315	318	322	318	318	319	320	322	321	322	322	320	317	310	310	309	310	310	315	320	320	318	316	315	315	315	312	312	316	318	318	318	318	318	315	315	314	314	313	315	316	314	317	317	317	317	317	316	317	317	318	316	315	313	313	314	316	315	314	312	312	311	310	313	316	315	310	312	311	312	311	310	311	312	317	314	314	314	312	310	308	309	310	311	312	314	316	315	309	316	313	313	311	309	308	303	305	306	313	311	310	310	311	317	315	314	313	315	316	313	310	308	308	312	315	321	324	321	316	312	310	307	309	311	314	315	312	310	307	311	312	312	316	321	323	321	312	314	313	314	318	321	321	321	319	319	319	320	318	318	314	314	314	314	314	314	314	314	314	316	315	312	312	312	309	307	306	309	309	308	309	311	312	311	310	309	311	311	311	311	312	312	311	310	310	310	310	311	311	311	311	313	313	310	310	309	311	308	308	305	310	311	311	309	311	314	299	299	300	302	307	307	308	308	309	316	316	316	317	319	316	316	316	315	312	314	314	312	311	310	309	311	311	311	312	311	310	310	309	308	309	315	316	311	306	305	305	318	318	317	314	314	314	315	310	309	310	312	315	316	314	313	311	310	309	308	306	308	307	305	305	303	301	307	308	308	306	307	304	303	304	303	303	303	303	303	304	305	312	310	309	304	304	306	310	309	307	307	307	308	310	312	312	310	305	306	308	307	310	313	319	321	315	315	308	309	308	308	308	306	308	308	307	309	309	309	309	304	306	311	312	313	312	312	311	310	307	306	302	306	308	304	307	311	309	309	307	304	299	307	307	307	308	310	311	311	310	310	311	311	310	308	0	0	0	0	0	0	0
317	313	313	312	312	315	319	319	325	326	328	327	327	323	325	327	325	321	321	321	325	327	332	331	331	330	327	327	321	325	327	327	327	326	326	323	320	320	320	319	319	320	322	324	324	329	333	333	332	331	328	325	323	321	320	320	320	320	321	322	323	324	327	327	327	331	329	328	330	329	329	330	323	326	323	322	324	325	326	323	321	320	321	322	325	326	326	326	317	315	317	320	325	325	325	320	319	322	322	320	320	321	324	324	326	327	328	325	319	320	320	320	322	323	325	318	313	314	316	321	322	319	318	320	321	319	319	317	318	320	322	319	312	311	311	311	313	317	323	326	329	326	321	321	319	318	319	315	317	318	317	318	317	317	315	318	319	321	319	316	313	314	316	316	316	319	321	320	319	318	317	317	317	316	319	316	316	316	315	315	316	318	319	322	322	320	320	322	322	319	319	316	314	312	312	307	307	311	316	319	320	313	316	317	317	317	312	312	312	315	315	315	313	313	317	321	317	319	317	315	312	313	316	319	319	319	317	319	313	314	314	316	317	317	318	318	316	315	313	315	317	316	317	313	313	310	310	309	313	313	312	312	312	312	313	314	313	311	309	309	310	312	315	319	312	314	317	318	317	311	309	311	317	321	313	311	309	310	309	309	316	316	314	310	309	308	309	309	309	312	314	317	315	313	312	310	310	311	314	316	317	315	316	316	318	315	314	313	313	311	311	313	311	312	314	313	312	308	308	307	309	314	314	314	311	310	311	315	314	314	313	310	309	303	305	307	308	310	315	313	313	310	308	307	312	311	310	312	311	311	311	311	310	311	311	312	313	314	307	305	304	310	307	309	308	307	304	306	309	310	309	308	308	308	307	307	307	310	308	305	306	307	308	307	309	312	319	314	312	306	302	302	304	307	310	312	314	313	308	308	308	310	312	313	313	311	311	313	313	312	311	315	314	316	316	316	315	313	307	308	311	311	313	312	311	310	310	309	310	311	313	314	309	310	308	308	307	307	308	306	306	308	310	312	312	312	311	307	307	306	307	308	312	310	309	309	310	306	308	311	311	310	311	311	310	310	309	307	306	305	306	307	310	308	306	308	310	302	298	298	299	302	306	306	307	307	304	313	314	316	319	314	312	311	310	310	309	310	309	309	308	307	310	307	308	308	308	309	309	309	310	312	305	310	307	303	305	306	310	311	314	316	314	311	311	309	309	309	310	312	310	303	305	308	309	306	301	304	302	302	301	301	300	301	303	304	304	303	301	299	299	300	300	300	300	302	303	304	303	303	304	304	303	305	308	308	302	305	304	305	306	305	308	308	302	303	304	306	304	304	302	306	310	312	302	299	299	299	299	304	303	304	305	302	300	305	305	307	306	308	311	311	310	308	309	307	302	299	291	287	293	298	309	304	308	308	310	306	300	297	296	303	304	305	308	308	307	305	306	306	305	306	306	0	0	0	0	0	0	0
314	311	311	307	308	314	319	319	317	314	314	317	323	323	324	323	321	319	319	319	321	324	327	325	325	321	319	318	319	320	322	322	324	321	319	319	319	316	316	316	319	318	322	324	322	323	323	323	322	322	324	323	321	319	320	318	318	318	319	319	321	321	323	325	324	324	324	324	325	322	322	322	320	323	322	321	321	321	323	322	320	317	318	320	322	323	323	317	315	313	313	316	313	310	310	308	314	318	319	316	318	317	318	322	323	320	320	321	320	319	319	319	318	316	309	309	309	313	316	319	317	318	322	320	319	317	313	314	314	317	318	316	316	313	311	310	312	314	319	321	322	318	313	314	314	312	313	314	315	316	316	316	314	313	313	312	311	311	311	311	315	317	314	314	314	313	311	307	303	302	310	316	317	317	318	312	315	315	314	315	316	318	316	320	320	321	321	322	323	319	318	314	311	311	309	306	311	312	314	317	310	310	313	315	315	311	313	312	312	316	316	313	310	307	313	321	321	319	316	313	312	313	313	315	314	311	313	315	308	310	310	305	307	305	307	309	310	311	311	309	309	311	315	312	310	311	310	309	309	309	311	309	309	309	310	310	305	306	310	306	305	306	307	310	311	312	311	311	308	306	308	310	312	312	310	309	310	309	309	309	308	310	309	308	306	307	309	309	309	308	310	313	314	311	304	302	306	311	313	315	314	314	314	315	313	314	314	311	307	308	312	305	307	308	310	306	309	307	305	306	305	306	308	308	305	305	306	305	303	311	311	311	307	303	301	304	305	304	312	312	307	308	306	308	304	306	311	311	308	306	308	309	309	310	309	310	311	305	305	301	299	304	305	304	305	305	304	308	309	310	309	307	307	305	305	304	304	306	308	305	301	306	309	309	310	308	311	312	309	305	302	302	302	305	310	312	313	311	307	304	304	305	305	311	309	309	312	315	316	308	305	307	308	313	309	307	301	300	303	306	307	309	308	306	306	306	307	307	308	309	311	313	309	308	309	308	307	305	305	304	306	307	311	311	312	312	310	307	305	301	301	306	309	307	307	307	306	303	303	308	310	310	310	308	305	304	306	303	301	303	306	308	308	311	313	311	309	302	299	298	298	298	302	307	308	307	303	303	310	313	316	312	308	306	307	308	306	307	306	304	303	305	304	302	305	307	309	308	307	308	309	305	306	308	306	302	303	304	307	307	308	312	311	309	308	306	306	305	305	303	301	302	303	303	302	300	298	300	301	301	299	298	298	295	297	299	298	299	298	297	299	298	298	298	300	302	301	300	298	296	295	296	295	294	296	297	297	297	300	302	304	302	297	295	294	295	300	302	302	301	303	301	301	298	296	295	295	295	295	298	300	300	296	295	297	296	297	300	302	303	302	304	308	304	300	299	298	290	280	282	285	298	302	301	303	303	303	297	296	295	294	295	301	302	304	304	302	301	303	303	304	306	305	0	0	0	0	0	0	0
313	308	308	307	315	319	318	318	316	312	314	316	320	320	322	319	319	310	313	313	317	321	323	323	321	321	318	314	316	316	320	320	321	317	318	318	318	316	317	317	316	316	318	319	320	320	320	320	320	323	323	322	319	319	318	316	315	315	315	317	321	321	322	323	321	323	325	324	324	322	316	316	314	311	311	310	308	306	305	314	317	317	313	315	319	321	316	316	315	312	311	316	313	309	303	303	306	314	316	313	314	314	318	319	317	318	315	315	316	317	310	314	315	317	314	310	309	309	312	312	312	312	319	324	323	320	311	310	312	311	311	312	314	315	314	310	311	312	315	314	314	310	309	309	308	308	310	310	312	313	314	315	314	312	311	310	309	308	308	307	311	312	313	312	311	312	310	305	301	299	299	307	315	317	318	312	312	313	315	314	313	312	307	305	305	305	308	315	319	319	312	310	310	310	310	311	312	312	313	306	307	307	306	306	311	310	307	307	311	312	315	313	309	306	305	307	314	315	314	313	311	313	311	311	311	311	310	310	309	310	308	305	303	303	306	306	306	308	306	306	305	306	312	311	308	307	306	306	305	306	306	305	305	305	302	299	303	305	309	305	303	303	305	307	308	307	306	306	304	303	306	308	307	309	308	309	309	309	308	308	307	307	305	305	305	307	309	309	308	305	303	305	307	303	300	303	305	306	309	311	314	311	311	304	305	310	309	310	308	309	310	304	304	302	305	305	306	304	303	306	305	304	301	300	301	303	305	304	302	304	309	309	307	304	300	302	300	301	301	303	302	304	304	306	306	304	301	303	303	306	302	302	300	298	300	300	300	301	304	303	300	300	305	306	306	308	308	308	303	304	305	307	305	304	302	301	301	305	306	306	304	301	307	308	306	303	301	308	306	305	301	301	301	305	306	311	309	308	306	306	306	304	303	302	303	307	307	306	304	303	303	301	301	301	302	299	297	298	301	305	306	308	309	307	306	303	299	298	296	296	298	305	309	309	309	310	303	301	300	302	302	303	304	302	303	309	308	305	300	299	302	306	309	306	305	303	303	301	298	298	300	300	301	305	304	298	297	299	299	302	303	307	309	310	317	309	307	304	299	298	297	296	297	300	307	304	303	303	303	310	309	303	300	298	296	299	303	300	301	296	296	297	301	302	301	303	304	304	306	305	303	302	301	301	300	298	299	300	304	304	300	297	298	296	295	294	295	298	301	299	301	302	299	299	298	296	296	295	300	299	297	297	297	293	293	296	295	295	297	297	297	296	293	295	298	300	300	297	296	295	294	293	293	295	295	296	297	295	297	301	298	301	297	297	294	298	298	299	301	301	302	300	299	298	298	294	292	291	292	293	293	297	297	293	293	294	294	293	295	298	300	301	301	297	294	293	291	287	284	287	288	290	297	298	299	299	299	298	297	297	294	296	298	299	299	299	296	296	296	299	300	303	301	0	0	0	0	0	0	0
311	304	307	307	309	312	311	311	311	307	306	302	303	303	305	310	311	307	310	310	313	316	320	319	319	319	316	313	313	314	316	316	316	315	316	317	317	319	318	318	318	318	318	318	317	316	316	317	317	320	321	317	319	321	321	319	316	310	310	315	319	320	318	318	317	320	320	316	317	310	310	305	305	305	307	307	307	305	302	304	313	312	310	310	311	313	316	311	313	312	312	310	308	305	305	307	307	311	309	309	309	311	311	312	312	312	313	309	311	312	312	317	319	313	311	311	310	310	314	312	309	306	308	313	310	310	309	309	309	309	308	309	313	313	314	310	311	313	310	308	307	306	307	307	307	306	304	303	307	309	311	313	312	311	310	308	306	306	305	308	309	311	310	306	304	310	311	310	306	299	299	300	303	314	315	312	312	312	310	312	307	306	305	303	302	302	306	308	309	306	305	305	304	309	310	311	310	310	310	308	304	305	303	304	304	306	305	305	304	308	307	305	308	306	305	303	302	304	304	307	306	310	308	308	311	309	310	311	310	309	305	301	302	302	303	304	304	305	306	303	301	300	301	304	305	305	304	305	305	302	302	301	298	298	297	297	299	305	306	300	301	302	302	306	307	304	301	298	297	298	304	304	304	304	306	308	307	307	302	301	303	303	302	303	302	303	305	306	304	301	295	296	297	298	304	302	302	302	302	300	299	301	300	303	303	300	306	304	304	305	307	304	301	299	299	302	303	300	300	301	304	304	301	299	299	300	302	305	303	306	307	307	306	302	300	300	304	296	295	296	298	301	303	305	306	300	301	302	304	306	306	301	300	299	299	298	298	297	301	305	300	298	302	303	302	298	299	302	302	303	303	302	301	300	300	298	298	301	304	305	303	301	300	301	304	299	298	296	298	300	301	301	301	304	305	306	307	301	303	304	304	306	307	304	301	299	296	295	296	299	299	297	296	299	295	296	297	298	301	303	304	305	306	307	307	305	304	298	296	294	298	300	298	298	301	302	301	299	298	298	298	301	299	299	301	303	300	298	298	299	303	304	308	310	310	303	301	299	297	295	295	297	299	297	295	294	294	295	296	302	302	302	303	309	308	313	303	301	299	296	296	296	295	297	298	296	295	294	294	300	300	297	293	290	292	294	295	299	299	293	293	299	300	300	299	298	300	302	304	302	299	300	300	301	301	295	291	290	296	296	293	294	297	295	288	289	290	291	295	296	299	298	298	296	296	295	294	295	296	294	297	292	288	285	284	289	293	295	294	295	297	296	293	295	293	289	291	295	295	294	290	287	285	292	295	296	296	295	291	297	295	301	299	295	292	293	291	292	300	300	298	295	295	295	296	296	296	291	292	294	294	295	294	293	291	292	292	293	295	297	297	298	295	291	289	289	289	288	287	287	288	288	286	287	287	291	295	294	292	292	293	293	297	300	299	295	294	293	293	294	296	297	295	0	0	0	0	0	0	0
309	302	302	302	304	303	308	308	308	305	303	301	301	301	303	306	305	307	307	307	309	312	314	315	314	314	314	312	310	313	314	312	312	313	315	315	317	319	319	318	316	316	317	316	316	314	313	311	311	312	313	313	317	318	319	313	305	305	305	305	307	310	310	311	314	308	310	312	312	304	302	302	302	302	304	304	306	304	305	304	310	309	308	306	302	304	308	311	312	310	310	309	308	304	301	303	303	305	307	308	309	312	309	307	306	306	308	308	311	311	314	317	316	314	310	308	310	309	313	310	307	304	304	304	307	305	303	300	299	301	301	300	299	300	303	306	308	307	309	307	302	303	303	306	304	301	301	301	300	298	302	304	306	311	310	309	305	305	303	303	306	306	304	302	302	307	309	310	308	302	300	299	300	300	306	303	300	301	301	305	308	306	304	301	300	300	301	305	305	303	300	301	301	306	310	309	309	306	307	305	300	300	299	302	302	300	301	299	299	297	300	298	299	300	306	304	302	298	292	294	301	305	307	307	307	307	309	312	312	308	302	300	300	300	301	302	300	299	297	298	296	298	298	297	302	305	303	305	301	298	299	297	295	296	294	296	298	299	302	300	300	299	300	303	304	300	295	293	293	296	299	299	298	299	300	301	302	298	297	297	298	300	299	299	298	302	303	301	301	298	296	296	295	302	302	299	299	300	300	299	299	300	298	298	298	297	293	294	300	303	301	300	299	298	299	300	298	299	300	301	304	305	304	298	300	300	300	300	300	300	298	295	293	298	299	301	303	294	294	295	296	301	303	304	304	300	301	301	301	302	300	300	300	297	298	298	296	296	301	301	299	298	297	298	298	298	299	301	302	302	302	299	298	299	299	297	295	297	298	304	302	299	297	293	292	295	295	296	298	300	302	301	301	302	304	304	304	301	301	299	301	301	301	304	300	301	301	303	299	297	295	297	293	296	298	295	292	294	297	298	296	295	297	303	303	307	305	300	296	292	300	296	297	298	298	300	298	297	295	298	297	296	295	292	293	299	301	293	296	295	302	304	304	306	303	303	298	295	296	295	297	297	297	294	292	291	292	292	295	297	300	300	301	305	305	301	299	297	295	295	294	294	296	297	297	296	293	291	289	288	288	290	288	288	289	291	292	295	290	289	299	298	299	298	296	298	295	301	302	301	298	298	298	301	297	289	288	289	290	292	292	296	296	294	289	290	291	293	294	294	296	295	295	293	291	293	290	292	291	289	290	290	287	285	284	287	286	285	286	288	291	288	287	287	288	289	289	289	291	292	289	285	283	292	294	295	294	292	289	296	293	291	291	288	289	290	291	287	287	287	286	292	291	290	292	292	294	295	294	293	292	292	293	290	289	289	289	292	293	294	293	290	287	287	286	287	288	288	286	287	287	286	285	282	282	282	287	289	289	291	293	293	293	298	297	293	290	288	288	292	294	295	294	0	0	0	0	0	0	0
308	304	298	298	301	302	306	309	309	304	304	304	304	303	303	304	304	306	307	307	306	307	307	307	308	309	309	310	311	312	312	311	311	309	311	312	314	316	316	316	312	313	314	313	313	312	309	308	308	308	308	311	311	312	314	305	303	302	302	302	303	304	305	305	305	305	307	306	302	302	301	300	300	301	303	304	304	304	306	306	308	306	304	303	303	304	306	309	308	307	308	309	307	304	301	301	303	303	303	306	308	311	308	305	302	303	303	308	310	311	312	314	314	306	304	308	308	309	308	308	302	302	302	303	301	305	304	302	302	298	296	294	299	297	297	299	300	299	297	297	296	299	304	303	300	298	299	299	299	296	297	300	304	308	309	310	304	302	302	302	302	301	299	297	298	301	305	308	307	301	298	298	298	298	299	300	298	299	301	304	307	305	303	301	300	300	301	302	302	300	301	300	299	305	308	310	307	304	300	297	297	297	295	295	296	298	298	299	294	293	294	293	303	304	306	305	303	301	298	300	300	298	297	294	302	299	299	305	307	301	300	298	297	298	298	296	294	293	295	297	294	296	294	300	300	303	300	291	291	294	296	295	293	292	293	294	292	293	296	298	298	297	296	295	295	293	299	297	294	295	296	299	292	292	291	292	296	293	294	294	294	297	300	301	301	298	299	296	299	295	294	292	296	298	298	298	298	298	299	299	300	296	292	294	294	292	293	296	300	299	298	298	295	299	299	299	297	298	299	302	304	305	303	299	298	296	296	295	298	298	296	294	293	292	299	299	298	293	292	290	290	292	294	297	298	296	296	298	297	298	297	298	298	298	298	299	298	295	296	299	298	297	297	297	298	297	296	299	299	302	298	297	297	294	292	292	291	292	296	300	297	294	287	289	295	295	293	295	298	297	297	299	299	300	302	302	300	299	298	297	296	298	295	296	296	292	294	297	296	295	288	293	293	297	299	295	293	293	296	297	294	292	291	294	298	296	296	292	290	292	292	297	295	294	298	296	294	292	292	292	296	292	290	289	290	294	299	302	291	292	296	299	300	301	296	295	291	289	290	292	294	295	294	292	289	286	289	289	295	294	293	298	300	301	300	298	293	290	288	287	288	293	294	296	298	295	291	290	286	286	288	288	287	288	287	289	291	288	289	289	292	291	290	289	292	293	290	291	295	299	298	296	294	296	293	291	288	288	289	293	292	294	294	293	290	289	289	289	289	292	290	291	291	291	289	288	289	290	288	289	290	289	289	289	286	285	285	287	285	286	290	290	286	283	284	285	287	286	284	284	287	286	285	285	285	291	291	288	287	285	283	281	280	282	282	285	289	286	279	277	284	285	289	285	291	292	292	292	296	294	286	290	289	286	287	287	289	289	291	291	287	284	282	282	284	285	287	286	284	286	287	286	284	284	280	280	281	283	286	289	290	289	291	289	291	286	285	285	287	288	286	282	280	0	0	0	0	0	0	0
305	300	299	299	296	299	302	305	308	308	305	304	304	304	304	305	305	306	305	303	303	297	296	298	298	303	303	306	309	311	310	307	308	308	308	310	311	313	313	312	309	309	310	310	309	309	304	304	303	303	304	304	306	308	308	306	300	300	301	301	301	301	301	300	299	298	300	302	302	301	300	299	300	300	302	302	302	304	304	307	305	306	304	301	299	299	300	303	303	302	303	306	306	304	304	300	299	301	301	302	301	298	299	300	300	301	300	302	306	307	307	306	305	304	304	305	303	303	303	298	298	300	299	298	297	301	302	302	299	297	295	293	293	295	296	295	294	295	293	292	293	295	294	293	293	296	297	298	296	293	294	297	301	304	304	304	300	298	298	298	297	295	295	292	291	294	299	300	301	299	298	297	295	296	297	297	298	298	301	303	304	303	302	295	294	293	293	299	302	303	300	297	296	298	304	304	304	296	295	294	290	290	292	293	295	299	299	295	290	291	291	299	302	307	305	296	294	292	296	298	297	292	289	288	290	291	292	297	301	301	299	298	297	297	296	294	294	290	287	292	291	292	292	293	290	290	293	294	293	292	292	294	292	289	289	290	289	290	291	291	292	292	293	292	288	296	297	297	296	294	293	293	293	294	294	294	293	288	290	291	293	297	301	302	301	298	297	295	294	295	292	290	293	298	297	296	296	295	295	299	297	292	291	289	291	291	292	294	297	295	296	295	292	294	299	298	297	296	296	297	298	298	296	294	294	293	291	292	293	294	294	293	293	292	293	293	290	289	291	287	286	289	293	294	293	292	293	293	292	294	294	296	297	296	296	295	296	296	295	290	289	297	297	296	297	296	297	298	299	298	297	296	296	299	299	297	291	291	292	295	293	287	286	289	291	292	293	292	292	292	293	296	296	294	295	295	293	292	290	292	293	292	291	291	294	291	294	294	294	293	289	291	292	289	297	297	294	290	290	294	293	291	287	287	289	290	289	288	289	291	291	292	294	294	289	290	290	288	288	288	288	291	291	290	287	289	292	297	290	291	289	293	294	295	295	295	289	287	288	290	291	291	290	286	285	284	287	291	289	288	288	288	291	287	285	285	285	288	291	292	289	288	288	288	287	286	290	286	285	288	289	289	284	282	285	285	290	292	292	290	289	288	288	284	289	291	290	289	292	297	295	294	290	286	287	291	291	290	288	287	287	287	288	293	288	288	286	286	286	288	288	288	288	288	286	286	287	286	286	286	287	286	285	283	282	282	285	286	286	286	288	289	287	284	281	281	281	282	283	280	286	287	287	286	286	286	285	285	285	283	283	281	281	283	283	283	283	284	281	279	280	282	287	288	285	286	286	291	289	292	289	283	287	286	285	282	282	287	287	287	284	279	279	281	282	284	285	284	283	285	285	280	278	278	279	276	279	280	280	281	280	284	284	282	285	282	284	284	285	285	282	280	276	0	0	0	0	0	0	0
301	300	296	294	294	296	298	304	305	305	302	300	300	301	301	303	304	306	301	292	292	292	293	295	297	303	303	303	300	298	301	305	306	306	306	306	309	307	308	309	290	290	292	297	303	302	302	300	300	300	301	303	304	305	300	303	298	298	299	301	301	301	301	299	297	297	298	295	296	296	296	296	299	299	301	301	302	302	301	300	302	302	301	300	300	298	298	298	298	298	298	303	300	302	301	302	298	299	302	302	300	296	294	295	294	297	300	299	301	303	304	304	304	297	300	299	299	297	297	293	295	296	294	294	292	295	300	299	295	293	293	291	291	291	295	294	291	291	292	294	295	294	291	290	291	292	294	295	292	292	292	293	295	295	291	292	296	296	296	296	296	295	295	294	292	294	295	294	291	291	290	295	294	294	295	296	292	291	291	291	292	291	293	293	292	291	296	298	297	299	302	298	295	294	300	300	297	298	298	299	298	293	292	294	295	298	295	291	289	289	291	294	299	301	298	293	289	290	289	290	291	291	289	287	289	290	292	291	289	298	299	299	298	296	295	294	292	288	287	288	290	291	292	291	290	289	291	292	294	293	293	295	294	289	288	286	286	289	287	289	290	290	290	287	294	295	297	297	295	292	289	292	293	292	294	294	294	287	288	290	292	295	302	302	300	297	295	291	292	293	292	287	293	292	292	293	295	294	294	298	294	290	289	289	290	291	291	290	292	292	293	291	292	291	293	298	296	292	290	290	296	294	295	294	293	291	290	290	291	290	293	292	294	294	294	289	287	285	284	288	288	288	290	289	289	290	291	289	290	291	295	294	294	294	291	293	294	295	290	289	288	289	296	296	292	292	294	294	297	295	296	292	292	296	297	296	295	290	291	291	290	285	285	288	291	291	289	289	292	293	293	292	292	290	290	291	290	283	286	285	287	291	292	287	288	289	288	294	290	287	287	287	288	293	293	293	293	290	284	283	288	290	289	287	287	289	288	284	290	289	290	289	289	291	291	287	284	284	286	286	287	291	295	294	288	288	287	290	287	286	289	290	290	293	292	293	287	284	284	285	287	288	285	281	284	285	288	291	289	287	288	287	287	282	284	284	285	288	290	290	288	287	286	286	286	286	283	283	282	282	286	287	283	282	282	282	285	287	286	285	281	282	284	284	285	288	291	287	287	288	292	292	285	282	281	282	290	288	283	284	287	281	284	284	286	285	285	285	285	286	288	287	283	281	281	284	282	282	283	284	285	284	281	281	279	279	280	283	284	283	285	287	285	284	284	282	281	279	280	277	277	281	282	283	283	282	279	278	279	282	283	283	281	281	283	282	281	279	277	277	276	281	283	284	285	284	283	285	287	286	286	288	282	279	282	281	281	282	283	282	281	281	281	284	287	288	284	283	281	281	278	277	277	275	272	273	273	276	279	275	277	277	279	278	279	281	281	283	283	282	272	275	276	0	0	0	0	0	0	0
289	291	292	293	293	291	292	292	295	295	295	296	295	298	298	299	300	302	291	291	291	291	290	293	295	299	299	298	297	297	297	304	302	302	302	302	300	298	295	292	289	289	290	295	301	301	295	297	297	299	299	298	296	294	298	298	298	297	297	301	301	302	301	299	298	298	296	291	292	294	295	295	298	298	298	296	294	298	297	294	293	293	294	294	297	298	299	298	293	292	297	298	299	292	290	294	299	300	300	300	300	295	290	291	292	295	296	297	296	294	291	292	292	292	295	296	294	291	291	291	293	291	294	290	287	289	293	292	292	291	290	288	287	289	289	287	289	291	294	296	296	294	290	286	287	289	293	290	290	290	290	289	291	290	290	293	292	293	292	292	288	287	291	295	294	294	292	291	289	289	289	291	289	292	292	292	284	285	282	289	291	290	290	291	292	293	294	295	294	291	289	289	291	294	301	298	289	292	292	289	289	290	290	289	290	296	297	295	292	288	286	286	291	292	287	286	287	287	288	289	289	289	285	286	287	292	291	290	289	287	285	284	290	286	289	289	289	287	285	287	287	287	288	289	289	290	291	292	292	294	295	292	291	288	284	283	285	285	287	289	289	290	292	289	289	289	294	294	292	288	288	289	292	293	292	292	293	284	282	281	287	285	288	289	291	289	289	288	289	288	288	288	288	290	291	292	292	293	294	294	291	287	289	290	290	292	291	287	288	289	289	288	286	290	293	294	291	288	287	287	287	291	293	289	293	291	291	290	292	291	289	293	293	296	292	289	287	287	289	290	290	289	289	288	288	288	289	289	289	292	291	291	291	289	287	288	287	288	287	287	286	288	289	291	293	296	298	299	294	293	292	289	291	291	290	288	291	295	295	292	287	285	283	284	287	289	287	287	287	287	288	289	290	288	280	281	282	283	286	285	287	288	282	284	284	284	285	284	285	284	284	284	287	292	292	292	290	287	283	283	283	286	287	286	286	286	283	282	290	286	287	288	288	286	284	284	285	284	282	284	290	290	288	287	285	284	282	281	282	283	286	288	288	290	288	288	284	281	281	280	282	281	279	278	282	282	288	281	278	277	280	281	284	282	282	282	284	285	286	287	287	285	286	285	286	285	283	283	283	282	283	285	283	281	283	284	284	281	281	280	280	282	284	284	284	285	287	287	284	281	280	281	279	279	279	278	281	281	279	279	278	278	280	282	284	283	283	283	284	285	286	282	281	279	276	278	282	279	279	281	281	278	279	277	278	278	282	283	283	283	283	283	283	284	284	281	278	277	278	274	275	276	274	276	277	278	276	278	279	281	283	283	281	279	278	273	273	274	275	275	276	277	278	279	279	284	277	277	282	283	282	283	281	280	280	280	278	278	278	279	281	279	280	281	280	280	278	282	281	280	277	275	275	271	269	270	270	270	276	274	274	275	276	275	277	281	281	279	274	271	270	271	281	0	0	0	0	0	0	0
288	288	286	287	287	289	290	291	289	289	286	285	287	291	296	296	295	297	291	289	288	288	288	287	291	293	291	291	293	294	296	295	296	299	299	299	297	292	291	289	287	287	289	290	289	286	281	287	288	291	291	293	292	288	284	286	289	291	294	296	299	299	299	298	295	291	287	288	291	292	296	297	297	295	295	295	292	289	292	288	288	287	291	292	294	296	296	298	294	293	292	291	293	290	286	286	286	291	296	298	295	295	293	289	288	292	294	290	289	290	289	289	288	288	290	292	290	288	288	288	288	286	286	285	286	286	289	291	290	288	285	283	284	286	287	288	288	289	292	296	295	293	289	284	283	285	287	285	289	290	290	290	290	290	290	291	290	290	289	288	286	287	289	293	293	293	292	290	288	286	289	290	289	287	286	286	283	284	284	283	292	290	288	287	285	286	289	285	286	287	286	286	290	292	290	288	289	293	280	290	287	287	287	283	281	287	289	288	285	285	285	287	289	290	286	285	285	285	287	287	288	285	285	285	284	286	290	290	289	286	285	282	280	280	281	283	283	284	286	287	287	287	286	290	291	294	290	288	289	292	293	293	290	289	284	282	282	284	285	287	286	288	287	287	287	286	287	286	284	286	287	287	286	290	290	290	282	274	279	286	286	287	285	288	288	285	284	286	287	287	289	287	288	289	291	291	291	292	291	290	287	287	287	292	290	291	287	287	287	288	281	281	282	281	284	291	288	286	283	282	283	285	286	289	288	285	286	291	289	287	285	283	281	287	286	291	290	290	291	292	291	286	283	281	284	286	289	290	290	291	286	289	284	284	286	286	286	286	288	284	283	283	283	284	292	294	295	296	296	292	287	286	286	286	286	279	289	289	289	289	288	286	282	281	279	279	281	281	280	280	283	280	279	279	278	280	280	282	283	284	285	286	280	280	281	279	280	283	283	282	282	284	289	292	291	291	286	283	279	279	280	280	281	282	281	281	281	281	286	285	284	284	284	281	282	283	284	284	284	284	286	287	287	286	286	285	284	284	282	283	285	280	283	286	283	281	280	278	275	275	275	277	277	276	280	279	279	280	278	276	275	275	279	283	282	283	284	283	285	287	285	276	274	283	284	285	285	283	282	279	280	283	283	279	282	284	284	282	280	279	280	281	282	284	283	283	284	283	278	276	277	276	276	277	275	275	277	278	277	277	275	276	277	279	279	278	279	281	284	285	281	281	279	278	278	277	277	278	277	277	280	277	277	278	277	279	280	282	281	281	280	281	281	282	282	275	276	275	271	271	271	271	272	272	273	276	277	277	277	273	274	275	274	274	272	272	272	272	272	274	277	275	275	275	275	272	272	272	274	278	279	280	280	279	280	279	278	274	274	275	276	279	275	276	278	278	278	277	277	275	273	273	270	269	268	267	268	268	269	273	273	273	273	274	275	276	279	276	271	268	267	266	277	0	0	0	0	0	0	0
288	285	280	284	287	287	291	291	289	286	286	284	286	290	293	293	292	289	289	284	285	285	285	283	283	286	286	286	288	289	289	287	288	290	290	294	291	287	286	287	289	290	290	284	282	278	281	287	290	292	292	284	284	284	285	286	288	291	293	293	296	296	296	294	290	288	284	284	288	291	295	297	295	291	288	288	288	286	286	287	285	287	287	292	293	293	296	289	289	291	290	288	290	289	285	285	285	287	292	295	294	290	285	285	283	284	285	289	289	289	287	286	290	289	282	284	284	287	289	290	286	284	283	283	284	283	283	289	288	285	283	282	282	284	288	288	289	289	290	291	291	291	287	282	284	286	287	287	286	285	290	292	290	288	289	291	290	288	286	285	284	284	288	291	291	291	289	289	288	286	285	287	286	284	283	283	278	283	284	284	285	289	287	286	282	281	283	284	287	288	289	291	292	291	288	284	281	280	280	284	284	285	283	282	280	277	279	281	282	282	284	286	287	286	285	285	283	285	286	286	283	282	284	283	281	285	287	287	287	284	281	276	278	280	280	279	280	280	281	282	282	285	286	288	291	291	284	281	283	286	290	290	286	282	280	277	279	281	282	282	285	284	287	285	284	283	286	286	284	285	284	285	284	284	283	278	278	278	278	284	287	288	284	285	287	288	287	286	288	289	288	287	286	284	287	288	289	290	290	289	286	284	283	284	286	286	287	284	287	286	280	279	280	279	278	281	285	281	281	279	281	284	285	286	283	281	282	287	285	284	284	283	282	279	277	281	281	280	278	282	280	280	280	282	283	291	287	287	285	285	284	280	281	279	283	282	283	284	285	286	282	283	284	283	284	288	288	286	281	282	287	287	286	285	280	279	278	279	281	287	288	286	283	280	278	277	277	278	278	281	282	281	279	278	278	278	279	280	280	285	287	279	277	276	275	276	278	281	282	283	282	286	289	289	284	288	281	279	278	277	277	278	279	280	278	278	279	284	284	282	281	278	282	281	281	281	281	284	284	284	285	282	282	283	283	282	279	280	285	285	280	280	280	282	283	281	279	280	278	273	273	276	277	274	276	276	279	278	276	276	275	274	275	280	280	283	283	283	283	286	283	273	273	279	281	282	282	283	279	278	277	275	278	276	279	283	280	274	274	278	281	281	281	280	280	280	280	273	274	273	273	271	273	273	273	274	278	277	275	276	275	274	274	274	272	273	274	278	282	281	281	275	273	272	274	275	274	278	283	284	281	280	279	276	275	278	279	280	279	278	277	276	277	276	273	272	273	273	270	269	269	268	270	272	273	276	276	276	272	270	270	271	272	271	271	271	270	269	269	270	274	272	273	273	271	270	270	271	273	273	269	274	277	277	278	275	275	277	272	273	277	275	274	274	275	275	276	275	270	271	268	268	267	267	268	266	266	267	269	272	271	270	271	272	271	271	276	270	262	262	261	262	271	0	0	0	0	0	0	0
288	280	279	280	284	284	288	290	289	286	286	283	284	288	287	287	286	284	283	276	276	276	279	279	279	281	284	284	285	285	284	284	285	288	288	288	288	283	283	286	287	283	283	281	279	279	280	285	289	287	285	285	284	284	287	287	286	290	291	290	288	288	290	289	289	286	284	284	283	288	292	294	288	286	281	281	280	279	282	282	285	286	287	288	289	286	287	288	289	289	288	286	284	283	281	280	283	287	289	290	290	282	280	282	283	284	284	286	287	287	285	285	284	284	282	284	281	280	285	285	284	283	281	279	279	277	278	281	284	284	284	284	283	287	286	288	289	288	288	284	284	275	281	283	286	286	285	285	285	281	285	287	284	286	285	288	290	289	286	283	283	282	286	288	290	289	289	289	286	285	285	286	284	281	279	279	278	280	284	284	284	285	285	283	277	277	281	283	286	289	290	290	289	289	283	278	275	275	279	281	283	281	282	281	280	276	278	278	280	281	283	285	286	285	285	283	282	281	285	279	281	281	283	277	278	283	284	285	282	280	275	273	276	278	279	278	280	279	279	279	280	282	285	287	287	283	280	279	278	279	284	284	283	278	277	275	276	278	279	279	281	281	280	278	283	282	283	285	285	284	285	282	283	283	279	278	275	278	279	285	282	287	283	284	284	283	282	281	284	286	286	285	279	277	280	282	282	282	287	285	283	282	282	284	281	278	278	281	282	283	281	281	279	279	280	279	281	279	277	278	280	282	284	278	279	280	282	286	283	281	282	279	279	278	277	278	279	280	278	280	280	282	282	281	284	282	283	285	280	276	276	280	278	279	279	278	277	277	279	281	280	280	281	281	281	281	281	281	280	279	280	281	281	280	279	274	278	276	282	282	283	283	279	277	276	276	277	276	276	278	281	279	278	278	278	277	278	279	278	280	278	272	275	275	275	275	275	281	282	282	281	284	287	273	272	277	281	276	275	275	276	276	278	276	276	275	278	279	280	277	275	275	279	281	281	280	281	280	271	272	273	273	276	276	276	273	274	280	282	283	278	274	274	281	282	281	278	278	278	277	274	275	279	280	270	273	275	276	274	273	273	274	277	277	277	279	280	278	278	276	275	272	273	274	276	277	280	274	274	274	273	272	275	277	281	279	273	272	269	275	276	281	279	277	276	276	273	272	272	274	275	274	273	272	273	272	277	275	275	275	273	269	271	272	274	273	273	271	275	274	276	275	272	271	272	273	274	273	275	277	275	276	275	274	275	275	276	275	274	272	272	273	274	270	270	269	271	272	269	268	266	266	268	271	273	274	274	268	265	268	267	265	265	269	261	268	269	266	265	266	271	269	271	270	269	268	269	270	271	270	264	264	268	272	272	273	274	273	274	275	275	273	272	273	274	276	274	270	271	263	263	264	266	267	267	266	268	270	271	270	270	265	266	267	267	267	261	261	261	260	262	265	266	0	0	0	0	0	0	0
285	280	276	277	282	282	284	286	286	283	283	281	283	283	284	284	284	282	278	274	270	270	273	273	275	284	284	279	279	283	281	284	285	285	286	286	285	284	285	288	282	283	283	280	280	281	277	281	285	286	285	285	284	283	285	286	285	286	289	288	287	285	285	285	285	285	285	283	282	286	290	284	279	279	279	278	278	279	278	277	279	280	284	286	284	288	287	286	287	288	287	286	283	281	278	278	280	284	286	285	280	279	282	283	284	284	280	281	281	281	279	281	282	284	284	281	279	279	277	276	275	282	281	279	277	276	277	278	280	281	282	284	285	285	284	285	281	281	280	279	279	279	278	279	281	284	283	281	279	279	276	281	280	280	282	281	285	281	283	283	280	280	282	286	286	286	280	283	285	285	285	286	282	279	278	279	280	281	280	281	281	277	275	274	275	276	280	280	282	280	288	283	283	280	281	277	277	277	280	281	281	281	280	278	278	275	275	277	278	279	281	282	284	283	282	281	279	280	276	280	280	281	274	274	276	281	281	282	281	278	277	274	277	277	278	279	279	278	279	278	279	280	278	286	287	281	280	278	277	276	277	279	280	276	274	273	273	276	276	275	276	276	277	277	280	282	282	283	284	281	282	280	282	279	276	272	272	277	278	281	280	280	281	282	282	282	281	281	277	282	283	281	277	278	276	280	281	281	280	283	281	281	281	274	272	275	276	277	279	280	280	278	281	282	279	278	280	278	277	275	273	273	275	276	278	280	280	281	277	279	278	278	279	278	279	279	281	281	281	279	281	280	281	281	280	280	281	277	276	275	274	275	278	280	281	279	279	275	274	273	274	277	276	278	280	281	281	280	280	278	280	278	281	279	279	274	278	281	280	279	279	278	275	273	275	275	275	275	275	277	279	280	278	278	278	275	277	273	278	276	275	276	272	271	268	269	279	276	276	275	273	274	275	273	275	270	272	272	273	273	273	273	276	275	273	272	275	276	278	279	277	276	275	274	276	275	269	270	271	271	272	272	273	273	272	272	272	276	279	275	273	272	273	272	279	277	277	275	267	270	273	272	274	275	275	266	267	270	273	273	275	275	274	272	275	276	277	275	275	275	274	273	274	275	270	270	269	270	271	270	271	272	271	271	271	271	273	268	269	271	273	274	274	276	276	273	272	270	269	270	272	272	270	270	271	272	274	273	271	272	270	270	271	270	273	273	273	272	271	274	274	272	272	271	271	270	272	275	276	276	272	272	272	273	273	272	274	273	271	270	270	270	268	268	268	270	270	271	272	268	265	264	266	270	272	272	272	268	262	264	262	260	259	259	259	259	264	263	263	263	262	265	263	264	266	269	270	270	269	268	265	264	265	265	268	270	272	269	271	271	271	272	271	271	272	272	269	269	268	268	262	262	263	264	265	266	267	268	265	264	266	266	259	260	260	258	260	261	260	260	261	264	265	0	0	0	0	0	0	0
