698	700	707	707	714	718	716	707	707	707	711	717	714	709	709	701	694	691	695	708	708	710	711	706	699	697	702	677	686	693	697	691	687	686	681	681	682	680	680	682	686	690	685	684	684	686	692	694	690	688	688	684	686	688	686	686	686	680	681	683	684	688	692	701	702	693	679	678	679	683	686	690	690	693	694	689	682	675	671	671	670	666	662	658	672	682	683	676	671	668	668	673	674	674	673	674	671	666	659	654	660	664	660	655	652	653	655	661	666	667	660	663	671	675	677	671	671	666	658	650	650	657	661	657	653	651	655	662	670	666	661	649	644	646	647	647	646	638	636	637	642	644	648	650	649	648	645	649	637	636	636	640	641	640	638	632	634	640	644	647	656	657	655	642	640	637	630	628	629	634	646	652	653	648	639	627	620	619	622	645	647	642	638	632	626	629	630	627	624	662	659	645	638	635	638	638	640	646	645	652	656	647	640	638	632	630	625	626	630	633	643	644	636	630	626	627	632	634	633	627	624	625	625	624	628	629	633	642	639	639	633	625	622	619	623	629	627	625	617	612	608	608	612	609	609	610	613	616	618	607	606	604	598	604	611	616	620	620	617	613	614	616	615	614	612	610	607	604	601	601	598	595	596	617	624	630	620	613	604	604	609	612	614	614	610	609	608	605	608	614	609	608	608	611	612	611	608	605	603	607	610	610	609	605	603	604	606	606	606	602	597	594	601	605	609	612	615	613	611	613	614	617	613	609	603	603	606	609	606	607	609	607	606	605	608	608	610	612	602	596	597	607	608	604	601	600	597	593	592	591	593	591	589	582	577	577	584	589	593	605	601	597	597	595	597	599	597	597	596	594	589	585	585	589	589	588	587	591	597	599	602	605	603	596	592	590	592	599	601	601	606	603	598	597	598	598	609	607	607	607	598	590	589	590	600	614	603	598	578	580	587	587	587	583	577	582	585	590	585	582	583	588	592	594	591	580	571	571	576	579	577	581	578	580	580	585	588	587	588	596	598	601	597	593	593	589	575	576	577	584	584	582	588	590	590	589	594	592	589	586	584	580	580	578	577	581	588	590	594	594	593	589	586	582	581	578	574	570	569	575	579	587	588	583	583	587	587	591	593	589	587	576	570	566	573	572	570	565	568	578	581	577	570	568	567	575	576	577	573	570	569	566	568	575	569	567	570	576	578	580	579	574	569	566	569	570	574	577	563	565	569	573	576	573	567	567	562	563	567	570	569	563	565	571	579	581	578	575	572	569	570	570	567	568	564	564	564	566	567	568	570	571	573	570	573	572	579	576	572	567	565	565	565	564	557	559	562	565	567	564	564	567	567	566	563	563	566	569	568	562	559	556	558	562	563	563	559	556	553	554	558	557	559	560	560	563	565	569	569	573	566	563	563	563	562	560	559	561	562	561	555	551	545	551	557	553	551	550	549	553	554	554	0	0	0	0	0	0	0	0
689	686	688	688	693	699	695	692	692	692	698	705	705	699	699	689	681	677	683	692	692	696	696	692	684	680	657	657	666	675	681	676	673	670	671	671	672	672	672	670	671	671	670	672	672	673	679	685	682	676	671	670	673	678	679	674	674	670	666	669	672	673	677	681	685	670	666	665	671	676	683	686	686	686	686	681	674	668	662	660	656	655	650	648	655	672	673	666	660	656	658	663	665	664	663	653	655	652	650	649	647	647	642	631	629	641	650	656	661	662	657	661	665	664	659	657	661	656	651	648	648	656	660	656	649	641	640	642	647	647	638	633	633	635	640	638	633	627	627	627	630	633	638	640	639	620	621	626	625	624	633	638	638	637	630	628	628	632	633	633	629	623	621	628	630	627	620	618	620	626	630	633	640	635	623	614	607	606	611	633	636	630	629	623	618	616	614	615	610	609	613	613	623	623	629	629	626	622	625	633	636	633	625	623	625	620	618	616	618	614	624	625	623	619	616	618	620	624	620	614	611	612	612	616	617	618	618	615	606	603	606	612	613	609	601	597	599	606	609	609	606	602	601	599	601	602	607	609	609	608	596	594	595	597	600	608	608	595	596	594	599	596	605	606	604	600	595	593	593	593	592	590	589	586	588	605	599	598	598	600	600	601	602	603	603	598	595	591	589	597	599	601	604	606	605	602	598	595	596	599	602	601	599	596	597	598	598	600	601	592	590	590	595	595	603	603	602	609	599	596	594	605	603	595	591	589	595	594	591	584	587	589	592	597	597	593	591	591	591	587	583	581	586	587	589	590	588	582	583	579	576	574	567	567	571	575	581	586	586	583	583	579	583	584	585	584	584	584	584	583	583	581	582	588	591	586	581	576	579	585	588	588	594	592	589	585	582	582	586	597	595	591	588	585	587	590	593	596	592	586	582	579	578	581	587	593	575	569	567	570	573	580	578	577	574	575	575	577	574	573	574	578	582	579	573	571	568	569	571	571	575	573	574	575	575	576	576	576	575	574	572	571	569	572	579	575	571	570	570	574	575	574	580	577	572	577	581	585	581	579	577	571	572	567	560	562	563	566	572	584	587	584	580	579	576	574	572	564	563	564	569	572	572	573	584	586	587	567	567	566	565	560	560	556	555	551	548	550	555	562	558	553	550	555	560	563	563	562	559	558	556	555	563	567	563	560	562	568	565	567	568	568	563	557	559	558	563	561	553	551	553	558	570	574	569	567	565	566	563	559	557	549	541	542	565	566	563	551	549	546	545	549	556	559	559	556	554	558	562	565	564	565	561	560	562	563	564	565	562	558	556	558	557	555	549	552	556	559	559	557	558	559	558	556	556	556	561	564	561	555	551	549	553	558	556	556	554	545	541	539	542	546	555	560	557	556	556	554	554	552	558	559	559	559	558	558	553	553	551	549	547	542	539	536	538	543	546	547	547	549	551	551	0	0	0	0	0	0	0	0
674	671	672	672	670	672	665	668	668	672	681	692	694	689	689	675	668	673	680	684	684	683	683	675	666	643	642	642	650	660	663	666	666	665	663	663	665	665	662	658	651	650	647	650	650	661	668	674	668	663	659	658	659	662	666	660	660	650	648	648	654	657	655	655	652	649	655	651	656	657	670	673	673	671	667	667	666	663	655	652	651	649	650	646	647	651	662	659	649	645	640	646	653	655	650	644	643	643	644	644	644	642	632	624	621	628	641	649	654	652	654	656	657	655	646	632	633	640	640	636	636	641	637	627	623	626	629	630	633	636	631	624	625	631	632	631	627	623	620	617	616	615	614	610	601	604	609	616	617	618	621	625	629	625	619	614	613	619	624	625	620	613	607	604	618	617	614	609	609	618	621	625	623	615	604	600	597	593	596	614	621	616	614	610	610	612	609	606	605	602	595	597	597	602	600	622	615	612	615	622	624	623	609	607	604	597	592	593	593	589	595	604	608	605	602	600	598	602	602	600	601	604	603	612	614	613	606	595	583	586	593	603	601	599	592	587	588	595	605	607	604	599	596	593	590	594	596	595	588	585	581	588	592	591	591	586	575	571	572	570	578	580	589	594	595	591	584	584	584	579	575	574	579	580	577	579	588	593	592	592	594	595	596	598	598	588	585	583	583	584	590	596	600	603	600	593	588	588	592	596	597	597	593	590	591	592	594	594	586	587	589	591	588	588	588	590	594	596	585	582	578	583	582	579	574	576	578	581	581	579	578	581	583	587	588	583	583	585	585	579	574	574	574	574	575	576	573	570	570	570	559	557	557	559	561	570	575	580	575	572	568	570	573	579	579	577	571	569	570	568	568	567	575	581	586	581	576	573	578	581	581	576	578	586	587	583	578	578	583	582	581	578	576	576	576	578	576	578	564	566	574	571	570	570	562	563	562	561	561	560	562	570	569	568	566	567	568	566	562	561	565	567	568	565	561	562	564	565	566	564	555	559	564	569	574	572	573	569	568	564	561	560	558	555	554	557	559	563	565	563	563	561	564	557	558	562	564	570	572	571	566	562	562	558	556	555	556	556	557	567	570	571	573	571	564	563	562	561	560	561	565	565	561	555	552	555	556	548	539	535	539	542	543	540	541	543	545	546	548	559	555	551	548	553	552	550	550	548	548	551	551	550	550	560	556	550	551	551	553	552	551	551	550	546	544	545	551	550	547	545	544	549	554	565	565	563	552	551	549	545	540	540	541	545	555	546	549	548	545	541	540	540	541	548	555	555	550	548	549	545	542	545	549	554	554	554	553	552	548	546	548	550	553	551	550	548	546	547	549	547	543	543	544	545	545	548	551	554	551	547	541	536	538	538	538	541	541	536	535	533	533	537	535	537	540	539	551	553	551	550	550	548	548	548	548	541	539	538	540	537	537	535	538	538	539	540	542	543	540	538	538	538	0	0	0	0	0	0	0	0
663	660	654	654	650	645	643	645	645	646	650	656	658	658	658	651	654	669	674	676	676	673	668	654	632	632	632	632	636	643	652	656	659	657	654	654	652	651	649	643	636	629	632	638	638	644	648	651	651	647	645	646	647	647	642	641	641	631	622	616	616	623	633	630	633	634	641	638	639	641	641	642	640	640	638	646	655	653	646	646	643	640	644	642	643	642	648	643	635	632	631	630	635	635	634	635	633	634	633	637	641	634	622	616	615	616	621	628	629	633	640	644	648	641	623	614	616	623	627	621	613	614	612	611	612	622	621	623	624	629	623	622	621	619	616	613	610	607	605	608	602	593	590	592	592	594	600	609	611	613	614	614	611	604	602	596	597	599	604	612	614	607	599	594	604	605	603	599	602	609	615	620	617	606	596	595	595	594	599	599	595	596	602	603	604	601	589	586	589	586	581	577	570	575	580	583	581	576	592	592	600	599	603	589	587	587	588	587	586	585	585	590	592	595	594	595	590	586	582	583	585	589	592	594	594	593	594	588	573	573	573	573	569	575	579	576	577	581	588	589	577	574	575	576	579	579	586	588	566	562	563	574	582	586	576	567	567	568	567	562	558	558	558	561	562	564	566	571	572	567	563	563	574	575	572	572	572	574	574	589	589	590	588	589	589	584	576	573	574	576	578	577	573	570	567	566	561	565	572	577	579	584	581	577	575	576	576	574	572	579	579	576	573	571	568	570	575	579	575	574	575	576	575	574	570	570	570	574	573	573	571	566	566	567	571	573	574	575	573	566	566	570	568	567	567	569	564	558	561	560	554	552	552	554	556	559	571	571	568	561	560	563	567	567	562	560	560	559	557	555	553	554	565	565	563	565	568	570	574	575	570	567	567	567	571	578	576	575	574	572	567	565	568	567	569	562	556	552	553	555	556	560	556	557	556	555	553	551	548	546	547	551	561	561	559	559	560	557	560	562	562	559	558	558	557	554	554	559	555	546	543	550	558	565	570	567	562	558	556	554	552	553	552	549	548	549	551	555	554	555	554	545	546	548	553	556	559	556	555	557	559	557	555	551	549	550	551	552	553	553	550	551	555	557	557	556	557	558	559	556	558	546	540	536	539	538	540	535	530	529	531	535	534	539	541	543	544	546	548	544	548	547	544	541	545	544	541	541	544	546	543	543	542	550	545	539	537	541	543	542	539	539	539	534	534	536	538	540	541	539	533	535	538	552	553	534	523	521	528	532	533	534	535	543	542	537	537	543	541	535	536	537	539	542	544	540	537	531	526	526	530	533	537	539	542	541	549	544	540	537	534	531	536	535	538	540	537	539	540	542	540	542	543	543	543	544	546	544	537	530	525	525	524	527	530	532	532	531	530	530	529	528	530	530	529	526	531	533	537	543	541	537	533	533	530	529	531	531	530	527	529	532	538	541	542	542	541	539	536	529	528	528	0	0	0	0	0	0	0	0
640	639	636	636	636	638	637	636	636	636	638	640	634	630	630	638	650	658	663	665	662	662	654	643	626	625	624	625	625	634	644	647	650	645	635	635	635	631	628	631	627	625	628	633	635	635	634	638	639	636	631	628	629	629	631	629	629	619	612	606	610	621	630	628	624	624	629	626	627	623	622	622	624	624	627	633	640	639	628	626	626	627	627	631	625	625	623	628	622	619	618	605	610	623	626	626	626	616	616	625	622	617	612	611	611	611	614	614	615	613	612	613	619	618	610	604	600	600	609	604	598	595	600	605	609	614	618	612	611	612	611	610	606	602	601	599	596	596	597	599	592	589	591	590	589	592	600	606	604	597	591	585	578	576	580	581	584	589	595	597	599	595	590	590	599	594	587	591	597	602	607	609	612	605	592	587	585	587	584	578	576	574	581	584	585	581	582	584	585	583	578	573	569	572	576	582	578	574	573	574	577	581	583	583	580	584	590	588	588	584	581	574	576	582	587	587	582	581	576	575	578	586	584	576	573	575	575	574	566	558	556	559	563	567	568	563	561	561	561	560	559	559	559	561	560	570	568	564	562	560	556	552	556	562	564	563	566	565	561	556	552	552	552	551	551	548	551	559	563	557	552	546	554	561	568	566	561	552	547	550	578	574	568	561	562	565	566	561	559	560	562	560	558	554	548	549	553	553	548	552	552	558	560	559	556	555	557	561	564	568	566	563	564	564	563	561	560	560	559	555	556	563	569	569	567	563	559	560	562	559	557	555	558	559	561	563	565	559	557	561	565	566	562	558	559	558	555	553	553	552	550	548	549	551	553	558	564	562	555	551	550	554	558	558	550	550	551	551	550	549	547	546	549	548	544	546	555	565	571	568	562	557	557	559	562	561	560	560	562	562	557	554	550	551	551	548	547	546	546	547	547	552	555	554	554	549	547	542	537	537	537	536	536	542	543	539	538	534	540	545	548	555	552	551	551	547	551	555	551	533	533	540	549	554	561	557	553	549	549	544	543	546	545	544	543	542	537	535	548	549	549	535	535	537	539	546	549	547	547	545	552	548	544	542	543	545	546	548	551	546	542	542	544	546	550	547	544	545	552	543	543	538	531	531	533	532	526	525	523	526	528	530	533	535	536	539	540	540	542	538	536	537	536	534	541	538	533	532	537	536	532	531	530	535	534	527	524	522	527	528	529	530	531	531	531	532	532	531	532	531	531	527	525	528	529	524	516	513	514	519	524	526	531	534	538	537	534	533	531	529	529	528	531	530	534	534	532	526	522	522	524	527	531	535	535	535	535	535	532	528	525	522	517	511	513	529	530	532	536	539	538	535	536	537	543	543	544	539	534	530	526	523	524	524	524	525	526	527	528	527	524	523	524	522	517	516	511	514	524	528	527	526	525	525	523	524	526	526	524	524	527	531	536	538	538	538	536	532	523	516	516	516	0	0	0	0	0	0	0	0
629	628	629	629	629	629	628	627	625	625	629	630	626	625	625	627	635	644	651	653	651	651	644	627	622	620	620	622	622	619	616	617	621	618	612	612	610	613	615	617	617	616	610	608	609	609	616	625	630	630	627	621	616	619	621	621	621	613	607	607	611	619	622	612	608	606	611	613	614	612	608	610	614	614	620	623	623	618	613	611	610	613	616	616	613	615	610	608	598	592	590	593	598	610	614	614	605	603	607	611	608	601	603	603	605	606	606	609	610	606	600	600	602	605	598	592	590	588	592	595	590	590	592	596	601	600	597	597	604	603	601	598	592	583	586	590	585	588	592	596	595	588	584	577	577	583	589	594	595	590	586	584	580	575	575	569	571	576	580	587	593	591	585	581	577	577	581	587	589	587	585	590	583	580	577	570	566	565	561	560	565	566	571	572	563	565	572	584	586	584	580	573	570	573	575	573	571	568	559	556	566	571	568	572	573	578	582	591	587	581	574	574	570	564	563	563	566	570	569	569	573	575	573	566	566	567	563	562	560	554	552	547	550	561	562	558	560	560	558	556	557	555	554	556	559	553	550	547	547	547	545	540	542	542	542	544	559	562	559	553	549	546	547	548	545	541	542	546	551	547	544	539	543	551	556	550	543	538	540	543	543	540	542	539	541	543	553	556	558	560	558	555	553	549	544	542	541	537	538	540	546	549	550	548	546	534	533	539	546	549	553	551	549	551	553	551	547	544	543	544	546	546	550	549	548	548	548	548	550	548	547	551	555	556	557	556	549	540	543	548	552	555	551	547	546	546	545	542	540	538	538	542	545	546	554	560	564	564	559	551	547	548	549	549	550	550	547	542	545	545	544	541	534	535	534	536	537	544	553	552	548	549	553	555	556	555	554	555	555	553	550	543	538	533	535	538	542	542	538	541	548	551	547	547	546	545	538	534	528	526	522	514	521	528	527	526	524	527	527	534	539	543	544	543	543	543	541	546	545	531	524	527	535	542	543	547	541	533	530	529	533	535	539	540	539	536	525	520	522	538	535	526	530	530	533	536	539	536	534	535	533	526	526	526	528	529	529	532	539	538	532	531	535	538	539	536	519	524	528	528	526	524	524	529	532	530	522	518	517	518	522	525	524	525	527	527	531	533	536	533	532	529	525	530	532	532	528	527	529	534	526	525	522	525	526	520	519	521	523	523	524	525	525	524	524	525	526	526	525	527	527	524	522	523	523	524	518	512	510	512	519	525	529	531	531	531	529	528	527	526	524	523	525	523	523	524	523	521	517	517	517	521	525	529	527	527	524	522	518	518	513	510	511	507	509	518	525	531	535	529	523	515	515	520	532	537	537	530	530	528	527	528	528	527	524	521	520	522	524	521	519	518	515	512	508	505	505	505	510	509	511	516	517	517	518	520	521	521	517	517	519	522	529	531	528	529	522	508	500	501	501	504	0	0	0	0	0	0	0	0
616	617	615	615	613	610	607	611	614	614	623	623	617	613	613	613	619	628	634	633	636	636	612	615	613	609	609	609	609	607	603	601	598	599	600	601	601	600	602	607	608	607	600	596	599	599	605	610	614	602	603	605	606	605	611	612	612	606	601	603	604	610	609	606	601	598	597	600	606	608	602	595	604	604	613	613	614	612	604	598	598	603	604	609	610	608	602	593	583	579	583	586	589	591	592	599	600	596	591	589	588	589	591	596	598	598	599	601	601	594	587	586	588	589	586	580	580	580	583	587	589	590	591	588	589	583	577	586	596	599	597	593	583	574	572	572	576	582	582	586	568	559	552	548	554	571	580	582	578	577	579	582	582	578	569	562	564	566	572	578	582	581	577	573	560	558	557	562	564	564	565	569	568	565	567	567	564	559	553	554	561	566	566	559	555	555	558	562	569	576	570	560	553	549	548	552	558	555	553	555	561	561	558	551	544	552	559	562	570	570	562	569	566	555	548	550	552	553	558	561	561	562	562	560	558	558	555	559	559	553	545	540	539	540	550	559	557	552	551	549	547	548	548	551	553	552	546	542	541	541	538	532	536	537	535	532	534	541	539	536	533	533	538	539	539	539	540	540	540	536	536	535	538	541	540	530	526	523	526	536	536	534	531	527	534	535	535	547	550	551	551	549	543	540	539	538	536	531	530	530	533	536	541	541	533	532	532	535	535	535	537	535	534	536	539	538	531	528	530	532	537	535	533	536	542	539	539	535	534	542	546	549	551	549	548	540	534	527	530	536	538	540	538	536	532	537	537	534	532	532	535	534	527	528	532	536	541	547	547	548	545	543	545	547	549	549	544	538	534	533	532	534	537	537	535	532	532	534	538	537	535	536	538	542	543	542	543	543	540	543	542	537	531	526	532	530	530	529	530	530	532	536	539	538	537	534	534	525	517	510	507	510	517	523	526	521	517	519	528	529	533	533	537	536	534	532	527	526	529	526	519	517	518	524	529	533	529	527	523	523	522	525	531	541	539	530	518	515	514	518	520	517	520	524	530	533	532	529	523	521	517	515	516	523	527	528	530	527	522	521	519	515	518	518	506	508	513	518	522	522	518	506	510	524	528	527	521	513	510	509	514	515	517	515	512	511	517	521	529	528	522	519	520	521	524	523	520	519	525	528	527	517	513	516	523	522	516	515	515	515	516	516	517	511	515	514	517	518	518	521	520	520	518	517	515	515	515	514	514	515	515	520	524	529	524	520	522	523	524	523	522	519	516	516	515	514	518	516	514	513	513	514	517	519	517	518	515	513	508	505	503	504	505	509	509	509	513	513	518	520	517	506	504	504	508	514	519	522	525	526	526	521	508	502	497	500	506	512	510	509	510	508	505	504	505	505	505	506	503	504	508	509	509	509	506	506	508	509	505	505	508	512	512	506	508	503	498	494	495	498	498	500	0	0	0	0	0	0	0	0
608	612	607	607	604	599	595	597	605	605	611	608	603	600	602	602	601	600	602	607	609	609	595	590	588	588	589	590	590	591	589	589	588	589	587	587	587	586	584	594	597	598	594	586	589	589	596	601	597	594	592	592	590	589	590	596	596	597	596	594	596	600	596	592	589	591	592	596	596	595	594	596	598	598	601	600	600	599	587	585	585	589	594	597	595	590	587	585	577	576	581	583	584	585	586	588	590	587	581	577	575	573	575	578	582	587	590	591	583	576	578	578	578	570	566	564	563	566	571	573	581	584	585	575	573	570	571	580	586	592	589	580	577	566	558	552	553	559	566	569	563	556	550	547	549	557	568	575	564	565	573	578	579	573	567	562	561	562	565	561	565	563	562	561	552	544	543	542	543	547	550	553	553	552	553	561	561	554	550	549	551	555	553	549	545	545	548	546	545	541	544	546	548	543	540	544	545	546	549	549	549	546	545	539	536	538	538	539	550	546	546	550	547	543	535	534	537	536	538	540	544	546	547	546	547	548	552	554	554	546	542	539	534	534	535	539	541	537	535	535	533	532	529	527	528	537	540	537	536	535	534	531	531	531	528	526	513	509	509	514	516	523	533	538	533	525	520	524	528	529	530	531	532	534	531	527	521	518	518	527	530	530	524	517	512	508	524	527	527	529	534	540	537	535	535	535	531	526	523	522	527	530	534	532	530	529	532	530	531	529	526	524	524	525	529	527	523	520	519	521	526	527	526	524	529	536	532	527	528	535	541	544	542	539	530	524	517	517	516	522	525	525	527	525	524	525	527	527	525	524	523	521	520	521	525	530	532	532	532	536	539	541	541	540	540	543	540	533	526	525	528	534	539	538	533	528	528	525	527	530	530	528	522	521	517	515	525	527	527	532	534	527	525	527	524	523	527	524	520	513	515	524	532	532	530	529	528	520	515	510	506	508	514	515	518	521	517	521	521	522	524	526	530	531	528	523	515	512	516	520	518	516	518	522	523	523	522	521	520	515	515	520	528	531	530	524	516	512	512	511	513	511	511	518	525	533	536	535	530	523	517	513	512	515	525	526	524	516	515	516	516	509	505	504	501	499	509	514	518	516	508	493	496	507	510	507	505	500	497	500	506	509	510	504	499	498	502	510	518	512	509	513	513	514	514	512	510	508	509	509	509	507	506	510	512	511	510	509	506	506	505	505	502	497	500	503	508	507	509	511	511	512	510	508	506	506	508	509	509	508	509	511	516	520	517	511	510	516	518	522	519	517	511	506	507	507	510	513	511	511	511	510	507	504	501	509	508	504	502	500	498	503	503	500	500	502	499	503	512	513	510	505	498	491	487	492	498	513	521	522	516	507	502	496	490	493	499	501	500	502	501	501	502	502	504	503	503	504	502	496	496	506	506	506	502	496	494	496	494	493	493	493	488	489	493	494	487	487	486	490	490	493	0	0	0	0	0	0	0	0
599	600	599	599	596	588	584	583	590	590	591	591	589	586	590	590	590	588	589	593	598	595	591	583	576	578	583	584	584	582	578	574	575	577	575	569	569	572	582	586	589	586	579	570	576	576	582	587	590	590	590	586	585	578	574	573	583	583	583	580	579	581	583	582	583	586	585	586	587	584	585	586	589	589	594	590	588	577	578	577	574	572	575	583	583	582	579	579	577	578	576	577	578	579	581	581	580	580	578	575	571	569	567	564	559	562	561	558	557	558	567	571	571	564	558	558	557	558	554	551	553	555	556	558	565	563	564	567	572	570	570	570	571	562	555	553	554	556	556	558	559	557	554	555	560	557	558	557	544	544	549	560	566	569	564	551	548	550	551	546	553	557	555	546	545	540	538	538	539	543	544	542	543	541	543	545	549	548	545	544	538	538	541	541	537	534	533	534	536	537	536	533	534	529	533	533	534	532	533	537	535	533	532	532	532	530	531	530	529	527	534	537	532	527	521	519	520	525	527	527	527	522	528	528	531	535	533	536	538	539	542	542	534	531	527	525	527	529	529	528	525	522	520	519	521	529	535	536	534	529	526	529	527	524	522	516	514	508	505	505	511	519	527	527	521	515	513	516	518	522	522	523	527	529	526	522	510	507	511	512	511	508	500	495	493	491	490	492	515	520	526	531	531	526	527	528	523	520	516	517	521	525	525	524	524	522	520	515	517	517	514	512	513	514	519	520	518	511	509	511	517	518	517	512	509	508	501	504	512	513	516	518	526	528	523	515	512	508	507	508	513	516	516	517	518	520	523	524	520	517	514	517	516	517	516	517	519	522	526	526	529	525	527	528	534	532	529	521	523	524	530	533	533	531	527	522	519	518	520	523	522	519	517	518	518	515	511	510	514	520	518	522	516	520	517	513	508	503	501	503	507	512	516	515	516	514	513	512	509	507	504	505	508	510	514	515	508	504	505	509	513	515	515	512	510	505	503	504	509	513	514	512	512	510	513	513	516	518	516	510	502	498	496	497	500	505	502	496	496	496	494	494	497	500	505	515	517	516	514	515	510	508	507	509	511	511	511	507	507	503	500	497	498	497	495	496	499	508	511	508	492	489	488	498	499	498	493	490	490	493	494	498	499	496	490	489	491	498	502	500	500	502	503	506	507	505	502	497	492	493	496	491	497	504	507	506	503	497	495	495	498	496	492	487	488	495	501	498	493	499	503	505	504	502	498	497	498	503	504	504	500	500	499	512	510	504	502	504	507	507	508	504	500	495	493	496	499	501	505	509	510	507	505	497	492	492	489	495	497	497	500	501	500	497	492	491	494	502	506	506	504	496	488	485	485	487	491	495	498	503	504	502	495	491	488	490	494	497	498	497	497	494	491	492	494	499	502	502	496	491	489	490	490	487	486	482	476	473	476	479	483	481	481	482	484	486	481	482	481	481	481	483	0	0	0	0	0	0	0	0
587	589	587	584	584	578	571	573	574	574	577	576	577	582	587	587	588	585	587	592	595	589	581	571	567	569	575	576	576	576	568	565	563	558	558	563	563	571	576	576	573	569	566	568	573	573	578	586	591	592	583	568	563	558	559	561	563	563	562	561	563	565	568	566	566	566	564	565	569	572	574	574	576	576	576	576	575	573	574	574	571	564	555	569	576	575	576	577	574	573	569	568	571	573	571	569	570	571	571	569	557	550	552	553	555	556	554	553	551	548	548	562	565	561	556	553	551	550	550	548	546	549	549	552	555	555	557	562	558	556	556	556	553	552	549	549	549	548	549	550	548	551	561	560	549	542	539	535	533	534	539	546	552	555	546	534	535	539	542	539	532	530	535	536	535	532	529	529	531	534	535	535	532	529	533	537	538	536	534	533	530	526	526	527	527	526	526	525	525	528	525	518	516	519	526	527	528	527	527	522	521	522	522	523	524	520	520	520	521	519	513	511	510	519	515	515	519	525	524	522	516	512	515	519	515	515	513	511	513	518	535	534	530	522	519	521	524	527	527	525	520	516	510	515	517	521	517	517	519	519	521	519	510	511	517	520	514	505	501	502	511	513	513	513	509	505	506	509	512	509	514	516	513	507	508	507	502	499	502	503	505	504	498	491	486	480	481	486	497	500	514	517	518	516	513	511	511	514	513	512	515	518	516	507	508	508	509	506	504	505	504	505	507	511	514	514	512	506	503	503	505	504	506	503	499	496	495	497	503	505	508	505	507	516	518	516	510	503	502	503	506	509	508	510	512	518	521	522	518	514	510	508	510	511	507	505	508	513	514	515	516	515	515	517	515	519	516	516	517	517	508	505	507	519	520	516	513	512	513	513	511	512	513	515	518	516	509	501	501	504	498	501	508	510	510	507	503	498	498	499	503	507	509	507	505	506	506	505	503	501	500	501	499	502	504	505	502	500	500	502	504	504	503	505	507	501	499	496	499	497	496	497	496	499	505	509	510	512	510	506	498	491	489	492	491	489	487	485	486	487	490	489	492	496	500	502	504	502	500	499	501	500	500	500	500	502	501	492	492	492	488	489	491	490	489	489	493	498	497	489	487	485	485	490	490	478	474	474	481	486	489	492	489	485	486	489	495	494	491	489	489	491	493	496	499	491	490	490	491	491	492	492	491	496	500	500	498	491	485	487	494	497	496	487	479	481	491	486	483	489	495	497	495	492	489	487	492	496	498	497	494	489	488	495	498	498	493	496	497	496	493	488	485	482	481	481	485	493	491	495	493	491	485	482	483	479	478	480	485	492	495	496	493	490	485	479	476	481	482	480	475	474	474	474	475	477	477	479	478	488	492	495	493	485	484	491	496	496	495	491	486	487	488	488	493	495	494	491	489	486	481	481	481	479	479	480	476	474	474	472	478	478	477	475	477	478	479	479	477	475	475	473	0	0	0	0	0	0	0	0
570	570	568	562	562	562	560	561	562	562	565	567	572	579	583	583	585	585	586	586	572	572	562	559	559	564	570	574	574	565	558	555	558	557	558	557	557	561	565	565	565	563	561	563	565	565	566	566	567	567	562	559	557	558	559	560	561	561	557	556	555	555	554	557	557	558	559	561	565	565	563	560	557	554	554	559	564	564	567	566	559	553	544	539	559	561	559	563	563	558	558	553	548	550	558	559	558	554	554	549	546	545	545	545	549	549	547	545	544	544	541	542	540	544	545	549	545	546	544	545	543	541	540	543	542	536	536	538	534	535	538	538	535	541	543	543	542	542	541	542	543	536	533	532	531	531	529	527	519	520	525	533	540	540	530	524	524	529	532	526	522	515	517	521	526	524	519	518	522	527	527	524	522	523	527	530	528	524	521	522	523	517	513	517	519	518	516	515	513	514	515	517	515	513	519	521	524	525	522	517	511	511	514	516	517	517	515	511	508	505	503	504	501	494	493	502	505	506	501	500	503	503	505	511	507	506	508	506	508	511	513	514	513	511	510	515	521	525	523	520	514	505	504	502	506	506	506	510	508	509	508	508	505	506	507	503	500	497	497	502	508	509	504	500	495	495	500	504	505	504	503	505	502	498	497	498	497	496	497	498	499	498	494	487	482	479	477	482	485	495	493	491	489	505	502	502	506	508	508	508	502	496	493	495	500	502	504	503	499	497	495	496	495	498	500	505	505	499	494	494	496	492	492	493	489	487	488	490	493	498	500	498	499	497	503	510	509	503	500	500	503	503	502	502	506	516	521	521	516	511	507	503	502	505	503	500	501	505	507	508	510	510	510	508	504	501	497	500	503	500	498	497	500	504	507	510	508	505	503	499	500	499	505	508	506	507	506	500	489	490	492	493	499	502	503	502	495	494	493	497	498	499	502	501	500	495	494	495	495	495	495	495	495	496	498	500	497	495	496	498	497	495	496	499	499	496	494	495	496	493	493	492	494	495	497	500	502	501	500	497	492	486	484	485	485	485	484	481	482	484	485	487	489	491	495	497	499	496	493	487	487	491	492	495	479	481	482	482	484	482	482	484	485	484	480	479	483	489	488	485	481	479	477	471	471	472	472	473	471	475	481	485	482	481	482	485	485	487	489	487	485	482	480	477	477	470	470	472	475	482	486	488	487	491	493	492	480	477	474	475	478	478	479	482	484	482	482	475	466	468	470	474	481	481	480	480	483	488	495	494	489	481	480	486	486	485	485	484	480	487	491	484	474	467	466	469	467	467	467	467	468	471	473	474	472	472	473	475	476	477	481	486	485	485	474	466	463	464	467	469	471	472	470	466	464	465	470	470	471	472	474	473	471	471	469	471	473	490	484	480	479	482	484	485	487	489	487	485	485	483	482	482	480	479	479	477	475	474	472	471	468	467	468	471	472	474	475	476	475	472	472	470	0	0	0	0	0	0	0	0
556	552	550	548	548	548	548	543	539	539	547	559	567	573	571	571	571	574	572	574	554	554	551	550	556	560	566	555	555	554	551	553	554	554	551	553	553	555	557	558	554	551	550	551	552	554	554	552	552	551	552	554	555	553	549	551	553	553	554	554	552	550	548	549	548	547	550	554	557	557	555	551	546	546	546	545	547	555	550	551	550	545	537	533	534	539	544	544	546	546	541	533	533	537	545	548	544	542	542	543	544	537	533	538	542	540	540	537	535	535	534	534	532	531	533	539	539	539	538	540	535	529	523	525	527	528	530	526	526	530	533	531	527	524	526	533	535	535	537	533	531	528	524	521	521	520	516	514	511	511	516	522	525	525	521	514	514	518	522	518	517	510	516	518	518	516	506	507	510	517	514	513	514	516	519	519	518	515	514	514	513	511	510	510	512	510	506	507	506	509	512	514	516	514	513	515	519	519	517	511	508	507	509	511	512	508	502	498	495	496	499	500	489	486	485	490	494	499	496	492	495	497	499	502	502	502	502	503	502	501	500	494	495	496	496	498	503	518	520	516	500	498	497	496	495	496	498	502	504	502	503	498	496	502	502	499	496	493	490	491	493	494	494	490	488	489	493	495	497	497	496	492	493	493	496	495	495	492	494	493	494	492	490	485	483	480	479	480	487	493	492	486	483	480	482	493	494	494	492	493	494	493	492	492	495	496	497	500	496	491	487	485	486	490	491	494	495	490	490	490	491	489	490	487	484	481	479	482	486	489	490	488	489	490	491	497	500	508	500	501	503	499	494	489	492	497	507	509	508	505	501	498	498	502	503	499	496	496	499	500	503	500	498	495	498	496	495	495	494	493	490	490	496	498	500	502	504	501	492	488	489	491	496	496	499	500	495	492	487	486	485	489	491	492	494	493	490	489	492	494	495	494	495	495	493	491	489	487	490	492	492	489	486	486	490	492	493	489	492	493	491	486	488	490	491	488	486	481	480	482	484	487	489	490	488	490	490	492	491	485	473	471	474	477	480	481	479	478	480	481	481	485	485	487	489	492	494	491	487	483	478	476	476	476	477	478	476	483	478	478	477	477	480	478	477	477	479	482	482	481	479	477	469	468	471	472	472	470	466	466	472	475	476	474	475	480	481	480	481	480	481	479	478	472	470	467	461	462	465	468	474	479	478	479	479	479	475	474	473	477	477	474	474	475	479	484	481	472	465	462	467	467	469	466	469	472	477	479	482	484	479	466	470	467	462	465	470	472	471	469	468	467	465	460	459	460	460	459	461	459	459	461	466	467	465	468	469	471	471	473	475	477	473	471	467	465	463	462	464	465	468	467	466	462	461	461	462	466	468	467	466	469	470	466	464	464	463	463	461	463	462	466	469	478	479	479	480	480	480	480	477	477	473	472	472	472	473	471	466	465	463	463	464	465	465	466	468	467	466	466	465	467	0	0	0	0	0	0	0	0
550	546	540	537	537	532	531	532	535	535	543	551	555	554	555	555	558	563	557	546	542	536	536	539	541	542	541	539	541	541	543	546	548	545	541	541	541	545	544	541	542	542	546	548	548	546	546	545	544	545	546	548	547	540	540	543	548	548	551	549	548	546	542	537	537	536	538	543	545	550	549	544	539	537	537	539	539	540	539	539	539	538	533	531	532	535	535	533	530	528	526	523	521	526	535	537	520	518	516	517	523	529	529	528	525	518	514	513	513	514	509	513	515	518	517	516	512	510	508	504	502	503	502	506	504	502	509	506	503	503	506	519	516	514	510	507	506	505	506	514	517	516	513	511	512	512	508	502	504	507	507	510	513	514	511	507	506	511	513	514	513	511	510	514	513	505	502	500	505	506	504	503	505	509	510	509	507	506	507	506	506	508	506	505	504	505	502	500	500	499	493	494	499	499	499	499	502	504	506	504	499	499	502	503	500	493	491	486	480	481	489	492	486	477	480	487	483	475	473	483	481	490	492	491	492	491	488	489	491	490	487	488	487	487	491	491	492	499	500	498	496	492	491	491	492	491	492	495	499	499	498	495	494	495	496	491	488	487	486	488	489	486	485	485	485	487	488	487	487	487	485	485	489	491	492	492	493	495	493	491	490	487	484	482	482	482	481	482	486	487	488	484	481	480	476	475	477	484	487	488	490	490	491	490	487	491	494	496	494	489	483	478	482	484	484	486	484	483	486	488	488	485	483	483	480	476	473	475	478	482	482	482	484	487	492	493	489	489	490	492	495	500	497	493	490	494	494	490	485	482	490	490	491	492	487	484	479	483	485	487	486	489	485	483	482	482	484	486	487	488	486	487	493	495	497	497	494	487	480	481	482	485	490	490	486	483	487	487	486	483	483	485	486	485	489	491	490	489	489	491	491	490	488	489	490	490	488	487	484	481	475	474	478	478	483	486	483	474	468	467	470	472	476	477	478	478	476	476	476	479	481	483	482	482	480	481	479	478	478	470	466	468	472	475	475	475	474	474	478	481	484	483	482	482	481	485	487	486	481	478	471	475	474	474	475	474	478	477	473	473	468	467	470	474	476	476	475	475	478	479	478	474	466	467	470	470	470	469	468	466	465	464	466	464	463	463	470	469	469	467	470	472	470	470	471	465	461	462	463	465	470	471	471	471	474	473	473	467	472	476	474	471	467	467	469	472	469	464	461	463	462	463	462	459	457	452	452	456	461	462	461	457	456	459	458	458	461	462	463	461	459	457	453	453	451	452	453	452	452	455	457	457	457	455	456	455	460	463	466	469	471	472	468	465	463	462	460	456	461	463	466	466	463	460	457	456	455	456	460	460	458	456	459	465	460	458	456	454	451	452	453	454	456	457	459	461	463	472	474	473	471	471	465	462	465	466	466	463	462	462	460	459	461	462	463	462	464	463	462	462	459	459	0	0	0	0	0	0	0	0
548	543	534	529	529	528	528	531	533	533	541	547	547	542	543	543	547	552	550	531	527	528	528	531	533	529	529	530	527	527	533	534	536	533	524	515	516	516	521	526	529	535	540	543	541	538	538	536	536	538	541	540	535	532	531	535	537	537	539	541	539	537	536	532	530	531	531	532	530	537	542	540	533	532	535	535	536	534	530	529	527	527	528	530	532	533	531	526	520	501	507	514	513	511	510	512	512	511	508	507	511	517	523	523	517	509	504	502	502	500	502	506	504	504	505	501	494	489	487	484	489	492	494	495	494	494	500	499	496	495	497	500	494	492	492	493	492	492	493	497	508	508	504	504	505	506	506	502	499	500	499	500	502	503	500	497	499	503	503	501	502	503	502	501	499	500	499	495	495	495	493	493	495	498	500	496	496	496	498	498	498	500	501	498	497	497	495	491	489	492	488	485	484	495	493	489	489	488	491	488	485	487	492	495	490	480	480	474	470	472	473	469	468	474	478	477	476	470	472	471	471	476	479	481	480	485	480	484	488	486	485	482	481	485	490	493	492	492	493	494	493	490	488	488	488	487	484	486	480	473	479	480	481	480	480	478	478	479	481	483	485	483	481	479	480	483	483	483	479	476	477	477	482	484	484	482	491	493	491	490	486	481	480	481	480	481	482	482	483	485	487	485	480	477	470	466	466	466	469	470	468	472	477	487	483	480	481	485	480	477	474	472	468	466	467	468	471	474	477	482	481	476	471	469	472	469	468	469	475	477	476	475	476	477	475	476	475	478	476	474	479	479	475	474	474	476	475	472	467	471	469	475	476	477	477	477	469	471	476	481	483	482	478	476	473	475	472	477	480	482	483	481	483	489	492	490	477	470	473	484	485	475	478	477	468	470	474	479	482	479	475	479	477	479	479	485	488	485	479	475	484	484	474	470	469	472	481	481	480	474	472	472	473	473	473	476	469	462	461	461	462	474	476	472	470	470	472	473	473	473	474	477	477	474	472	473	471	466	464	461	461	462	466	463	462	464	468	470	468	467	467	470	471	469	470	471	477	476	451	455	469	469	466	463	462	461	460	469	470	464	459	458	461	470	474	473	468	466	464	462	462	460	454	462	468	468	469	467	466	463	460	460	460	459	457	459	458	460	460	463	462	462	463	462	466	472	470	465	460	460	460	464	469	463	459	454	455	461	464	462	461	461	458	454	453	453	455	455	451	449	448	449	451	454	452	451	450	452	452	453	452	450	453	453	452	452	454	454	454	452	451	447	444	443	443	444	445	446	450	452	454	454	453	447	445	451	455	455	454	452	450	451	449	449	450	457	457	457	456	459	461	462	462	459	455	453	450	448	446	445	447	450	451	455	452	452	448	448	448	450	454	452	450	447	446	442	453	457	454	450	449	460	458	459	460	460	459	459	459	458	456	455	455	456	459	459	459	456	452	452	453	451	0	0	0	0	0	0	0	0
543	539	532	527	527	526	527	528	532	538	538	543	540	528	523	523	527	530	527	524	522	521	521	521	521	521	520	520	522	522	523	525	525	521	512	508	505	505	509	512	520	527	533	537	534	528	528	526	530	535	537	535	528	522	516	522	526	532	532	531	525	516	514	513	518	524	527	523	516	518	525	527	526	523	520	520	515	515	518	517	514	513	512	511	496	494	495	493	492	500	508	507	503	500	500	501	504	498	495	495	503	505	507	507	505	501	501	498	499	496	497	495	494	497	500	499	493	488	485	483	483	484	485	485	487	489	495	493	490	489	492	489	485	483	483	484	483	484	487	489	488	489	487	484	487	489	499	497	496	490	487	486	485	487	489	491	493	493	494	494	495	494	494	492	493	494	493	492	488	483	479	475	474	475	478	480	486	488	490	492	491	493	492	492	493	493	484	482	481	478	478	480	477	474	478	482	483	483	480	480	480	476	471	467	467	469	468	470	470	466	463	463	464	469	470	471	470	467	468	468	466	462	458	457	471	473	477	478	476	476	473	476	474	475	475	476	482	482	482	478	472	462	461	466	480	480	480	479	473	467	461	461	466	470	467	467	469	472	475	479	481	480	478	475	473	469	468	467	469	470	469	470	477	474	470	470	473	477	480	477	473	474	476	477	476	476	478	478	479	477	476	480	477	469	466	464	463	463	466	467	464	463	466	467	469	468	465	466	471	473	472	469	467	464	463	463	463	454	464	469	469	469	468	468	467	462	457	456	462	470	470	465	465	464	466	468	469	468	469	470	473	470	470	469	469	472	470	468	467	468	469	472	475	477	476	474	468	465	470	478	479	476	473	467	466	465	467	469	476	479	482	479	479	478	476	472	468	463	456	459	467	469	465	460	457	459	463	466	471	471	466	470	474	469	471	468	464	462	457	456	458	458	459	457	457	455	460	471	471	466	464	466	467	469	467	464	460	456	455	456	459	466	469	470	468	464	469	469	466	464	465	462	459	459	460	462	462	459	455	453	456	459	460	459	461	462	462	462	463	462	464	465	462	458	454	449	446	446	448	446	448	448	449	453	460	463	453	451	449	449	449	454	457	461	462	460	452	443	443	446	447	446	443	443	456	458	456	455	458	457	456	458	458	457	457	457	452	453	452	452	451	455	456	458	461	463	462	457	456	453	453	455	460	459	459	456	456	458	457	454	455	455	457	456	448	445	442	448	447	444	444	447	451	455	456	452	448	443	439	440	446	445	438	437	438	442	445	448	448	441	439	440	442	443	440	435	438	442	447	450	451	451	447	443	442	446	446	446	447	445	445	444	444	444	443	439	437	441	447	449	451	453	454	455	451	451	448	443	439	439	442	447	451	451	448	445	445	446	448	450	442	442	443	445	446	443	438	438	440	442	442	445	449	450	454	455	453	455	455	455	452	448	447	446	449	452	450	445	439	439	439	441	0	0	0	0	0	0	0	0
532	531	527	520	520	516	518	520	519	523	523	518	514	514	515	520	520	524	521	519	514	514	514	513	513	513	516	516	515	515	514	515	517	514	509	506	502	502	504	506	508	518	525	528	523	518	518	515	518	526	529	515	512	509	512	515	512	520	520	517	509	505	505	504	507	520	514	510	512	514	516	514	505	501	502	502	503	505	506	510	495	495	497	495	492	488	488	489	493	499	498	497	494	491	488	486	483	478	481	486	494	498	499	497	492	490	492	493	493	492	490	488	487	494	497	494	490	485	481	478	475	474	478	480	480	483	486	486	481	478	483	484	479	475	476	477	476	473	473	477	480	480	477	476	476	483	487	488	486	470	464	460	472	477	482	485	486	486	487	487	486	485	485	486	487	490	487	484	482	478	475	471	471	472	472	472	475	480	483	488	488	486	485	486	484	481	478	476	475	474	473	473	475	472	474	476	475	475	468	461	463	466	468	463	455	458	463	462	462	461	459	458	460	465	462	463	463	464	460	459	461	458	454	454	456	462	471	473	474	473	467	471	470	471	469	464	461	471	469	466	462	460	459	464	473	478	477	474	469	460	457	455	458	461	461	455	454	458	465	472	464	467	473	470	467	464	459	455	463	463	464	470	473	469	465	466	469	471	469	469	468	470	466	465	464	467	470	470	468	467	461	463	465	465	461	457	457	457	458	461	460	459	460	461	458	457	457	461	465	468	468	469	469	465	463	458	453	451	450	455	464	468	468	468	466	463	460	461	460	459	464	463	462	462	463	463	461	461	461	460	465	464	463	463	464	453	462	463	464	465	467	472	471	473	471	469	463	461	460	462	458	464	460	458	458	457	457	462	469	473	477	477	475	471	470	461	456	451	452	456	461	463	457	451	446	448	454	458	457	460	459	457	449	456	462	464	463	460	456	455	456	455	455	450	449	451	449	450	451	453	453	459	463	463	461	459	456	454	453	452	452	461	463	456	450	451	455	458	456	454	450	447	447	449	448	453	453	450	445	442	444	446	447	447	448	447	443	443	452	457	461	463	459	453	444	442	439	440	444	442	442	442	444	447	450	451	441	434	427	427	442	450	453	448	442	440	433	434	436	439	442	446	441	439	439	438	439	440	445	451	451	454	453	451	444	443	447	450	450	449	449	451	451	447	451	456	456	453	449	447	448	450	452	452	455	455	456	452	450	449	452	440	444	440	437	438	441	443	439	436	432	435	439	445	450	449	445	442	439	437	437	440	436	436	435	435	438	434	434	430	433	432	434	434	438	438	439	443	446	447	447	446	443	440	437	436	437	437	437	437	437	440	443	444	443	436	432	430	432	436	439	435	433	446	447	444	443	440	435	436	442	448	450	441	436	433	430	431	433	435	439	439	440	441	443	440	436	433	436	444	444	445	443	439	435	433	436	448	449	448	442	434	436	438	443	443	441	438	434	434	432	434	0	0	0	0	0	0	0	0
522	519	514	507	507	502	504	508	507	506	506	507	509	509	511	515	515	520	511	508	505	506	506	508	506	507	511	510	507	507	505	508	514	516	515	508	505	505	505	504	505	508	513	511	506	503	503	501	499	495	501	501	497	502	507	504	503	501	501	498	501	501	502	500	497	494	494	497	502	509	509	503	497	494	491	491	490	471	473	478	483	483	485	489	487	484	482	485	492	492	491	493	485	485	485	482	479	474	474	480	486	492	487	482	478	482	485	488	489	489	486	483	483	487	490	490	487	480	476	471	467	468	474	478	478	479	477	477	476	469	471	470	469	467	472	475	473	468	467	469	471	471	467	468	467	472	478	479	479	467	458	453	453	459	469	475	481	482	482	481	480	478	478	480	481	482	480	477	472	470	467	462	466	469	471	467	468	469	473	469	472	473	473	473	475	474	472	469	472	468	465	464	468	469	470	474	474	464	459	454	453	453	454	457	461	460	458	457	458	456	450	447	446	448	453	455	456	457	457	454	454	453	452	452	455	460	458	452	470	470	470	470	471	470	467	461	457	459	461	460	459	457	459	465	470	474	471	466	458	452	447	447	451	454	457	452	449	450	449	451	453	458	463	464	463	457	454	449	447	453	464	471	474	471	465	462	465	467	458	459	461	459	454	452	452	455	458	458	458	456	455	453	458	458	457	453	450	450	450	453	454	455	456	457	457	456	454	455	465	468	469	467	467	465	459	452	447	446	445	448	457	467	467	460	460	460	458	459	458	456	456	460	459	461	459	458	457	456	456	455	455	456	455	455	455	451	454	455	456	455	454	458	461	461	459	459	456	452	452	452	451	449	448	450	450	451	452	454	462	466	466	464	456	454	453	453	448	443	446	452	457	458	449	441	437	442	444	445	443	438	440	444	447	442	442	450	460	457	455	456	457	457	454	449	450	451	449	449	450	449	450	451	457	457	457	455	452	451	443	437	439	445	448	449	448	450	451	450	450	447	444	442	445	447	447	445	440	437	438	442	442	443	442	444	444	440	438	437	445	449	454	455	437	440	442	439	436	436	438	439	436	436	438	432	435	440	436	434	435	435	432	433	435	427	427	430	431	432	436	437	435	430	434	437	439	440	441	438	439	443	445	449	447	443	437	437	444	446	446	445	445	445	440	437	438	447	448	444	440	439	441	446	446	446	445	444	444	444	438	438	434	432	433	433	431	436	434	433	431	429	428	432	435	440	444	446	442	439	437	435	433	435	437	435	432	429	422	426	429	428	427	424	427	430	433	436	436	441	440	443	442	440	438	438	435	425	426	426	424	426	432	435	439	441	438	436	435	434	432	434	431	429	427	428	431	435	435	434	429	429	433	435	438	436	434	431	429	428	431	431	432	434	435	437	438	436	433	430	434	439	439	439	437	433	428	429	429	429	429	427	427	427	432	434	436	435	430	430	430	429	429	430	0	0	0	0	0	0	0	0
504	504	503	496	490	490	493	500	503	504	504	503	501	501	504	508	508	514	501	502	501	502	502	500	499	499	497	498	499	499	501	508	516	518	518	517	514	514	511	506	503	503	501	495	493	493	490	490	489	487	486	487	489	491	494	495	498	497	497	494	491	495	497	492	489	489	490	494	497	499	494	490	486	484	472	469	469	469	468	471	472	476	482	485	485	481	480	480	484	485	484	481	480	483	484	484	479	473	471	473	479	469	467	468	473	480	482	485	486	485	480	478	478	480	483	483	479	474	466	461	459	465	470	472	474	474	473	473	471	466	462	461	461	463	465	467	468	466	466	464	464	464	463	464	465	466	468	472	474	463	454	450	448	452	461	471	475	473	462	451	451	470	472	473	473	475	472	468	464	456	452	450	460	468	475	479	463	461	460	455	453	453	461	457	461	462	462	465	468	465	463	458	453	446	447	458	467	468	456	448	449	449	445	446	446	450	455	457	456	454	449	446	446	447	444	445	450	450	448	447	443	443	445	445	446	448	448	449	448	444	460	460	465	466	461	455	452	455	456	451	446	446	447	447	446	446	447	449	447	445	443	439	443	449	455	451	447	446	444	445	446	449	454	460	459	456	448	442	442	441	448	450	451	454	455	456	457	442	442	445	447	447	445	442	448	448	450	450	450	449	447	444	443	449	449	449	446	443	438	435	441	445	449	453	456	458	455	451	446	442	440	439	450	453	454	449	444	444	447	449	455	458	459	452	452	457	458	457	453	449	448	456	460	460	458	456	453	451	450	449	450	450	447	446	444	444	445	448	450	446	446	449	452	452	453	452	451	447	445	444	443	440	438	440	441	443	445	450	456	440	451	449	446	441	438	436	429	429	437	444	452	454	446	437	431	433	438	441	433	435	434	434	435	438	439	440	440	440	442	450	454	454	451	449	447	447	448	448	446	445	447	451	450	450	446	444	440	438	435	436	440	442	445	446	447	446	447	447	443	440	439	442	445	447	446	442	436	431	432	436	440	439	440	438	440	440	435	436	439	442	437	434	434	438	442	439	436	435	435	434	433	430	427	428	430	429	430	432	434	435	433	427	422	419	422	426	429	431	431	430	428	426	430	435	439	439	438	434	433	435	438	440	441	438	435	432	438	440	441	442	442	439	435	431	426	429	432	426	426	430	434	438	438	438	429	430	430	430	430	432	432	426	424	424	421	419	424	424	420	420	421	429	430	431	437	436	433	434	435	435	432	432	438	431	425	418	416	419	424	424	422	420	423	427	431	435	433	429	425	422	422	428	434	435	431	422	419	417	422	422	426	430	436	435	431	427	422	428	429	429	426	426	425	424	425	428	430	426	423	424	426	425	431	434	432	431	427	427	428	430	430	430	431	433	433	431	428	427	426	431	431	432	430	427	424	424	426	426	427	426	425	424	426	420	415	417	416	417	417	421	425	428	0	0	0	0	0	0	0	0
494	491	489	486	487	487	493	500	505	504	504	501	494	492	494	498	498	492	494	496	497	498	498	498	495	489	486	487	493	493	498	505	508	508	505	507	506	506	504	501	495	493	487	483	480	478	478	478	481	481	482	481	483	481	484	487	489	489	489	486	482	479	479	484	486	486	489	492	494	494	488	479	480	480	480	476	476	473	470	466	466	470	476	480	481	478	477	476	475	477	475	476	474	471	471	471	476	471	469	468	463	464	464	466	472	475	473	469	468	468	469	469	470	473	469	465	465	465	458	455	458	462	464	460	459	469	470	467	464	463	460	450	456	459	462	464	464	466	464	462	458	454	456	459	459	458	456	457	454	446	445	445	447	450	452	452	451	450	449	446	446	444	447	453	456	464	455	453	445	438	434	439	446	455	462	463	461	458	458	454	452	449	448	449	450	450	448	450	452	457	458	457	450	446	444	448	455	459	450	444	446	446	444	437	435	443	446	449	447	440	436	437	443	448	441	442	445	445	444	440	440	442	441	442	437	435	436	444	444	441	437	434	440	449	451	448	444	447	450	449	444	443	444	444	443	437	438	442	445	439	439	439	440	440	443	449	446	443	442	442	439	439	446	452	450	446	439	435	435	432	429	425	429	442	447	446	439	438	438	439	440	443	443	441	441	440	443	445	446	444	436	433	422	430	443	440	435	432	431	434	439	441	442	438	442	449	450	447	444	439	436	434	433	431	429	432	435	436	438	441	445	447	448	450	452	455	453	449	445	442	442	443	444	446	448	447	448	448	449	448	446	444	443	435	433	436	440	442	441	439	437	440	443	444	445	443	440	434	437	437	436	434	430	430	430	423	424	424	426	434	437	437	436	431	423	421	425	431	430	435	440	445	444	439	431	429	430	431	436	435	435	434	435	437	438	436	433	430	432	441	448	452	453	449	447	446	446	443	439	442	447	447	443	442	438	430	432	432	439	440	439	438	437	433	443	443	444	438	436	434	435	436	438	439	439	436	436	434	431	431	432	435	435	433	433	436	433	433	429	427	422	418	418	425	431	432	437	435	432	426	422	423	423	423	425	428	428	429	433	435	431	425	418	416	420	423	426	427	426	424	422	423	426	424	428	435	433	427	426	426	429	430	433	431	429	427	430	433	435	435	436	434	429	424	420	418	417	422	423	417	417	416	418	420	421	420	421	422	427	430	426	420	418	413	413	416	417	416	415	415	415	415	421	422	426	426	428	431	431	431	431	431	433	432	422	417	413	418	423	423	423	423	425	427	431	427	425	420	418	416	416	418	422	428	428	420	420	419	418	417	416	417	420	422	425	424	421	417	416	417	417	420	423	420	419	417	415	413	414	416	420	421	420	422	428	428	425	424	426	427	427	426	426	428	427	423	420	417	421	421	423	424	417	417	417	422	423	423	423	422	421	418	418	417	416	412	411	412	412	417	423	427	0	0	0	0	0	0	0	0
488	488	488	486	490	490	493	499	506	504	504	492	482	477	473	484	484	480	485	490	492	492	491	491	488	484	484	485	487	491	491	493	495	493	494	494	498	499	499	497	491	486	483	481	475	469	466	466	468	470	473	475	473	474	478	480	483	484	484	484	480	475	471	479	485	492	492	493	490	482	478	473	471	472	472	473	473	470	465	466	464	465	466	470	470	467	472	470	471	470	469	467	461	455	452	457	458	461	460	457	458	459	458	461	465	461	458	456	456	458	466	465	462	457	452	449	447	453	452	454	455	457	457	454	450	449	450	457	458	454	449	448	451	441	439	439	444	450	454	456	452	448	446	445	443	441	440	441	446	446	445	446	449	454	456	439	437	437	442	445	445	444	443	445	446	442	434	444	450	448	444	443	447	453	448	450	455	458	458	455	451	447	448	452	454	447	440	439	442	449	451	449	445	442	438	443	449	451	444	440	441	442	440	433	430	434	438	435	435	431	428	429	432	437	443	432	428	425	428	433	435	437	435	434	434	431	430	432	435	435	435	433	437	444	447	448	447	444	442	443	443	442	442	442	439	434	430	431	434	438	440	439	438	436	435	435	431	430	424	421	417	419	431	439	438	434	433	430	430	427	422	425	429	436	443	442	436	434	433	432	435	436	436	437	434	432	432	438	441	438	433	420	417	421	428	429	425	425	427	429	431	430	431	430	429	439	441	442	437	434	432	433	432	431	428	425	424	425	426	430	436	437	436	431	429	429	431	440	442	436	435	434	434	436	438	439	439	437	438	440	438	433	433	430	429	429	433	433	434	433	430	431	437	440	438	432	429	427	429	431	433	431	430	422	420	416	416	422	426	425	427	427	426	429	424	426	424	429	424	423	427	429	431	430	427	425	427	434	434	434	434	431	434	437	435	429	427	424	425	428	434	438	446	442	436	434	433	428	426	422	428	434	435	431	427	424	427	425	425	430	431	432	435	430	425	426	429	433	430	430	429	427	425	423	428	429	426	426	428	427	427	427	418	418	421	423	423	425	424	422	416	414	414	422	425	425	424	422	421	422	420	421	420	421	420	423	426	430	432	430	425	418	415	412	416	420	423	423	422	419	415	417	419	414	411	416	419	417	418	419	422	423	424	426	422	418	420	425	427	423	424	425	421	417	414	414	412	412	417	417	415	415	416	416	412	408	410	414	424	420	413	414	413	412	410	415	416	416	414	413	411	414	415	417	418	418	425	426	427	428	427	426	426	425	424	417	413	420	426	428	428	424	424	425	428	423	418	415	411	409	408	408	412	415	423	421	417	416	413	412	411	412	413	417	421	422	422	417	412	411	416	416	416	416	413	410	410	408	407	410	413	415	415	416	416	418	418	418	419	418	415	414	413	419	419	413	410	414	415	415	415	412	410	410	411	412	413	416	419	419	416	416	413	414	414	415	410	411	411	414	418	422	0	0	0	0	0	0	0	0
480	482	484	485	488	488	492	499	504	496	496	479	469	463	465	474	474	472	479	482	480	473	470	470	467	472	477	482	486	486	486	485	481	482	485	486	489	494	494	494	490	486	484	479	472	468	465	465	464	470	470	470	472	472	474	476	478	475	476	476	475	469	468	471	480	490	493	482	478	471	465	462	464	467	467	469	469	466	461	460	462	463	465	465	460	455	456	462	467	465	461	453	449	445	442	439	443	449	453	454	454	455	454	453	457	456	455	454	455	455	454	456	457	455	450	447	444	445	448	452	454	451	453	456	452	445	442	442	439	439	442	447	450	443	440	437	438	440	444	446	447	445	440	437	436	436	435	439	441	439	436	440	449	452	439	438	437	436	438	438	438	438	438	438	437	432	432	434	437	442	444	443	442	442	442	441	445	448	449	452	452	448	447	435	435	429	428	436	439	441	440	441	439	433	433	433	439	435	432	432	432	431	428	421	425	428	431	430	429	427	426	422	423	426	423	420	416	414	416	421	428	435	432	431	428	426	425	428	429	433	437	438	439	439	435	430	437	438	438	438	435	433	434	436	436	432	427	427	428	427	424	424	430	433	435	433	432	429	422	416	415	415	421	429	431	428	427	425	422	422	421	426	427	431	435	438	433	431	429	429	428	427	428	428	425	423	424	425	427	422	417	415	416	419	422	424	422	420	422	423	424	425	429	429	428	425	428	432	429	427	428	430	431	433	431	427	422	422	423	423	422	422	421	424	422	419	422	431	432	435	430	428	429	427	428	426	421	423	424	425	423	425	426	426	425	423	421	426	426	426	423	424	430	431	426	419	423	422	422	424	422	422	422	416	412	411	419	425	421	421	421	418	418	422	427	427	427	425	421	420	416	412	413	417	421	421	424	427	431	431	429	428	431	435	431	420	417	416	418	422	425	423	420	420	416	418	418	419	414	413	421	423	425	423	422	425	426	423	420	419	420	423	431	426	424	423	425	421	423	423	422	418	416	419	424	424	422	422	421	422	421	418	415	414	409	412	413	410	413	415	416	413	409	411	410	410	409	413	418	420	420	417	417	419	416	418	420	420	419	420	418	412	408	408	411	415	419	420	418	415	411	411	417	414	405	405	406	408	410	415	417	416	414	411	407	410	414	417	417	417	414	411	413	414	410	412	409	411	412	410	409	412	414	413	410	403	402	408	416	409	403	403	403	410	409	411	415	413	412	411	412	412	414	414	416	415	418	416	409	405	403	405	414	417	418	416	406	407	410	416	417	416	415	416	414	414	416	412	407	405	401	401	405	409	411	413	411	410	409	410	408	407	409	412	416	421	422	418	413	415	414	413	412	410	406	406	406	406	403	402	405	407	407	408	409	413	413	413	412	410	408	405	403	402	404	406	406	407	412	412	412	405	402	399	401	408	412	414	413	410	408	408	410	412	414	410	403	407	407	407	410	412	0	0	0	0	0	0	0	0
467	471	475	476	474	474	474	479	482	481	470	470	464	460	462	468	468	462	465	465	463	460	460	460	457	459	466	472	477	471	471	470	470	474	475	477	478	483	483	485	480	474	473	471	468	467	464	464	464	464	465	459	467	471	472	472	472	471	469	469	467	464	464	468	476	452	452	454	458	455	455	456	458	462	466	467	463	463	457	458	459	461	462	456	454	456	460	462	462	458	452	447	443	441	439	440	445	447	448	450	452	452	454	455	453	452	448	451	451	451	447	448	452	451	450	448	447	445	440	439	441	445	436	433	433	435	435	438	437	437	439	443	444	440	440	438	436	434	434	433	438	435	432	427	423	423	430	431	434	434	434	432	433	432	432	436	437	435	433	432	433	432	431	431	427	425	421	420	426	437	439	438	434	429	428	433	436	434	437	440	438	433	430	427	429	423	419	420	426	436	436	435	431	427	426	423	423	426	428	427	430	429	425	425	427	428	429	428	426	423	420	419	419	422	421	418	415	413	416	420	426	428	425	421	420	420	423	426	427	427	427	427	426	420	424	425	423	423	428	428	428	431	431	432	433	434	430	428	426	422	413	415	422	431	434	431	432	430	426	419	414	415	421	425	425	424	420	418	418	417	423	423	422	423	430	428	422	420	420	420	420	420	419	419	416	413	414	403	399	403	409	416	420	418	417	420	419	418	419	421	422	422	423	423	421	417	419	423	423	419	421	422	420	422	423	423	419	420	418	415	413	413	414	417	417	414	412	417	420	420	419	410	411	411	417	418	410	410	417	419	421	423	425	424	423	414	410	408	412	412	416	417	420	421	420	418	417	425	425	421	415	413	412	411	412	413	415	412	421	417	416	421	422	424	425	425	420	420	419	413	411	407	409	415	419	417	420	422	425	426	425	424	427	425	421	415	413	410	413	417	423	419	415	412	409	409	415	415	411	411	417	420	419	417	419	421	419	416	415	414	414	417	421	427	424	420	411	411	410	409	408	408	412	415	419	417	419	418	418	419	417	414	406	404	404	406	404	401	401	403	408	411	410	406	403	402	400	404	414	416	406	407	412	416	410	410	410	409	409	407	407	405	403	404	405	410	414	414	412	409	405	404	411	411	408	406	402	407	416	420	417	410	406	405	404	412	414	413	415	413	411	400	398	399	403	408	408	409	409	400	398	403	403	403	402	403	403	401	407	401	401	400	398	397	409	411	411	411	407	407	410	407	404	408	408	405	402	401	400	399	396	396	402	405	407	404	405	407	408	409	411	410	408	404	402	402	405	408	407	403	396	397	400	404	405	408	408	405	404	401	398	400	404	407	411	417	418	418	416	412	409	406	407	405	402	402	402	401	400	400	401	403	402	401	402	404	405	404	405	407	406	403	403	403	403	403	402	400	400	399	398	397	398	396	396	404	411	412	409	402	400	401	407	408	409	402	401	401	400	400	403	404	0	0	0	0	0	0	0	0
454	458	460	457	456	456	463	471	469	469	464	464	457	454	458	460	456	456	459	459	453	447	446	446	451	456	460	463	462	463	463	462	463	466	467	465	464	466	466	468	464	462	463	463	464	463	464	464	460	457	454	455	459	464	469	467	465	463	466	466	461	458	456	452	448	447	447	448	449	452	454	455	453	452	449	447	445	445	447	451	456	457	451	449	450	455	460	466	468	459	455	449	444	439	440	444	446	445	442	440	440	438	438	443	445	446	441	438	435	435	435	437	441	445	448	448	445	442	441	436	436	433	432	431	431	431	430	428	433	436	438	438	436	437	436	436	433	431	430	431	430	428	424	425	425	428	431	433	435	434	433	432	431	429	430	435	435	433	431	428	427	425	423	426	425	421	418	416	421	431	435	433	429	424	424	422	422	425	434	437	434	428	424	418	417	415	415	416	420	424	432	429	423	421	418	418	418	422	423	425	427	431	427	425	426	426	420	421	417	416	415	414	412	415	418	418	416	421	420	421	422	421	418	418	424	428	429	424	417	413	410	408	407	409	420	421	419	415	414	410	420	421	420	419	421	425	427	426	422	412	409	415	420	424	425	425	426	425	427	418	415	413	417	423	424	423	420	414	414	416	419	417	416	413	410	409	412	414	415	415	415	416	415	414	408	406	401	396	395	400	412	419	424	423	422	409	411	412	415	417	420	420	420	419	417	414	412	411	411	412	415	415	413	412	416	420	416	410	404	399	399	407	410	411	413	412	410	411	411	411	410	410	408	411	415	417	414	403	405	412	412	412	411	412	414	413	410	405	405	408	411	412	416	418	416	416	414	413	415	415	412	409	405	405	408	405	406	410	407	407	413	416	413	411	411	411	412	415	412	411	406	402	407	407	409	407	406	408	416	417	418	410	414	413	413	410	409	409	411	412	411	411	410	409	409	409	409	407	407	408	412	414	414	411	413	416	415	411	410	410	409	407	405	408	411	409	405	403	404	405	405	405	409	412	409	411	413	416	418	415	407	401	401	400	403	406	403	398	396	399	401	404	405	403	404	403	401	399	401	401	400	404	407	408	412	408	404	402	400	399	396	397	397	397	400	401	403	404	404	403	400	399	406	403	405	403	400	397	397	396	394	392	389	387	390	400	412	408	397	396	397	395	396	396	396	394	394	394	396	395	392	392	391	393	395	396	396	397	400	398	397	397	395	390	389	395	401	400	403	402	399	397	400	401	401	400	397	393	393	391	390	393	396	398	399	400	404	404	404	405	406	406	403	400	397	397	398	398	398	397	400	401	401	395	393	397	398	398	394	393	395	400	401	404	402	404	404	411	410	404	397	395	395	395	396	394	397	398	397	398	398	400	401	401	401	401	401	401	401	401	402	397	394	394	396	397	397	395	395	393	393	394	394	393	394	394	396	401	402	400	402	400	397	399	400	402	399	399	397	396	395	398	0	0	0	0	0	0	0	0
448	450	449	448	449	449	456	460	462	459	454	454	451	449	450	452	448	448	452	452	448	441	438	438	441	447	452	456	456	455	455	451	443	445	446	447	449	450	450	449	453	455	455	452	454	455	452	452	452	451	451	450	453	456	457	457	452	454	457	457	457	450	450	449	448	445	446	445	445	445	447	447	448	433	436	438	440	440	441	443	443	442	441	445	445	442	442	445	448	453	454	449	442	433	431	430	432	434	433	427	426	425	429	433	435	439	437	432	428	428	431	435	436	437	437	440	442	438	438	436	429	428	428	431	431	430	427	432	434	436	434	431	428	431	432	431	430	428	427	428	427	423	422	424	426	429	432	432	434	432	429	432	433	432	428	430	431	432	427	419	420	419	420	422	423	422	419	415	419	423	423	422	422	421	420	418	420	423	427	430	424	422	417	412	412	412	413	414	416	417	422	422	416	415	415	416	417	419	420	418	419	424	421	417	413	407	408	407	404	400	403	403	407	411	414	414	415	407	405	416	416	414	412	414	419	424	426	423	416	411	409	404	405	408	414	413	412	405	404	403	400	397	400	397	400	417	422	421	415	408	412	415	408	411	413	415	416	412	411	407	406	405	405	402	405	407	406	406	404	408	410	410	408	404	395	396	406	409	410	413	411	412	411	411	405	406	406	401	402	405	408	407	409	413	411	409	404	403	404	405	407	410	410	410	408	405	404	404	405	407	407	408	405	409	416	415	411	408	402	402	402	400	407	409	410	410	409	408	408	408	408	404	402	403	400	399	399	400	402	410	411	409	409	409	411	412	410	406	401	405	409	410	414	406	405	405	407	406	408	406	402	403	403	404	405	401	399	398	399	400	406	409	407	404	406	407	408	408	404	401	399	399	400	403	405	401	401	403	404	408	404	405	410	411	409	405	403	406	410	412	410	406	405	406	406	405	402	399	398	400	406	407	404	408	410	414	415	410	407	403	400	399	403	403	403	401	401	401	402	404	404	405	407	406	404	406	409	412	406	405	405	402	401	403	403	401	401	400	396	397	401	401	398	398	401	402	402	402	402	402	404	402	401	403	404	402	401	399	397	396	399	400	397	395	395	394	395	394	391	389	388	389	393	395	397	398	396	390	390	387	387	386	386	386	391	393	397	396	398	397	395	391	391	392	392	390	387	389	392	390	387	386	388	390	391	388	393	392	395	395	393	391	389	387	384	390	393	391	391	390	392	390	391	394	396	392	390	388	384	382	386	390	391	392	394	396	400	401	400	399	400	402	400	395	392	392	393	394	396	397	399	403	403	399	398	399	399	398	394	393	397	398	399	397	396	397	394	397	395	389	386	386	386	388	389	392	396	395	397	395	394	395	397	399	399	399	399	399	397	396	395	396	395	394	392	391	388	386	386	387	388	389	392	391	391	392	388	388	393	396	398	397	392	391	393	398	395	395	395	395	394	396	0	0	0	0	0	0	0	0
446	448	447	447	448	450	450	452	449	448	446	446	442	444	442	445	440	440	441	445	442	438	436	436	440	446	451	453	452	448	448	431	429	432	440	442	441	440	437	437	441	447	448	448	445	448	446	445	445	444	445	444	444	446	446	443	443	444	444	446	439	439	435	433	434	437	441	444	445	443	436	433	430	428	429	432	433	431	431	429	428	432	435	432	435	431	430	434	440	439	440	437	434	432	431	429	428	430	431	430	430	427	425	426	427	427	432	428	425	424	427	429	430	430	430	425	421	422	425	424	416	414	418	421	423	424	424	428	428	424	422	421	421	423	426	426	425	423	423	424	424	420	418	417	426	428	431	429	429	426	427	432	433	432	428	424	425	423	410	410	415	417	420	421	422	420	419	418	416	417	418	418	418	416	412	413	411	411	414	414	411	410	405	404	407	409	412	413	413	412	412	409	406	409	414	419	419	409	404	395	395	402	406	406	403	400	400	401	399	398	398	399	399	403	404	404	404	404	403	405	404	407	407	407	412	410	412	413	412	408	404	400	403	405	407	408	401	399	399	398	395	394	390	391	395	396	398	406	407	406	409	401	403	406	410	411	411	407	405	404	404	400	397	398	403	405	403	401	399	399	400	399	396	387	384	385	388	392	397	401	401	397	398	396	405	406	404	402	400	400	407	405	405	405	404	401	401	403	401	401	401	397	391	391	397	400	400	402	402	398	398	397	398	406	408	407	405	402	401	402	397	394	395	399	400	403	407	408	409	406	404	398	396	394	393	390	392	397	401	406	410	409	405	403	403	403	403	407	406	407	406	405	405	404	399	397	397	394	393	389	391	391	395	395	400	398	397	397	398	400	401	401	400	400	401	404	403	401	399	398	396	396	400	401	398	396	395	397	398	397	395	395	391	393	403	400	399	399	405	410	406	400	399	400	398	396	392	391	392	393	399	399	404	402	404	404	406	407	406	402	394	396	399	399	398	398	398	398	401	402	402	404	402	399	397	397	392	397	399	399	399	398	397	390	382	392	393	398	399	398	399	398	397	396	397	399	398	396	400	396	397	401	403	397	397	397	397	394	392	393	395	397	396	395	392	392	389	390	395	395	391	390	389	390	393	391	391	389	384	381	380	381	384	383	386	389	391	390	391	393	391	388	387	386	387	382	382	385	387	381	381	381	383	388	389	390	392	393	394	391	390	389	387	384	385	389	392	391	388	384	379	376	379	385	389	387	384	380	379	382	391	397	393	393	392	394	396	396	396	396	394	392	388	387	388	388	390	392	394	396	398	394	391	393	395	395	393	391	386	389	392	396	397	394	393	390	390	389	392	390	389	383	383	386	388	390	393	395	395	389	390	391	392	391	391	394	395	396	395	394	394	393	394	395	394	390	387	387	382	379	383	386	386	388	388	384	377	375	381	388	391	392	388	387	394	394	393	393	393	393	393	395	0	0	0	0	0	0	0	0
438	438	440	439	438	434	434	436	438	439	438	438	439	436	437	435	430	430	433	436	437	437	438	440	440	444	447	448	441	431	423	423	422	431	439	440	441	437	437	437	437	438	439	436	434	432	436	437	437	435	435	434	435	434	437	437	437	437	438	435	435	432	428	428	429	429	428	428	430	432	431	427	424	422	422	425	428	428	428	426	424	426	429	431	428	423	424	427	427	429	432	430	431	431	431	425	422	422	428	429	426	425	423	422	421	419	419	419	418	418	421	423	422	423	424	420	417	411	410	412	413	411	413	411	412	412	412	414	412	413	417	415	417	418	418	418	415	412	411	413	413	411	409	412	411	415	419	416	415	413	416	416	419	415	410	407	408	408	404	406	410	412	411	410	407	407	406	407	409	411	413	415	412	410	403	400	398	400	400	400	401	401	399	398	399	405	409	405	402	402	409	409	407	407	410	414	413	407	403	399	397	397	403	402	401	397	395	396	398	398	398	399	400	399	399	401	395	396	397	398	399	398	399	400	402	405	407	408	406	404	397	394	400	402	399	392	392	391	396	396	393	391	390	389	389	390	394	396	399	401	403	397	398	402	405	405	404	404	402	401	399	394	394	395	400	401	401	398	394	392	393	396	392	387	385	386	389	389	397	401	402	398	397	405	406	402	399	398	396	395	395	401	401	400	391	389	396	398	397	397	396	394	390	388	390	392	397	397	397	395	391	390	392	396	397	395	394	388	392	392	388	388	391	395	398	398	399	402	407	403	395	393	391	388	387	387	391	397	402	403	403	400	399	397	397	393	394	397	399	409	409	406	400	398	394	391	389	391	389	389	389	392	391	389	390	393	395	396	398	399	399	398	397	395	392	390	390	391	391	393	393	393	397	398	394	390	390	393	394	390	390	391	388	388	390	395	396	398	397	399	394	393	396	395	391	389	387	384	383	385	389	393	398	397	397	399	402	391	392	397	392	395	396	397	395	395	397	397	401	403	402	401	397	392	381	384	387	387	383	387	390	392	391	386	377	378	381	391	394	395	395	394	392	392	394	391	386	384	387	390	394	400	402	395	392	392	393	387	387	388	390	391	390	390	390	390	387	390	393	392	388	385	386	386	384	384	387	389	385	377	385	384	384	382	385	385	379	376	379	378	379	378	382	382	378	378	379	382	380	375	379	378	377	380	383	391	393	395	394	391	388	386	384	383	386	388	390	390	388	383	379	379	381	384	385	386	381	379	378	380	384	385	385	385	385	384	385	384	380	382	385	388	385	381	383	382	382	381	381	379	382	381	379	378	388	383	381	379	379	383	386	391	393	393	394	390	389	388	388	389	388	390	389	386	381	382	385	384	383	384	386	386	386	385	387	388	390	393	391	388	389	387	389	393	393	387	384	384	379	373	374	375	378	380	379	373	370	370	373	378	382	384	387	390	388	387	387	386	389	387	387	383	0	0	0	0	0	0	0	0
434	434	434	429	424	423	423	427	430	433	433	433	429	428	430	429	427	427	427	431	434	436	437	440	440	442	443	440	435	426	420	420	419	428	437	441	439	432	430	430	430	431	431	430	428	427	425	423	423	421	424	427	429	434	436	435	436	434	431	428	428	420	421	424	429	429	427	427	427	427	425	421	419	417	416	415	421	424	424	424	423	422	426	427	424	419	419	419	421	423	425	426	427	428	427	421	418	415	417	419	421	420	420	420	420	416	415	411	409	411	415	417	419	420	420	416	412	412	412	413	414	412	411	410	408	407	404	402	403	407	410	412	413	414	413	413	409	405	402	407	406	405	404	404	403	404	407	407	406	402	406	405	405	409	410	405	402	400	399	405	406	410	408	404	402	399	400	398	400	401	401	402	402	400	398	399	400	398	397	394	395	397	394	394	397	403	408	408	403	399	408	410	407	404	403	409	410	403	401	401	401	399	397	395	393	389	391	394	399	399	399	399	395	394	395	397	396	393	395	393	395	392	392	392	393	396	399	401	400	394	391	390	394	398	396	391	389	389	394	395	390	387	388	387	388	389	389	391	395	396	399	396	395	396	397	398	399	399	399	388	382	380	382	385	392	395	395	392	389	387	389	393	390	388	384	388	390	388	392	399	400	399	397	401	401	401	393	391	391	390	390	391	395	390	388	389	387	394	393	394	393	389	386	383	383	387	391	393	395	392	390	388	388	388	388	389	385	387	389	388	384	382	389	394	396	395	393	392	393	392	390	390	390	388	384	383	386	389	388	382	382	383	391	384	387	383	381	383	390	399	402	397	387	387	386	387	388	389	391	391	390	388	384	383	382	385	390	394	397	399	398	394	389	388	386	383	384	384	388	387	389	391	393	396	390	386	383	385	385	385	388	390	387	385	386	390	392	393	394	392	391	388	388	390	388	383	381	378	379	383	387	390	393	393	393	390	389	387	391	392	391	391	392	391	393	390	391	396	393	394	392	388	385	382	381	385	388	385	383	382	386	390	389	387	378	377	378	382	387	389	390	388	385	383	384	384	382	381	380	382	388	391	395	391	386	388	387	383	379	384	385	384	386	388	388	386	385	385	388	384	383	383	378	377	380	381	382	379	375	373	374	375	375	379	381	376	375	372	371	371	372	375	376	373	375	374	377	379	375	371	369	367	368	370	372	387	397	397	395	391	387	383	383	377	380	384	387	387	386	381	379	380	382	384	386	386	383	378	376	376	380	380	381	381	381	380	381	380	379	381	386	388	384	378	374	373	372	371	371	373	378	378	375	375	375	380	378	380	378	378	379	384	388	388	386	386	385	382	382	381	381	376	376	379	381	381	381	380	380	380	380	383	382	382	382	381	381	377	375	375	376	380	381	384	386	385	380	380	377	369	366	368	375	377	370	367	367	369	373	375	375	375	377	377	370	369	369	370	371	373	373	374	0	0	0	0	0	0	0	0
429	429	427	424	419	417	417	419	424	429	427	424	424	425	426	425	416	416	416	420	429	432	439	441	441	440	437	435	432	426	422	422	424	431	437	436	431	424	422	422	423	424	425	422	421	419	418	414	416	416	421	428	431	434	434	434	429	429	424	417	417	414	416	421	423	424	423	420	419	419	419	416	416	413	411	411	416	419	420	420	417	416	417	420	419	413	413	413	414	416	417	417	420	422	413	409	408	407	407	411	416	415	415	416	410	406	407	405	405	405	407	408	410	412	412	411	410	411	414	414	414	412	408	406	400	398	395	396	399	402	404	406	405	403	403	403	402	399	399	401	402	402	404	404	404	405	404	404	404	402	400	403	405	411	408	405	400	397	397	401	403	404	402	399	395	393	394	394	395	395	393	393	393	395	398	400	399	397	394	391	392	392	392	389	394	400	404	405	399	390	387	385	384	400	398	399	398	398	398	392	393	393	391	390	385	379	373	377	385	386	387	390	390	390	389	388	385	391	393	391	389	387	384	384	385	387	386	389	392	389	386	387	385	382	382	380	382	384	387	386	387	385	384	385	387	388	388	389	389	385	390	390	389	389	387	390	386	387	390	393	379	377	380	385	392	395	390	386	384	383	387	393	388	387	387	388	386	387	387	392	397	398	395	394	393	389	386	387	388	384	385	386	388	386	387	386	385	385	384	389	387	382	378	377	380	382	384	390	392	392	390	388	386	385	380	382	381	381	383	371	373	380	387	392	392	387	384	381	376	374	372	372	372	376	378	381	382	380	378	373	374	373	375	381	381	381	378	377	376	379	384	379	381	378	383	385	386	387	390	388	386	384	379	378	376	379	383	384	387	391	389	385	380	378	378	379	381	382	384	380	383	385	388	391	387	385	380	378	379	380	380	380	383	381	381	380	383	389	390	390	389	387	386	386	384	380	376	374	374	379	377	378	380	380	381	379	383	382	389	389	391	391	391	391	390	387	382	378	378	384	381	383	386	389	386	383	380	384	379	381	384	381	385	386	381	378	376	376	378	383	385	383	379	378	382	379	382	379	378	377	382	383	386	381	378	382	386	385	380	376	380	380	382	385	383	375	376	382	382	380	380	380	376	375	375	374	375	376	372	370	369	369	368	373	375	372	371	371	369	369	370	376	377	373	372	375	376	376	374	373	371	371	370	369	369	375	386	388	389	390	387	381	373	372	376	380	378	383	374	373	373	372	373	383	385	383	381	377	374	375	377	377	374	374	376	376	376	378	379	380	379	377	378	375	372	369	368	367	371	371	373	372	372	372	373	378	380	381	380	380	374	377	376	373	373	377	378	377	375	373	371	367	369	372	374	375	379	376	377	377	378	378	379	378	378	377	375	373	373	373	373	373	376	379	384	377	377	376	374	368	365	366	371	369	365	364	365	365	371	369	370	370	370	367	363	366	366	367	366	367	370	370	0	0	0	0	0	0	0	0
420	420	422	421	418	414	414	415	421	422	422	423	423	424	426	423	415	414	414	418	421	424	421	420	420	425	429	426	423	422	421	421	422	425	429	424	421	418	418	418	419	418	418	416	414	411	409	409	413	413	417	416	421	429	433	414	418	415	411	410	410	410	413	417	418	417	413	407	408	409	409	409	409	404	399	403	410	412	413	413	410	412	415	415	414	410	407	406	409	410	411	411	410	409	408	406	403	402	399	403	408	409	413	413	405	401	400	398	397	400	406	407	404	406	406	399	399	401	406	410	414	411	406	400	397	396	395	394	397	402	404	404	402	399	396	398	397	395	394	395	395	400	404	404	404	402	403	402	401	401	400	403	408	411	407	401	397	394	390	394	398	399	397	394	386	386	391	393	388	385	385	386	388	392	394	395	397	393	389	387	387	388	389	388	391	393	399	398	387	384	383	381	381	380	378	379	379	382	385	388	391	391	390	388	386	383	380	379	381	386	385	384	385	387	387	386	386	389	390	382	375	375	378	380	381	383	379	380	382	368	375	380	383	381	382	378	381	383	386	385	385	385	383	384	385	386	387	386	386	384	380	377	382	381	381	382	385	386	388	387	377	376	378	384	387	388	385	381	379	380	384	392	390	387	386	382	378	385	386	392	394	395	393	392	390	388	386	386	382	380	382	383	382	382	382	380	381	380	374	381	382	380	374	373	376	379	383	387	385	383	387	386	384	380	375	369	363	368	370	370	370	376	380	380	380	378	373	375	372	371	369	370	372	375	377	377	377	374	374	376	375	375	375	376	377	376	376	374	373	374	372	374	375	375	376	377	382	384	379	367	367	369	373	371	370	373	377	380	380	380	380	379	379	378	377	374	375	379	380	375	380	382	385	386	384	377	377	376	375	376	375	374	370	369	369	369	370	380	385	383	384	385	384	383	380	370	368	369	369	371	372	375	378	380	381	378	378	380	385	385	384	384	385	388	385	376	371	370	377	377	375	372	370	377	375	373	368	370	367	369	371	376	376	379	376	374	372	370	373	380	381	382	382	380	376	373	377	375	374	374	375	376	377	372	375	379	383	381	374	369	371	376	381	378	372	370	372	372	368	369	377	379	374	371	372	373	374	372	369	367	367	367	367	369	368	360	361	367	369	372	373	371	372	370	371	374	375	371	370	369	370	369	368	366	365	366	367	368	369	371	373	377	371	368	371	373	372	368	367	368	370	369	368	369	379	383	383	379	375	373	375	373	373	370	365	366	369	375	375	375	373	373	371	371	368	366	364	364	364	367	368	368	368	372	373	374	377	380	380	379	375	372	372	369	368	367	369	371	369	365	365	364	365	367	367	362	365	365	368	370	374	371	370	369	373	372	370	365	363	365	366	369	369	368	368	367	367	366	367	369	365	365	365	365	361	359	361	362	356	362	363	365	366	364	359	364	364	363	363	366	368	369	0	0	0	0	0	0	0	0
409	409	414	416	414	411	411	414	414	415	419	422	422	423	423	418	415	416	416	418	415	414	415	414	414	412	415	417	414	409	411	411	415	416	416	415	416	415	414	414	414	413	413	414	411	406	402	402	403	403	404	403	406	410	406	407	407	407	404	407	409	409	413	414	414	409	405	401	402	402	401	402	398	395	394	397	399	400	398	398	397	406	411	415	413	407	400	400	403	407	408	408	405	404	403	402	400	398	394	393	393	395	396	397	396	396	396	393	393	397	396	397	403	404	405	401	398	397	398	402	403	402	398	394	394	395	394	394	395	399	402	401	396	393	393	393	391	393	394	393	393	392	391	398	399	400	399	399	400	400	400	402	406	410	405	396	390	386	387	391	393	393	388	386	383	382	385	387	388	381	378	382	384	384	383	386	385	384	383	385	385	385	386	385	386	387	387	384	383	379	377	376	376	376	373	373	373	375	381	384	385	389	386	385	384	382	380	380	381	383	382	381	383	384	383	382	382	382	380	378	374	374	374	370	375	376	373	366	364	369	374	379	384	385	378	375	376	382	381	379	372	374	375	376	376	377	380	383	386	385	377	372	368	367	378	380	383	385	384	383	375	375	376	384	386	386	382	380	378	379	376	375	373	371	370	370	374	372	374	380	381	379	371	372	373	374	382	383	382	381	379	376	378	381	380	379	378	375	372	369	371	370	368	369	375	380	375	375	375	375	375	380	382	379	371	366	363	369	370	370	369	371	370	369	370	369	370	369	368	367	364	366	372	371	374	375	371	371	372	374	375	373	373	373	374	373	372	371	370	370	369	370	372	372	372	372	369	369	367	364	366	368	371	371	372	375	377	377	376	376	375	372	373	375	375	371	370	372	373	373	374	378	380	380	377	373	374	377	377	377	374	373	371	370	368	365	364	365	369	373	382	378	375	371	372	378	375	369	366	367	367	371	378	378	380	377	376	376	379	375	364	366	374	378	377	375	369	368	365	362	363	362	363	365	370	370	369	367	367	367	368	372	374	376	374	370	369	368	370	370	368	369	370	368	366	363	366	369	370	370	369	371	369	370	372	374	376	373	367	361	358	370	372	364	363	366	367	369	359	359	355	359	364	366	364	370	370	368	366	365	366	366	368	366	353	351	354	356	362	367	364	363	370	368	370	371	371	370	366	365	366	365	365	363	363	363	363	362	361	363	363	364	364	364	367	368	367	365	364	365	367	366	367	368	368	371	373	375	373	367	370	369	360	359	359	363	364	366	369	370	369	367	366	365	363	361	358	358	360	361	362	362	364	368	369	368	373	372	371	369	367	369	368	367	364	363	362	362	362	363	363	363	363	363	359	355	355	363	367	368	369	368	364	359	358	357	357	355	355	360	362	365	366	365	364	364	358	356	358	365	366	365	363	357	357	356	357	357	354	352	358	360	361	356	354	354	355	361	361	364	367	366	0	0	0	0	0	0	0	0
400	400	399	406	405	408	406	406	406	408	410	411	411	412	412	414	410	412	412	411	411	410	411	411	410	410	411	411	409	407	408	408	408	407	409	410	414	414	412	407	407	408	409	410	406	401	398	398	399	399	400	401	403	402	405	404	403	402	403	405	407	407	410	412	411	409	405	401	398	397	397	395	394	394	394	395	396	398	397	394	394	393	395	400	403	394	381	381	388	398	402	403	402	399	398	390	389	389	390	389	386	386	388	390	393	395	395	393	393	394	396	395	397	402	402	399	394	392	396	399	399	395	393	389	391	392	393	393	394	395	399	399	396	391	387	387	390	393	392	392	390	387	385	387	392	395	395	397	398	398	398	391	389	387	384	384	383	382	383	383	383	382	383	381	379	378	379	384	384	379	378	381	382	381	379	379	378	379	380	381	381	380	383	382	381	379	377	378	378	375	372	371	370	369	368	368	370	372	372	366	379	383	383	383	383	379	381	381	381	377	378	379	379	375	374	381	380	380	375	372	367	365	368	372	375	376	375	372	369	370	372	375	378	375	371	368	367	373	372	371	368	365	365	365	365	368	374	374	376	374	369	366	367	369	367	366	379	378	375	373	372	373	374	374	376	379	377	374	372	371	371	370	369	367	369	368	370	371	374	375	373	366	368	367	368	367	361	369	370	370	371	371	362	374	375	376	376	374	370	367	363	364	367	370	369	367	370	374	373	371	364	362	371	372	371	368	369	372	372	372	370	367	368	368	368	368	365	365	364	363	364	366	369	368	370	367	369	370	372	374	373	371	370	369	371	369	369	369	369	368	367	367	369	368	368	369	367	364	365	365	366	369	376	378	377	376	367	367	367	367	367	368	370	373	372	369	369	368	365	367	368	372	372	371	368	366	369	375	374	376	372	370	368	369	366	366	367	366	363	363	370	367	364	368	380	380	373	373	364	362	362	367	379	380	377	373	372	373	369	361	361	364	367	368	366	365	364	364	362	359	359	360	362	365	367	368	370	369	368	365	366	368	370	367	364	360	367	368	368	364	363	365	368	367	363	359	358	359	365	365	361	364	367	368	371	372	372	369	364	358	354	354	356	357	357	361	366	362	353	352	354	355	357	356	357	357	357	359	357	362	364	365	364	356	352	348	353	353	354	354	357	361	359	363	363	366	369	366	359	357	358	359	361	361	360	361	359	357	358	360	359	361	361	358	362	364	365	364	361	359	355	357	355	360	358	358	357	360	365	363	356	353	352	351	355	354	357	359	364	365	363	363	363	359	359	354	354	354	352	353	356	357	359	357	359	362	367	367	366	366	365	364	361	359	362	360	352	355	355	358	360	362	361	357	354	352	351	358	363	366	368	365	360	357	354	355	356	355	356	356	357	358	358	359	358	358	351	349	351	356	355	357	354	353	352	352	350	351	351	350	349	348	349	351	351	351	354	356	359	361	365	364	0	0	0	0	0	0	0	0
400	396	396	397	400	399	400	400	400	404	407	408	408	408	409	410	402	406	406	407	406	406	406	407	405	405	404	406	403	403	403	402	402	403	406	408	410	410	407	404	404	404	402	401	400	398	397	397	397	397	398	398	398	398	401	402	401	402	401	401	401	401	405	408	410	409	404	399	394	388	387	387	389	390	392	394	397	393	387	389	389	389	391	392	391	390	390	389	391	396	390	387	389	387	383	380	381	383	388	387	385	385	385	387	389	393	394	393	392	391	390	389	390	389	391	393	390	389	391	392	393	391	387	387	388	391	392	388	391	392	394	392	391	388	385	384	385	387	389	389	386	384	382	384	387	388	390	394	387	386	385	375	379	381	381	376	378	378	380	378	378	377	378	376	373	374	377	378	379	378	379	380	379	379	377	375	374	374	375	375	374	375	377	373	375	375	373	371	371	369	366	366	368	367	367	368	368	369	365	356	359	366	364	370	372	380	378	376	372	373	374	373	371	366	368	370	375	375	372	369	367	365	368	370	373	375	374	371	370	372	371	374	374	371	369	365	364	365	365	368	366	364	362	363	362	363	368	368	364	360	358	362	365	365	364	365	362	362	364	364	364	366	367	367	366	366	367	366	368	366	364	364	365	364	361	364	365	369	371	372	365	359	360	363	362	360	358	364	365	364	364	356	356	357	368	371	373	373	366	363	362	363	363	362	364	365	363	364	365	364	362	358	358	360	362	364	367	370	371	371	369	365	364	367	367	366	363	361	362	364	364	368	368	365	364	365	368	369	371	369	364	366	366	366	367	368	369	369	369	371	362	360	360	361	366	365	362	361	360	363	367	365	363	361	360	360	358	360	362	365	367	367	369	370	371	367	362	363	366	367	366	371	372	371	367	365	363	365	364	364	362	362	363	366	366	366	359	361	359	362	362	360	361	365	369	369	367	375	371	368	363	370	371	372	370	368	360	361	362	361	360	361	362	363	363	361	358	356	356	355	356	357	359	364	365	362	366	365	359	358	358	361	364	354	355	355	362	364	365	363	361	364	363	366	362	359	356	357	356	359	358	354	359	365	365	367	367	366	363	356	353	352	350	351	355	354	356	352	351	352	354	355	354	352	353	349	351	355	358	359	357	355	355	355	353	349	349	351	352	353	356	357	355	356	359	357	356	351	351	352	353	354	355	355	356	353	355	352	353	354	355	358	358	354	356	359	361	362	354	347	345	347	351	354	354	355	356	357	352	359	354	352	349	350	350	351	352	353	356	359	360	361	362	360	355	350	349	346	345	347	348	351	353	353	355	361	361	364	365	363	362	359	357	355	351	349	350	350	351	351	354	355	354	351	350	349	347	350	357	360	360	361	358	350	351	353	354	355	354	354	353	353	353	352	348	348	350	348	347	346	347	344	345	346	349	346	343	342	344	346	347	346	345	347	349	349	352	354	356	358	364	356	0	0	0	0	0	0	0	0
402	400	400	399	399	397	398	398	401	404	402	403	403	405	405	395	395	400	400	402	400	399	400	398	396	396	398	398	400	400	398	396	396	398	402	405	408	408	406	405	405	402	401	398	396	394	395	395	395	393	393	389	393	393	394	391	391	396	395	396	390	391	391	395	398	398	395	394	391	386	384	389	393	397	396	397	390	385	389	391	391	393	392	392	390	389	389	389	390	394	383	382	383	386	384	381	379	379	382	385	384	382	382	383	385	390	390	390	387	386	386	387	387	382	379	378	384	383	384	384	383	383	382	383	387	390	389	388	383	385	388	387	386	385	384	382	381	381	379	377	375	376	379	382	383	383	383	378	377	376	374	371	378	380	379	372	372	374	375	375	375	375	374	372	371	371	372	371	371	374	379	379	375	373	372	372	370	368	365	365	369	372	373	359	360	367	368	366	363	363	363	364	365	365	366	368	368	366	363	355	351	359	359	357	359	364	364	368	367	367	362	365	363	362	364	366	368	369	370	369	364	365	363	358	369	373	373	369	365	365	363	365	367	366	366	364	359	357	365	362	361	361	358	358	359	361	363	364	364	361	361	360	358	357	360	362	360	359	359	361	360	362	364	362	360	356	362	364	363	362	359	361	363	361	359	356	360	363	366	365	361	355	352	348	346	352	357	359	359	360	359	353	354	355	360	365	371	366	364	361	361	360	360	359	360	363	361	364	363	363	362	360	358	357	358	363	363	365	366	363	363	360	359	360	361	362	359	357	360	362	363	360	360	361	363	364	366	367	365	363	360	362	363	362	364	366	368	368	366	357	354	357	358	359	364	360	359	359	356	354	354	354	356	358	357	355	355	357	359	360	362	364	366	370	370	362	361	364	366	366	366	368	369	366	362	358	356	352	350	352	356	358	360	360	362	356	356	357	360	361	363	365	366	361	362	357	362	363	362	357	354	354	360	363	365	365	361	358	360	356	355	355	359	361	362	360	357	353	352	352	354	354	356	360	362	358	358	357	355	354	352	347	348	351	353	353	356	358	363	362	361	359	357	353	353	353	353	353	355	356	355	353	356	362	364	361	359	360	359	350	346	346	346	353	355	355	353	348	347	347	347	348	351	353	352	353	354	356	356	355	355	355	351	353	351	350	346	347	349	351	354	351	351	351	355	356	352	346	343	350	351	353	353	347	346	347	350	353	353	353	351	352	350	348	350	351	351	353	349	344	344	346	349	351	352	354	355	356	351	351	351	350	350	352	352	350	350	349	352	356	358	359	357	352	351	349	344	344	343	339	340	345	347	346	347	350	349	345	344	344	355	355	351	349	344	343	344	347	349	349	348	345	344	345	345	347	343	345	350	356	353	352	350	350	351	350	351	349	348	347	345	344	345	345	345	345	348	348	347	346	346	344	346	346	345	339	338	338	335	339	341	343	344	344	344	343	343	342	342	345	350	343	0	0	0	0	0	0	0	0
401	399	399	399	396	396	397	397	399	401	404	402	399	399	397	387	388	392	395	395	396	396	391	392	392	392	390	393	395	397	395	392	392	394	399	403	406	408	406	403	403	401	399	395	391	389	390	392	390	389	387	388	388	387	388	388	386	381	380	379	381	383	383	384	381	381	383	381	376	380	383	389	391	391	389	385	386	386	385	385	388	388	389	389	389	389	387	385	383	381	379	378	377	375	379	380	378	377	379	382	383	380	379	380	381	382	385	383	380	379	379	383	382	375	372	371	375	375	375	376	377	377	378	380	386	387	384	379	375	379	381	378	382	383	382	379	378	376	373	369	369	370	375	379	380	376	373	372	373	372	370	367	366	366	365	365	366	370	372	373	370	370	370	370	369	368	370	368	368	372	378	378	373	369	368	368	368	363	363	363	362	364	359	355	355	357	362	363	361	361	360	360	361	360	366	369	367	365	362	352	349	348	354	355	357	357	353	353	357	355	355	356	357	356	359	362	363	361	362	364	365	360	359	356	352	355	357	357	358	358	361	363	360	359	359	358	354	354	361	361	358	358	356	356	358	359	362	363	364	363	360	357	354	352	354	356	357	356	355	354	357	357	356	359	356	351	353	358	361	360	360	359	357	357	355	351	351	351	354	355	356	353	350	348	346	351	356	356	358	358	354	352	352	354	359	357	356	356	357	357	358	358	359	360	358	357	360	361	361	362	359	360	357	354	354	354	355	357	356	358	357	358	359	358	360	362	359	358	357	355	355	356	356	357	359	365	365	366	364	362	359	358	357	360	354	355	355	357	352	349	350	355	357	356	356	358	356	354	350	349	349	351	352	352	353	354	352	353	355	357	357	356	358	360	358	355	348	357	362	360	359	362	360	358	357	355	353	348	348	351	354	357	358	359	360	357	351	357	361	361	363	365	365	360	358	356	353	350	355	352	350	351	352	353	356	358	358	344	351	352	353	355	357	359	360	358	354	350	348	347	349	348	348	349	358	358	355	354	352	351	348	348	349	348	350	349	354	357	357	357	358	355	349	348	348	350	351	350	350	354	353	352	355	359	360	356	354	354	355	348	347	349	349	352	352	351	347	346	346	341	344	347	345	349	352	352	353	353	352	351	351	351	351	349	344	344	346	347	347	348	348	349	347	348	349	350	349	343	341	341	343	345	346	342	347	351	353	353	350	347	346	346	344	344	346	350	353	355	353	349	349	347	347	347	351	354	356	355	344	350	350	350	343	341	339	336	334	337	336	339	338	340	341	347	347	344	344	342	339	341	341	339	339	340	341	347	346	343	343	343	344	347	345	341	341	340	342	342	343	347	345	343	343	343	345	348	347	343	344	348	345	343	343	344	343	344	349	348	347	344	343	341	336	341	341	343	345	346	345	343	344	344	344	343	342	339	337	334	336	338	340	341	342	346	346	346	341	341	340	340	337	334	0	0	0	0	0	0	0	0
398	398	398	395	393	393	393	393	394	396	399	396	392	392	388	382	383	387	392	392	393	389	387	387	387	387	387	386	389	393	391	389	391	391	395	398	400	398	398	394	396	396	392	389	385	385	384	390	393	387	387	384	381	379	380	381	382	380	377	373	372	378	378	378	378	378	375	377	378	378	381	385	385	384	382	384	385	384	381	380	377	377	382	385	385	386	383	381	379	378	374	372	370	370	372	375	375	374	376	378	378	372	373	378	380	382	381	378	375	373	371	373	372	368	365	363	362	366	368	370	373	375	377	377	380	382	377	369	366	367	369	371	377	381	381	378	372	371	369	369	367	369	371	371	371	371	370	369	369	368	366	365	363	361	359	360	363	364	362	365	365	366	366	367	366	367	364	364	359	355	362	359	356	353	354	359	358	355	354	354	356	357	357	353	351	357	361	360	361	360	356	354	356	356	358	360	356	353	350	349	348	347	351	352	353	352	351	351	351	348	354	351	349	350	352	357	359	357	356	354	355	360	358	354	351	350	351	351	352	352	352	353	352	352	351	349	349	351	352	355	357	357	355	354	355	357	355	351	350	357	357	354	347	346	347	351	352	353	351	349	351	353	353	351	353	349	347	348	348	351	352	355	355	351	348	348	350	354	354	355	356	353	349	350	352	351	352	358	359	358	352	352	351	351	351	348	344	345	347	350	355	357	359	361	357	358	360	356	357	358	358	356	354	351	351	350	348	346	349	354	352	350	345	347	350	352	349	347	347	352	350	350	351	347	345	345	342	344	346	348	347	349	347	346	348	350	351	349	346	346	349	352	354	353	354	352	352	351	349	346	348	349	347	349	349	352	352	352	352	355	354	355	356	358	356	354	350	346	348	352	352	350	352	351	351	350	348	347	347	348	350	350	351	352	354	353	350	356	357	358	360	358	358	357	357	355	352	348	351	348	348	348	349	350	348	343	341	343	344	346	347	349	350	355	357	354	349	346	344	346	346	345	345	345	347	347	346	344	349	345	348	348	348	347	346	346	346	346	345	344	344	342	346	345	346	347	347	346	346	351	351	349	348	348	347	350	350	350	347	350	351	352	349	350	351	348	344	344	339	340	344	343	342	345	346	346	347	348	348	348	338	336	343	344	341	340	342	343	345	347	347	346	346	347	346	348	346	341	340	337	337	339	340	343	346	348	350	352	350	343	341	342	342	342	343	347	350	354	354	353	349	347	346	343	342	345	336	332	330	332	337	340	340	339	337	333	329	328	330	333	337	338	337	336	341	341	341	339	337	341	340	338	335	335	337	342	340	338	343	343	344	346	345	344	340	341	342	340	341	342	339	340	340	338	338	345	348	348	346	344	342	338	336	336	338	338	343	345	345	340	339	334	334	334	336	339	341	343	343	341	340	342	343	343	342	341	336	333	336	338	339	339	341	343	343	337	337	337	335	333	333	333	0	0	0	0	0	0	0	0
390	392	392	391	390	389	387	388	388	388	392	390	386	386	384	375	378	382	386	386	381	381	383	383	382	379	379	379	383	387	386	384	386	386	389	387	388	386	382	378	379	379	386	383	380	380	384	391	390	376	377	377	376	375	375	376	377	373	374	373	374	375	377	377	377	377	375	376	378	377	376	378	379	378	379	381	383	380	377	374	371	374	374	375	377	373	373	373	374	375	375	371	368	366	368	372	372	372	374	373	368	362	364	375	381	384	375	372	367	367	370	373	366	363	361	360	360	361	362	364	368	374	375	373	369	366	365	362	362	365	366	367	363	362	361	363	363	364	363	367	366	365	365	368	365	365	366	366	363	358	358	359	362	360	358	358	358	358	356	358	360	362	363	363	363	363	351	353	354	356	350	351	354	358	361	359	358	354	351	349	348	355	354	348	348	352	356	348	345	346	349	346	350	348	351	353	351	351	349	348	349	350	349	343	344	345	348	348	344	343	344	349	351	346	348	353	354	352	349	350	356	357	358	354	348	346	350	350	348	347	347	348	346	346	344	343	344	345	348	350	352	350	350	351	354	352	350	348	348	349	345	341	341	342	342	346	345	342	344	345	347	348	346	343	342	343	341	343	340	344	346	349	346	342	343	346	356	361	361	354	350	346	346	355	354	351	349	352	357	352	349	345	345	346	347	348	343	342	343	348	349	351	360	359	349	347	350	354	351	351	351	349	349	346	347	346	346	346	352	350	349	348	345	342	341	341	340	338	342	345	345	345	344	343	342	342	344	343	342	342	345	346	345	344	343	344	346	347	348	347	347	350	350	352	348	346	345	347	345	348	348	347	346	345	349	354	354	352	348	344	341	340	350	352	352	351	347	345	349	350	348	347	349	349	347	344	342	341	343	344	347	346	347	349	352	352	350	349	349	349	351	354	357	355	352	348	344	344	344	346	346	343	343	341	340	342	344	345	340	343	345	346	345	339	342	347	344	342	342	343	343	343	343	343	344	342	339	340	343	348	350	349	340	338	340	338	339	339	341	341	341	337	338	339	342	343	345	345	345	348	348	341	343	344	344	344	340	340	344	349	351	346	347	347	348	346	338	338	339	339	334	333	334	343	345	344	343	342	343	336	335	332	333	338	338	337	339	341	342	342	342	342	341	341	343	344	335	334	335	332	330	331	340	342	339	335	341	344	346	340	339	340	340	339	337	337	334	339	341	344	335	337	335	333	332	332	331	327	326	327	335	336	337	339	339	337	333	330	330	334	334	330	328	320	321	327	333	335	338	338	334	334	331	333	334	336	335	334	336	338	340	344	344	342	343	343	341	338	336	339	338	337	335	333	333	331	333	337	336	342	341	336	334	334	335	338	339	338	342	335	331	331	333	333	334	335	336	340	340	333	334	336	337	335	334	335	331	330	331	335	334	336	338	338	337	333	332	331	331	330	328	329	0	0	0	0	0	0	0	0
386	389	389	389	385	383	381	381	381	384	385	382	381	381	379	371	375	367	369	369	372	373	374	375	374	374	374	376	379	381	381	380	380	380	382	382	383	383	378	373	371	371	372	375	378	371	372	372	362	367	370	370	371	372	373	373	373	371	372	373	370	373	375	375	373	369	369	372	371	372	370	369	369	371	374	375	377	374	371	371	370	369	369	372	369	368	367	366	365	368	370	366	364	366	369	371	372	368	365	361	360	357	359	359	359	363	363	364	366	367	366	366	364	363	356	355	353	353	354	354	358	361	364	360	357	351	350	352	353	355	355	354	350	350	352	352	355	356	357	356	361	361	363	362	361	359	359	359	362	364	365	366	366	358	345	346	349	350	349	349	349	353	355	353	349	348	343	345	347	349	345	349	349	353	359	359	357	352	348	343	340	341	343	341	338	343	342	342	342	342	342	342	337	337	338	340	340	347	347	349	352	349	342	342	341	340	338	340	341	339	339	338	337	333	334	345	345	347	348	347	343	344	346	345	345	347	348	348	346	343	343	341	341	341	340	338	340	341	343	345	345	344	343	344	342	344	348	346	338	333	333	333	335	334	333	331	328	329	335	335	341	334	336	336	340	339	342	344	344	344	345	348	345	344	343	346	345	346	346	344	342	340	345	345	342	338	338	345	346	346	346	340	340	341	344	343	343	341	341	341	338	337	342	339	343	343	342	341	340	340	339	338	338	342	345	345	345	345	345	346	347	345	344	343	341	339	338	338	339	340	340	339	341	341	342	342	344	344	342	341	345	346	345	342	342	341	342	344	346	345	344	345	345	341	337	338	340	349	350	348	343	339	338	336	338	341	340	341	341	341	340	338	336	343	340	345	340	345	345	345	340	342	344	342	347	343	342	340	340	342	343	344	343	346	348	349	349	347	347	347	349	350	350	354	352	348	346	343	344	344	342	340	339	338	339	342	345	343	344	350	350	344	333	333	336	346	344	340	341	343	342	343	343	342	341	338	335	337	341	347	350	348	340	338	339	338	336	336	338	340	341	337	336	338	339	340	341	343	344	348	347	341	341	343	338	336	336	334	335	336	335	333	324	324	326	332	338	335	335	337	335	329	330	332	335	341	341	340	339	336	332	331	331	329	333	334	337	339	341	341	340	337	337	337	338	339	337	336	335	334	334	334	336	338	334	332	336	338	340	337	338	336	337	337	333	328	327	329	329	328	330	331	332	330	330	328	325	323	323	323	328	331	330	331	338	338	338	336	334	324	322	320	319	318	322	325	332	335	335	331	329	329	328	332	332	325	325	327	327	329	336	336	334	336	335	334	329	331	336	337	333	331	328	327	326	325	326	331	333	331	330	329	330	335	335	331	331	333	333	332	330	330	330	332	333	332	333	335	333	332	331	332	326	328	331	328	329	327	327	329	332	334	336	336	334	332	329	326	327	326	327	328	0	0	0	0	0	0	0	0
