0	0	0	0	0	0	0	0	0	0	0	0	0	0	0	0	0	0	0	0	0	0	0	0	0	0	0	0	0	0	0	0	0	0	0	0	0	0	0	0	0	0	0	0	0	0	0	0	0	0	0	0	0	0	0	0	0	0	0	0	0	0	0	0	0	0	0	0	0	0	0	0	0	0	0	0	0	0	0	0	0	0	0	0	0	0	0	0	0	0	0	0	0	0	0	0	0	0	0	0	0	0	0	0	0	0	0	0	0	0	0	0	0	0	0	0	0	0	0	0	0	0	0	0	0	0	0	0	0	0	0	0	0	0	0	0	0	0	0	0	0	0	0	0	0	0	0	0	0	0	0	0	0	0	0	0	0	0	0	0	0	0	0	0	0	0	0	1228	1230	1224	1203	1201	1220	0	0	0	0	0	0	1366	1381	1380	1336	1301	1284	1296	1307	1314	1305	1294	1291	1303	1329	1348	1361	1358	1346	1336	1342	1334	1336	1333	1333	1316	1305	1292	1286	1339	1350	1345	1330	1312	1307	1296	1296	1298	1305	1308	1341	1365	1377	1371	1345	1310	1308	1335	1340	1324	1320	1311	1308	1304	1292	1295	1295	1300	1306	1303	1304	1305	1308	1311	1311	1297	1278	1259	1248	1265	1309	1302	1290	1282	1293	1311	1324	1346	1353	1359	1359	1353	1347	1341	1337	1333	1341	1348	1361	1365	1349	1339	1330	1330	1335	1346	1341	1338	1340	1351	1358	1353	1355	1365	1375	1385	1386	1378	1365	1360	1365	1357	1347	1335	1326	1333	1332	1332	1325	1326	1336	1341	1352	1354	1347	1333	1316	1317	1320	1316	1313	1312	1325	1346	1358	1362	1363	1365	1366	1355	1335	1320	1312	1316	1317	1324	1335	1353	1353	1315	1283	1266	1270	1294	1340	1333	1328	1328	1344	1355	1361	1367	1371	1378	1381	1365	1351	1349	1356	1353	1342	1337	1327	1317	1307	1299	1287	1289	1293	1307	1308	1310	1310	1309	1298	1291	1292	1286	1294	1307	1325	1332	1336	1331	1328	1340	1349	1354	1344	1330	1319	1309	1310	1320	1333	1376	1385	1364	1343	1326	1306	1306	1317	1330	1335	1340	1342	1335	1324	1306	1298	1293	1301	1327	1321	1312	1297	1287	1293	1300	1306	1308	1299	1298	1293	1288	1277	1272	1276	1265	1268	1285	1297	1313	1310	1303	1293	1295	1298	1305	1302	1287	1286	1295	1274	1275	1260	1248	1248	1258	1271	1276	1275	1273	1294	1299	1304	1304	1308	1310	1303	1292	1285	1267	1258	1266	1284	1277	1272	1264	1265	1258	1251	1238	1236	1249	1264	1265	1256	1246	1250	1259	1270	1275	1279	1263	1254	1244	1242	1248	1252	1260	1267	1271	1271	1268	1262	1255	1242	1246	1260	1290	1287	1274	1243	1234	1240	1265	1294	1295	1284	1264	1273	1280	1269	1262	1249	1241	1241	1254	1263	1264	1267	1267	1257	1251	1252	1231	1239	1232	1216	1216	1222	1228	1221	1217	1215	1206	1202	1204	1209	1189	1191	1192	1193	1193	1190	1188	1190	1191	1188	1186	1182	1179	1193	1209	1229	1208	1193	1190	1166	1171	1161	1146	1138	1124	1114	1110	1110	1113	1109	1108	1115	1126	1137	1154	1172	1177	1187	1186	1186	1182	1153	1133	1132	1128	1127	1121	1128	1144	1157	1164	1174	1173	1150	1118	1102	1098	1096	1116	1150	1174	1180	1170	1133	1116	1116	1121	1133	1127	1125	1134	1141	1144	1144	1150	1148	1126	1097	1090	1099	1108	1126	1149	1167	1179	1180	1180	1165	1141	1135	1125	1130	1131	1133	1138	1133	1125	1132	1150	1152	1147	1143	0	0	0	0	0	0	0	0	0
0	0	0	0	0	0	0	0	0	0	0	0	0	0	0	0	0	0	0	0	0	0	0	0	0	0	0	0	0	0	0	0	0	0	0	0	0	0	0	0	0	0	0	0	0	0	0	0	0	0	0	0	0	0	0	0	1226	1192	1162	1160	1172	0	0	0	0	0	1219	1220	0	0	0	0	0	0	0	1186	1179	1193	1218	1227	1239	1253	1247	1236	1231	1223	1197	1198	1222	0	0	0	0	0	0	0	0	1192	1163	1169	1190	1201	0	0	0	0	0	0	0	1178	1150	1141	1145	1158	0	0	0	0	0	0	0	0	0	1135	1108	0	0	0	1199	1195	1182	1175	1170	1211	0	0	0	0	0	0	0	0	0	0	0	0	0	0	1171	1165	1171	1187	1209	0	0	0	0	1210	1206	0	0	0	0	0	0	1216	1197	1195	1204	1202	1201	1200	1211	1250	0	1271	1264	1299	1299	1296	1284	1299	1292	1263	1263	1262	1284	1278	1268	1262	1262	1270	1283	1290	1294	1293	1294	1306	1312	1304	1293	1282	1282	1270	1256	1245	1249	1270	1314	1311	1304	1296	1289	1284	1283	1283	1264	1257	1275	1301	1320	1324	1296	1277	1261	1265	1279	1282	1281	1284	1273	1260	1263	1269	1280	1282	1275	1273	1267	1264	1265	1267	1263	1251	1230	1215	1211	1223	1246	1242	1248	1243	1267	1277	1289	1304	1325	1332	1328	1318	1314	1307	1305	1308	1315	1326	1338	1345	1345	1333	1319	1312	1306	1311	1292	1294	1305	1317	1329	1334	1329	1329	1307	1303	1308	1297	1283	1273	1266	1260	1260	1261	1268	1270	1273	1255	1237	1229	1244	1245	1246	1248	1245	1245	1247	1244	1248	1256	1266	1271	1286	1291	1282	1273	1265	1269	1279	1285	1288	1287	1288	1286	1276	1274	1279	1291	1272	1262	1249	1240	1242	1259	1253	1239	1232	1238	1252	1253	1264	1270	1279	1286	1279	1275	1268	1281	1279	1278	1272	1286	1303	1308	1312	1306	1291	1279	1277	1281	1297	1298	1287	1279	1254	1244	1247	1244	1235	1233	1252	1252	1251	1266	1289	1312	1339	1351	1337	1322	1301	1288	1285	1288	1308	1313	1306	1316	1297	1280	1263	1259	1266	1277	1276	1269	1258	1257	1259	1242	1232	1231	1230	1238	1237	1236	1235	1240	1251	1263	1265	1262	1251	1240	1228	1224	1227	1230	1231	1222	1203	1223	1241	1270	1292	1299	1293	1274	1257	1252	1261	1262	1196	1203	1202	1187	1173	1183	1196	1202	1202	1180	1153	1143	1141	1189	1212	1221	1230	1222	1211	1191	1184	1190	1189	1199	1201	1210	1211	1215	1218	1211	1194	1180	1167	1167	1179	1204	1222	1229	1228	1214	1209	1215	1242	1244	1221	1211	1212	1229	1243	1243	1230	1208	1198	1200	1203	1206	1201	1173	1188	1204	1218	1218	1222	1227	1238	1250	1260	1264	1258	1250	1246	1239	1224	1215	1207	1196	1193	1190	1189	1194	1211	1229	1236	1230	1220	1175	1161	1146	1152	1155	1166	1183	1190	1184	1176	1178	1179	1188	1193	1169	1155	1145	1141	1154	1172	1195	1197	1193	1178	1174	1144	1146	1148	1156	1160	1164	1163	1169	1162	1151	1137	1129	1120	1115	1101	1096	1096	1102	1109	1115	1116	1121	1128	1145	1156	1151	1145	1123	1138	1145	1138	1135	1128	1116	1112	1108	1108	1122	1137	1149	1148	1137	1117	1102	1095	1089	1083	1092	1111	1149	1155	1136	1121	1110	1106	1111	1107	1107	1109	1119	1128	1129	1135	1129	1097	1078	1069	1084	1095	1108	1118	1132	1139	1127	1110	1110	1093	1090	1092	1096	1113	1124	1129	1123	1108	1096	1090	1104	1117	1121	1114	0	0	0	0	0	0	0	0	0
0	0	0	0	0	0	0	0	0	0	0	0	0	0	0	0	0	0	0	0	0	0	0	1141	1144	0	0	0	0	0	1162	0	0	0	0	0	0	0	0	0	1181	1162	1151	1151	1157	1162	0	0	0	0	0	1174	1204	1224	1224	1218	1165	1138	1126	1122	1137	1159	1149	1149	1145	1160	1159	1156	1150	1143	1144	1144	1167	1167	1137	1142	1160	1159	1161	1175	1181	1180	1148	1158	1169	1159	1144	1134	1169	1208	1195	1160	1161	1226	0	0	1192	1145	1138	1152	1174	1193	1196	1198	1185	1183	1182	1182	1150	1134	1119	1103	1101	1115	1146	1172	1195	1206	1203	1195	1175	1163	1135	1109	1080	1088	1112	1116	1129	1141	1149	1145	1137	1129	1144	1157	1176	1181	1185	1182	1174	1208	1205	1204	1205	1182	1166	1148	1140	1141	1155	1179	1188	1197	1197	1196	1185	1177	1158	1149	1151	1153	1179	1191	1201	1194	1183	1185	1190	1190	1198	1199	1205	1216	1225	1211	1208	1233	1236	1234	1224	1219	1238	1235	1241	1256	1252	1248	1236	1235	1237	1243	1240	1243	1242	1241	1246	1281	1290	1271	1249	1244	1243	1228	1214	1209	1219	1239	1265	1254	1257	1258	1249	1257	1262	1253	1226	1212	1212	1231	1257	1259	1239	1224	1202	1197	1198	1217	1229	1238	1200	1208	1217	1227	1250	1253	1241	1233	1227	1219	1214	1208	1202	1196	1182	1166	1163	1186	1204	1205	1200	1199	1239	1252	1263	1269	1285	1292	1286	1276	1262	1269	1273	1279	1284	1285	1301	1306	1301	1301	1283	1273	1262	1249	1239	1243	1258	1277	1288	1284	1246	1236	1228	1253	1255	1249	1241	1232	1223	1224	1227	1237	1240	1245	1240	1228	1213	1212	1222	1224	1218	1210	1212	1220	1221	1218	1220	1227	1234	1232	1241	1246	1246	1239	1228	1226	1227	1233	1239	1233	1223	1216	1221	1227	1234	1239	1235	1226	1217	1219	1224	1235	1229	1217	1205	1206	1213	1207	1222	1233	1239	1237	1234	1235	1225	1216	1217	1225	1230	1251	1277	1289	1286	1245	1234	1236	1234	1235	1231	1223	1223	1230	1221	1202	1193	1178	1178	1176	1175	1187	1196	1222	1239	1248	1238	1239	1245	1254	1258	1263	1242	1235	1238	1248	1243	1224	1211	1217	1221	1224	1226	1223	1215	1215	1208	1211	1215	1207	1205	1195	1190	1186	1189	1185	1171	1168	1176	1187	1205	1211	1202	1203	1190	1197	1201	1201	1198	1183	1170	1162	1161	1159	1160	1174	1184	1189	1186	1175	1141	1148	1151	1131	1111	1104	1111	1113	1123	1130	1138	1120	1099	1087	1092	1111	1141	1160	1162	1158	1145	1131	1125	1123	1124	1122	1115	1118	1117	1113	1119	1122	1131	1122	1112	1103	1100	1095	1109	1131	1142	1146	1139	1131	1131	1134	1132	1133	1141	1143	1144	1166	1161	1147	1128	1113	1121	1130	1154	1162	1157	1159	1165	1161	1152	1153	1156	1160	1156	1145	1141	1138	1141	1161	1167	1164	1170	1165	1154	1143	1140	1141	1138	1132	1130	1129	1153	1136	1121	1133	1147	1148	1137	1135	1138	1150	1151	1148	1148	1151	1155	1150	1146	1142	1140	1148	1140	1141	1142	1129	1124	1120	1120	1125	1129	1141	1145	1148	1146	1144	1137	1128	1111	1104	1099	1095	1088	1081	1080	1087	1101	1106	1105	1103	1099	1110	1122	1125	1116	1112	1126	1129	1128	1124	1119	1102	1095	1091	1097	1094	1110	1113	1111	1107	1094	1087	1085	1079	1075	1072	1087	1104	1106	1102	1101	1098	1094	1085	1090	1097	1094	1096	1115	1112	1107	1087	1060	1055	1057	1072	1087	1092	1104	1111	1117	1101	1083	1083	1068	1056	1062	1078	1096	1104	1110	1098	1089	1064	1041	1062	1091	1095	1068	0	0	0	0	0	0	0	0	0
0	0	0	0	0	0	0	0	0	0	0	0	0	0	0	0	0	0	0	0	0	0	1099	1105	1121	1126	1126	1132	1140	1118	1096	1100	1151	0	0	1192	1177	1170	1173	1168	1160	1132	1119	1119	1126	1134	1145	1099	1089	1071	1081	1095	1106	1105	1105	1102	1101	1087	1080	1073	1086	1123	1117	1108	1108	1113	1115	1114	1103	1095	1099	1099	1093	1084	1088	1102	1116	1122	1124	1119	1107	1093	1100	1121	1136	1126	1093	1069	1066	1085	1110	1113	1120	1122	1132	1099	1090	1088	1081	1087	1118	1133	1132	1107	1107	1124	1138	1133	1123	1111	1095	1069	1064	1075	1100	1109	1101	1117	1128	1144	1146	1108	1091	1081	1060	1051	1038	1046	1067	1099	1118	1116	1109	1106	1113	1122	1140	1158	1139	1127	1100	1088	1095	1097	1096	1086	1094	1127	1128	1134	1149	1164	1174	1179	1174	1160	1147	1136	1125	1121	1126	1127	1146	1155	1172	1179	1176	1170	1178	1184	1185	1184	1189	1188	1192	1177	1172	1176	1203	1197	1175	1164	1164	1191	1227	1239	1218	1209	1200	1202	1210	1221	1215	1208	1203	1188	1187	1209	1233	1218	1205	1204	1193	1181	1169	1162	1178	1191	1179	1187	1199	1204	1202	1201	1209	1212	1188	1161	1164	1180	1185	1185	1174	1175	1165	1146	1150	1168	1182	1135	1141	1148	1157	1176	1210	1198	1191	1178	1168	1167	1162	1158	1149	1139	1128	1123	1126	1148	1159	1160	1161	1157	1158	1154	1218	1233	1244	1241	1232	1214	1209	1212	1217	1222	1228	1233	1240	1250	1238	1229	1228	1211	1189	1181	1181	1192	1205	1225	1228	1229	1195	1187	1187	1196	1198	1206	1192	1182	1179	1182	1189	1200	1205	1205	1207	1197	1185	1184	1189	1187	1183	1176	1182	1192	1201	1199	1186	1192	1202	1202	1195	1196	1196	1198	1190	1181	1174	1176	1177	1168	1167	1170	1175	1188	1189	1190	1188	1182	1183	1181	1194	1201	1194	1183	1175	1169	1169	1172	1177	1183	1195	1211	1215	1218	1199	1187	1181	1176	1178	1192	1207	1211	1197	1184	1192	1196	1195	1195	1186	1185	1181	1192	1196	1180	1168	1150	1122	1116	1121	1144	1173	1187	1187	1187	1189	1193	1199	1208	1214	1218	1208	1201	1207	1205	1194	1171	1165	1179	1179	1182	1183	1186	1176	1159	1159	1160	1165	1172	1169	1163	1148	1153	1158	1156	1142	1139	1150	1159	1172	1182	1192	1184	1162	1143	1138	1140	1146	1144	1137	1134	1134	1126	1121	1126	1134	1142	1116	1117	1114	1115	1113	1096	1078	1090	1099	1101	1107	1107	1102	1090	1068	1055	1060	1086	1114	1127	1120	1100	1093	1091	1093	1095	1094	1084	1083	1091	1095	1094	1094	1103	1108	1102	1095	1081	1069	1064	1076	1095	1108	1119	1113	1096	1096	1093	1087	1097	1096	1103	1110	1120	1124	1116	1097	1077	1084	1093	1118	1125	1125	1122	1120	1121	1119	1115	1121	1130	1125	1117	1108	1109	1128	1121	1121	1134	1131	1116	1093	1085	1096	1107	1118	1110	1110	1104	1119	1120	1124	1131	1140	1136	1124	1113	1116	1122	1132	1130	1129	1128	1096	1117	1121	1112	1107	1114	1114	1115	1112	1107	1105	1106	1105	1108	1109	1116	1122	1125	1115	1108	1099	1069	1055	1066	1061	1058	1054	1043	1052	1063	1078	1085	1082	1069	1068	1070	1091	1097	1083	1080	1097	1102	1103	1109	1109	1096	1089	1086	1088	1079	1073	1068	1070	1066	1061	1057	1053	1049	1054	1064	1075	1079	1074	1072	1075	1073	1060	1057	1066	1073	1073	1070	1074	1075	1070	1059	1050	1043	1048	1056	1060	1069	1077	1081	1077	1073	1061	1061	1047	1046	1052	1067	1081	1084	1083	1073	1044	1021	1014	1018	1028	1032	1035	0	0	0	0	0	0	0	0	0
0	0	0	0	0	0	0	0	0	0	0	0	0	0	1075	1048	1032	1018	1023	1023	1035	1046	1073	1092	1105	1110	1110	1109	1100	1078	1060	1049	1057	1069	1069	1080	1091	1097	1110	1135	1131	1114	1089	1049	1045	1046	1056	1061	1050	1055	1054	1051	1035	1030	1040	1040	1051	1054	1048	1043	1044	1058	1065	1070	1078	1091	1092	1080	1073	1060	1060	1060	1067	1067	1065	1069	1074	1074	1055	1039	1038	1050	1067	1085	1087	1067	1041	1015	1009	1018	1037	1052	1058	1068	1058	1051	1050	1046	1036	1035	1059	1087	1081	1074	1064	1053	1059	1069	1078	1067	1057	1048	1052	1051	1039	1029	1020	1024	1041	1052	1052	1046	1052	1053	1036	1020	1009	1013	1023	1042	1049	1053	1064	1059	1057	1065	1080	1079	1068	1054	1040	1044	1049	1063	1058	1049	1048	1053	1070	1085	1090	1088	1080	1110	1095	1091	1075	1079	1087	1094	1099	1109	1122	1136	1145	1149	1150	1151	1150	1146	1144	1160	1154	1154	1156	1154	1142	1126	1140	1116	1107	1099	1083	1098	1130	1158	1176	1167	1158	1155	1152	1155	1168	1142	1123	1107	1098	1101	1117	1133	1115	1101	1097	1115	1110	1116	1114	1125	1124	1128	1139	1134	1127	1125	1130	1117	1109	1099	1099	1104	1109	1099	1110	1104	1089	1073	1048	1041	1045	1066	1089	1097	1100	1089	1112	1122	1120	1099	1080	1066	1059	1081	1101	1099	1097	1088	1089	1094	1073	1082	1088	1094	1102	1108	1104	1101	1141	1139	1136	1128	1123	1127	1151	1161	1172	1168	1168	1157	1155	1150	1146	1138	1128	1115	1116	1129	1143	1159	1177	1164	1123	1128	1135	1146	1151	1115	1095	1104	1119	1131	1143	1151	1153	1152	1150	1157	1151	1156	1157	1149	1135	1119	1121	1137	1153	1145	1133	1139	1141	1160	1154	1142	1144	1121	1117	1111	1115	1124	1124	1117	1117	1131	1144	1154	1144	1147	1143	1147	1143	1143	1155	1155	1143	1130	1132	1134	1134	1131	1132	1135	1149	1182	1166	1167	1176	1162	1150	1143	1144	1147	1156	1164	1154	1149	1150	1153	1141	1135	1144	1141	1138	1148	1152	1148	1131	1078	1068	1064	1078	1125	1145	1143	1140	1134	1131	1146	1150	1153	1174	1184	1180	1169	1159	1144	1131	1115	1121	1132	1137	1133	1131	1136	1133	1115	1106	1109	1114	1129	1131	1120	1110	1129	1133	1132	1117	1117	1122	1134	1146	1154	1162	1155	1137	1123	1111	1108	1103	1097	1099	1102	1098	1080	1080	1083	1058	1069	1072	1052	1065	1080	1081	1066	1053	1057	1050	1046	1057	1076	1078	1058	1034	1017	1026	1053	1080	1086	1083	1070	1057	1050	1058	1063	1060	1055	1054	1065	1072	1068	1064	1056	1070	1081	1072	1056	1039	1035	1045	1056	1070	1072	1065	1052	1045	1041	1045	1054	1067	1070	1070	1079	1084	1077	1066	1057	1058	1060	1081	1087	1093	1094	1089	1086	1077	1077	1087	1092	1089	1085	1077	1082	1096	1090	1092	1098	1102	1085	1071	1063	1067	1073	1081	1089	1078	1078	1094	1104	1113	1116	1120	1115	1103	1091	1084	1058	1077	1085	1084	1065	1063	1084	1085	1079	1070	1068	1081	1066	1072	1080	1082	1086	1083	1076	1067	1073	1077	1083	1074	1051	1039	1020	1021	1028	1025	1023	1021	1022	1030	1038	1049	1061	1055	1043	1031	1035	1043	1048	1041	1049	1061	1072	1077	1084	1086	1086	1091	1091	1078	1061	1043	1030	1023	1024	1017	1017	1019	1026	1035	1046	1061	1057	1052	1046	1042	1039	1027	1024	1033	1038	1050	1050	1051	1048	1050	1049	1039	1029	1033	1039	1036	1029	1033	1036	1031	1031	1037	1037	1030	1037	1049	1061	1041	1030	1021	1032	1021	1006	998	1000	1002	1006	1008	0	0	0	0	0	0	0	0	0
0	0	0	0	0	0	0	0	0	1037	1031	1025	1015	1015	998	996	989	988	997	997	1005	1018	1042	1062	1077	1084	1084	1081	1069	1031	1020	1025	1043	1061	1061	1058	1057	1044	1044	1086	1027	1024	1013	1013	1011	1019	1024	1019	1025	1031	1040	1024	1003	994	995	995	1009	1021	1018	1017	1016	1020	1030	1034	1037	1042	1039	1030	1004	1003	1009	1009	1032	1038	1041	1021	1019	1024	1027	1023	1016	1018	1022	1034	1029	1015	1000	989	992	1004	1007	1014	1018	1014	1003	1002	1003	1005	1010	1018	1024	1020	1005	988	982	983	990	989	991	990	1018	1032	1037	1032	1017	996	980	977	984	991	1004	1013	1022	1022	995	987	985	983	990	1006	1013	1016	1009	1003	998	1001	1000	999	992	996	988	993	1003	1022	1012	1023	1019	1008	1008	1006	1025	1035	1032	1009	987	978	986	993	1045	1060	1065	1069	1086	1083	1087	1086	1096	1097	1101	1070	1051	1043	1038	1046	1057	1091	1094	1092	1076	1069	1067	1059	1043	1044	1051	1037	1029	1072	1106	1124	1124	1089	1080	1056	1036	1026	1032	1035	1042	1040	1046	1048	1050	1055	1068	1078	1080	1083	1065	1052	1054	1043	1049	1040	1039	1037	1037	1031	1023	1032	1027	1025	1020	1017	991	991	998	1005	1022	1035	1039	1012	1004	1004	999	1004	1010	1018	1022	1014	1014	1016	1030	1035	1021	1026	1020	1022	1032	1036	1024	1018	1031	1025	1028	1043	1056	1046	1085	1072	1078	1093	1114	1132	1138	1115	1101	1096	1098	1104	1096	1091	1078	1071	1069	1071	1091	1104	1094	1072	1057	1047	1032	1033	1041	1048	1052	1055	1058	1082	1091	1097	1100	1105	1095	1097	1112	1123	1117	1108	1088	1081	1073	1053	1039	1025	1020	1014	1026	1054	1060	1063	1053	1054	1064	1060	1066	1063	1061	1063	1082	1096	1077	1070	1062	1065	1076	1087	1084	1055	1062	1083	1080	1045	1043	1034	1041	1048	1050	1046	1080	1078	1068	1047	1048	1071	1095	1089	1084	1097	1111	1117	1104	1098	1102	1095	1089	1057	1048	1075	1095	1094	1074	1053	1041	1029	1014	1003	1002	1001	1013	1024	1039	1049	1044	1048	1041	1025	1019	1030	1051	1059	1066	1066	1057	1047	1044	1072	1089	1083	1085	1060	1067	1062	1061	1061	1067	1091	1090	1072	1064	1055	1055	1056	1066	1073	1081	1099	1097	1113	1115	1117	1093	1073	1060	1053	1048	1047	1057	1060	1050	1031	1011	1014	1020	1018	995	996	1024	1050	1052	1040	1004	992	996	994	998	1010	1011	998	992	998	998	1000	1023	1032	1032	1029	1028	1023	1021	1027	1032	1030	1030	1035	1041	1034	1021	1013	1009	1031	1038	1025	1005	996	999	1016	1035	1033	1028	1004	998	1000	1004	1014	1017	1017	1027	1043	1052	1050	1043	1034	1029	1033	1040	1051	1060	1059	1056	1052	1046	1041	1048	1041	1050	1056	1053	1044	1047	1048	1055	1063	1074	1064	1045	1039	1043	1043	1047	1047	1042	1043	1067	1087	1091	1088	1034	1022	1011	997	992	998	1034	1050	1051	1036	1018	1034	1036	1036	1028	1021	1012	1026	1044	1050	1056	1049	1043	1032	1017	1033	1036	1041	1028	997	988	991	1001	1004	1013	1016	1005	1009	1016	1017	1017	1011	1021	1013	1005	1003	1004	999	992	1001	1013	1025	1032	1016	999	996	1002	1059	1042	1020	992	988	985	978	975	982	993	1005	1017	1021	1024	1035	1026	1022	1018	1006	1002	1001	1009	1020	1026	1034	1030	1029	1034	1029	1016	1004	995	994	1003	1009	1015	1014	1007	1003	1003	1006	1019	1032	1040	1017	992	988	990	995	1006	999	988	982	981	985	989	0	0	0	0	0	0	0	0	0
961	953	953	948	955	980	985	985	984	983	982	977	978	978	977	972	971	972	970	967	967	972	988	1015	1044	1051	1051	1041	1007	988	989	1003	1022	1038	1038	1049	1027	1005	966	965	973	972	967	967	970	978	982	972	970	978	991	988	979	967	973	973	982	988	981	969	973	988	1007	1012	986	980	981	984	981	979	976	976	985	988	989	993	1002	1007	1006	995	995	1002	1003	1006	1000	973	966	969	981	986	990	984	977	970	970	973	978	986	985	981	971	966	965	964	960	958	959	964	961	973	981	1000	1005	1001	987	982	973	973	967	964	975	983	989	979	963	947	958	958	959	967	990	993	988	978	966	966	967	971	970	961	950	943	958	973	976	987	996	970	948	944	969	982	984	970	958	953	956	961	967	967	974	983	981	1014	1021	1023	1041	1043	1039	1027	1016	1005	1000	1000	976	991	992	998	1041	1051	1035	1014	1006	1010	1009	991	988	987	989	1004	1015	1022	997	987	997	996	1002	1007	1013	1013	1015	1010	1009	1006	1019	1021	1017	1011	979	976	985	990	1000	990	989	995	985	980	972	972	975	981	966	950	959	970	983	991	1005	1005	986	978	966	965	955	956	962	971	985	985	981	985	992	982	976	953	940	944	998	994	982	967	954	963	972	978	998	986	976	976	1030	1050	1069	1067	1062	1054	1054	1054	1060	1050	1014	1011	1019	1032	1040	1047	1053	1056	1043	1035	1027	1011	991	989	993	1008	1016	1016	1023	1036	1043	1060	1059	1034	1005	1002	1018	1025	1032	1031	1045	1047	1037	1008	996	996	991	979	979	986	994	1000	1003	1011	1009	1014	1016	1005	1017	1033	1034	1026	1017	1021	1020	1017	999	982	981	986	1001	1003	1012	994	988	988	987	984	980	971	994	999	1002	999	979	963	963	966	964	994	1003	982	995	998	998	992	1005	1004	988	986	976	985	1013	1017	1008	993	983	975	971	952	939	972	983	988	987	978	971	957	955	965	968	973	979	1009	1022	1017	1004	992	980	974	975	988	1000	1032	1034	1012	1011	1037	1038	1002	989	993	998	1005	1004	1026	1027	978	975	980	1000	1012	998	981	971	959	973	1000	1003	984	974	986	994	985	965	952	948	963	979	991	1001	968	922	936	950	958	960	949	942	946	960	972	968	975	990	999	992	982	967	975	970	972	974	961	988	1005	1005	995	977	960	941	982	994	985	972	963	960	968	995	994	986	971	965	966	973	978	972	972	991	1017	1030	1027	1004	989	991	1000	997	1004	1020	1018	1015	1020	1010	1009	1015	1018	1016	1021	1021	1009	999	1000	1006	1008	1010	1025	1023	1015	1001	1008	1011	1009	1009	1005	991	990	996	1001	990	983	980	970	962	962	976	1015	1016	995	990	970	985	992	982	978	979	991	1007	1012	1007	1000	998	988	987	991	999	987	958	960	966	977	984	985	999	1000	997	995	990	987	982	984	983	979	977	976	961	953	952	962	977	982	981	969	965	976	968	964	951	951	955	958	959	952	951	965	983	994	997	979	964	959	958	959	971	967	970	982	992	1000	1006	1002	990	983	991	1005	989	973	962	970	988	997	999	996	989	984	984	970	967	966	969	968	971	969	968	973	975	973	966	953	951	950	951	0	0	0	0	0	0	0	0	0
952	947	947	947	953	960	966	962	962	959	958	956	960	960	962	960	963	965	965	959	959	955	964	980	980	959	939	939	943	946	968	981	995	1011	1011	1012	939	932	932	937	942	925	912	912	919	925	927	925	934	950	958	959	957	953	953	953	957	958	947	942	931	932	931	943	957	962	961	964	967	954	946	946	955	964	967	973	977	965	964	962	962	972	980	981	960	948	947	955	974	965	975	975	962	950	953	956	965	965	955	949	939	941	945	945	943	939	938	945	953	960	961	967	970	948	942	951	958	961	951	937	928	926	922	922	919	933	939	937	926	919	956	967	962	938	915	910	932	945	946	933	921	913	913	925	940	941	919	902	898	919	931	936	939	916	916	913	920	919	921	914	925	935	937	906	915	925	938	944	1003	1000	991	988	973	965	937	933	939	953	993	999	988	974	977	974	971	968	971	969	967	965	961	962	945	950	962	967	958	978	984	970	957	949	940	928	943	955	938	944	964	958	954	957	944	941	947	952	946	946	928	930	924	923	915	916	928	945	952	956	966	949	939	937	935	929	931	930	922	924	921	926	933	939	939	932	933	931	934	932	964	967	954	934	930	935	940	939	929	922	916	918	941	970	1019	1004	978	992	1016	1011	997	961	954	961	964	964	956	954	961	971	978	1000	999	989	943	941	945	947	950	948	964	985	984	979	951	943	931	942	949	954	955	966	981	978	973	977	978	972	964	951	943	948	953	960	966	964	955	951	949	946	959	986	986	979	983	981	987	969	952	947	954	965	974	976	968	964	964	964	958	956	945	924	910	932	943	940	917	911	914	924	936	935	929	925	933	935	921	920	928	942	945	946	947	951	971	985	971	961	954	948	928	914	911	921	935	942	943	935	931	930	932	934	923	931	939	949	962	952	927	908	898	907	920	938	955	967	965	944	936	963	969	954	944	951	956	962	948	952	954	949	951	949	949	953	955	948	941	937	946	953	959	917	913	951	956	931	919	913	928	930	932	936	921	914	900	903	914	928	928	917	917	922	917	924	936	949	953	959	955	948	930	925	920	917	922	930	948	967	963	947	923	898	898	919	925	936	933	928	915	912	923	950	937	934	929	930	935	914	921	940	959	980	977	968	955	958	950	950	944	948	942	957	970	981	989	994	998	987	979	981	987	981	962	962	963	965	959	962	965	962	957	955	897	897	902	906	941	949	951	956	962	963	958	947	941	937	942	941	952	959	946	935	931	938	943	946	952	957	956	960	953	955	951	950	957	960	963	929	924	927	946	954	954	963	962	965	972	965	959	958	959	955	957	957	947	935	927	924	938	943	952	956	949	937	932	938	938	940	936	937	936	930	929	937	946	954	962	973	955	947	938	937	939	945	941	937	945	957	964	967	950	945	933	927	932	947	942	928	935	952	967	979	973	949	940	939	939	934	926	918	907	915	933	942	945	919	901	890	891	890	884	882	900	0	0	0	0	0	0	0	0	0
950	944	944	942	945	949	950	947	947	942	937	938	944	944	946	947	952	956	957	943	943	941	939	931	920	913	909	909	917	930	948	961	959	951	907	906	909	914	916	912	908	891	881	884	884	890	897	902	914	923	932	936	936	935	934	934	931	924	916	911	906	896	902	913	924	934	939	939	946	938	927	927	924	930	934	934	938	937	940	938	939	937	923	908	902	915	928	940	928	919	930	945	941	916	908	915	914	915	915	918	918	917	917	924	919	920	924	931	942	948	943	929	915	907	904	897	908	921	918	909	900	895	885	883	883	909	915	907	897	880	890	892	909	896	893	893	895	902	906	905	903	897	893	899	904	907	895	884	881	890	893	889	879	882	884	881	878	879	884	892	903	913	884	874	884	897	907	913	905	893	887	883	925	921	916	911	918	929	941	944	950	940	930	927	938	945	956	959	954	950	932	916	914	926	912	905	891	889	893	917	924	921	905	900	908	914	914	923	930	935	921	907	905	899	895	909	909	905	914	916	914	908	905	905	905	911	904	907	906	894	884	881	890	887	889	890	883	878	876	877	883	901	901	905	914	916	917	907	915	912	910	907	898	894	896	892	871	865	871	874	871	874	887	895	935	931	942	944	931	930	931	927	902	896	896	901	912	918	918	921	923	922	905	897	925	922	928	927	919	914	909	897	893	895	894	909	921	931	934	929	929	929	911	923	943	947	936	928	907	902	904	904	907	909	899	895	896	898	916	940	946	941	930	919	922	917	911	917	922	934	942	938	924	922	916	906	912	924	925	915	895	894	901	903	900	895	890	885	899	908	904	899	886	888	884	887	885	892	901	918	924	913	904	910	911	915	918	907	893	874	872	882	900	907	906	898	896	897	899	899	893	910	913	917	910	895	886	873	866	873	887	891	892	915	917	907	896	902	897	889	888	890	892	902	903	911	915	921	921	916	907	889	886	889	902	915	931	875	875	873	862	872	873	860	872	889	898	896	885	870	859	855	865	876	897	906	903	892	882	878	872	883	907	910	910	905	903	901	900	903	893	887	890	906	907	903	899	896	883	874	878	885	897	902	890	888	887	885	881	878	909	902	897	895	892	895	901	909	920	940	936	930	927	927	920	919	917	900	890	885	890	912	945	960	958	923	929	939	944	943	940	930	928	927	932	939	906	902	896	885	880	877	876	877	899	902	902	904	899	891	912	932	926	918	904	895	897	910	920	916	907	891	886	900	910	911	903	904	910	914	915	911	918	922	924	897	897	904	909	903	897	906	928	929	926	910	905	915	917	918	927	926	922	918	914	919	931	931	933	928	924	911	904	906	908	921	924	920	918	920	915	912	915	918	913	910	916	915	916	918	923	922	918	903	902	901	904	904	895	890	880	878	879	881	880	882	887	895	915	920	915	910	896	902	902	904	904	897	892	896	912	922	916	905	893	881	878	877	873	868	866	0	0	0	0	0	0	0	0	0
934	928	928	920	915	916	917	912	912	910	912	917	920	921	921	922	928	934	934	923	923	919	908	895	886	886	897	897	909	923	927	920	874	876	882	882	886	894	894	887	883	879	873	879	879	879	888	890	892	897	904	911	910	910	912	912	900	890	885	886	887	889	892	899	905	908	910	908	909	914	905	897	897	896	900	908	911	916	918	918	914	904	885	882	885	893	892	892	881	887	899	903	901	888	887	883	879	877	885	891	886	884	880	890	894	900	907	916	924	913	905	890	880	874	872	863	870	880	889	886	870	863	864	864	862	878	886	884	871	850	842	849	864	873	884	883	880	878	887	886	886	879	871	865	863	864	870	865	859	859	853	844	847	852	864	859	857	855	866	873	879	865	860	854	854	866	878	880	874	865	859	858	860	867	872	867	898	902	920	908	892	879	876	875	898	919	932	924	913	890	871	862	871	889	883	874	871	868	875	884	898	877	876	876	876	879	882	888	894	904	895	883	875	868	860	848	848	863	885	898	901	891	871	870	868	871	873	887	892	887	872	866	867	868	866	867	865	858	857	856	864	883	886	888	886	875	867	861	868	870	865	864	867	849	840	833	829	831	838	848	845	839	846	852	853	842	881	889	892	902	903	893	882	873	874	878	887	895	895	892	883	879	881	870	872	903	902	896	888	880	879	878	878	877	876	872	879	884	889	879	872	869	879	886	893	914	895	890	864	867	867	870	868	863	858	841	839	849	865	889	904	911	904	894	898	896	896	883	872	863	865	875	884	892	888	889	890	891	891	891	888	883	882	884	878	871	863	860	861	863	864	865	863	861	862	859	851	859	880	894	885	875	864	859	860	860	862	858	852	838	837	840	868	876	844	845	852	868	870	871	862	862	871	877	874	871	861	863	867	872	872	861	866	867	868	872	872	872	852	850	844	849	850	853	860	869	879	883	877	865	848	847	855	865	867	851	850	849	851	849	843	830	820	810	817	829	832	835	835	832	827	825	830	848	854	855	855	855	850	842	842	845	873	877	865	846	842	843	842	845	857	859	855	859	863	863	861	864	867	864	864	870	878	879	875	869	860	863	858	846	867	880	886	884	874	859	866	874	881	899	905	902	899	898	894	887	882	881	871	857	852	848	861	897	903	900	893	890	907	911	915	910	867	857	856	863	865	867	863	867	865	864	863	860	867	874	883	874	871	857	845	847	860	875	881	880	877	886	888	887	878	878	867	862	849	878	871	862	857	848	833	842	871	885	878	867	865	851	854	850	849	856	889	901	889	867	843	836	840	853	873	886	893	896	905	917	889	870	877	874	876	875	867	866	864	865	861	860	881	889	890	887	877	873	865	866	873	877	883	889	889	882	884	870	870	874	878	882	871	864	855	853	857	855	855	862	873	872	861	857	854	846	854	866	866	877	878	872	870	869	884	895	894	889	879	871	863	865	862	857	841	841	0	0	0	0	0	0	0	0
909	903	903	887	877	877	871	863	863	854	857	857	865	868	868	880	901	913	907	895	895	884	870	863	861	872	888	888	898	900	885	860	853	856	860	860	863	870	874	871	865	866	868	869	869	871	869	868	871	872	870	880	879	863	865	865	871	874	866	869	876	878	882	886	883	885	881	862	861	862	871	868	868	868	872	884	891	899	894	886	879	862	857	858	863	870	868	860	855	859	869	871	867	869	870	871	865	864	868	864	850	848	848	856	869	874	875	871	858	857	858	858	851	840	842	842	849	856	862	856	831	833	838	842	839	858	866	866	855	844	838	844	852	852	854	852	854	859	864	869	870	858	850	845	844	846	847	848	848	843	835	829	833	835	839	836	830	823	841	847	850	853	850	837	840	846	852	852	838	832	834	834	844	857	861	847	844	849	852	881	866	861	862	866	865	872	878	884	875	864	853	849	848	861	861	850	845	843	847	853	841	833	836	845	851	853	854	853	860	881	876	864	855	837	826	826	834	840	848	841	848	837	836	835	839	839	842	858	862	867	856	850	839	840	848	852	850	848	839	841	848	864	872	853	847	847	842	840	839	812	804	808	816	815	816	814	815	821	827	820	813	810	829	835	839	823	817	814	843	854	860	857	845	827	815	816	821	838	849	856	856	850	841	830	820	823	823	823	817	817	844	855	849	852	845	839	840	847	847	838	828	824	828	839	844	853	841	830	819	823	840	848	852	852	835	824	822	824	833	845	847	843	843	834	828	831	836	845	852	849	833	828	835	854	865	868	871	866	831	825	832	862	869	863	847	837	825	829	831	836	834	837	842	840	833	824	823	829	837	839	842	837	841	839	841	845	845	841	839	832	822	820	825	822	820	820	828	842	846	839	832	820	812	808	815	825	837	848	855	857	847	842	837	838	840	844	840	832	830	833	828	826	822	828	840	844	842	845	843	837	836	837	845	819	826	838	833	823	814	809	796	789	789	793	790	791	802	811	815	816	816	810	812	819	828	835	837	830	823	820	821	824	836	833	819	807	807	803	802	814	830	840	841	829	838	838	828	827	829	827	830	848	855	861	860	855	851	842	824	826	836	851	859	851	830	834	838	846	852	848	857	861	864	868	866	852	864	862	855	843	836	831	838	854	872	863	852	854	856	850	858	857	844	828	827	837	838	838	837	847	852	851	849	845	838	846	849	848	840	835	819	831	836	845	857	860	847	855	868	856	858	851	843	836	831	828	833	838	809	808	818	823	824	825	836	833	826	826	831	837	840	837	837	829	815	818	819	826	834	845	860	869	871	867	886	891	845	838	834	833	833	840	840	841	843	842	839	840	848	860	862	858	848	848	848	854	854	854	850	847	836	829	827	831	837	837	844	853	853	835	811	816	822	829	840	847	852	847	841	830	816	804	804	822	822	845	847	847	844	840	845	852	845	851	855	848	845	837	836	833	825	825	0	0	0	0	0	0	0	0
873	863	863	866	862	848	836	832	832	828	826	828	838	846	846	858	872	890	881	873	873	857	848	849	856	865	875	875	880	853	847	839	835	834	828	828	832	836	840	844	847	844	845	853	853	851	847	851	851	855	855	850	846	837	839	839	841	843	849	855	858	852	845	843	868	865	847	839	833	828	833	846	846	849	850	856	851	842	832	834	837	839	838	838	841	845	847	838	834	838	842	843	845	849	853	858	855	847	839	832	831	833	828	828	842	845	844	837	837	836	844	841	828	825	820	825	831	843	841	825	816	813	820	817	814	827	835	842	845	840	838	839	839	839	835	834	831	829	832	831	819	816	818	824	828	829	833	834	834	828	820	810	813	824	820	813	801	799	799	825	828	835	835	823	827	828	831	823	814	803	804	807	814	831	831	832	833	835	833	832	826	822	820	854	851	841	842	858	854	844	838	833	833	831	834	827	815	817	828	835	832	825	819	825	833	825	824	823	832	838	835	845	836	825	816	814	811	815	819	817	818	811	808	805	806	813	820	826	825	819	815	803	804	806	820	824	823	813	805	809	811	816	806	796	793	787	803	803	802	795	794	795	797	789	792	796	801	810	815	803	792	790	795	806	812	810	808	803	802	818	826	821	798	795	805	811	813	814	814	823	825	824	817	811	806	806	805	804	802	800	810	820	826	820	811	814	820	823	827	820	808	801	805	811	813	818	815	804	799	800	810	817	822	823	804	809	820	819	816	817	820	806	805	812	814	818	820	823	825	822	820	819	824	829	829	823	816	811	809	814	822	837	837	827	814	802	801	803	812	819	815	814	822	823	819	817	819	820	820	820	819	808	803	797	810	817	820	823	822	819	812	805	808	808	805	804	805	813	819	814	797	795	795	800	806	813	820	833	840	836	831	822	817	817	820	825	809	805	807	815	818	812	816	817	822	823	820	821	821	820	811	792	793	798	801	802	802	798	791	774	777	775	778	777	770	771	780	790	794	796	799	801	802	804	808	811	815	809	802	804	806	811	809	790	779	787	795	797	801	801	814	816	818	801	794	799	803	796	791	790	796	806	814	821	835	827	818	812	811	806	820	826	824	810	802	802	810	817	819	812	819	809	815	820	819	819	823	835	838	829	821	822	828	833	835	816	810	809	804	830	834	817	797	793	805	811	814	816	825	826	826	827	821	817	803	796	797	807	805	793	799	810	821	833	838	836	823	812	823	817	831	823	815	811	810	813	804	798	792	794	801	804	803	798	807	815	821	821	822	824	822	819	812	805	797	797	804	814	811	814	824	837	838	836	824	818	819	820	821	825	823	816	816	818	821	815	820	816	820	821	820	805	805	811	818	830	832	827	826	822	813	811	808	805	803	804	813	817	808	802	791	795	797	811	818	823	823	820	821	809	797	791	792	797	797	798	795	789	787	788	800	801	805	801	797	791	792	796	793	787	789	789	0	0	0	0	0	0	0	0
822	837	847	847	845	832	822	814	814	809	811	815	823	825	825	829	838	846	851	852	852	847	846	849	851	850	852	852	826	828	823	817	812	805	808	808	813	823	829	830	833	831	822	817	817	810	807	809	822	830	817	817	817	815	816	816	821	828	830	832	830	824	811	812	829	832	822	810	805	800	801	816	816	826	834	828	820	811	801	802	808	815	816	812	816	823	831	828	827	819	820	812	812	817	824	823	810	804	800	803	816	815	803	802	808	820	817	816	812	821	818	814	815	813	809	808	812	819	820	811	804	798	793	785	783	800	805	811	825	824	823	815	815	812	811	812	812	807	802	790	793	792	793	796	803	808	816	822	819	810	798	790	782	793	793	782	769	769	768	775	785	805	809	803	800	801	807	796	790	781	783	784	785	781	785	778	784	794	811	804	793	791	792	785	782	780	821	827	837	834	828	818	817	816	796	780	777	790	807	816	822	813	805	806	806	804	801	804	811	814	790	788	797	802	798	789	786	785	791	795	793	783	772	766	764	772	792	808	802	805	798	794	796	796	795	797	789	785	783	788	782	783	782	786	775	772	772	771	771	769	778	782	780	772	767	767	784	793	793	789	777	770	766	771	771	781	783	788	783	778	774	798	783	778	782	798	807	806	809	807	807	806	804	803	788	783	793	802	801	797	798	802	798	801	798	797	794	801	797	784	784	789	791	797	802	807	803	796	786	778	780	783	786	784	787	799	811	813	803	797	792	786	788	791	800	805	813	812	809	812	807	805	799	801	796	789	781	776	785	795	803	817	822	814	803	794	789	788	789	790	783	792	788	790	789	798	807	810	809	806	801	795	787	786	786	790	800	794	801	801	792	786	783	784	785	783	777	768	764	768	768	770	778	787	797	803	808	813	815	813	799	796	803	802	798	792	791	788	788	793	795	804	806	807	806	810	807	802	803	784	776	775	781	781	783	784	784	778	772	766	760	760	769	762	763	766	770	777	778	775	779	791	791	788	784	792	795	790	779	781	790	794	786	773	771	774	778	792	790	789	785	784	787	782	777	776	779	781	781	781	783	787	791	790	793	793	790	795	784	778	793	799	803	792	787	785	786	783	784	786	781	787	797	805	804	795	796	793	794	794	794	793	786	787	794	792	788	784	777	776	778	777	764	762	770	773	778	786	800	807	807	801	791	774	767	768	776	781	782	785	789	796	800	805	811	810	799	789	795	806	808	801	797	784	783	783	771	768	774	776	781	787	784	785	799	810	816	817	810	807	805	799	788	776	780	778	781	782	776	780	789	809	820	817	808	800	793	796	808	815	814	803	795	794	793	792	784	788	790	794	792	786	787	787	794	800	807	808	808	804	796	785	780	782	785	789	792	791	788	786	782	782	785	788	793	794	798	797	797	788	776	770	768	763	763	756	755	763	768	773	775	783	783	778	772	768	772	776	772	769	760	760	0	0	0	0	0	0	0	0
791	807	819	819	826	818	811	804	804	794	795	799	801	802	802	801	799	804	815	830	830	831	837	842	838	830	826	793	803	806	804	792	789	786	791	791	798	805	810	811	812	806	794	789	789	785	783	782	781	785	787	790	797	798	795	795	799	801	807	809	804	795	796	796	804	809	807	799	790	787	780	780	780	782	793	799	797	789	782	786	789	788	789	785	792	806	816	815	816	803	790	784	786	792	797	797	781	772	770	778	779	776	767	768	771	781	784	782	785	785	790	795	797	792	789	784	789	784	784	782	789	785	780	776	778	783	783	783	789	786	780	778	780	775	776	792	793	788	777	771	770	767	769	776	790	795	793	800	794	788	780	774	767	758	752	747	746	752	759	770	773	775	779	777	777	779	777	771	765	767	765	764	768	766	762	758	759	760	759	777	777	771	767	760	755	750	743	747	751	780	779	786	797	796	768	759	758	768	784	798	801	793	781	779	777	786	786	785	784	782	775	767	764	767	769	767	763	769	779	783	780	770	761	751	758	762	771	789	791	789	777	778	778	776	775	775	771	767	765	764	769	762	764	765	768	766	766	764	767	760	760	762	762	753	753	752	762	772	774	766	753	748	750	754	754	755	762	769	771	772	767	755	748	759	764	776	780	787	790	793	795	792	788	780	753	755	762	787	795	794	785	780	779	777	773	769	763	759	760	762	768	774	778	778	778	775	774	779	769	763	764	763	768	768	770	780	786	784	778	778	777	777	778	778	783	787	791	791	783	776	776	774	773	770	775	770	769	764	763	761	763	769	776	779	780	789	782	776	760	756	756	758	763	769	773	775	780	781	782	781	777	781	777	772	770	770	769	780	789	790	781	769	764	768	769	773	768	763	762	764	766	767	769	773	786	796	799	801	795	797	789	788	784	783	780	771	774	776	781	779	782	790	793	793	790	790	792	793	770	765	758	747	745	752	764	767	763	762	757	753	752	751	754	757	759	763	768	767	752	736	746	774	761	762	768	776	780	772	760	761	761	766	766	761	761	764	771	770	766	775	776	773	773	770	766	768	772	779	778	774	773	774	773	771	767	769	777	779	775	761	766	781	782	780	778	775	773	775	772	775	766	773	783	790	791	782	773	770	773	762	768	774	766	755	765	765	761	764	765	768	767	759	744	733	741	760	762	769	772	777	778	771	768	763	759	760	766	775	775	779	779	777	771	763	760	775	784	775	783	788	792	783	763	756	758	761	760	761	758	756	755	761	766	775	794	800	794	777	772	775	777	766	754	754	761	769	764	757	753	754	767	772	782	788	785	779	780	781	782	788	789	787	781	773	768	767	762	766	775	777	779	770	769	770	772	775	777	783	786	784	778	767	761	769	775	778	778	774	771	769	766	767	770	781	784	780	767	755	756	752	755	747	740	740	738	734	734	740	743	742	746	751	757	752	747	747	747	749	751	752	745	745	0	0	0	0	0	0	0	0
763	775	790	790	797	799	789	777	777	768	773	775	776	765	765	767	770	776	785	775	775	779	793	796	786	791	776	776	782	785	775	771	770	771	777	777	784	785	787	783	782	768	766	765	765	765	760	764	763	768	773	769	766	761	754	758	758	776	782	774	757	760	769	776	777	786	791	790	782	773	770	765	765	764	766	772	774	772	775	777	779	777	768	758	766	787	802	806	798	783	775	767	769	771	772	768	764	753	754	760	760	757	748	744	741	748	760	759	761	763	761	772	774	771	765	760	760	759	762	763	762	764	764	769	772	761	757	757	760	766	766	765	764	758	757	760	766	761	761	759	753	752	755	767	778	777	775	762	766	762	764	756	742	733	729	729	732	741	753	763	762	758	753	755	754	756	757	753	746	749	753	754	753	750	742	743	747	745	750	759	758	754	744	735	732	724	723	734	740	743	744	747	774	774	762	758	758	761	765	766	762	752	750	754	760	766	770	771	765	763	756	752	749	744	740	738	742	750	759	764	762	757	747	753	753	752	759	764	754	746	744	747	745	743	748	752	750	752	748	743	739	741	748	755	757	756	756	756	755	754	748	747	745	738	731	728	732	735	736	733	731	734	737	737	737	742	747	755	759	762	760	749	742	739	742	765	767	765	760	754	758	758	759	757	746	731	736	742	756	769	764	768	764	763	754	747	743	745	753	763	767	770	769	762	755	751	747	747	756	752	755	758	764	764	759	750	758	763	756	755	755	758	762	763	761	755	755	750	746	742	744	742	743	743	752	754	754	752	750	747	745	737	737	745	748	762	766	752	744	731	735	738	746	751	756	761	767	771	768	761	753	746	750	756	758	760	761	768	777	777	766	754	753	759	764	762	750	750	753	761	763	765	767	767	777	782	781	776	772	772	768	764	756	766	768	762	761	764	764	751	743	745	746	746	747	752	748	747	751	746	738	736	732	740	744	750	750	750	744	737	734	738	741	748	752	756	759	744	738	728	727	727	731	741	758	764	763	755	748	743	737	750	750	750	746	747	746	751	753	761	761	754	758	761	761	763	765	766	762	761	765	759	757	755	755	753	760	764	765	755	750	747	752	762	746	746	750	755	758	759	756	751	751	756	770	767	758	732	734	735	743	744	730	731	742	743	745	740	744	736	734	731	722	720	721	730	746	753	760	761	759	750	749	763	758	757	755	757	753	754	751	748	743	732	730	731	734	734	751	763	761	753	736	740	745	749	753	753	751	747	749	748	757	764	785	786	771	763	766	768	766	756	746	747	754	759	754	744	739	737	742	744	748	747	745	750	764	760	745	746	746	760	756	752	750	749	750	753	752	752	755	749	745	750	749	750	758	766	768	767	762	757	753	748	763	766	762	750	747	750	751	750	752	768	771	755	744	745	747	740	739	729	723	723	723	729	730	737	739	733	724	722	719	719	719	718	717	717	718	717	722	722	0	0	0	0	0	0	0	0
752	762	775	775	777	771	763	752	752	745	744	744	744	743	743	744	745	755	754	749	749	749	759	759	760	747	751	751	757	752	754	755	757	757	760	760	762	762	760	758	745	738	738	739	739	739	742	744	749	754	758	753	748	738	744	746	746	746	747	745	748	751	758	764	761	753	758	755	744	745	752	750	750	749	749	753	759	760	759	764	767	762	748	737	734	745	763	775	772	763	751	747	749	750	751	749	746	741	742	740	752	748	741	734	735	741	748	752	751	742	738	741	746	751	752	752	751	749	748	745	738	737	739	744	745	739	735	738	745	757	757	755	748	744	742	743	749	748	748	744	740	738	744	746	754	753	748	739	736	739	739	726	721	717	714	714	718	721	722	718	715	722	731	722	720	723	726	731	731	738	743	741	736	726	723	726	732	738	740	748	748	734	729	720	715	711	713	720	729	732	727	730	730	731	734	757	758	759	757	751	746	745	747	750	753	751	749	753	751	747	739	732	731	727	722	717	720	726	733	744	744	738	736	744	744	743	746	742	726	726	731	737	736	732	725	717	718	726	735	733	727	725	732	736	742	745	742	740	741	738	732	732	730	724	719	719	724	729	725	722	721	721	719	716	717	716	720	726	738	743	744	741	738	736	732	728	721	738	728	731	734	735	737	729	726	724	730	730	729	726	733	743	752	747	732	729	732	738	749	760	762	764	751	739	732	726	726	727	730	734	747	751	754	753	743	733	730	738	739	741	742	743	741	743	736	732	729	725	724	722	722	722	719	724	733	739	738	737	735	732	720	720	720	722	729	737	741	734	729	723	716	722	730	739	743	750	751	758	755	754	746	732	732	739	756	756	750	750	758	751	742	731	740	746	752	744	732	728	741	754	759	756	760	763	751	748	751	752	757	754	749	741	735	739	739	742	745	744	741	733	730	733	736	737	730	730	728	732	731	727	720	718	718	728	733	736	736	737	733	734	736	735	736	741	742	747	743	734	728	724	712	707	708	712	737	742	746	742	737	733	729	732	737	737	735	736	739	742	746	728	718	713	719	728	744	749	743	738	721	725	731	731	727	725	735	736	737	735	750	750	742	733	729	728	728	729	727	733	738	737	735	733	728	723	701	702	707	712	711	711	711	713	714	718	726	736	729	722	719	708	710	709	706	714	718	721	728	735	742	742	738	736	737	747	751	746	741	736	732	730	729	730	722	719	716	716	720	725	733	739	739	726	726	729	737	744	748	743	736	736	736	734	735	753	772	759	747	738	753	754	750	745	740	741	743	744	741	736	730	726	725	733	733	735	732	730	729	726	724	726	730	738	741	739	741	745	741	734	721	717	718	718	728	732	731	736	738	745	749	746	746	740	721	714	711	727	727	728	733	734	737	739	737	734	737	737	735	734	733	731	719	713	712	712	714	718	725	728	724	720	716	702	702	703	701	700	698	697	701	706	705	705	0	0	0	0	0	0	0	0
738	748	754	754	759	757	744	735	735	725	720	725	726	725	725	720	725	739	736	735	735	734	735	738	727	731	731	731	728	730	733	734	735	726	720	720	729	737	735	728	723	719	720	722	722	721	722	726	730	737	739	737	730	727	735	735	735	728	724	732	738	743	750	741	737	735	740	735	728	721	719	718	717	717	718	726	734	733	733	739	739	726	717	721	726	734	748	757	751	743	726	733	734	734	733	733	731	729	728	721	722	725	725	727	728	730	738	739	732	721	716	724	734	742	743	740	738	738	734	730	722	721	719	724	729	725	722	727	735	745	745	728	717	728	726	724	724	725	733	727	720	719	721	729	735	735	729	714	713	705	702	702	703	701	697	697	702	705	709	708	703	699	693	696	689	694	698	707	720	734	736	729	718	711	707	711	719	724	727	717	712	718	716	710	706	700	693	698	710	711	710	707	701	706	708	718	724	729	743	737	736	731	732	731	732	731	732	731	738	734	724	718	719	714	707	705	704	709	718	721	721	721	722	723	725	729	728	723	709	714	720	723	724	714	704	701	711	723	729	722	711	710	708	707	705	715	713	703	701	702	715	716	713	712	711	712	718	718	713	708	708	710	707	705	689	677	676	697	719	730	731	729	731	726	715	700	695	703	705	715	714	715	707	711	714	714	723	720	717	716	721	726	726	720	713	717	723	736	741	741	745	748	737	724	715	710	711	709	711	716	725	734	742	738	727	716	715	717	718	720	718	714	715	718	717	717	715	714	710	708	708	706	706	711	714	722	725	720	707	705	705	707	710	711	714	718	718	715	712	708	704	703	705	706	711	717	724	733	729	725	721	715	718	717	722	723	723	725	732	728	720	718	726	727	727	722	716	713	718	717	723	732	733	725	727	737	738	740	736	724	715	718	714	720	722	727	727	734	730	725	720	722	712	710	705	712	715	715	716	711	708	708	718	723	725	722	715	717	728	732	734	734	734	733	733	724	718	712	705	705	704	701	695	698	703	707	713	718	719	723	725	728	730	729	728	729	734	733	718	709	707	706	708	713	718	716	713	708	708	715	719	717	715	713	706	693	691	714	732	745	730	719	717	713	713	711	706	707	713	719	721	707	707	705	694	692	700	703	699	699	704	709	707	707	707	703	696	692	698	689	684	686	697	703	710	714	712	711	717	727	724	722	725	726	722	721	716	714	713	710	707	709	709	706	709	711	713	716	715	714	711	707	712	717	730	737	737	734	727	727	729	727	720	718	729	727	706	704	719	727	732	733	729	727	725	715	717	716	715	713	717	723	726	727	728	724	720	715	715	720	723	726	721	712	704	704	704	707	707	711	708	711	710	715	722	720	721	724	723	701	699	702	697	693	694	700	700	698	716	723	727	726	725	719	714	713	721	722	715	705	699	694	691	691	680	673	664	679	711	702	695	690	688	688	685	687	685	687	691	696	696	696	0	0	0	0	0	0	0	0
712	723	733	733	742	741	732	721	721	711	703	706	704	694	694	697	707	713	711	712	720	720	724	728	717	723	721	711	711	711	715	708	705	704	711	711	705	718	720	719	711	709	707	711	711	711	712	717	720	722	721	718	712	713	721	721	721	718	718	718	720	724	725	721	721	723	725	719	713	702	697	699	700	700	701	699	709	707	701	698	696	700	706	716	720	727	731	737	728	721	709	704	709	715	719	721	713	707	707	706	697	695	700	707	713	714	712	708	709	708	703	703	712	721	728	727	722	721	718	715	707	700	699	705	712	716	708	714	719	729	725	716	705	694	690	693	699	701	703	702	698	700	702	710	718	722	721	709	704	695	689	683	680	673	671	676	685	695	701	700	696	688	674	667	676	683	688	696	708	718	720	718	714	705	704	700	698	694	691	697	694	695	705	705	700	690	689	691	697	697	694	691	689	689	693	706	709	710	713	713	723	719	717	718	719	723	721	716	713	703	697	693	698	695	691	694	694	699	707	711	710	701	687	681	706	714	711	705	696	702	706	710	699	680	682	686	693	698	696	690	683	685	687	688	688	689	688	687	683	684	687	692	686	689	692	702	711	708	701	695	695	697	695	688	672	658	658	663	672	691	705	708	713	707	695	682	682	686	685	682	690	692	696	699	702	703	710	710	707	707	710	720	718	711	698	698	707	714	713	711	724	722	715	709	702	698	686	695	696	696	697	694	701	709	711	704	702	705	704	699	695	697	701	702	703	701	702	700	699	697	696	700	701	704	701	702	703	702	700	694	694	702	702	703	701	703	697	699	701	704	697	691	684	681	683	691	701	706	706	700	697	697	698	699	699	703	703	703	711	709	697	691	693	698	699	702	706	704	704	706	711	714	716	715	720	722	726	727	713	702	700	701	697	695	704	715	715	714	722	715	702	702	695	688	680	678	690	698	698	696	699	704	710	700	694	691	689	690	694	693	696	703	711	712	711	699	693	681	681	688	692	691	689	690	695	698	700	700	701	703	712	719	714	709	703	713	714	709	703	704	708	703	706	704	703	703	704	703	706	704	703	702	701	699	689	684	681	681	687	678	669	691	699	703	702	693	687	688	697	684	690	694	694	690	686	688	692	697	694	696	702	705	701	697	692	693	691	687	682	675	671	670	676	687	697	700	692	691	694	697	693	703	706	693	671	663	665	669	680	683	685	688	695	697	700	705	708	691	689	683	689	691	697	704	723	730	728	716	713	714	719	716	706	699	692	680	671	677	686	693	703	696	703	705	706	702	698	693	692	697	704	710	714	715	716	713	713	709	708	711	715	717	713	691	677	681	685	689	692	694	687	691	694	695	694	695	708	707	695	685	689	692	692	687	684	684	682	681	682	698	705	704	699	694	688	686	681	688	685	679	674	668	654	654	648	647	653	661	676	688	684	678	673	668	664	669	671	674	680	682	682	684	0	0	0	0	0	0	0	0
694	702	716	716	726	726	711	702	691	691	685	677	671	671	671	676	684	686	690	695	702	702	711	693	701	713	712	703	703	700	695	695	689	688	690	690	691	694	704	708	704	700	698	697	698	698	701	704	708	705	703	698	698	702	709	711	711	709	711	703	700	703	711	713	713	711	707	700	690	684	679	686	690	690	695	693	689	686	684	684	688	697	707	709	709	709	707	705	703	699	699	697	696	696	693	689	688	680	683	685	682	682	682	685	699	701	701	697	691	694	695	695	696	690	691	694	700	704	709	703	697	689	684	691	698	701	688	686	705	714	716	703	696	682	674	673	679	682	680	676	674	676	685	693	698	697	706	707	700	692	683	676	673	673	669	666	672	683	690	694	690	678	654	656	670	677	680	685	689	685	688	698	699	698	697	692	687	680	678	677	670	671	687	688	690	684	685	686	690	685	682	682	679	684	691	692	691	682	680	681	695	692	685	700	703	703	701	695	688	685	683	683	684	686	685	678	683	688	690	690	675	661	654	646	646	653	656	671	672	686	694	684	670	668	669	670	680	686	685	679	675	672	673	674	675	671	671	669	665	662	653	661	672	680	680	680	684	681	675	670	673	673	676	673	661	652	654	659	663	664	679	681	682	673	674	674	671	665	661	654	663	662	683	687	681	684	698	703	702	699	700	703	708	701	694	693	693	689	677	676	690	699	699	696	690	682	680	680	680	681	682	685	684	681	682	688	694	697	694	677	675	678	689	689	689	687	688	690	689	689	687	685	694	696	685	679	677	670	666	661	664	685	682	683	688	688	672	676	686	693	686	677	676	675	677	683	688	689	696	692	687	683	681	684	683	683	686	691	694	692	682	676	669	677	682	692	695	699	700	696	699	700	696	697	693	694	703	700	694	692	691	687	684	685	700	703	707	688	679	686	689	687	686	682	672	664	659	667	672	676	678	679	684	685	683	680	684	687	685	689	683	683	690	696	690	688	681	675	667	674	676	679	678	682	683	681	681	685	689	692	696	695	693	689	683	674	672	674	683	696	689	686	690	693	691	689	686	685	684	686	678	676	685	686	682	680	677	673	663	662	662	665	684	692	693	684	661	653	656	663	667	669	668	655	645	683	682	683	674	666	668	687	687	685	684	686	685	680	673	669	667	665	661	666	671	674	680	682	683	680	681	683	685	668	660	654	654	661	668	674	674	675	674	672	678	683	681	680	678	675	671	668	668	672	679	687	688	682	678	682	696	698	682	672	670	664	652	649	659	671	675	680	686	688	684	686	678	675	674	679	683	687	692	695	697	702	705	703	699	698	698	693	687	669	663	667	674	679	672	671	669	671	676	681	679	677	681	685	682	681	685	688	686	681	672	663	663	667	667	666	662	658	658	664	667	669	668	666	669	669	659	647	638	638	636	638	646	656	664	665	664	658	653	651	653	657	660	662	665	667	667	656	0	0	0	0	0	0	0	0
681	689	698	698	695	691	681	676	675	675	678	676	671	663	663	664	670	673	679	686	693	693	679	681	686	694	696	688	688	685	682	678	676	677	673	676	676	676	679	685	694	693	686	677	673	673	676	680	681	681	679	680	681	682	689	691	691	685	683	686	687	692	695	698	695	687	682	685	683	669	666	668	683	683	691	690	687	685	681	680	686	690	691	687	687	687	686	686	682	678	672	669	680	684	680	676	673	674	675	674	671	670	668	674	674	691	691	687	680	677	679	682	680	675	670	675	680	682	691	691	689	684	680	679	683	684	669	667	674	685	696	696	690	677	663	659	664	670	666	664	660	656	654	659	666	676	683	687	684	682	678	671	671	674	673	670	672	677	682	678	663	648	641	647	668	675	668	665	663	665	663	666	671	675	679	682	679	672	669	665	660	662	669	672	672	671	667	665	669	671	670	668	670	675	675	665	658	654	654	655	659	661	661	656	656	688	685	682	680	678	673	674	674	676	673	668	664	662	660	660	655	652	647	639	640	646	647	648	651	679	669	660	658	658	659	662	667	670	672	669	665	660	659	661	664	662	658	654	651	645	645	655	665	667	665	659	659	662	664	664	661	661	662	658	649	650	654	658	659	660	659	660	661	662	662	658	654	650	647	650	648	650	647	641	659	661	659	666	672	676	681	682	685	687	690	686	676	670	667	666	666	675	675	681	676	676	675	675	673	671	671	668	667	667	666	665	672	673	666	663	665	669	672	671	667	663	661	659	659	661	656	654	659	664	660	660	654	645	641	646	655	661	661	656	655	653	655	658	675	680	679	673	670	669	669	668	670	675	679	687	684	676	671	667	669	671	675	679	685	686	679	668	664	668	669	671	675	673	675	675	681	676	669	664	663	662	661	677	679	681	678	674	669	666	679	682	644	646	649	656	660	666	671	671	664	656	656	661	669	673	674	671	670	671	669	673	677	681	688	680	671	669	674	678	673	666	664	668	667	660	661	655	654	665	670	668	666	669	677	679	675	681	679	676	671	661	656	657	666	672	669	656	648	645	650	661	663	663	663	665	665	664	664	667	670	671	673	667	661	660	660	660	661	681	650	651	642	643	648	650	655	652	646	636	632	632	640	647	646	646	651	658	664	667	664	664	674	671	663	667	667	666	666	660	662	662	669	672	674	669	669	674	669	661	654	649	649	651	656	660	662	659	663	654	658	657	661	665	668	665	658	653	652	658	663	664	659	659	657	657	653	659	663	659	651	644	636	630	634	643	655	663	666	664	662	662	662	659	658	658	661	662	665	668	673	682	684	688	686	685	685	680	672	663	657	657	658	661	659	655	656	656	665	666	663	660	657	659	661	667	675	677	671	667	658	651	653	656	658	650	644	643	645	651	660	667	669	666	662	659	645	635	635	628	627	634	644	653	659	662	658	649	644	644	646	649	651	645	636	637	637	642	0	0	0	0	0	0	0	0
665	675	684	684	680	674	671	670	672	672	671	668	662	658	659	659	664	671	678	683	683	683	668	672	676	680	679	674	674	671	669	669	667	663	660	662	662	663	669	677	683	682	672	658	658	658	660	661	660	659	666	671	672	671	673	676	676	680	678	676	678	679	673	669	666	669	675	684	681	672	666	668	673	673	681	685	683	680	678	675	675	671	675	673	674	672	676	675	667	664	662	659	661	668	675	676	674	672	670	668	666	662	659	657	657	670	679	677	668	666	668	672	670	657	660	660	663	658	663	666	670	664	665	659	657	661	660	660	658	667	674	677	670	658	652	652	656	659	655	652	651	651	651	652	658	661	660	656	657	657	657	659	665	671	675	678	678	679	675	658	648	639	636	639	665	666	651	646	645	646	647	647	653	658	656	653	647	650	651	651	647	650	646	640	635	634	638	640	637	641	650	647	643	642	644	637	636	638	639	641	646	648	648	643	642	642	642	643	676	672	659	662	664	663	656	657	658	653	648	642	642	644	640	638	639	640	639	640	642	652	650	650	650	650	651	652	655	659	662	660	655	649	648	644	644	644	644	644	643	639	641	643	653	654	653	650	643	641	640	644	645	645	644	645	644	649	650	653	653	650	649	646	646	646	649	647	641	637	637	641	647	649	643	632	629	628	640	635	626	629	648	658	666	671	670	665	661	663	662	657	657	657	657	657	665	670	667	666	658	652	649	648	647	650	652	651	647	646	645	640	647	659	662	659	658	654	645	636	641	652	648	647	647	651	651	648	641	635	634	639	649	654	656	654	653	653	655	658	665	671	670	668	664	662	659	655	658	662	667	669	665	657	649	648	650	656	661	656	654	659	666	657	656	662	663	657	649	644	652	657	664	666	662	659	659	661	660	655	644	645	643	637	649	658	643	638	638	641	645	649	650	657	660	658	653	650	651	658	660	659	662	660	658	657	658	663	667	673	675	663	665	661	660	649	644	650	651	651	661	663	660	654	649	656	657	652	650	654	665	666	661	654	652	653	660	655	651	646	650	659	658	652	641	636	634	640	647	649	650	654	653	653	655	657	657	653	653	646	642	651	652	642	639	634	628	625	621	631	635	639	643	642	640	631	627	626	628	629	627	630	635	636	633	634	638	643	643	640	643	644	652	657	659	656	653	645	640	646	662	661	657	661	656	653	651	644	640	641	644	645	643	642	640	639	639	644	644	649	651	649	641	638	635	643	646	647	644	642	643	643	650	653	652	642	635	629	621	618	620	631	634	638	638	640	640	638	638	634	631	640	641	642	645	647	653	653	650	652	667	674	670	663	658	653	648	648	649	649	649	648	648	651	652	647	644	643	641	646	647	655	660	657	652	652	645	642	644	649	647	641	636	629	633	642	656	662	667	665	658	638	634	628	628	625	624	632	642	650	654	652	643	631	626	631	632	633	636	630	617	608	608	615	0	0	0	0	0	0	0	0
656	661	664	664	658	658	657	663	661	661	659	655	652	651	653	653	657	665	670	670	671	650	653	655	654	655	656	654	654	653	661	658	655	649	644	645	645	654	661	666	674	670	657	650	652	652	656	655	654	655	656	658	664	660	660	663	668	668	670	664	663	661	660	657	657	659	664	673	678	664	656	656	660	660	663	659	660	654	654	660	657	655	651	654	655	660	666	663	657	657	653	653	655	662	665	668	672	670	665	663	658	657	653	645	641	651	665	665	660	655	656	658	656	649	648	648	644	640	638	645	653	657	650	643	644	644	647	643	643	645	657	661	660	650	646	647	649	643	638	635	637	643	647	650	649	647	644	644	641	638	633	631	632	636	642	642	648	652	655	648	641	632	628	630	637	646	639	635	635	637	635	634	639	643	647	638	631	622	619	624	637	634	627	626	625	625	625	625	623	624	616	608	612	613	624	625	630	630	629	628	630	633	632	630	631	631	632	631	630	628	643	642	636	639	639	640	639	643	642	640	638	632	633	634	638	636	629	625	631	629	634	639	639	636	636	637	639	634	637	639	638	628	623	623	628	636	642	648	650	657	650	644	642	643	642	640	636	632	628	625	628	630	633	633	637	632	627	626	626	628	633	628	629	631	634	637	628	624	626	632	638	642	636	629	625	624	624	624	622	624	631	640	643	642	641	646	654	653	652	653	651	649	645	641	647	650	652	645	639	633	628	631	627	623	629	635	637	637	627	626	631	640	643	632	632	629	621	619	628	631	639	640	642	641	643	639	634	630	630	636	647	647	645	646	647	650	654	656	655	661	661	662	657	651	645	643	642	643	638	631	630	630	636	635	631	637	619	615	621	630	638	644	649	656	657	654	647	637	639	646	654	658	656	654	654	654	651	638	629	631	625	627	621	629	627	630	633	637	640	642	643	647	649	646	644	642	643	648	647	647	649	649	645	633	631	635	643	650	656	658	657	652	638	629	636	632	633	639	650	652	653	650	646	642	639	631	636	645	649	646	635	629	626	628	635	643	642	642	648	654	649	644	635	625	623	625	629	631	637	639	642	643	645	650	649	644	639	632	634	630	634	634	632	628	626	622	614	620	623	632	636	636	633	625	621	621	619	612	613	620	623	625	626	627	626	628	628	625	627	629	636	638	639	639	635	634	630	625	617	615	619	621	633	634	631	623	620	627	632	634	630	629	633	634	631	629	630	634	629	632	630	630	628	630	630	631	631	633	637	640	641	642	640	630	623	618	617	620	622	623	624	622	625	625	621	623	623	619	620	628	632	630	627	622	622	631	630	633	635	636	635	622	620	622	633	637	640	641	640	633	639	641	633	632	632	632	632	632	633	634	635	637	638	636	633	632	632	630	630	629	623	619	625	635	639	644	641	638	633	622	616	616	616	614	617	621	634	640	626	619	618	618	613	608	611	619	621	618	610	604	604	605	0	0	0	0	0	0	0	0
648	648	643	644	644	647	644	643	640	640	643	639	637	633	635	635	642	641	643	643	650	645	652	649	647	644	644	642	642	645	645	647	647	641	637	636	636	642	645	647	652	650	645	642	644	644	648	652	651	651	649	648	648	649	643	645	652	652	654	654	650	647	647	648	648	651	651	652	659	650	642	640	641	647	647	647	647	643	645	644	643	635	631	635	643	651	659	658	649	643	641	642	648	652	652	651	651	647	644	643	646	646	644	632	632	634	637	644	645	642	637	643	643	642	640	634	623	618	626	626	626	628	629	633	639	640	629	610	605	612	621	631	638	645	641	638	634	623	623	623	622	626	627	628	633	634	636	633	633	631	625	620	623	624	626	628	628	630	628	625	620	618	618	623	627	632	625	624	624	619	614	616	619	631	628	626	614	607	608	612	626	624	619	616	615	619	618	616	612	610	604	600	599	606	612	615	619	623	625	620	618	616	610	615	622	622	625	624	619	617	616	614	619	629	634	633	627	627	634	640	634	625	616	617	617	614	611	609	614	617	618	618	618	612	616	619	621	619	620	626	626	614	610	613	617	621	622	627	632	635	633	628	618	616	616	617	614	602	600	601	609	615	617	613	608	608	610	616	619	615	614	610	609	608	617	623	624	619	614	611	610	607	624	617	616	614	617	619	620	619	625	619	618	618	621	621	624	629	635	640	639	635	629	627	621	625	630	636	628	624	621	613	609	611	617	620	623	610	609	614	617	624	624	619	614	606	607	611	617	622	626	625	630	630	630	629	624	618	617	625	636	639	630	626	636	640	633	632	641	637	625	627	623	622	615	619	629	633	627	621	622	625	626	625	624	618	610	609	612	620	624	635	639	644	648	643	639	635	636	641	647	649	644	638	645	640	631	627	626	626	621	619	609	610	615	622	626	635	640	633	631	631	631	630	628	627	626	624	625	632	636	636	632	630	628	625	623	629	628	629	631	631	624	621	619	617	617	624	631	635	643	642	637	633	627	624	622	634	640	639	630	616	608	609	628	635	637	637	644	650	643	632	619	617	617	617	618	619	625	630	631	631	626	627	627	626	628	618	617	616	613	608	608	612	611	606	603	606	614	618	616	618	620	619	615	613	607	604	601	606	614	617	619	615	614	612	612	609	614	616	612	600	597	597	608	618	622	619	616	606	601	598	604	611	613	613	613	614	617	620	620	617	619	619	612	604	603	615	616	617	615	618	622	622	620	617	613	618	628	630	626	623	618	613	610	610	608	615	616	614	608	609	612	613	614	610	607	610	606	609	602	599	590	582	581	595	591	591	592	597	600	603	604	608	608	596	589	585	583	587	592	596	596	596	596	609	612	614	610	619	616	617	619	622	624	607	607	605	610	609	609	608	596	592	600	608	616	622	621	615	606	600	600	597	596	600	603	604	606	606	609	610	608	608	612	616	611	608	601	597	597	597	0	0	0	0	0	0	0	0
640	635	633	632	632	632	630	632	634	634	636	630	624	621	621	621	625	628	630	635	639	639	640	640	637	636	635	634	634	635	638	641	641	632	627	624	624	619	621	626	634	636	631	627	631	631	637	640	645	646	643	640	638	633	634	635	630	630	621	621	621	621	624	633	640	643	643	644	637	629	623	623	629	630	630	632	633	635	632	625	625	625	623	625	633	640	644	644	637	629	627	630	632	638	638	633	632	633	632	629	627	628	630	626	619	614	615	622	623	619	614	621	627	630	631	622	613	609	608	604	601	603	612	620	624	627	610	603	600	602	609	618	625	631	633	627	616	612	609	609	612	611	611	616	622	628	629	627	623	621	612	606	607	612	617	621	623	623	621	614	610	604	602	611	616	616	611	613	611	608	605	601	602	610	614	604	594	595	599	607	616	618	612	609	605	605	604	602	598	598	597	594	590	593	604	607	610	613	615	610	600	591	592	596	601	611	614	613	608	603	599	603	603	598	598	617	613	613	625	630	627	617	615	610	607	603	604	608	611	610	601	599	594	587	595	601	608	609	602	593	592	596	601	603	610	614	614	616	621	625	622	617	614	605	601	600	598	594	590	594	603	608	608	606	603	602	607	610	610	609	607	604	602	604	603	608	604	598	598	595	595	591	588	586	588	585	586	597	605	614	607	605	600	605	605	606	608	609	612	620	615	615	613	608	596	601	608	615	608	606	600	596	594	601	610	612	610	606	601	599	602	610	614	611	603	599	598	601	607	614	617	616	615	608	606	605	606	606	608	608	606	604	609	609	609	615	615	617	615	613	599	600	605	611	614	615	618	628	622	617	615	617	617	617	613	613	610	608	607	609	612	619	628	631	632	631	626	623	624	626	627	625	623	620	623	621	617	616	608	609	612	600	590	592	599	604	604	603	592	592	593	607	611	616	617	616	613	612	613	615	618	622	615	616	620	616	618	614	610	610	616	620	616	613	609	604	602	612	617	620	622	622	627	622	615	613	615	620	631	629	621	607	597	601	610	621	629	632	635	617	613	614	610	607	605	604	608	609	615	622	623	620	619	616	594	590	589	601	604	589	585	583	585	584	583	587	593	595	598	599	600	604	608	603	593	590	591	595	596	602	607	613	613	609	601	594	580	590	594	595	590	587	588	591	599	610	608	607	597	596	595	590	588	588	596	598	601	611	611	605	595	587	583	581	582	582	589	597	600	609	609	610	612	613	606	604	605	606	610	616	615	605	600	593	593	597	603	606	592	593	592	590	589	587	588	581	570	575	575	582	599	585	573	569	572	579	583	583	584	583	587	588	590	588	587	584	582	579	577	574	573	579	584	584	585	594	604	603	598	595	594	591	585	572	569	571	575	589	590	596	600	596	589	584	590	600	608	613	612	607	598	598	594	592	593	593	596	596	596	599	604	601	605	606	605	602	600	598	592	589	589	587	0	0	0	0	0	0	0	0
633	632	629	625	625	621	618	622	626	626	629	624	612	607	613	613	619	622	622	630	622	622	630	629	631	627	629	623	623	624	626	629	626	622	616	612	612	611	611	614	618	619	618	618	620	626	626	631	635	633	625	626	626	624	619	618	614	614	609	606	605	607	614	621	623	622	622	621	622	620	617	618	618	621	621	623	622	625	617	612	616	621	622	621	617	618	623	621	620	617	614	614	618	622	625	622	620	620	621	621	626	622	622	622	617	613	610	607	603	602	605	610	613	613	613	609	605	602	596	593	590	593	602	610	607	606	607	602	603	602	599	600	608	615	622	610	607	605	605	603	604	602	604	606	612	619	621	618	613	610	599	594	593	597	602	611	614	616	614	608	605	597	594	595	601	601	598	596	592	591	589	590	590	591	589	582	579	584	595	606	613	608	604	601	600	598	595	595	597	595	592	584	577	574	578	590	601	601	603	599	595	592	589	591	593	593	596	599	597	589	586	591	593	585	584	588	593	601	605	608	610	611	610	607	601	600	604	611	611	604	590	587	581	577	580	588	596	602	597	588	583	586	592	599	602	604	603	607	611	612	606	603	599	598	595	589	592	591	591	593	596	600	601	597	593	593	594	595	597	600	600	596	596	595	596	588	589	581	585	587	587	583	579	576	577	577	580	581	589	591	589	591	588	578	572	592	593	595	594	591	595	600	593	583	584	589	591	593	591	589	588	586	588	597	603	607	608	605	599	594	593	597	605	602	598	591	588	591	596	602	608	607	605	599	593	597	596	597	597	596	595	590	590	593	595	601	600	596	591	583	585	591	596	604	608	610	608	607	605	608	608	609	607	604	602	603	602	598	600	600	600	597	605	608	609	607	614	615	611	614	614	613	613	613	608	604	591	594	593	590	583	590	587	584	589	591	591	587	585	584	584	583	583	582	583	592	596	602	602	600	597	583	584	587	587	604	601	591	594	602	608	611	609	609	604	599	596	604	611	611	608	607	607	601	599	595	591	589	598	594	585	576	575	578	588	597	615	611	614	610	605	602	598	597	593	591	594	604	608	611	613	609	586	583	582	581	577	583	580	581	579	579	583	582	579	578	582	585	588	592	594	594	590	586	585	585	588	588	592	596	599	596	601	596	582	572	571	585	588	585	584	580	584	585	596	598	597	586	578	575	577	583	579	577	576	584	591	599	600	593	588	581	576	577	581	582	589	591	592	587	586	579	586	596	599	596	590	585	588	595	597	574	573	573	571	566	571	575	583	589	589	586	583	580	567	550	551	553	561	567	567	578	571	564	561	571	577	578	578	577	575	575	569	566	570	575	573	571	569	567	568	570	573	575	578	579	580	582	585	579	575	574	564	559	560	560	560	562	570	577	581	581	577	579	582	588	599	602	582	583	588	588	584	582	585	587	587	586	589	591	583	587	589	594	595	595	594	588	579	579	579	579	0	0	0	0	0	0	0	0
625	623	619	613	613	607	604	606	611	611	620	614	601	597	606	606	613	617	618	611	610	610	610	611	606	608	613	611	612	612	611	600	600	598	600	604	604	606	605	607	610	613	613	613	616	620	620	622	619	609	609	609	610	608	612	614	611	611	605	601	598	603	611	615	616	609	605	606	607	609	604	608	612	612	612	613	616	615	608	604	608	615	617	614	606	604	606	608	608	605	602	601	606	612	611	610	594	599	601	598	592	589	589	593	597	595	594	588	587	588	586	589	586	592	598	597	593	593	591	585	583	583	581	577	573	573	577	584	595	605	603	595	593	596	595	593	588	596	594	589	588	592	594	595	594	594	593	604	598	594	585	582	585	587	594	602	607	608	605	603	596	588	585	585	589	591	587	579	581	578	580	580	581	581	577	575	574	577	582	584	585	587	590	591	593	592	591	592	593	595	589	577	571	570	573	582	591	588	585	587	587	589	589	588	586	582	587	584	577	577	577	578	582	582	578	582	584	585	585	588	587	590	592	592	596	598	602	603	596	588	586	582	578	573	571	576	584	591	589	581	576	574	578	585	590	588	589	592	596	596	593	584	583	586	579	580	585	587	590	589	586	585	586	582	579	578	574	578	583	590	589	582	575	573	578	586	587	585	579	579	581	577	570	566	569	567	565	574	581	582	582	582	577	571	563	562	570	580	585	583	586	584	577	576	578	583	585	586	585	584	582	580	581	587	593	599	605	604	594	589	589	593	595	589	579	573	569	575	583	589	597	601	599	593	588	585	580	580	586	586	581	579	581	586	587	586	587	584	572	573	576	580	586	594	595	596	593	586	586	584	584	590	592	593	592	587	581	583	587	589	580	572	574	576	581	583	580	584	596	599	592	596	598	583	582	581	580	578	576	575	582	588	586	585	586	588	587	584	580	579	580	578	577	575	573	576	585	589	589	578	565	569	569	567	565	565	569	574	581	586	586	585	590	589	593	597	599	603	600	598	586	587	594	591	590	586	579	573	569	568	568	569	571	574	576	584	595	601	602	598	595	583	576	584	582	580	578	587	598	598	579	582	578	578	575	573	566	563	558	549	551	571	577	578	576	574	573	578	582	584	577	575	576	575	571	568	580	589	594	595	590	587	585	576	573	570	567	577	580	579	575	575	575	577	581	581	578	576	570	565	570	571	565	560	563	571	581	585	578	568	569	565	570	575	577	584	578	570	566	574	563	559	563	568	576	551	549	553	564	568	570	566	564	560	560	561	563	567	576	581	581	562	554	553	551	549	550	549	549	555	559	562	558	553	555	563	568	569	572	569	568	564	563	561	557	556	559	559	567	567	566	562	562	561	559	557	558	564	564	563	557	553	552	554	554	557	555	556	557	556	550	553	554	553	553	554	554	569	565	565	579	579	576	576	576	570	560	564	569	573	575	574	576	582	587	588	586	575	572	572	571	570	0	0	0	0	0	0	0	0
610	611	605	599	599	591	590	593	596	596	605	604	594	591	601	601	607	611	613	602	602	602	602	600	600	598	601	603	593	593	592	589	587	588	587	593	596	596	594	597	600	604	605	608	610	611	611	611	601	600	599	600	597	601	606	608	607	607	602	594	593	598	603	606	605	597	590	591	587	587	592	596	599	596	598	598	603	602	599	598	595	601	603	602	598	598	600	602	600	586	584	589	588	578	578	581	585	584	582	579	575	571	568	569	571	572	579	578	579	579	578	580	579	588	592	586	577	574	578	579	579	578	575	572	573	573	573	575	578	584	585	591	595	595	587	578	572	568	567	567	573	574	583	584	581	570	579	584	586	585	583	580	580	580	583	577	581	584	583	586	579	577	575	578	583	580	575	568	568	565	569	572	575	572	572	572	573	576	574	569	567	576	580	578	573	583	586	589	593	591	578	573	567	565	568	576	584	580	577	575	579	584	589	587	585	578	566	558	556	559	564	568	572	573	571	569	571	571	577	575	571	579	581	583	584	590	596	590	582	580	577	570	565	562	560	563	575	580	579	574	567	565	567	569	570	571	568	578	580	578	573	570	568	567	571	572	575	575	579	574	571	566	567	566	563	563	563	568	574	579	581	574	568	568	575	579	582	580	571	563	562	559	556	559	557	544	552	562	570	575	576	577	572	568	562	562	569	570	568	569	578	576	570	570	572	574	576	580	580	576	572	569	568	570	572	569	574	585	585	584	583	584	582	578	571	564	560	560	568	578	585	586	582	575	570	567	567	571	572	571	572	569	569	571	574	572	568	567	567	571	569	572	570	567	574	576	573	570	568	565	564	564	569	568	565	559	555	561	569	572	567	563	564	567	571	574	575	575	575	578	576	562	566	567	568	566	563	561	568	572	580	582	578	578	575	577	578	577	576	569	570	572	564	561	564	568	570	572	567	560	559	563	565	561	557	560	564	571	573	573	564	563	560	566	570	588	583	573	570	568	570	571	572	580	580	576	573	567	562	560	558	559	565	568	565	566	571	577	580	584	564	557	556	568	565	558	558	562	548	555	565	566	567	567	566	563	553	546	540	536	537	550	564	566	565	562	560	563	568	566	556	553	563	562	563	563	565	571	577	579	577	570	568	566	566	567	566	571	571	568	566	560	555	560	561	558	557	562	561	561	565	564	558	547	549	556	565	567	563	555	547	552	555	558	564	566	564	561	558	556	553	558	557	551	540	536	537	543	555	561	560	558	557	554	550	551	556	558	555	553	551	547	545	547	548	546	547	546	545	546	552	553	553	546	545	551	554	553	556	559	558	557	555	554	554	550	551	559	563	563	554	553	555	554	552	551	553	554	551	545	544	542	544	548	552	552	549	545	546	547	548	546	545	547	547	546	543	546	547	543	541	558	572	566	561	555	555	557	562	566	567	564	562	567	573	578	577	569	565	565	560	551	0	0	0	0	0	0	0	0
596	594	591	580	580	580	580	580	585	585	585	589	589	593	595	595	598	601	593	597	596	593	593	589	589	588	586	585	586	586	587	585	578	578	580	581	583	583	581	583	588	594	595	595	599	598	598	589	591	596	593	590	589	591	594	600	600	595	595	589	587	586	587	590	591	587	583	578	579	582	585	591	592	590	587	587	585	587	585	589	585	585	591	591	579	575	573	575	575	573	573	568	558	555	555	555	563	567	570	573	574	570	563	559	557	559	559	561	555	555	564	567	568	570	573	576	572	572	573	570	570	569	567	560	566	572	569	564	561	559	567	569	576	576	571	568	563	559	556	555	549	546	544	547	550	551	560	569	578	577	563	555	558	562	565	565	563	562	568	571	569	566	566	571	577	576	566	560	557	558	566	568	569	570	569	572	576	574	566	563	558	571	574	570	566	562	555	556	559	561	564	565	561	560	560	567	571	575	570	570	573	580	586	588	582	570	555	547	544	545	550	555	559	563	559	557	558	557	561	562	559	556	556	554	572	573	574	569	562	562	560	561	557	554	550	550	553	558	561	561	557	555	554	553	550	544	546	551	558	559	558	558	558	559	561	563	564	566	571	569	567	561	555	550	553	557	560	563	568	571	567	561	562	559	555	556	557	567	562	550	550	547	545	543	539	534	536	549	560	561	564	571	569	563	561	561	559	559	555	555	557	560	562	558	556	559	560	563	563	559	557	555	551	552	553	554	558	557	553	552	552	554	556	555	554	558	562	565	567	570	568	567	566	562	564	565	568	570	574	573	567	561	554	551	552	554	556	556	560	562	563	560	557	556	555	552	549	552	550	552	552	552	551	548	551	549	548	547	553	556	548	545	546	547	554	571	575	576	559	556	555	556	549	553	557	556	555	550	559	565	566	568	571	565	557	555	555	558	556	552	556	559	559	554	552	554	559	561	559	554	556	562	564	564	559	560	562	564	563	564	557	553	554	561	562	559	547	547	551	556	556	560	559	560	563	564	562	561	558	554	552	553	554	555	557	559	557	550	554	554	549	549	548	548	549	547	534	537	537	540	541	539	536	532	531	533	541	536	529	526	528	538	548	556	551	551	552	550	549	543	539	540	549	551	549	548	545	544	540	537	536	538	539	534	529	531	560	559	549	544	542	541	542	543	544	545	549	550	552	556	557	558	550	541	542	547	555	560	553	547	539	535	537	543	543	544	543	545	541	536	536	541	549	557	554	536	526	525	527	532	536	547	542	539	537	533	532	536	537	537	538	540	541	542	544	544	544	544	544	545	547	550	549	546	542	543	543	544	546	551	552	551	550	548	547	545	538	540	541	542	542	548	551	551	550	548	549	549	543	538	538	538	538	543	546	543	544	539	542	545	546	544	539	536	536	537	537	537	541	541	541	539	541	541	551	552	554	554	556	557	551	548	548	546	549	560	557	548	542	542	540	538	0	0	0	0	0	0	0	0
586	583	575	569	569	566	571	577	581	584	584	585	587	587	587	586	586	590	588	587	582	575	575	576	580	576	575	575	580	580	581	580	574	570	570	572	570	570	569	570	572	580	581	581	580	577	577	575	582	588	588	584	581	579	578	581	581	583	583	578	577	574	572	570	577	579	577	578	577	579	579	581	584	585	582	582	575	574	576	577	571	572	573	573	570	566	567	570	570	568	564	558	553	551	549	549	552	552	558	564	568	568	563	558	552	548	544	544	549	553	554	557	560	567	567	560	562	567	566	566	560	554	551	554	557	561	563	558	554	550	554	557	557	554	545	545	546	544	543	546	547	544	542	544	545	548	552	556	553	546	542	537	548	555	556	555	551	551	554	561	561	560	561	564	568	571	558	551	553	557	562	563	564	564	563	562	562	555	548	546	545	549	553	556	558	558	556	550	546	545	545	543	543	545	547	551	556	549	543	534	544	555	560	562	563	561	554	541	535	537	548	548	545	555	553	547	543	543	545	544	545	542	541	540	537	541	558	557	553	549	543	547	550	545	543	543	544	550	554	555	551	551	551	549	542	542	544	543	544	544	545	546	548	552	554	549	550	558	564	567	562	561	556	553	555	556	556	549	549	547	539	539	540	540	542	549	549	548	544	538	534	528	525	528	526	523	521	525	538	548	552	559	566	546	541	541	542	543	541	543	548	551	549	547	544	549	551	554	555	552	546	541	540	538	544	545	548	547	545	542	543	547	555	558	558	557	557	559	559	557	556	553	552	553	556	558	558	559	554	553	546	543	543	547	549	550	551	550	548	545	543	545	549	552	553	550	545	541	538	542	547	549	544	542	544	545	542	540	539	539	541	543	543	543	542	533	532	539	547	548	548	546	540	539	540	545	541	541	544	553	557	546	543	543	540	536	536	536	538	539	547	554	556	549	548	549	550	551	552	553	555	556	558	557	559	558	559	559	554	546	543	546	545	549	551	546	537	535	534	541	548	547	543	545	543	549	551	553	549	546	544	544	545	543	539	535	527	531	539	540	540	539	538	539	531	530	523	524	531	532	535	528	524	522	521	522	527	523	519	517	520	529	541	546	547	547	544	543	542	537	534	537	537	539	540	538	539	535	523	526	528	529	528	525	517	514	525	529	532	533	530	526	523	521	527	536	541	542	542	540	540	532	524	522	529	539	550	552	546	541	538	530	529	526	528	533	537	535	526	518	519	528	542	552	554	546	534	525	517	514	517	518	516	516	518	525	531	534	540	537	536	534	533	531	531	532	536	544	544	543	545	545	542	537	532	531	533	536	541	547	549	541	530	531	536	533	522	518	515	519	527	536	543	544	543	537	533	538	536	532	532	534	535	538	538	537	536	535	534	541	545	544	536	529	525	526	527	530	534	539	539	539	537	531	535	540	541	554	549	542	539	538	537	531	531	536	541	543	538	538	534	531	0	0	0	0	0	0	0	0
580	576	564	558	558	549	557	569	569	573	573	574	577	575	575	576	576	583	577	572	564	557	557	560	563	566	570	571	572	572	572	564	558	552	551	552	552	552	551	553	556	560	555	550	548	551	551	558	568	576	576	574	568	566	560	560	565	568	568	569	567	564	560	557	557	562	568	571	571	567	566	570	576	580	573	573	566	554	552	555	558	561	566	566	560	557	562	564	569	568	563	558	550	549	547	545	546	549	554	561	563	564	556	552	547	544	541	543	548	553	552	554	557	562	554	551	554	554	555	555	556	551	547	549	551	557	557	554	550	543	539	538	541	539	538	538	536	536	536	539	543	540	537	537	535	542	544	544	546	541	537	532	526	524	528	529	537	536	538	545	548	551	554	556	548	551	550	549	548	548	543	541	543	548	551	551	547	539	532	528	527	531	544	546	549	553	550	541	539	537	534	532	533	536	536	542	546	537	532	527	530	537	539	535	536	541	540	536	536	540	540	539	542	545	550	546	534	533	531	532	534	534	536	537	533	530	528	528	543	539	537	539	544	539	532	534	539	539	546	549	551	554	551	545	539	539	539	537	533	532	534	536	539	535	534	530	533	538	546	550	548	544	541	543	545	542	537	520	519	522	527	536	536	538	539	541	544	542	536	527	522	520	519	519	516	516	518	520	523	534	541	536	537	533	532	530	530	531	531	532	534	535	536	534	539	538	534	532	544	543	537	531	530	531	533	536	539	541	538	536	534	539	551	551	553	551	546	547	550	548	544	541	537	541	548	549	546	542	540	540	539	538	537	539	545	546	545	545	542	539	534	534	537	545	549	549	544	541	541	538	542	548	548	543	537	532	532	529	532	534	536	539	534	532	527	524	525	532	536	536	529	528	531	526	524	528	527	530	534	542	537	530	530	532	531	531	532	532	535	537	542	550	553	550	546	545	540	542	538	540	540	541	545	545	546	550	552	546	531	531	531	530	534	539	540	528	527	524	531	535	537	533	528	526	530	532	532	533	535	536	535	539	539	533	524	514	515	519	528	531	531	528	514	522	525	521	518	520	524	526	526	521	516	515	516	520	519	516	511	507	513	523	536	540	539	534	518	530	528	527	525	521	525	528	531	530	527	521	518	518	522	527	522	519	514	514	519	520	522	523	522	518	513	508	509	514	519	521	521	520	519	519	516	513	513	527	541	544	523	523	528	527	525	521	524	527	527	521	513	509	510	514	519	522	535	539	531	524	519	516	514	513	512	512	515	518	523	524	527	530	525	523	520	521	521	523	527	528	521	523	527	522	515	510	512	514	513	514	517	521	526	526	525	523	528	523	519	515	509	510	518	530	537	539	537	532	525	517	517	521	523	523	524	525	527	525	527	527	529	531	540	544	534	526	519	518	516	518	529	533	533	535	532	531	535	534	533	528	522	519	529	529	529	523	521	525	531	536	536	535	527	523	0	0	0	0	0	0	0	0
569	559	552	546	540	540	541	544	553	557	557	561	566	563	563	565	565	570	550	550	547	545	545	546	552	559	563	563	559	559	560	558	552	544	543	544	545	545	544	546	547	543	540	541	542	546	552	552	561	571	569	556	550	547	545	547	555	562	562	563	557	552	551	550	551	555	553	553	550	549	555	560	569	571	550	547	547	546	546	547	546	545	544	543	546	544	548	554	558	559	557	552	550	546	543	542	542	546	552	554	558	556	550	549	548	544	541	543	544	547	548	551	554	546	540	538	532	524	525	535	538	540	543	540	543	547	545	534	535	536	530	529	534	533	531	530	532	531	532	532	533	532	530	528	527	532	536	540	538	534	530	525	522	522	523	524	522	523	530	537	533	539	537	534	535	525	526	520	517	520	522	526	533	540	546	544	535	526	523	522	521	521	534	537	542	544	537	535	533	529	523	524	526	527	524	525	526	530	530	525	529	532	533	527	517	517	527	529	527	522	520	524	530	533	536	534	531	528	527	526	525	529	531	531	527	521	519	521	528	524	528	526	525	525	524	532	533	533	533	532	534	537	534	530	532	529	526	525	521	513	514	513	517	519	523	530	533	536	537	533	532	529	530	534	531	528	521	513	514	512	521	524	529	531	532	534	535	533	529	525	523	526	523	517	514	513	514	514	514	514	515	515	511	506	511	516	520	523	523	524	524	522	519	520	520	518	515	513	515	518	519	517	522	524	528	528	533	532	532	527	528	529	532	530	531	534	534	538	540	537	533	529	529	535	539	540	539	534	530	528	527	528	526	531	536	541	539	536	533	531	526	523	526	529	535	541	536	535	534	534	530	532	528	528	532	535	534	534	534	525	521	514	512	512	508	507	510	516	515	516	515	514	513	513	512	516	519	523	536	535	528	523	520	523	523	524	525	527	528	534	528	521	521	523	526	529	525	525	514	518	519	522	531	532	529	539	540	527	513	513	511	511	508	510	522	524	524	523	521	520	518	518	516	515	515	518	517	514	512	514	514	518	518	521	520	514	510	516	519	519	511	511	515	516	519	516	508	508	514	518	516	510	508	508	510	512	515	512	504	501	506	505	508	512	512	505	504	507	516	518	518	513	512	512	512	517	513	512	514	514	516	518	518	515	516	514	515	516	510	509	508	509	508	508	505	502	502	508	510	515	515	517	516	513	498	495	493	496	499	509	513	514	517	521	521	522	518	509	505	504	503	503	503	504	504	507	503	498	500	504	502	501	499	501	506	510	514	514	514	517	515	511	508	509	513	518	520	517	512	514	514	512	507	504	508	512	514	518	521	521	520	520	519	513	511	505	500	499	500	504	511	521	525	527	527	525	521	517	514	516	513	510	507	510	517	520	523	525	525	528	532	532	523	520	517	515	516	517	516	524	524	527	523	527	527	527	523	520	516	512	509	510	520	519	519	522	526	527	527	525	520	519	0	0	0	0	0	0	0	0
549	540	537	533	531	531	531	534	534	530	530	529	530	530	532	538	538	536	540	540	538	538	538	540	541	544	546	546	550	550	542	541	539	539	539	538	538	538	538	537	539	539	539	539	539	542	542	542	549	552	550	535	536	537	537	537	539	547	547	547	542	536	535	537	538	532	533	534	536	540	542	531	538	540	539	536	536	535	535	534	530	528	531	531	531	533	535	534	532	537	539	537	536	532	531	532	535	539	543	542	539	536	533	540	546	543	537	530	524	522	525	531	534	528	522	518	518	519	519	522	526	524	518	516	520	527	532	524	521	525	527	524	529	529	527	526	526	526	523	521	521	521	520	519	515	514	517	522	525	526	522	517	519	521	522	525	525	526	527	526	525	527	523	516	511	514	515	509	509	515	518	522	523	528	528	527	523	516	518	517	514	514	524	529	525	528	532	532	527	519	517	518	518	517	513	511	516	523	527	513	507	504	507	507	512	513	510	513	513	513	513	513	512	513	516	519	521	526	524	519	519	519	520	521	518	511	511	515	519	519	516	510	513	523	525	526	524	523	523	525	524	514	513	518	518	514	512	509	510	510	510	510	513	517	520	520	526	526	525	523	519	518	520	522	520	518	512	507	505	507	510	512	514	519	521	523	524	522	519	511	508	515	517	516	513	511	510	511	511	511	506	505	498	500	505	509	510	514	516	517	516	512	508	506	505	504	507	510	509	507	510	508	508	508	509	524	529	529	525	522	521	525	526	528	528	527	527	529	531	530	526	521	520	524	529	531	529	524	521	518	516	514	515	518	524	530	532	529	524	521	517	515	515	520	528	527	524	523	525	521	513	507	507	505	511	501	505	508	511	509	507	503	498	494	493	498	503	507	505	504	505	505	505	501	495	499	508	517	520	522	518	513	512	513	514	517	518	517	516	513	514	509	507	508	509	509	507	503	505	506	511	514	513	516	513	512	508	503	501	504	508	509	509	508	509	513	516	518	516	508	514	512	509	508	510	514	516	515	513	512	517	519	519	508	502	505	505	511	502	503	504	498	504	513	512	506	497	499	505	507	505	501	498	496	497	503	506	506	500	497	495	496	497	498	499	498	498	498	497	507	508	509	507	503	498	496	498	495	501	505	507	507	509	511	512	504	505	501	492	490	495	499	502	504	503	500	496	495	496	497	494	485	491	493	491	482	478	475	481	486	487	486	489	492	499	502	501	501	500	497	495	492	491	493	492	488	485	488	494	496	498	497	492	494	496	502	505	510	511	510	501	497	500	505	513	509	505	502	503	502	500	500	506	507	510	512	512	511	511	508	507	505	501	501	500	500	498	494	493	494	505	508	514	514	515	512	509	508	510	511	510	508	504	502	507	511	514	518	523	525	523	512	501	501	511	512	513	512	511	511	504	501	502	495	503	512	516	514	513	511	507	504	506	510	518	520	524	524	524	522	519	515	0	0	0	0	0	0	0	0
533	533	530	525	523	523	523	527	528	523	523	518	519	521	523	531	531	530	530	531	530	533	535	535	529	529	525	523	525	530	530	531	530	533	532	533	531	532	532	531	531	531	532	527	527	528	528	528	537	539	529	529	532	534	534	532	532	532	536	536	536	532	523	518	520	524	527	530	532	524	524	523	527	529	531	531	531	525	521	515	516	518	522	523	524	522	527	527	531	534	534	530	525	518	518	519	525	527	527	528	529	524	518	518	532	536	533	527	521	517	514	515	515	512	510	513	514	515	515	517	520	520	515	511	512	514	519	517	515	519	524	525	522	522	522	522	521	518	513	515	515	514	514	511	509	508	510	515	521	515	508	506	510	515	517	521	523	521	518	516	517	518	521	516	509	505	505	509	511	513	517	516	517	516	515	513	513	509	515	516	513	513	517	522	521	523	523	517	513	515	515	512	509	505	503	503	507	511	506	502	501	500	501	507	509	508	505	504	507	507	507	507	499	500	503	511	512	514	512	512	503	505	506	508	489	486	493	504	512	512	510	503	502	503	515	516	518	518	518	515	509	510	510	513	510	507	503	504	505	506	508	506	508	513	514	512	514	515	515	510	509	506	510	511	512	508	502	496	493	497	503	503	502	504	508	510	511	511	509	503	504	506	508	510	508	506	501	503	502	510	507	495	494	496	501	507	507	508	509	511	504	499	501	497	496	497	500	505	505	500	496	493	490	491	489	487	485	482	481	485	499	499	499	502	505	506	507	509	510	513	516	510	512	517	519	519	512	511	513	509	507	505	509	512	516	521	521	518	513	510	511	502	500	505	514	517	517	517	512	502	498	492	493	493	493	496	498	504	507	502	499	495	491	489	488	494	499	503	501	497	495	495	495	492	486	483	487	500	500	493	495	495	484	480	495	505	508	505	506	502	504	503	504	505	507	506	504	501	500	499	505	503	505	501	484	481	482	486	492	499	504	504	505	505	505	509	509	507	498	489	494	501	502	500	503	507	509	512	511	513	516	515	512	502	496	496	491	495	497	497	489	490	495	500	500	491	486	487	495	501	500	496	493	491	492	496	497	498	493	492	489	487	488	489	496	499	499	497	494	493	502	505	503	492	486	494	492	491	491	494	496	496	500	507	509	500	495	490	487	486	489	494	500	502	501	497	489	480	480	480	481	484	490	485	483	475	470	469	469	471	475	479	481	484	484	488	492	494	492	490	484	481	483	487	486	479	479	482	486	490	493	491	488	487	491	495	494	496	498	497	495	495	498	504	504	502	496	494	493	491	488	489	490	495	498	504	506	505	501	498	495	493	487	485	488	493	496	494	492	493	497	504	507	507	503	496	498	502	506	507	506	505	503	501	500	504	508	512	516	515	507	500	493	490	496	505	507	504	500	500	491	484	483	486	495	501	505	507	504	492	489	494	495	500	501	498	516	516	516	511	509	507	0	0	0	0	0	0	0	0
524	524	521	517	517	517	518	519	520	514	514	509	509	515	521	526	526	519	519	521	526	529	531	531	524	520	516	515	517	520	520	521	522	524	526	528	528	526	526	526	526	524	522	518	517	519	517	517	517	518	519	523	524	528	528	528	526	522	525	525	526	521	514	511	515	519	525	516	517	517	518	517	520	523	523	522	522	517	510	506	507	509	513	515	518	516	518	521	528	530	528	523	518	513	510	505	505	508	515	518	516	513	507	505	510	526	526	522	516	511	504	503	504	504	501	505	510	512	508	508	515	515	510	505	504	506	506	509	510	515	518	520	515	510	508	507	508	504	507	507	510	505	499	493	493	499	506	514	517	507	499	496	500	504	510	510	511	505	501	500	501	502	509	513	511	510	506	501	498	499	497	493	498	496	498	499	501	506	510	515	516	511	508	506	501	499	501	505	503	503	502	498	497	495	496	498	502	505	497	494	495	496	499	499	503	504	501	497	498	503	504	497	491	494	498	507	509	502	499	494	494	497	492	490	489	492	494	498	504	507	506	501	496	490	493	496	508	509	506	508	508	507	506	503	499	498	494	498	498	498	503	505	503	504	505	503	502	499	500	499	498	495	496	507	503	493	487	488	490	494	491	496	497	494	495	500	502	501	501	500	498	494	489	488	491	495	494	495	496	494	491	491	490	490	495	501	506	504	503	494	493	490	490	486	484	487	492	496	497	495	491	484	485	482	481	483	482	482	482	482	480	477	479	485	487	495	496	499	500	502	501	503	501	499	493	491	489	488	486	501	503	501	502	503	503	505	504	501	498	491	490	495	498	504	508	493	493	492	489	486	487	490	491	490	488	489	491	493	499	498	491	487	484	485	485	487	490	491	489	486	482	482	481	479	482	480	482	481	479	484	489	489	482	479	484	487	492	493	496	498	492	491	491	493	490	495	498	502	490	490	492	496	493	485	479	480	481	482	486	486	490	493	500	496	503	502	499	491	490	482	479	484	487	493	497	500	501	504	504	505	507	506	502	496	487	488	486	488	489	476	479	480	481	486	482	475	473	475	480	490	494	492	491	488	485	485	486	486	486	484	485	482	481	486	490	495	498	499	496	492	499	502	498	491	480	485	486	485	485	488	488	493	497	501	500	490	484	482	482	483	486	490	497	499	482	481	477	476	473	475	480	478	476	477	477	474	470	469	471	471	472	473	473	476	474	475	482	480	478	478	473	467	469	473	479	472	472	473	475	476	477	480	482	482	482	482	478	484	487	491	491	492	494	496	494	488	484	483	484	485	482	478	479	482	483	482	484	485	486	485	479	477	477	479	481	484	486	488	490	488	490	491	487	485	486	488	492	497	500	499	502	505	502	497	496	494	499	505	508	506	496	489	486	487	489	494	497	495	490	490	484	474	473	477	488	496	500	494	486	484	482	486	489	495	496	493	492	499	499	500	500	501	0	0	0	0	0	0	0	0
506	508	511	511	513	513	512	512	511	507	504	504	507	511	513	516	516	508	510	509	515	520	522	522	513	510	508	509	512	514	514	515	515	518	518	522	521	522	522	520	520	520	515	509	508	507	507	507	507	511	518	518	516	518	520	521	520	519	518	518	516	513	509	509	513	508	509	510	512	513	512	514	519	521	520	518	514	514	507	505	502	503	502	506	509	509	514	518	522	519	514	510	509	508	503	501	500	502	505	509	508	504	497	498	502	506	509	510	507	500	496	495	496	498	500	504	508	509	504	501	502	503	503	499	498	501	503	505	507	508	512	513	512	505	498	493	488	487	487	486	488	488	486	480	478	482	488	494	502	502	494	488	492	495	496	496	495	492	486	483	492	497	498	498	499	504	503	491	489	488	487	487	486	488	493	496	498	499	501	503	503	502	497	484	478	480	489	497	497	494	491	489	485	484	485	489	493	497	496	491	490	494	495	496	499	499	497	495	495	498	497	491	487	485	492	499	494	484	479	481	487	488	485	484	485	486	483	485	488	492	501	496	491	486	482	485	484	482	487	489	496	500	498	494	489	488	489	488	489	493	495	497	494	491	491	493	496	493	493	487	490	489	486	489	489	476	476	480	487	490	492	490	488	490	488	487	481	484	486	487	484	480	480	482	488	487	491	491	491	490	487	488	488	488	487	486	484	483	482	479	476	475	474	474	477	480	481	487	487	480	478	479	481	480	480	483	482	483	483	483	483	481	484	485	484	484	487	491	492	489	485	483	484	480	480	484	486	485	483	482	484	491	497	498	491	471	470	476	485	492	494	488	481	478	478	480	482	485	483	481	482	488	488	487	485	484	485	480	478	476	478	478	477	479	480	481	481	483	483	479	478	474	472	473	472	472	473	468	468	473	483	483	481	472	473	473	472	474	478	480	481	480	484	483	477	472	478	479	478	478	479	482	482	481	478	482	484	481	479	476	477	475	474	484	482	480	481	486	484	481	476	478	485	488	490	489	490	491	491	490	494	494	482	480	481	481	477	476	471	469	469	473	468	481	483	469	468	468	469	475	479	483	482	481	474	476	475	474	473	472	472	473	474	480	486	490	491	493	490	483	477	485	487	486	483	481	480	480	482	481	480	480	483	485	485	479	475	473	473	471	470	468	467	470	472	473	470	468	465	476	476	474	471	473	472	472	471	468	469	468	465	465	465	465	464	465	468	467	467	466	462	460	461	465	463	464	462	465	466	466	465	466	467	468	468	465	467	470	476	482	483	481	484	483	477	471	471	472	476	476	475	475	472	472	474	472	473	478	478	478	472	470	471	476	478	479	479	477	475	472	473	472	471	468	474	476	481	485	488	492	494	497	496	491	487	486	486	488	491	491	487	481	479	481	482	483	486	482	482	479	476	473	471	469	478	484	486	482	477	475	475	479	481	483	483	480	480	480	478	490	490	492	0	0	0	0	0	0	0	0
500	504	506	506	505	505	503	501	502	501	502	502	504	509	511	508	497	497	497	500	500	506	508	508	507	506	507	508	508	504	504	504	503	506	507	510	506	510	510	513	513	507	505	503	501	501	502	502	503	511	514	514	510	506	510	511	512	514	517	517	512	510	508	502	500	499	502	506	509	510	510	511	516	517	513	510	506	506	506	501	497	493	494	494	498	501	505	511	513	510	507	499	496	499	498	497	497	497	500	503	503	498	493	495	497	497	497	500	499	495	489	487	487	493	497	501	505	504	502	494	495	495	498	498	496	497	500	501	503	507	508	507	504	499	495	492	495	495	492	489	484	485	487	486	486	488	487	488	488	490	483	478	483	489	495	499	494	485	480	479	482	485	485	487	489	490	489	481	475	479	480	480	483	486	489	489	489	488	492	493	493	492	486	482	480	479	485	489	491	490	490	489	487	484	480	480	487	492	494	487	486	485	489	490	492	492	492	493	494	494	490	485	480	478	479	486	484	482	474	472	472	475	476	476	478	477	479	478	479	480	482	479	469	468	474	475	474	475	474	472	475	481	481	481	479	482	483	478	477	479	482	483	482	481	483	487	491	480	481	482	488	484	477	474	467	468	470	474	482	485	485	483	481	480	481	480	478	480	480	479	478	475	475	478	479	483	488	486	487	485	483	483	485	483	480	469	470	473	473	472	473	474	475	479	479	469	465	473	480	479	476	478	480	482	483	484	484	483	481	482	484	486	488	487	488	488	488	485	480	475	475	478	477	476	475	476	477	476	473	473	476	476	473	473	472	470	472	476	482	488	489	474	473	471	469	472	473	475	476	478	480	480	483	482	480	476	473	475	471	470	472	472	472	476	476	476	478	479	480	477	473	467	462	463	466	468	464	463	461	471	474	472	472	469	470	468	466	466	469	474	474	474	474	480	477	472	466	467	469	471	475	477	478	479	478	474	474	472	472	473	473	472	467	468	471	474	477	479	475	470	467	471	478	480	478	477	477	476	475	472	456	454	456	467	473	473	467	466	464	464	462	457	461	466	475	477	470	464	461	460	461	464	473	468	465	467	469	466	463	462	463	464	466	470	471	472	473	470	468	468	466	469	475	484	480	476	469	470	469	470	469	469	471	473	477	475	471	467	465	464	464	458	458	458	463	464	463	463	460	468	468	468	465	466	468	468	467	462	457	454	452	454	456	456	454	456	459	460	462	460	457	454	456	457	457	456	456	458	460	461	462	459	458	456	455	456	459	461	466	470	469	471	470	465	459	459	460	462	465	465	468	470	469	469	468	462	463	469	470	467	466	464	463	469	472	472	470	464	460	461	462	463	463	461	460	459	459	459	462	464	467	469	465	462	460	460	461	461	461	467	474	475	465	463	468	474	474	467	467	473	475	470	468	468	469	470	469	467	467	466	466	464	460	462	463	466	460	460	455	451	452	484	0	0	0	0	0	0	0	0
