391	389	389	388	384	384	383	379	378	381	381	382	380	379	379	379	378	377	374	370	371	372	372	375	379	377	376	376	376	378	384	384	384	383	383	383	383	379	376	373	375	377	376	373	373	375	376	376	375	376	379	379	375	376	376	377	375	372	369	366	366	368	369	370	372	375	375	376	379	381	383	382	378	377	377	369	367	365	366	370	373	369	366	363	363	364	367	367	363	362	362	366	367	368	369	368	366	364	362	358	362	364	366	365	365	363	365	367	372	375	371	368	366	366	366	362	362	364	364	364	363	362	361	363	366	365	365	365	363	365	368	369	365	362	361	360	363	367	368	368	365	363	359	357	358	357	356	353	353	352	351	351	354	358	360	360	359	360	360	361	359	357	355	353	353	355	360	367	364	360	361	362	361	359	359	361	358	353	358	358	359	360	358	356	359	360	362	362	355	352	357	356	355	357	364	366	366	365	364	362	361	359	358	359	358	356	357	359	366	363	362	363	363	358	357	357	358	359	359	352	355	358	358	359	358	360	359	361	356	351	355	355	353	350	353	360	359	358	359	358	355	358	358	360	356	356	358	359	360	360	359	359	359	360	360	360	358	359	358	355	358	358	356	356	356	356	357	355	349	351	357	352	353	353	352	351	348	345	345	346	347	340	345	340	337	340	346	346	348	348	344	344	349	353	351	353	353	352	354	357	357	354	354	350	349	347	347	348	350	346	347	349	350	351	350	351	351	347	353	351	349	349	352	352	352	355	354	346	346	346	345	345	345	343	343	346	347	348	349	350	346	346	344	351	354	356	357	354	346	343	341	347	353	342	343	347	350	350	351	352	348	346	341	336	334	340	342	347	348	349	349	352	355	352	350	350	352	350	346	346	351	351	351	350	346	345	345	347	345	342	341	341	342	345	343	345	347	346	346	345	343	340	339	343	347	350	350	345	343	344	343	339	339	341	344	345	349	349	347	347	347	352	349	352	343	345	341	343	344	353	352	350	348	344	343	342	342	343	344	349	359	356	344	338	335	336	337	340	340	342	343	346	348	350	352	352	345	341	341	340	339	339	338	335	335	334	334	339	342	342	342	341	340	342	339	339	343	344	347	351	347	343	339	342	345	345	343	344	351	350	349	349	345	345	344	343	343	342	341	338	338	341	341	341	337	341	343	341	340	338	338	337	337	336	337	339	338	336	331	329	332	334	337	335	330	329	336	338	338	336	337	340	339	339	341	341	338	337	337	337	337	337	335	329	330	331	333	337	343	346	346	341	335	333	338	342	344	344	344	341	341	342	342	341	339	338	336	335	334	334	331	330	328	330	329	328	329	330	334	336	338	339	339	336	338	338	338	338	339	339	339	339	343	341	338	336	336	336	338	334	334	335	336	339	340	337	334	332	334	332	332	333	342	339	337	337	337	335	335	335	335	337	339	339	338	336	340	339	336	335	334	332	0	0	0	0	0	0	0	0
387	386	384	381	378	378	376	375	376	375	375	376	378	378	378	378	378	378	375	370	366	364	364	365	370	374	374	373	373	376	376	377	377	378	381	380	380	377	373	372	371	371	372	372	372	372	369	369	364	365	365	366	366	364	364	360	360	361	362	361	363	363	362	363	366	368	370	370	374	379	383	383	381	377	366	362	362	361	362	366	368	364	363	361	362	365	364	364	364	365	366	366	365	365	364	366	362	361	353	355	357	360	361	362	360	360	361	364	367	370	368	366	364	364	361	360	362	363	365	362	361	359	355	357	361	364	363	360	357	360	362	360	360	359	358	356	352	354	357	359	357	354	353	353	355	353	352	352	353	352	350	350	353	353	356	356	349	349	353	354	355	355	353	350	348	352	356	358	354	355	359	360	359	358	356	350	347	348	351	353	356	356	356	353	353	353	350	353	349	347	352	356	356	355	358	361	360	358	359	359	360	359	359	356	356	353	354	354	355	360	358	356	350	347	349	352	355	357	352	355	356	356	356	356	351	353	356	356	346	349	354	356	353	352	349	344	343	346	353	358	355	350	347	346	346	350	354	353	355	356	354	352	348	350	356	355	354	353	354	356	356	356	355	351	347	349	350	348	345	340	346	347	347	345	348	343	344	342	342	341	340	338	342	339	336	337	341	346	350	346	342	341	345	347	347	348	352	350	350	351	350	347	349	346	344	344	344	343	349	348	346	347	338	339	341	349	346	340	345	345	345	346	345	348	350	350	347	345	345	343	343	343	341	336	337	339	339	339	346	344	344	344	344	347	346	348	346	341	338	339	338	337	337	338	343	345	345	345	345	343	346	344	341	337	341	342	344	342	342	342	342	343	341	339	340	349	349	346	344	344	345	346	341	338	337	338	342	343	342	340	338	341	343	344	343	340	339	339	345	345	341	339	340	344	346	348	347	347	344	344	344	337	333	332	339	342	344	342	343	342	343	345	343	339	340	340	337	340	343	344	345	342	341	337	340	338	340	339	340	344	335	334	335	338	340	341	339	335	340	341	343	338	338	338	340	338	338	337	336	335	337	336	334	332	329	332	334	335	335	337	338	339	336	330	331	332	334	338	340	349	347	343	338	338	339	340	337	338	347	342	337	335	331	334	333	334	340	341	338	333	335	336	337	330	332	335	339	339	337	335	336	335	334	333	334	334	332	329	326	324	326	332	333	331	328	330	335	334	333	330	331	334	336	336	336	335	336	334	335	333	332	336	335	333	332	331	338	340	340	339	336	333	331	328	326	325	329	332	334	336	335	333	338	337	336	330	329	331	331	329	328	325	325	330	330	326	326	328	332	335	337	336	331	329	329	332	334	335	337	338	336	332	333	332	331	334	334	335	337	336	336	337	336	333	327	325	324	324	325	326	326	327	329	333	334	332	329	328	328	328	329	332	333	336	338	337	336	333	332	330	328	328	328	0	0	0	0	0	0	0
377	379	374	368	368	368	365	364	365	365	365	368	369	374	377	378	376	375	372	367	364	361	361	362	364	369	372	374	371	371	372	372	370	371	367	370	370	370	369	365	364	364	366	365	365	370	368	364	360	358	359	363	362	359	359	356	356	356	362	362	362	362	361	362	363	363	366	366	367	369	370	371	371	365	361	358	358	359	361	364	358	356	360	360	359	361	362	362	362	364	366	366	364	361	361	359	358	357	352	351	352	355	358	360	359	358	358	360	362	363	364	364	363	358	357	358	360	361	363	362	356	357	357	355	356	355	353	349	351	355	353	352	355	356	355	351	349	351	354	355	355	352	351	351	350	349	350	352	353	350	348	346	345	347	349	347	348	348	349	351	352	352	351	349	346	345	346	347	349	352	355	355	350	354	352	347	344	344	349	353	352	352	351	350	345	343	345	344	342	347	352	355	358	358	358	358	358	357	355	353	354	353	355	356	355	353	353	352	349	350	345	342	344	345	345	350	351	348	346	351	352	352	346	341	343	349	352	353	351	347	348	347	346	346	341	342	343	344	348	349	347	336	340	339	342	342	344	345	348	349	349	341	342	345	345	349	349	350	353	354	355	354	346	344	343	345	344	340	339	339	338	342	342	342	343	342	342	340	340	340	339	339	339	340	341	341	346	352	343	338	334	335	337	339	336	334	336	345	343	346	345	342	338	338	335	336	341	342	341	349	348	339	338	335	336	337	337	337	339	339	341	341	340	344	346	344	343	344	344	343	341	341	336	335	335	337	337	337	335	338	337	341	343	342	342	339	333	333	336	337	335	336	335	339	344	343	342	341	341	339	337	338	338	341	342	344	342	339	336	333	331	334	339	339	337	338	334	335	335	338	341	345	343	340	338	336	338	339	338	337	335	336	338	337	338	337	334	334	336	337	337	338	340	342	343	343	341	343	341	336	335	335	331	330	335	340	341	340	339	338	337	332	331	332	335	333	332	334	335	336	334	333	337	336	334	335	332	328	329	332	333	335	335	337	338	339	337	335	334	337	336	333	331	330	327	334	334	334	333	329	326	330	331	329	326	326	330	332	332	334	335	338	333	330	330	331	330	329	334	336	339	337	334	330	331	334	327	329	339	334	334	334	333	331	331	327	327	326	326	328	329	332	328	325	327	332	336	337	335	335	331	329	329	331	332	332	330	329	324	321	318	325	329	328	328	328	330	330	330	328	328	328	330	331	331	331	330	328	332	332	327	326	333	331	332	333	338	340	339	337	334	330	328	327	326	326	327	329	332	331	330	330	328	326	325	323	324	327	329	328	328	326	328	329	329	328	325	327	330	333	335	335	331	327	327	330	331	331	335	328	324	330	332	331	331	331	331	330	331	332	330	329	327	324	320	319	320	322	323	325	324	318	318	320	330	329	328	326	326	326	328	329	330	333	334	335	334	335	334	331	330	329	329	0	0	0	0	0	0	0
369	367	365	365	364	364	362	359	357	359	359	359	364	371	373	376	369	367	364	359	357	356	356	356	358	364	367	370	366	366	361	362	360	361	362	362	362	364	364	362	361	359	359	364	366	366	360	360	360	361	360	361	360	357	355	355	358	358	358	355	355	355	355	356	357	356	356	356	358	359	360	359	360	359	357	356	357	357	361	350	350	352	356	356	356	358	360	360	360	360	362	359	358	358	357	355	355	352	350	349	349	352	357	359	359	355	355	357	359	360	362	358	355	354	355	356	357	358	358	347	351	346	346	351	350	353	352	347	346	345	347	346	348	352	350	346	346	347	349	349	349	348	346	347	346	346	349	352	352	350	346	344	343	343	340	344	347	344	345	346	348	349	350	348	347	346	344	341	338	337	337	340	345	352	351	347	343	341	338	338	349	349	345	345	345	344	344	339	341	344	339	339	340	347	354	355	355	353	352	350	350	343	339	343	345	345	348	348	348	344	341	337	340	341	343	343	344	344	343	348	350	350	345	339	337	340	343	344	343	345	345	345	341	334	339	340	342	342	344	344	343	334	331	336	339	342	342	341	342	340	339	338	339	340	340	341	342	344	352	351	351	350	343	343	343	343	340	337	335	335	337	337	338	336	340	337	338	337	338	338	337	336	339	340	341	343	345	344	344	344	340	338	341	340	336	334	333	329	331	337	336	336	334	333	332	331	329	332	334	332	333	338	334	331	330	331	333	332	333	334	334	336	337	342	342	335	333	336	340	343	341	340	333	333	334	335	334	334	330	332	335	337	339	340	337	333	332	333	337	337	335	335	336	342	341	343	342	340	338	335	334	337	339	339	340	341	341	339	336	327	326	332	336	336	335	337	334	332	333	336	338	342	341	339	336	336	335	333	332	334	335	339	336	333	335	336	335	333	330	330	333	334	333	331	330	331	332	337	335	330	330	330	331	330	332	332	334	336	336	329	329	328	330	330	329	328	326	328	329	329	328	330	328	330	333	326	321	320	320	326	330	331	334	335	332	331	330	331	332	335	335	333	331	327	324	328	328	328	330	328	327	328	327	324	324	323	324	327	328	330	332	334	334	331	331	333	331	325	318	320	324	325	325	324	322	323	323	326	329	328	331	331	330	329	329	327	325	324	324	325	327	327	324	323	325	329	330	332	333	328	325	325	327	329	330	332	331	329	328	316	316	321	326	326	326	328	328	324	324	327	324	323	328	327	330	329	329	329	331	325	323	329	329	328	328	328	328	332	338	333	330	330	326	324	325	324	325	326	327	327	327	328	327	325	322	321	326	325	326	325	325	325	327	327	327	326	324	326	321	323	326	341	336	330	324	317	318	319	323	319	328	330	329	331	331	330	327	327	328	330	329	327	325	323	322	322	321	322	323	322	315	316	316	318	321	325	325	324	324	323	323	322	321	326	329	328	329	334	333	328	323	328	328	0	0	0	0	0	0	0
357	359	360	361	361	361	361	357	353	356	358	358	364	367	369	369	362	359	352	349	348	351	354	354	355	360	365	361	357	357	357	357	355	355	355	351	350	350	349	353	355	356	356	358	356	356	356	357	357	357	356	357	358	357	356	356	355	357	355	354	354	355	356	354	353	355	358	359	359	356	353	351	351	353	353	352	351	346	346	346	349	349	347	348	351	352	353	357	358	358	349	347	350	352	351	351	350	348	349	348	347	350	354	357	356	355	354	353	350	347	345	342	343	345	352	355	344	336	339	344	345	344	344	342	343	345	349	346	345	344	340	341	343	345	343	338	339	342	343	341	344	345	345	345	343	343	344	348	350	348	345	342	344	341	338	339	341	340	341	342	344	345	347	347	346	343	338	334	332	334	335	336	338	347	348	345	342	339	335	336	338	341	342	345	342	341	342	338	337	336	333	334	336	337	334	347	350	350	347	343	336	336	337	337	337	337	338	344	344	341	339	338	338	340	342	341	340	338	334	333	333	335	338	338	333	335	340	339	336	336	340	339	339	335	332	338	339	338	339	339	335	335	335	334	335	336	338	335	333	337	338	336	335	335	336	335	336	344	337	344	344	335	334	333	332	331	328	333	333	332	334	333	333	333	331	334	335	336	334	336	336	336	331	335	333	333	335	337	342	341	339	338	338	340	333	331	326	330	325	327	329	329	330	331	331	331	331	329	330	329	329	330	329	325	326	326	328	332	329	330	331	333	335	337	336	333	333	337	339	337	335	332	330	331	332	331	330	331	329	329	330	332	336	336	335	334	333	333	334	333	332	333	335	337	335	332	335	335	333	328	327	330	337	331	332	333	332	332	329	324	324	333	334	335	333	330	327	327	331	333	334	336	336	335	333	331	327	326	330	333	332	329	332	331	332	334	333	332	329	328	331	332	330	327	325	326	330	332	333	327	327	328	327	327	328	329	331	332	330	328	327	326	330	330	327	326	324	327	330	329	328	326	326	322	326	326	320	319	319	319	323	328	327	329	330	329	325	322	321	327	329	331	330	328	323	322	326	327	329	329	330	328	325	321	321	320	319	324	323	321	327	329	329	328	329	331	330	327	321	319	316	318	322	322	320	321	321	321	318	324	326	326	326	326	326	325	325	325	325	326	327	325	322	320	322	324	326	325	324	321	322	323	325	327	329	329	329	326	326	316	315	319	322	325	326	326	325	324	321	321	321	321	322	323	321	320	320	324	330	329	327	326	327	327	325	325	326	325	327	328	329	325	324	322	322	322	322	324	324	324	325	323	323	324	322	324	323	322	322	322	322	322	324	325	324	322	321	321	320	320	323	327	330	327	322	321	320	320	318	319	322	327	325	325	325	326	323	323	317	315	320	320	321	323	320	319	315	315	314	314	314	313	314	315	319	325	327	324	324	320	320	319	320	320	322	322	323	326	329	321	318	318	316	0	0	0	0	0	0	0
351	351	354	358	359	359	359	355	355	356	360	360	361	364	364	362	350	350	348	345	344	345	350	350	355	361	358	356	353	353	354	354	353	353	350	349	350	350	350	348	348	353	351	353	353	353	353	351	348	349	350	352	355	357	352	352	350	351	351	353	353	354	353	350	351	352	351	349	349	346	345	344	343	347	352	355	353	353	344	345	345	344	344	343	344	342	340	339	345	343	343	340	339	340	340	342	346	347	347	346	345	345	338	339	341	343	345	345	339	336	335	338	338	340	345	352	344	334	338	343	343	342	341	339	338	340	342	342	339	338	336	339	341	341	338	337	338	338	337	335	334	340	345	342	340	339	337	339	342	337	335	341	340	338	333	334	335	335	337	338	340	340	341	344	343	342	337	334	332	335	335	333	332	331	330	331	330	332	331	332	332	339	341	338	337	337	338	335	334	333	329	330	331	332	329	328	327	328	331	333	335	335	336	334	333	332	337	341	341	341	339	337	333	333	339	341	335	330	329	330	335	336	337	335	332	332	332	332	330	328	330	332	337	334	328	330	332	335	335	334	333	334	333	331	332	332	332	330	330	333	336	337	335	334	333	331	325	326	329	331	337	333	331	331	329	328	328	328	329	328	330	331	329	325	325	332	334	336	337	332	333	330	326	327	328	330	334	336	330	327	326	328	330	332	330	329	327	326	327	326	327	327	327	328	330	332	330	327	323	323	324	326	325	322	322	326	325	324	324	322	325	325	325	327	330	329	331	333	333	337	329	328	329	331	330	329	323	323	323	325	324	325	326	324	325	326	327	330	332	330	328	330	331	330	328	327	322	324	324	318	317	326	327	327	327	328	328	326	327	326	326	330	331	330	325	320	319	319	326	326	332	333	329	328	325	323	324	324	328	334	332	330	325	322	324	329	329	329	330	321	320	329	321	319	321	324	326	331	332	327	328	328	329	327	326	323	326	328	326	325	322	322	330	326	324	324	325	327	329	329	323	321	317	320	319	317	317	318	317	318	321	321	324	321	320	320	320	320	320	326	327	329	329	323	321	319	320	322	322	325	323	321	318	321	318	318	319	320	323	323	324	324	324	320	324	327	321	320	318	315	317	321	322	320	318	317	317	316	314	317	317	319	320	321	321	321	323	324	325	325	327	324	320	313	315	318	317	320	320	320	321	321	322	325	323	325	325	322	319	317	317	319	320	320	321	322	322	320	318	316	316	317	318	317	316	318	320	322	315	315	317	324	328	325	322	323	324	321	320	320	322	324	316	319	318	320	321	322	322	320	320	320	320	320	321	322	321	319	318	317	317	319	321	323	322	315	314	314	315	317	320	320	319	318	324	321	319	316	317	318	318	321	321	319	321	323	318	314	313	309	310	312	316	317	318	314	312	312	312	311	312	314	315	314	314	314	317	322	322	317	316	316	316	317	318	322	324	324	324	317	313	313	313	0	0	0	0	0	0	0
346	346	348	353	355	356	356	355	353	357	359	359	361	359	356	354	345	345	346	345	344	345	353	353	357	355	353	350	349	348	348	346	347	347	346	349	350	350	349	347	346	347	346	350	353	351	351	350	348	347	346	347	351	346	344	344	344	345	346	347	350	351	351	347	348	347	345	344	343	343	344	343	344	346	349	350	349	347	344	344	341	340	340	341	340	340	339	337	336	338	338	339	335	334	336	338	341	338	335	333	331	332	334	334	335	339	340	339	338	335	331	331	337	339	345	342	334	331	333	338	339	339	339	336	335	333	329	327	329	330	335	338	338	338	337	336	333	333	333	332	332	333	335	337	335	333	333	333	331	332	331	330	329	327	328	330	330	331	328	327	330	333	336	339	339	339	337	334	334	333	332	331	330	330	327	328	329	330	330	328	328	331	333	332	331	331	331	332	329	328	327	328	329	329	326	324	324	325	326	331	333	334	334	330	328	328	330	332	336	339	339	330	328	329	336	334	331	327	328	328	331	331	333	333	333	330	326	328	324	325	327	329	330	328	326	325	324	324	327	327	330	333	331	328	329	329	325	327	327	325	323	334	332	330	327	327	324	324	324	325	328	330	329	327	327	325	327	327	326	325	324	321	315	316	324	325	325	325	321	324	316	316	323	325	324	326	326	327	325	324	327	328	330	331	330	325	324	323	327	327	324	322	316	317	320	323	323	323	319	317	319	323	321	321	321	324	320	321	321	322	323	325	326	327	328	327	322	323	322	328	327	320	324	326	326	323	322	319	318	318	318	318	317	318	320	323	326	327	325	323	323	323	324	322	319	316	318	319	321	316	325	326	326	327	327	326	326	325	323	320	322	321	314	315	316	316	318	318	318	321	322	323	322	321	320	319	316	325	330	335	331	330	328	323	324	322	323	323	327	319	316	314	313	312	320	324	325	326	323	323	326	332	330	324	324	323	323	323	317	317	314	315	320	322	320	320	322	323	323	323	319	319	318	320	318	317	314	315	314	317	319	319	321	320	316	316	316	317	320	323	320	320	320	315	315	315	315	313	315	317	321	320	316	314	314	315	316	318	324	324	322	318	317	314	319	322	316	318	316	313	315	320	320	315	315	315	317	312	311	311	314	316	316	315	316	318	318	317	315	315	318	316	308	309	314	317	319	316	316	318	319	315	312	315	319	318	319	319	317	315	311	313	313	314	317	320	321	319	318	316	317	319	313	314	315	316	317	315	307	309	314	316	319	325	321	320	320	321	323	320	320	318	315	312	311	316	319	319	314	314	315	316	317	313	311	311	313	315	308	308	311	314	315	312	310	309	308	311	313	316	319	318	318	317	315	315	314	314	316	314	314	315	315	315	316	308	304	308	309	310	309	311	314	314	315	308	310	310	310	310	312	314	311	310	311	311	313	313	319	314	311	310	312	315	316	318	324	319	320	311	310	310	310	0	0	0	0	0	0	0
340	340	343	344	350	348	348	345	348	351	355	354	354	351	345	344	345	341	343	344	344	347	350	350	353	351	349	344	341	338	338	342	346	347	346	347	348	348	347	345	342	342	343	342	346	347	347	347	346	344	340	335	334	335	337	339	339	340	342	344	342	341	342	341	342	341	339	341	340	340	343	344	343	341	340	347	345	344	343	337	337	336	337	339	339	337	336	335	330	337	338	338	333	335	337	338	338	336	334	333	331	336	339	339	335	336	336	337	337	334	326	328	329	335	340	335	329	328	331	335	336	338	336	335	333	330	328	328	331	330	331	333	333	335	333	332	329	329	328	326	328	331	331	330	329	327	328	325	326	328	328	328	326	324	326	325	322	323	323	325	329	330	332	333	334	331	329	329	329	328	328	327	327	327	326	325	325	328	329	328	326	330	332	331	329	327	324	323	325	324	324	326	327	329	326	323	322	321	324	329	328	329	329	327	327	326	325	323	324	326	325	326	327	327	332	323	320	326	327	326	326	325	326	330	329	330	330	324	319	321	323	324	321	322	318	318	319	320	327	328	328	326	329	326	315	314	323	322	323	323	320	319	321	323	330	329	327	326	324	323	326	326	326	325	323	324	322	321	322	320	321	319	315	315	322	324	323	321	320	323	312	315	314	318	321	321	322	323	322	322	323	320	320	320	318	320	319	320	325	326	321	318	316	316	319	320	322	320	316	316	316	320	320	320	318	317	318	319	318	320	322	323	325	327	326	320	321	319	321	326	319	317	318	317	318	320	319	318	317	317	318	318	317	318	318	317	325	326	323	322	321	321	319	315	309	312	316	315	324	317	316	315	319	319	317	318	315	312	311	313	321	318	315	311	312	314	315	314	314	316	316	316	317	316	316	317	315	313	314	317	328	328	324	321	317	318	318	318	314	309	307	310	310	309	312	321	323	320	318	321	322	323	321	321	320	319	320	315	316	313	311	309	310	310	317	317	315	314	312	309	309	318	317	318	317	315	312	309	309	310	315	319	318	313	315	314	313	315	317	316	314	314	313	310	310	310	313	309	311	312	315	316	315	312	310	310	311	308	310	314	317	315	313	315	315	313	313	313	311	313	313	313	313	314	316	314	308	307	308	309	312	314	314	311	310	312	313	314	313	312	313	313	310	311	315	318	318	314	312	309	311	310	309	309	313	314	315	315	315	312	309	310	312	311	314	317	318	314	314	318	317	314	313	312	312	313	314	307	305	306	312	312	313	312	311	311	311	311	312	314	318	319	314	312	310	310	311	311	309	308	305	310	310	306	305	306	310	312	311	308	309	311	310	309	309	309	308	308	309	315	313	312	317	315	315	313	312	312	314	313	311	311	310	309	307	301	302	308	311	311	311	311	310	313	312	307	308	309	309	314	310	307	308	307	307	308	310	310	310	310	308	307	309	310	311	313	317	317	313	309	309	310	312	0	0	0	0	0	0	0
335	335	338	342	346	343	343	343	342	348	350	349	349	344	340	340	341	338	340	342	342	347	349	349	349	347	343	335	332	337	337	340	343	345	344	342	342	342	342	341	338	339	339	340	343	342	342	342	342	341	338	333	332	334	336	337	337	338	339	339	338	339	340	338	338	337	337	338	339	339	342	343	344	340	345	345	344	340	339	336	335	335	334	337	339	334	329	327	330	333	333	332	332	328	335	335	334	334	333	329	328	324	325	326	337	332	331	335	334	323	321	324	327	331	334	331	328	326	329	332	334	334	335	333	330	331	330	327	329	330	331	333	332	332	331	328	327	323	321	324	327	329	328	328	324	326	325	324	326	326	326	326	326	323	321	322	322	324	323	325	326	327	324	324	327	328	327	325	324	320	324	322	320	319	319	322	323	326	326	326	325	326	327	323	324	323	321	322	320	321	320	322	319	319	320	319	319	319	322	322	322	324	325	325	326	325	321	316	313	322	322	325	326	326	329	315	309	309	323	324	323	322	322	319	324	326	329	326	322	318	315	313	317	316	318	319	319	320	321	322	329	323	318	316	312	313	317	317	318	319	320	320	316	316	315	319	330	328	324	322	322	324	322	319	319	321	321	319	320	320	321	318	317	320	323	322	321	317	313	311	311	310	312	322	320	320	320	320	317	316	319	320	316	318	313	316	316	318	324	321	317	320	319	321	320	320	319	319	320	316	317	321	321	319	318	314	314	316	317	320	319	321	326	325	318	319	320	321	320	317	312	312	314	313	315	317	315	315	316	317	317	317	317	316	315	311	309	318	318	315	317	316	308	305	311	314	311	314	308	309	311	311	311	311	310	311	311	310	310	312	318	315	312	310	311	312	313	311	311	311	312	314	314	308	311	313	316	317	315	317	317	317	317	314	316	313	311	310	307	305	308	308	308	309	311	312	311	309	311	322	322	320	321	317	316	316	314	313	309	306	304	308	309	308	305	306	309	311	311	309	310	312	312	318	317	313	310	306	305	307	314	311	312	314	310	311	310	314	309	311	312	312	311	308	307	308	308	308	306	310	311	311	312	311	308	305	305	304	305	314	317	307	309	302	309	312	310	310	309	307	309	308	308	309	310	311	307	305	308	307	309	310	309	307	307	308	309	309	309	309	310	311	311	312	315	317	314	310	309	307	309	309	307	307	309	311	311	311	312	308	306	306	306	307	306	310	313	312	312	313	314	314	314	313	310	307	306	306	307	310	308	308	307	307	308	310	310	310	310	311	313	315	315	312	312	308	308	306	305	302	301	301	302	302	302	304	307	310	308	309	309	308	306	304	306	308	306	306	305	307	306	310	309	314	314	313	313	314	314	311	311	310	307	307	305	304	300	308	315	315	314	310	311	311	308	306	309	311	310	301	303	304	304	304	305	306	306	309	309	308	307	305	303	304	304	308	311	311	308	307	307	308	310	0	0	0	0	0	0	0
332	334	334	338	340	341	340	340	343	344	345	342	342	340	337	337	338	337	337	338	340	345	347	345	345	342	336	335	332	336	337	337	341	344	339	337	337	336	336	335	337	337	337	336	338	340	340	340	338	336	334	332	329	332	335	337	338	338	336	335	336	338	337	334	333	334	333	336	337	335	335	333	329	326	331	330	337	337	335	333	329	328	326	331	331	328	326	326	327	331	332	331	331	326	325	331	329	332	331	327	324	321	322	322	328	330	328	327	326	321	318	320	324	329	327	328	327	326	328	330	332	332	330	328	329	330	328	324	325	326	323	334	331	329	324	320	321	321	320	324	326	327	327	325	323	325	331	331	329	326	325	326	324	322	321	321	325	328	328	326	324	324	327	326	325	326	325	322	318	318	318	316	315	316	319	320	321	323	323	323	321	319	324	320	321	319	318	317	315	312	311	313	313	310	310	315	315	317	319	319	316	316	321	323	324	325	321	318	317	307	311	316	319	322	324	319	308	310	313	321	321	320	319	317	315	319	322	318	316	316	310	311	313	316	318	320	319	314	311	311	315	313	312	313	312	314	314	304	308	310	310	312	313	313	312	314	317	314	310	309	306	309	320	317	320	320	321	312	313	321	319	317	317	316	322	321	317	313	308	305	308	310	312	316	318	318	317	313	305	310	314	315	313	311	309	310	313	314	311	314	318	318	318	319	320	318	314	310	308	308	308	315	312	313	311	312	313	315	313	311	310	313	322	317	318	318	318	321	320	318	312	313	313	311	313	313	313	313	315	315	316	315	312	312	308	306	307	308	308	307	305	305	306	310	313	313	309	311	306	308	310	311	306	306	306	307	307	306	306	309	310	310	310	308	308	311	311	310	309	310	311	312	311	309	310	310	305	304	303	306	305	304	305	304	304	305	305	306	305	305	305	305	307	309	312	312	311	308	309	312	314	315	314	313	309	308	308	302	302	301	306	307	307	304	302	303	305	306	306	307	309	309	307	306	308	310	306	304	304	307	307	311	312	310	306	307	302	305	305	305	307	309	310	308	307	308	305	303	303	304	306	307	309	309	307	304	302	302	298	297	301	304	302	303	302	306	308	307	306	302	302	302	299	295	298	301	303	304	306	306	305	305	304	304	304	304	307	308	306	305	307	309	307	307	311	316	313	310	307	306	307	307	305	304	306	308	309	307	308	307	305	304	304	304	303	309	309	310	313	313	314	315	314	311	309	305	303	306	306	307	300	301	300	300	299	301	301	303	303	300	299	296	294	294	296	295	297	296	299	302	300	298	298	297	297	299	303	306	309	308	309	305	303	301	302	302	304	304	304	305	306	307	308	305	302	299	303	304	304	304	302	301	301	300	302	302	307	304	297	301	302	303	304	304	302	302	303	306	300	299	297	299	301	301	302	302	302	303	302	299	304	304	307	306	304	304	304	304	303	305	305	306	311	0	0	0	0	0	0	0
329	331	331	334	336	338	338	338	339	339	340	337	337	334	333	335	336	335	335	337	339	341	342	339	339	336	336	336	333	330	328	328	328	329	330	331	330	330	330	331	336	335	333	333	332	335	335	335	333	331	331	328	325	324	328	334	333	333	334	334	333	336	335	331	330	332	332	333	331	328	328	329	319	323	325	321	324	327	330	331	329	328	324	326	329	329	327	326	326	329	331	329	325	325	318	320	324	327	329	327	321	319	320	320	325	327	328	327	325	322	320	320	323	324	325	325	326	327	327	329	330	329	329	327	327	325	321	319	318	314	316	317	319	321	317	316	313	313	315	317	321	326	331	333	331	330	328	329	328	326	322	323	320	319	316	313	317	320	324	324	325	325	327	326	323	321	321	317	315	315	312	312	313	314	318	319	320	319	319	319	317	315	307	310	314	316	313	312	312	310	310	313	314	310	309	310	311	316	315	316	315	316	319	323	323	323	321	316	316	314	312	313	316	318	319	318	315	316	317	317	317	318	316	313	313	316	317	312	313	313	309	312	315	316	317	316	313	313	311	311	311	309	309	311	312	311	314	310	307	309	310	312	312	310	310	309	309	308	307	308	308	305	308	320	321	316	312	299	309	312	315	315	314	311	311	310	307	311	305	305	306	308	309	308	312	308	307	303	304	301	303	307	308	308	306	304	307	308	309	314	318	316	315	314	311	307	304	301	301	302	301	304	308	310	308	309	314	312	305	306	308	310	310	310	310	309	312	315	314	314	314	312	311	310	308	308	307	306	305	305	304	303	302	308	305	304	305	304	301	301	303	304	304	305	307	308	308	306	305	309	310	303	298	302	303	302	302	304	305	307	303	304	305	306	307	307	304	303	302	305	310	313	315	309	309	308	304	302	302	301	303	302	300	301	301	299	301	304	305	306	307	307	307	306	310	313	309	308	306	303	300	296	293	293	298	300	302	302	302	303	304	304	307	307	305	300	302	302	301	303	305	307	302	303	306	307	306	305	304	312	308	303	301	301	302	300	302	301	299	301	305	307	310	308	306	300	303	300	302	303	303	305	308	309	306	304	305	298	295	297	302	302	301	300	300	301	299	298	299	299	299	296	297	297	294	300	300	300	304	303	303	302	299	303	304	303	302	299	301	303	305	298	297	298	301	303	307	304	299	299	298	306	304	303	305	306	305	304	305	304	304	303	300	300	299	298	299	305	310	310	302	296	299	299	302	302	301	297	296	298	300	296	295	295	295	297	297	301	303	302	299	295	294	295	295	296	295	295	296	299	299	300	298	295	294	293	298	302	303	307	307	301	301	301	302	302	301	301	301	301	302	305	306	303	299	297	303	303	304	305	302	302	299	297	301	302	302	292	295	297	300	301	300	299	297	298	300	301	301	294	299	299	300	299	299	299	298	298	299	299	303	306	305	304	303	302	299	300	300	300	299	300	304	0	0	0	0	0	0	0
325	326	326	329	333	335	336	336	335	335	332	330	328	328	329	332	334	334	334	335	334	333	331	333	333	331	333	334	334	332	331	331	329	327	327	327	327	327	326	326	334	327	328	326	323	322	328	328	328	326	327	326	321	321	324	324	327	327	330	331	330	325	321	320	321	323	322	321	322	323	323	317	318	319	318	319	321	324	328	328	326	325	322	321	321	318	317	320	323	327	328	323	319	316	316	313	318	322	325	325	324	320	317	316	317	318	319	327	325	324	321	322	322	322	322	321	321	320	319	322	320	317	324	324	322	319	316	315	312	311	310	312	315	314	313	312	310	309	310	309	309	314	322	328	326	322	318	319	325	323	319	317	316	314	312	318	315	314	315	315	322	326	326	326	324	321	317	315	314	313	311	311	311	313	315	310	308	315	315	312	302	308	307	311	311	310	310	309	309	311	309	308	308	307	307	307	312	314	313	314	314	310	308	309	309	305	304	300	313	315	311	306	307	313	318	320	315	314	313	310	307	304	305	306	312	309	306	307	308	310	309	309	313	312	313	312	311	312	310	306	304	302	300	302	305	307	309	309	299	298	305	306	307	306	306	306	306	306	306	305	305	307	307	307	315	312	301	300	300	302	304	304	304	304	309	309	308	307	305	305	305	307	306	307	308	306	305	304	302	300	302	307	310	310	306	304	306	307	309	311	312	310	312	312	309	307	304	300	301	303	300	300	303	303	304	309	305	304	304	305	306	310	310	309	307	307	306	300	298	301	311	311	310	304	308	309	306	305	303	303	298	298	299	302	301	302	295	296	297	300	303	299	301	302	303	304	304	304	304	302	302	303	301	298	298	300	301	302	301	303	301	300	301	303	304	303	302	302	301	302	302	308	312	310	309	304	303	302	301	299	296	297	298	296	299	299	299	298	299	306	306	306	305	305	303	305	307	307	305	303	298	295	294	294	297	300	301	302	303	304	304	303	303	301	300	300	298	299	299	299	299	301	301	300	305	305	305	303	303	302	309	305	299	299	301	301	299	295	295	297	301	303	299	298	299	298	299	299	299	298	299	302	306	306	302	302	299	294	295	300	298	305	301	298	297	297	299	297	297	297	297	292	293	298	300	298	298	297	304	303	299	292	291	291	298	296	294	295	298	300	299	296	296	293	295	297	297	298	298	297	297	299	298	298	302	304	305	302	300	300	299	297	298	294	292	293	295	297	299	299	298	296	298	298	299	299	298	296	293	291	290	291	293	291	292	293	293	299	301	301	300	296	295	295	294	293	292	294	294	295	297	297	295	294	293	292	292	292	294	296	296	298	297	299	300	300	299	298	295	297	299	303	303	300	297	295	295	302	302	303	300	301	300	298	297	296	292	291	295	296	299	299	299	297	296	296	298	299	294	292	298	299	300	300	298	298	298	297	297	298	301	299	303	302	301	300	298	298	298	298	297	299	298	0	0	0	0	0	0	0
321	323	323	328	330	332	334	334	333	328	323	318	320	320	325	328	333	324	324	324	322	326	327	326	326	326	327	332	331	330	331	331	331	329	327	327	326	324	327	327	329	315	318	320	321	321	320	320	320	321	320	321	319	317	316	318	322	327	327	328	322	319	317	316	315	316	316	317	320	320	312	312	315	317	316	317	320	322	323	324	323	312	308	306	305	305	302	314	319	317	318	317	312	309	312	312	315	320	322	321	323	318	315	314	314	315	315	317	322	322	324	323	321	319	317	314	312	311	314	318	317	316	313	311	310	311	314	312	311	310	308	308	310	311	310	310	310	308	308	308	307	307	309	312	314	316	316	315	318	322	318	310	309	314	317	314	315	315	314	310	313	315	320	318	317	315	317	315	307	307	309	309	309	310	312	308	305	310	309	306	305	306	310	311	309	308	307	307	308	310	306	307	308	307	306	306	308	311	311	313	313	312	306	303	300	298	295	302	310	312	308	301	304	302	304	305	307	304	305	303	302	302	303	306	312	309	306	305	304	304	305	302	301	305	307	306	305	305	302	301	298	296	297	301	304	306	308	302	299	293	297	304	304	299	300	301	302	303	303	302	301	302	302	302	299	298	300	298	300	301	301	302	302	305	308	309	307	305	301	301	301	302	304	306	306	307	305	304	302	300	301	306	309	309	309	303	303	303	309	310	311	308	305	303	306	304	303	301	302	304	302	300	301	300	304	307	302	302	303	304	305	309	309	308	306	303	304	304	298	298	303	307	303	306	306	306	306	301	302	302	301	299	297	299	300	298	298	297	297	297	296	295	296	298	301	303	303	303	301	301	301	301	300	301	300	300	305	298	297	298	299	298	300	301	304	303	302	301	302	300	299	300	301	302	302	301	301	301	299	298	296	296	297	297	298	299	299	296	297	299	305	305	304	301	299	302	305	305	304	300	296	295	295	295	290	289	298	299	298	300	299	303	302	301	300	296	294	295	295	296	296	295	296	297	299	301	302	302	298	299	302	301	298	297	297	298	295	292	291	293	297	301	299	297	299	298	297	293	292	295	299	296	292	292	291	291	290	293	293	293	294	294	297	298	300	300	299	299	298	296	295	293	293	295	298	296	295	295	294	291	289	287	286	286	289	292	292	296	297	296	296	294	293	293	291	294	295	292	298	299	299	292	292	294	296	297	297	297	297	296	288	289	290	291	292	293	294	299	298	295	298	297	295	295	295	297	296	295	293	290	289	290	292	289	290	287	287	288	292	300	299	298	295	294	293	292	291	292	293	292	290	287	288	291	292	292	291	290	289	290	292	289	288	289	289	295	295	292	292	293	296	298	300	299	299	296	297	299	299	295	295	297	297	296	294	291	289	289	292	295	296	298	297	296	296	295	295	292	290	294	298	299	298	298	298	298	294	293	294	295	297	294	300	298	298	298	298	297	297	294	294	296	293	0	0	0	0	0	0	0
321	321	322	322	320	319	320	321	321	318	316	315	316	316	320	327	323	313	314	314	318	320	322	317	318	318	321	324	327	327	325	324	324	323	324	325	323	322	319	319	312	315	316	318	319	319	320	320	320	320	321	318	317	316	316	313	317	320	320	316	317	317	314	313	313	314	316	318	320	307	310	311	311	312	314	316	318	319	318	317	309	306	301	302	304	305	309	309	315	317	312	310	310	312	313	317	317	320	322	322	321	317	312	310	311	313	315	316	316	317	317	320	320	317	313	310	308	307	308	313	315	313	310	309	310	310	312	311	310	308	307	308	312	310	310	311	310	308	306	307	307	308	307	308	309	310	313	312	311	310	311	310	308	308	309	311	314	312	307	309	309	311	312	310	308	304	304	304	302	295	296	297	301	305	307	299	300	308	310	307	304	306	308	307	305	306	303	302	305	308	302	304	305	306	306	307	306	303	307	307	309	307	302	299	295	294	292	296	298	299	298	296	300	300	302	304	300	298	300	303	302	300	298	302	303	305	306	305	304	305	296	298	297	300	302	302	301	302	304	300	298	297	297	301	301	301	303	300	299	293	297	300	300	296	296	296	297	298	297	296	297	300	299	299	298	296	298	300	300	299	302	300	301	303	307	309	304	301	298	298	296	297	298	299	304	306	304	302	302	299	301	303	305	306	304	299	301	303	304	306	307	306	303	300	293	302	300	300	300	302	300	299	298	301	300	300	301	300	301	301	303	307	304	308	307	303	301	300	298	302	305	305	303	304	303	304	302	296	297	299	300	298	296	295	295	296	296	297	296	297	296	295	297	300	301	303	303	299	301	301	297	296	297	297	304	301	299	295	297	297	297	297	298	304	303	303	303	300	300	301	300	300	298	294	296	294	295	295	296	296	296	295	293	294	296	296	298	293	293	295	295	301	301	301	298	299	298	297	297	296	292	290	291	292	291	291	291	296	296	297	297	297	298	297	294	292	292	291	295	295	293	293	292	296	297	298	299	295	295	295	300	299	297	296	293	294	291	290	290	289	294	297	299	299	300	300	298	292	292	294	291	290	289	291	292	292	293	292	289	292	291	291	292	292	298	300	299	296	296	297	299	298	295	295	294	287	286	284	287	287	288	289	287	284	288	290	290	291	293	296	295	288	288	288	290	290	290	289	290	293	294	292	294	294	295	289	285	285	285	284	284	287	288	287	284	286	288	291	292	292	294	293	292	293	289	294	294	287	285	285	288	289	286	286	285	286	287	288	287	287	297	296	295	293	292	289	288	286	288	289	286	285	286	287	291	291	291	291	287	286	287	290	288	288	286	286	287	288	288	291	293	293	293	295	297	296	295	295	294	292	292	292	288	296	290	290	290	290	289	292	293	294	295	294	292	291	289	289	288	294	286	287	286	286	286	289	289	289	291	294	295	291	288	296	298	296	297	296	296	294	293	292	292	0	0	0	0	0	0	0
318	314	311	311	310	310	314	319	319	320	319	312	312	312	314	317	314	313	311	311	313	315	314	313	311	311	316	318	319	320	320	320	320	318	317	315	313	312	310	312	312	315	319	321	322	323	323	324	324	321	319	309	312	318	317	316	313	312	312	312	312	314	310	311	312	314	316	321	311	308	308	308	308	307	309	311	313	314	316	315	303	301	302	307	303	306	305	312	312	309	308	305	307	308	310	315	315	318	320	320	317	313	311	308	307	309	310	312	313	312	306	306	306	306	308	307	305	301	303	307	309	308	308	307	308	304	301	303	304	307	307	302	303	304	305	306	303	306	305	307	303	299	296	298	304	305	303	302	302	301	302	302	301	301	302	304	309	306	308	307	308	308	309	308	306	301	301	300	301	297	294	297	301	307	303	303	299	303	304	302	305	305	306	303	300	304	299	302	303	305	306	306	307	305	306	305	306	298	306	305	302	299	297	295	295	294	294	292	291	292	297	297	299	300	301	301	301	295	294	295	301	301	297	298	302	303	303	301	302	296	293	292	291	289	294	296	299	298	295	295	293	293	297	301	298	297	296	298	299	297	298	299	297	296	292	292	296	295	290	291	292	293	293	300	293	293	291	291	296	294	293	293	292	301	302	303	301	297	297	296	292	291	296	297	298	299	303	303	298	300	301	301	301	301	296	296	298	302	304	298	298	289	294	292	293	292	295	297	298	298	297	296	297	300	299	299	299	299	298	298	300	300	301	300	303	304	300	299	301	303	303	299	299	299	298	297	298	295	295	297	296	295	294	293	293	293	293	295	296	296	293	291	291	293	296	297	296	293	291	297	298	294	294	294	299	299	299	295	299	295	295	295	296	297	299	301	301	299	301	298	297	295	293	296	294	291	295	295	292	291	293	292	292	292	295	294	292	290	290	292	292	290	294	296	295	297	298	295	295	294	293	290	291	288	287	291	291	293	295	295	293	292	293	297	288	289	289	290	287	287	288	286	288	293	293	294	295	293	292	293	294	295	293	291	291	291	293	295	293	290	293	295	295	295	293	293	288	288	288	289	287	287	286	288	287	286	285	285	287	289	289	288	290	291	290	294	294	293	295	297	297	297	296	294	290	287	284	283	285	286	287	289	286	284	282	286	287	285	287	289	288	289	290	287	292	292	283	285	287	289	292	290	287	290	284	283	282	284	283	286	285	285	286	285	283	283	289	289	290	290	292	292	290	285	289	288	288	284	281	281	286	287	286	285	285	287	288	286	286	285	287	289	291	290	290	284	286	288	288	288	287	283	284	288	290	286	287	288	287	286	287	288	288	285	285	281	284	287	287	287	286	289	290	290	290	291	292	291	290	289	289	288	286	284	287	286	287	290	290	289	289	290	290	289	290	289	289	289	287	284	286	286	283	282	282	283	284	285	289	293	293	290	284	290	297	297	296	293	293	290	291	291	291	0	0	0	0	0	0	0
308	307	308	308	307	309	313	315	315	312	312	309	308	306	306	306	308	309	307	307	308	310	310	307	307	311	311	316	316	317	319	317	317	315	314	309	310	310	310	312	306	311	316	320	322	319	319	313	309	309	307	308	310	316	317	315	313	312	311	311	310	308	310	310	311	316	319	312	308	309	308	307	307	305	305	308	311	312	313	301	300	300	304	306	303	305	307	312	309	303	304	306	305	306	307	308	309	309	310	313	311	311	308	307	306	307	307	307	308	308	308	306	301	299	297	296	295	297	300	303	303	302	302	301	300	299	299	301	300	299	299	298	300	302	305	304	303	298	302	304	299	296	296	297	304	303	302	302	302	301	300	299	299	298	298	300	306	306	300	300	304	306	307	302	300	299	297	297	298	296	297	298	300	300	302	302	299	299	298	300	305	305	303	301	295	298	295	296	298	302	304	306	306	304	305	301	298	302	301	302	300	297	295	295	295	296	297	297	297	295	295	296	299	298	299	298	297	293	293	292	294	295	293	292	299	298	296	298	299	293	290	290	286	289	292	296	295	289	286	288	287	291	294	296	295	294	294	297	299	298	299	299	294	292	292	299	300	300	299	294	286	290	292	293	291	290	290	290	287	288	288	291	291	289	289	294	296	291	296	294	289	290	294	295	296	295	296	298	297	298	300	299	296	295	291	293	295	297	296	297	296	289	283	286	288	288	292	295	296	296	293	296	292	295	294	294	294	297	297	297	296	296	294	293	295	302	302	298	299	300	298	296	295	296	297	293	293	292	288	289	291	291	290	290	290	291	290	290	291	292	291	291	291	292	295	294	292	291	290	292	292	293	292	292	293	294	288	296	296	297	295	293	290	290	291	293	295	296	297	291	291	291	290	294	289	288	287	291	290	289	287	287	288	290	292	290	289	289	288	290	291	289	288	289	292	293	296	292	290	294	293	292	290	287	287	289	290	290	293	294	293	288	293	291	290	287	286	289	288	288	289	288	286	285	291	292	288	287	288	289	290	287	287	286	289	287	290	291	294	294	289	294	295	294	286	288	285	285	284	285	286	286	285	285	285	284	285	292	293	289	284	285	283	287	286	288	288	291	291	293	295	296	295	293	287	285	283	282	283	285	287	288	285	283	281	282	286	284	282	281	282	284	286	287	288	285	283	283	284	288	288	288	286	283	281	281	281	284	287	287	287	286	283	283	282	282	280	277	277	280	282	283	283	283	286	281	280	282	279	280	284	283	280	279	285	286	289	291	286	284	286	286	287	287	282	285	287	288	287	286	283	282	278	280	282	281	282	282	284	283	283	281	282	283	281	280	281	284	286	284	283	279	280	284	290	291	290	289	288	287	286	288	287	287	283	285	288	289	290	284	281	281	280	279	283	288	287	286	284	286	287	284	283	283	280	280	283	284	285	289	290	289	282	280	284	286	288	288	287	285	285	285	287	0	0	0	0	0	0	0
301	302	305	305	304	306	309	309	310	310	310	312	310	306	306	304	305	306	303	305	305	305	305	305	307	308	308	309	313	314	314	310	305	305	304	305	307	306	304	306	304	307	310	310	312	307	304	305	305	305	306	308	311	314	316	312	310	310	311	311	308	307	307	305	308	311	308	308	310	307	305	304	302	302	303	306	308	312	311	300	299	303	301	304	305	305	312	301	304	298	300	303	307	306	310	309	306	304	304	305	308	304	305	305	305	304	303	303	304	310	310	304	300	297	295	296	300	301	298	301	300	300	299	297	295	298	299	299	299	297	295	296	298	299	302	301	301	300	294	298	297	294	293	291	292	294	298	301	299	300	299	297	295	295	296	298	296	293	292	293	299	302	302	302	300	298	296	295	294	293	294	296	297	298	300	299	299	298	298	301	300	303	303	300	294	291	291	292	294	296	295	294	295	296	290	303	295	295	295	298	290	289	290	291	292	293	295	296	295	298	294	295	299	296	296	294	293	291	288	289	290	291	289	288	289	291	288	294	294	297	292	288	286	287	292	294	294	289	285	282	285	290	290	290	291	289	292	294	296	297	299	295	291	290	291	287	295	298	298	293	285	290	291	290	290	291	292	288	287	284	286	289	290	289	288	287	287	280	280	287	292	293	295	295	294	294	295	295	295	297	298	295	295	295	290	292	295	291	293	293	294	287	282	283	286	288	290	292	292	289	292	293	288	290	290	288	288	290	293	292	293	290	289	286	289	289	289	289	289	291	295	292	291	290	293	293	291	289	288	287	286	287	286	288	288	289	287	287	289	290	292	292	291	292	295	292	292	292	286	285	283	286	289	287	289	289	289	290	294	286	292	290	290	290	290	292	292	286	290	290	290	291	292	290	289	289	288	288	288	287	286	286	286	286	290	289	289	289	287	289	290	281	288	286	285	286	291	288	288	289	290	290	288	285	287	288	289	288	288	287	287	288	286	288	287	287	287	286	286	289	290	287	286	283	283	283	283	282	283	284	284	282	283	283	285	287	289	290	288	283	282	284	283	290	283	284	285	284	284	284	285	285	285	284	285	285	286	287	289	280	282	284	283	281	285	282	282	285	288	292	284	285	286	285	284	284	282	281	285	287	287	286	283	280	280	281	284	284	285	284	285	285	282	281	280	283	281	280	283	285	284	283	280	279	281	280	281	284	286	287	287	286	282	283	282	281	282	280	277	279	280	282	283	283	284	281	280	280	282	279	280	284	283	283	286	285	287	290	285	281	279	281	282	283	283	284	284	282	280	280	280	280	280	279	279	279	281	281	280	281	281	281	281	281	280	279	277	277	277	278	278	276	276	277	277	279	277	280	283	284	286	281	280	280	280	282	284	285	286	284	281	279	281	282	285	285	287	282	279	281	282	286	279	279	278	276	276	280	285	284	286	284	280	277	277	277	280	280	283	282	281	281	275	0	0	0	0	0	0	0
300	301	302	301	301	303	305	304	307	307	310	313	308	303	303	302	302	303	304	303	303	303	303	304	306	307	307	308	310	306	305	302	301	301	302	302	303	303	302	304	302	302	303	304	307	305	304	303	302	302	304	307	309	309	303	303	302	305	308	313	313	313	309	305	303	303	303	302	300	300	302	302	302	302	303	304	306	309	307	298	300	299	301	296	297	297	299	303	303	302	299	301	307	310	305	306	305	304	303	303	298	291	296	302	300	298	299	300	301	300	300	299	297	295	293	294	296	297	300	297	299	298	296	293	297	298	298	298	297	294	293	292	293	295	296	293	294	295	294	292	292	292	291	292	288	288	288	291	293	292	292	293	292	291	290	294	293	290	290	292	301	300	300	298	295	298	297	297	296	294	292	295	296	296	295	298	295	299	296	299	300	297	297	294	292	291	288	290	291	294	295	296	297	293	290	300	291	293	294	294	291	288	286	284	285	291	293	294	295	297	295	294	299	295	291	289	289	287	287	287	289	288	285	285	287	289	291	289	287	288	288	289	289	290	292	293	293	290	285	287	288	289	288	286	285	283	283	284	287	294	295	290	292	288	284	285	292	292	287	286	284	283	284	289	292	291	293	292	281	286	286	287	289	289	288	287	285	278	278	281	283	291	296	294	292	292	294	294	296	295	295	291	292	290	289	289	288	288	288	288	287	285	282	283	286	287	289	289	289	290	289	288	289	288	289	288	286	287	291	290	289	288	282	281	283	287	288	289	286	285	282	286	288	289	285	289	287	285	286	287	286	284	284	285	285	286	286	286	289	289	291	291	291	290	290	290	286	287	289	283	282	283	283	285	286	287	289	289	293	284	285	289	289	289	289	286	290	284	288	284	283	283	282	283	286	286	289	286	286	283	283	283	284	282	285	289	289	288	286	282	280	280	281	287	287	287	280	283	284	284	284	283	282	285	286	282	280	280	281	282	285	284	281	280	285	286	286	283	283	286	288	287	285	283	282	281	279	278	279	279	280	280	281	280	282	285	286	288	284	284	284	283	283	280	280	281	280	280	281	281	280	281	281	282	284	284	287	287	282	279	280	281	282	280	277	282	279	275	275	275	281	281	288	285	286	284	281	281	282	281	280	284	281	281	281	281	283	284	284	280	280	281	280	278	278	279	279	275	277	277	278	277	277	276	276	278	281	285	285	284	283	281	282	281	280	280	279	278	279	281	282	281	281	280	281	280	280	283	285	281	281	279	277	277	280	280	283	286	282	278	277	279	279	276	277	280	279	278	277	277	277	278	280	279	278	277	278	279	279	280	279	279	280	280	279	274	271	271	271	272	272	272	274	275	276	279	277	274	276	276	280	280	280	279	278	277	276	276	276	277	275	270	277	281	283	280	275	274	273	276	277	277	277	282	272	272	270	271	271	274	279	282	277	275	275	276	276	276	276	278	277	276	275	0	0	0	0	0	0	0
296	298	300	300	300	301	299	300	305	305	307	309	303	300	300	299	300	303	299	303	303	301	302	304	304	306	306	309	309	301	301	303	303	303	299	300	302	303	301	301	301	301	296	295	300	304	301	302	300	304	304	306	306	305	303	301	299	301	304	309	309	308	305	303	301	299	299	293	293	295	300	301	302	304	304	303	300	303	293	295	296	299	296	292	293	296	298	300	301	301	302	303	301	303	301	304	304	304	304	300	300	293	294	294	295	292	295	297	297	296	296	297	297	295	292	289	293	294	294	293	294	295	290	289	295	295	288	288	294	293	292	291	289	289	291	291	288	292	292	291	291	290	289	289	291	289	291	286	286	287	288	288	293	294	292	291	288	288	288	288	287	286	293	296	291	296	298	296	294	291	288	289	295	295	295	296	295	298	296	292	293	295	292	290	287	288	290	292	293	295	295	296	296	297	297	290	293	293	293	293	289	287	282	283	283	285	288	291	294	295	295	289	286	287	288	289	288	288	287	287	288	285	282	282	285	285	285	289	288	287	285	285	287	286	288	288	286	284	283	284	286	285	284	284	285	284	283	283	285	287	287	298	284	285	285	282	282	284	288	288	288	287	287	286	287	286	286	283	284	283	286	288	287	284	283	283	282	280	277	278	281	284	284	284	283	284	293	291	290	291	291	290	287	287	289	288	286	287	287	286	282	281	283	283	283	287	289	290	289	285	286	284	284	283	285	285	284	282	287	289	288	289	284	282	283	284	284	284	285	283	281	278	282	284	283	289	286	284	282	287	282	284	287	287	286	286	282	281	284	286	287	288	288	288	288	290	290	290	285	282	280	280	283	283	284	286	284	281	282	282	283	287	287	288	286	286	284	284	281	280	281	281	278	275	283	283	283	285	282	282	280	280	282	281	282	284	289	286	284	282	282	281	281	282	281	282	278	275	275	276	280	281	282	284	279	279	277	277	277	278	281	281	278	278	284	286	285	281	280	281	281	284	283	281	280	276	277	277	277	279	279	277	278	277	280	281	274	276	279	282	282	281	281	276	277	279	279	280	281	280	279	278	278	280	285	284	285	284	282	279	278	277	279	277	276	276	277	275	276	275	278	281	286	283	284	282	281	279	280	280	280	278	279	279	281	282	283	275	276	273	272	277	277	276	277	278	277	274	274	274	278	280	279	276	273	270	275	278	278	277	278	278	275	275	277	277	276	277	279	280	281	279	278	277	272	275	275	276	276	275	276	277	276	275	274	277	277	278	278	278	277	277	274	277	277	276	277	274	273	274	273	273	274	273	271	270	273	280	279	278	278	278	277	278	272	272	272	272	272	271	272	272	272	274	276	279	277	275	274	275	278	280	281	279	278	276	273	274	273	277	275	273	270	272	280	274	270	270	271	273	273	274	274	274	276	269	267	267	269	269	268	273	273	275	275	275	275	274	272	273	275	275	275	0	0	0	0	0	0	0
290	294	297	298	298	297	296	299	303	303	304	303	297	291	294	294	295	300	299	291	295	295	297	300	302	306	306	306	300	302	302	303	301	300	300	301	302	303	303	303	297	297	294	294	295	294	294	292	293	301	301	303	304	304	303	300	299	299	303	304	302	302	302	301	299	296	289	288	291	292	295	298	299	299	299	298	294	282	291	292	294	293	292	292	293	294	295	298	298	300	300	301	299	296	298	298	301	301	302	299	294	294	294	293	294	292	294	291	292	292	293	295	292	290	287	287	289	290	291	289	289	288	287	288	291	287	288	286	286	285	286	288	288	289	289	285	286	288	289	289	287	288	287	287	288	288	286	285	285	285	286	286	288	288	288	288	285	284	286	287	286	282	281	282	283	296	297	292	285	282	287	285	286	287	290	291	291	291	289	290	290	293	289	287	287	285	288	292	294	294	294	296	296	296	294	293	293	290	286	284	283	283	281	280	280	281	281	277	280	285	285	285	286	286	288	288	286	283	284	284	284	273	272	274	275	279	288	288	288	282	282	282	282	280	279	272	271	279	284	286	286	287	285	286	285	284	283	282	282	281	278	281	281	281	284	284	283	285	286	285	284	286	282	283	284	280	278	280	283	283	284	286	283	281	279	278	278	277	276	278	281	281	275	278	282	282	281	281	281	287	290	289	287	282	284	283	286	286	286	287	282	280	281	283	283	283	287	289	281	283	284	282	281	280	280	282	281	281	284	285	284	280	278	280	283	283	283	285	285	283	279	276	280	277	278	280	283	284	285	285	278	280	281	281	283	282	281	280	280	279	277	277	281	283	284	285	285	284	291	285	284	283	283	283	282	280	278	280	278	282	285	286	287	288	288	284	283	283	280	279	280	281	276	274	272	280	281	282	280	278	277	280	282	281	282	283	285	279	277	275	276	276	274	273	279	279	277	272	272	271	271	276	280	277	277	276	276	276	275	275	275	276	278	278	282	282	281	280	280	278	279	279	281	279	278	275	279	276	276	276	276	276	277	278	278	275	274	276	278	280	276	273	272	272	274	278	280	279	278	277	276	277	278	280	281	282	282	281	280	278	276	277	272	274	273	273	275	274	275	276	278	282	282	281	279	280	278	278	276	277	280	279	276	274	274	276	277	273	275	272	272	274	275	275	276	275	274	273	273	273	276	279	278	275	272	273	269	269	270	272	272	271	271	270	272	275	276	272	272	272	274	275	274	271	273	273	273	274	275	273	274	275	276	275	274	273	276	277	276	275	275	275	274	276	275	275	274	271	269	267	270	270	271	272	271	270	272	276	277	277	277	276	273	271	271	272	273	274	274	275	273	270	271	273	274	275	275	274	272	271	272	273	273	274	276	273	272	273	273	273	272	272	271	272	270	268	267	268	271	272	272	272	272	271	270	269	264	267	265	267	270	271	272	274	277	276	275	273	271	271	271	272	272	0	0	0	0	0	0	0
288	291	293	296	294	294	293	293	297	300	300	299	295	293	293	293	294	292	292	289	292	292	294	296	297	298	296	296	295	295	296	297	301	301	301	301	299	299	300	300	297	294	294	294	295	295	294	292	293	293	293	296	299	301	299	292	293	294	295	295	296	296	299	297	296	291	284	284	286	287	288	289	291	288	287	287	282	286	288	290	288	283	283	286	287	289	290	294	295	294	298	299	298	295	294	295	295	296	297	295	293	290	290	290	289	289	288	284	282	281	283	289	288	283	281	285	286	288	288	287	286	285	284	286	287	283	285	285	285	287	288	282	286	285	281	284	284	285	286	285	283	284	285	285	285	285	286	287	285	284	284	284	284	284	285	285	285	283	286	286	286	277	277	277	279	283	282	283	282	282	280	284	286	288	288	285	285	282	280	281	286	287	286	285	283	281	285	291	291	290	287	287	286	281	282	285	287	285	283	280	279	279	279	278	281	278	276	277	276	282	284	282	282	280	281	283	285	285	283	282	280	283	282	275	275	278	282	285	287	279	279	281	279	278	278	279	274	278	283	281	285	284	284	285	284	283	281	281	281	278	280	274	280	280	281	283	288	289	289	281	280	279	277	281	282	278	273	275	279	281	281	286	281	279	278	277	276	275	275	279	270	271	275	276	277	281	281	279	279	278	281	277	277	283	281	282	284	284	284	282	282	281	282	281	281	281	279	279	281	280	281	278	277	277	278	278	279	277	278	275	281	279	278	279	282	283	280	285	280	278	275	274	273	273	274	278	278	280	279	281	278	276	276	277	279	279	280	279	276	279	278	279	280	285	287	281	282	280	279	279	280	280	281	281	279	276	280	279	279	278	281	283	283	282	280	279	283	279	279	276	275	278	278	273	276	276	274	271	275	274	276	279	278	279	280	280	277	274	276	275	276	274	273	275	276	277	276	274	272	271	270	273	275	275	275	274	274	275	273	272	273	275	278	279	275	272	273	280	280	278	277	277	275	274	274	273	274	278	275	275	275	272	274	276	274	273	272	273	275	277	275	271	271	271	271	278	278	278	277	274	273	271	273	273	280	280	281	280	279	277	275	270	273	270	270	275	275	272	274	278	278	277	277	272	273	276	277	275	275	278	277	273	274	272	272	274	276	273	274	273	273	273	273	275	273	273	273	272	271	269	269	269	269	272	272	272	269	268	268	270	270	269	269	268	269	268	271	271	272	272	272	271	271	271	271	272	271	272	269	272	273	274	275	273	273	273	272	273	273	272	273	272	274	275	275	273	272	269	266	265	266	267	270	271	269	268	269	274	275	275	273	270	270	269	270	272	273	274	275	273	270	269	271	272	273	272	271	266	265	270	267	271	273	270	272	273	273	273	273	273	274	272	270	266	266	265	266	267	269	269	270	270	268	268	269	269	267	264	266	272	272	271	272	272	272	272	276	273	269	267	267	269	270	0	0	0	0	0	0	0
288	289	292	289	289	289	287	290	292	296	296	297	296	295	295	295	293	290	289	288	291	291	292	293	294	292	292	292	290	290	290	293	296	298	298	297	295	293	295	297	296	292	292	292	293	294	291	289	291	292	293	293	293	291	288	287	288	290	291	292	294	294	292	290	289	284	284	284	286	286	287	287	287	285	282	282	281	284	286	287	285	281	282	282	286	287	286	286	288	288	289	290	289	287	289	291	293	291	292	292	289	286	287	288	286	287	285	281	281	281	281	281	284	284	281	283	284	283	286	286	284	283	282	283	279	279	282	283	284	286	289	282	278	278	279	281	282	281	281	282	282	282	284	283	284	283	285	285	285	283	283	281	283	283	281	281	282	283	284	283	285	277	276	276	278	281	282	281	280	282	280	280	286	286	281	283	283	283	280	279	279	279	277	275	274	272	280	282	283	282	278	278	277	280	283	280	280	279	281	279	280	278	278	278	277	274	275	275	274	275	276	279	280	278	276	275	282	281	283	283	283	281	278	276	272	273	281	283	284	275	276	276	276	277	279	279	275	276	276	276	282	282	283	282	284	282	279	279	281	278	275	273	277	275	275	274	277	281	277	279	279	277	274	272	272	271	272	273	274	273	277	278	279	279	278	277	272	272	276	275	278	276	276	276	277	279	275	277	275	275	274	274	275	274	276	277	276	275	280	280	279	279	279	279	279	280	279	279	280	279	280	279	278	278	278	277	274	273	273	276	276	279	279	280	282	280	282	279	278	276	275	272	272	274	277	279	279	279	275	277	274	275	277	278	281	279	279	280	280	279	279	279	279	284	284	280	276	276	275	276	274	273	279	279	274	274	280	280	284	284	275	273	273	272	276	276	276	276	273	272	273	273	273	275	276	274	272	271	271	271	272	272	276	277	278	271	273	274	271	274	274	271	271	275	276	275	275	274	272	270	271	273	275	276	275	274	273	272	271	273	272	274	275	272	271	271	276	276	279	278	275	272	271	271	271	272	273	274	271	274	273	271	270	264	265	269	269	269	272	272	272	270	270	269	269	268	263	262	263	264	266	267	270	272	273	273	276	277	276	274	272	271	267	268	268	270	271	268	268	273	277	275	275	272	271	270	268	268	271	275	275	274	273	271	272	274	271	269	267	273	273	271	269	269	272	273	272	271	269	266	265	264	265	266	267	270	268	266	267	269	269	268	267	267	266	268	271	268	267	267	267	268	268	268	269	269	268	264	264	265	268	269	268	270	270	270	270	271	270	270	269	268	273	272	273	271	268	269	264	266	265	267	269	269	268	266	268	267	267	268	266	262	266	268	269	271	272	272	272	272	269	269	270	272	272	267	264	264	264	263	261	261	263	270	269	269	271	273	274	274	273	271	266	265	266	266	266	266	266	266	266	265	267	268	268	267	267	266	265	265	267	270	269	270	270	270	270	270	268	267	266	266	266	0	0	0	0	0	0	0
286	287	289	285	285	285	286	285	287	290	290	293	294	292	291	290	290	288	287	283	286	286	288	289	290	289	289	288	288	288	289	289	289	290	290	290	290	290	293	294	292	287	287	288	289	286	282	282	281	282	285	285	287	287	287	287	285	288	290	291	292	288	288	287	285	286	285	284	286	286	286	286	285	285	285	286	286	285	283	279	278	281	283	285	284	284	284	282	283	284	283	285	283	284	285	283	284	285	285	285	282	280	283	284	286	286	284	281	279	278	281	282	282	283	283	283	279	282	282	281	279	279	277	276	276	276	281	282	283	283	288	282	280	279	279	281	280	280	279	279	280	282	280	283	282	282	282	281	281	281	282	280	280	280	281	279	279	278	279	274	274	275	273	275	275	276	281	273	274	271	278	278	285	284	279	280	282	281	278	277	278	277	275	276	273	272	271	276	276	274	277	276	277	284	284	273	273	276	278	277	274	275	274	272	271	275	273	275	275	273	274	275	279	277	275	273	273	272	276	280	281	281	280	276	272	270	273	281	280	273	272	273	275	275	275	274	274	275	273	273	273	273	275	279	279	279	272	273	276	274	271	271	274	272	273	273	275	277	276	272	271	269	272	270	269	272	273	272	268	270	267	272	271	271	271	271	270	272	270	273	276	275	275	275	275	272	270	271	274	274	273	273	273	274	273	274	274	275	275	274	276	278	279	276	278	279	280	278	278	284	284	274	275	278	273	273	273	273	274	275	275	276	274	277	278	277	278	278	277	274	272	272	274	275	278	279	277	276	275	273	273	272	273	274	277	278	279	280	279	280	280	279	278	278	279	280	278	274	272	271	272	272	272	275	278	279	280	279	283	274	273	272	273	272	275	276	276	269	268	272	270	271	273	275	276	275	272	271	272	270	268	269	272	275	274	272	273	274	275	272	271	268	269	271	271	271	274	273	269	270	269	269	269	269	270	273	272	272	271	271	271	272	272	272	269	271	269	273	277	277	274	272	270	271	270	271	269	268	268	268	267	265	264	263	262	263	265	268	268	269	267	267	268	269	268	263	262	261	262	264	265	266	265	266	267	267	270	272	274	272	269	267	266	266	268	268	266	264	264	267	272	272	267	267	265	269	268	265	270	273	274	275	273	261	265	266	265	265	264	265	266	265	267	267	268	269	270	268	267	266	263	264	264	267	269	269	266	266	265	267	269	267	265	264	261	262	265	267	265	264	265	264	263	265	266	267	265	266	265	264	267	267	266	266	265	268	269	269	269	269	267	267	269	269	267	269	266	263	263	264	266	268	269	269	264	264	265	265	265	265	259	262	265	267	269	269	270	269	268	269	268	268	266	263	261	262	262	262	262	261	261	258	262	262	265	268	271	270	274	274	272	267	263	263	264	263	263	265	265	265	265	266	267	267	266	265	264	264	264	261	261	262	263	263	263	262	262	268	263	262	262	263	260	0	0	0	0	0	0	0
287	285	284	283	283	283	283	283	283	283	283	289	288	289	288	288	288	288	286	277	280	283	283	287	288	284	283	286	286	285	284	285	287	286	286	286	286	288	289	288	284	283	282	282	281	280	277	278	279	280	284	289	289	289	292	291	288	285	288	287	286	287	287	288	287	286	286	285	285	285	286	284	282	282	281	282	282	279	276	278	279	281	283	284	278	275	278	280	282	282	281	282	281	281	282	282	283	281	282	282	281	282	283	283	284	281	279	279	278	278	279	281	282	283	281	278	279	282	281	276	275	277	276	272	276	279	280	281	281	282	282	281	280	278	280	279	278	277	277	278	279	281	277	278	278	279	279	279	279	279	281	280	279	278	277	278	274	278	277	273	270	271	271	274	273	274	275	276	272	271	269	275	280	278	274	279	280	278	276	276	275	274	273	276	271	272	271	270	271	272	273	272	273	283	284	276	264	275	277	277	275	276	274	271	269	273	274	275	274	272	272	274	276	275	272	272	273	273	273	275	279	278	272	270	270	270	275	278	277	278	272	273	273	274	273	273	271	270	271	269	270	271	274	275	273	275	270	270	270	268	269	269	272	273	269	271	272	273	272	270	271	270	269	270	270	272	269	268	266	265	271	271	272	270	270	271	274	271	266	272	274	273	275	276	273	268	271	265	268	267	270	269	269	270	268	267	267	266	266	267	268	269	274	277	282	280	277	276	274	284	283	274	272	274	273	272	269	270	271	270	268	269	271	275	277	276	273	272	273	271	271	273	274	276	278	278	272	272	272	272	271	272	273	274	275	276	280	275	279	280	276	276	275	276	276	276	276	276	273	270	269	270	270	271	278	280	278	276	273	272	272	270	270	271	271	271	268	267	268	267	268	269	272	275	276	274	271	271	268	267	268	269	270	272	271	270	271	273	273	268	267	266	264	265	268	269	269	273	268	267	268	268	268	269	270	270	270	266	268	268	269	270	269	269	269	269	267	269	269	272	271	269	270	269	267	266	266	264	266	266	264	263	262	262	263	266	267	265	265	264	264	262	263	268	269	267	263	263	264	263	264	264	264	265	267	268	267	270	272	268	264	266	267	266	267	268	266	264	264	265	266	261	261	261	260	266	272	273	270	269	269	269	265	265	265	263	263	261	262	260	260	263	263	265	267	265	263	263	265	263	263	262	261	261	271	268	261	264	265	266	266	259	257	256	257	259	261	262	260	259	259	261	264	264	264	263	262	263	265	266	266	266	266	264	265	266	266	268	270	269	265	264	264	265	267	266	262	264	264	264	264	264	264	263	265	262	263	264	265	261	259	259	262	267	267	266	267	267	267	267	266	266	264	263	261	261	261	260	259	259	259	257	259	256	256	263	261	260	259	261	263	265	264	262	262	260	260	261	263	263	263	262	264	264	263	263	262	259	259	261	261	260	262	262	262	261	259	263	262	261	258	258	259	0	0	0	0	0	0	0
285	285	282	281	280	280	280	280	280	279	280	280	279	280	283	284	284	284	278	277	277	281	281	285	284	281	278	278	278	281	283	283	284	283	283	283	283	285	286	285	284	283	283	283	280	277	278	277	278	279	282	289	289	292	289	284	285	281	284	284	286	287	288	288	286	284	282	281	283	284	283	282	281	280	279	277	275	275	274	275	278	281	282	279	274	271	271	275	280	280	281	280	281	281	282	282	281	281	282	281	278	277	281	281	281	280	278	276	276	276	279	281	282	281	280	278	280	279	279	273	274	276	275	275	279	280	279	279	280	281	280	278	279	278	277	275	273	275	275	275	275	273	273	273	274	274	274	277	277	277	276	275	273	274	276	276	275	270	269	271	271	271	271	271	274	274	274	274	275	271	269	269	274	274	275	274	274	272	274	272	273	271	270	271	272	269	268	269	271	272	272	269	266	268	275	276	264	271	273	275	275	276	274	270	271	274	273	274	273	273	271	272	272	270	271	271	272	273	274	272	275	274	270	269	268	269	271	274	276	273	265	264	262	272	272	272	269	266	265	265	267	272	274	275	270	269	265	270	268	267	270	270	270	271	268	269	272	268	269	268	270	270	268	267	267	268	269	268	265	263	265	270	270	269	268	271	274	270	269	265	273	276	277	276	271	266	262	261	263	264	263	263	262	264	265	264	266	266	266	266	267	267	264	264	267	270	266	266	268	268	267	268	269	273	273	272	269	270	271	269	267	268	269	270	270	266	267	270	272	268	269	268	268	268	269	269	270	266	269	270	269	271	273	273	274	273	280	272	273	272	269	269	271	273	276	276	275	273	272	270	268	266	268	270	271	271	271	264	267	268	270	271	270	268	271	270	265	265	265	264	264	266	272	274	272	272	270	268	267	268	267	268	268	270	267	268	267	269	271	264	264	263	260	262	264	266	266	266	266	268	267	266	266	268	269	266	267	266	265	263	265	264	269	267	266	267	266	265	267	267	266	266	267	268	266	265	263	262	262	261	261	261	256	257	261	266	266	265	263	263	263	261	262	262	263	264	264	263	261	262	264	263	262	265	267	267	267	269	268	267	262	263	264	266	266	267	266	265	261	259	258	260	257	257	259	257	260	259	259	258	257	259	259	258	263	262	262	256	256	262	264	262	261	263	263	264	263	262	263	259	263	261	259	257	260	260	258	258	260	263	258	255	254	254	256	259	259	262	258	257	259	261	261	261	261	257	260	263	266	268	267	267	266	265	264	263	263	261	263	266	266	261	263	263	261	262	265	263	265	264	263	262	262	262	261	262	262	262	262	260	259	259	260	260	264	264	262	262	263	266	265	265	264	262	260	259	259	252	253	253	257	255	256	255	255	254	257	256	257	261	261	261	261	264	259	255	258	259	259	260	260	260	262	263	262	261	257	257	256	259	260	259	259	259	259	256	254	260	259	257	257	258	259	0	0	0	0	0	0	0
283	283	278	279	276	275	275	278	279	279	276	276	275	275	277	278	278	278	277	276	276	278	278	277	273	274	275	277	280	280	283	284	280	281	280	280	280	281	284	285	285	285	282	282	278	277	277	277	277	277	281	287	287	286	285	281	281	280	279	280	283	285	286	286	283	282	278	278	280	281	282	281	280	280	274	276	273	273	271	275	275	277	274	273	272	270	269	269	270	273	273	273	279	281	281	281	282	283	282	280	275	271	275	276	276	277	276	275	275	278	280	280	280	280	277	278	276	276	275	273	269	274	273	272	273	276	274	278	278	278	276	277	277	277	276	274	272	271	275	275	274	272	270	271	272	273	271	274	274	274	274	273	271	272	273	275	272	269	264	266	268	270	273	270	270	271	272	273	273	275	270	267	265	268	271	271	272	269	270	270	266	267	268	270	270	269	267	268	269	270	269	268	268	270	266	266	263	263	268	269	274	272	271	268	268	270	272	272	270	269	268	267	267	269	269	271	272	272	275	273	270	271	270	269	267	267	269	269	273	268	268	266	264	261	262	262	260	260	261	262	269	268	266	263	261	260	265	265	265	268	267	268	268	265	266	268	271	266	265	268	271	271	269	267	267	268	267	266	264	262	262	266	266	266	266	266	272	267	269	265	265	272	272	270	262	261	262	262	265	267	266	263	264	264	262	263	265	265	265	266	267	264	265	264	264	265	263	263	264	264	265	266	266	268	272	270	265	265	265	262	261	261	264	268	269	266	266	269	271	269	268	267	267	269	269	267	268	265	268	268	269	269	272	272	274	274	271	268	269	266	266	267	266	267	269	266	269	270	269	269	268	266	265	268	269	265	271	261	266	269	270	263	268	265	266	265	263	262	263	263	264	264	264	265	264	269	267	265	267	264	265	265	265	266	265	264	263	263	269	267	261	261	261	261	262	263	263	266	266	267	266	263	262	268	264	263	266	266	264	261	261	262	263	267	267	266	265	265	263	263	264	263	264	265	264	262	261	258	261	259	259	259	257	257	259	262	262	262	260	260	263	260	261	260	262	263	262	262	261	258	256	257	260	266	265	266	267	266	266	266	263	258	260	263	265	262	263	260	260	260	260	258	256	254	253	252	257	255	256	255	256	259	259	258	261	260	259	256	255	261	261	261	261	261	262	262	262	261	259	259	257	252	253	255	256	257	258	260	261	261	256	259	257	258	258	259	258	259	256	255	258	260	261	258	259	257	261	261	260	259	263	268	267	263	263	260	265	260	262	263	265	261	257	258	258	259	261	263	261	261	260	260	262	259	264	259	260	260	259	260	259	259	257	257	259	260	261	260	261	264	264	265	263	260	260	259	252	256	250	252	257	254	255	255	253	253	250	252	254	259	261	260	260	260	261	259	255	259	259	259	259	258	260	261	262	258	258	253	253	253	258	258	257	257	256	256	252	253	256	255	255	258	258	0	0	0	0	0	0	0
281	281	278	274	274	273	273	276	277	277	272	272	270	271	273	273	274	274	277	277	275	273	270	270	271	272	274	276	279	279	283	275	276	277	277	277	277	277	282	284	283	283	281	277	277	273	276	275	275	275	278	281	279	279	280	279	275	275	277	280	281	283	283	280	280	269	272	273	276	276	276	278	274	270	273	274	274	271	271	270	271	273	272	270	271	269	269	270	272	272	272	272	272	276	279	281	280	280	278	275	271	269	265	267	275	275	275	274	273	273	273	273	276	276	275	275	270	271	273	272	270	268	269	270	270	272	272	273	276	274	274	275	276	277	276	272	270	272	274	274	273	272	269	267	268	269	269	269	269	270	271	270	270	269	269	266	266	269	265	264	266	272	271	271	271	271	270	269	269	269	265	261	262	265	269	268	268	269	268	266	265	264	264	263	263	266	267	267	268	267	265	266	267	268	266	269	264	266	261	262	263	263	263	267	267	262	271	271	268	268	268	268	267	268	268	267	267	266	267	268	267	264	264	263	263	266	267	272	272	271	269	268	268	264	261	263	263	266	263	264	265	263	262	262	261	261	265	267	267	265	264	264	262	265	264	260	266	269	266	267	269	269	265	266	265	266	265	265	259	257	259	261	260	262	263	264	267	260	268	261	260	264	265	264	263	263	264	265	266	267	266	262	260	260	261	260	263	264	263	264	265	263	263	265	264	264	264	263	263	261	264	265	266	266	265	269	265	264	264	262	261	261	261	264	266	263	265	265	264	266	261	269	264	266	265	264	264	261	263	266	270	268	269	264	264	264	265	265	265	263	259	256	262	264	265	266	266	266	265	266	268	265	261	269	266	266	266	261	267	268	271	271	263	268	263	262	263	262	260	262	264	264	265	264	262	262	262	265	264	264	264	265	265	263	261	263	261	263	265	261	262	261	260	259	259	259	261	263	265	264	264	263	261	259	263	261	262	262	262	262	261	262	263	264	261	261	262	261	262	261	262	262	261	262	263	259	259	256	256	256	254	256	256	258	258	259	258	258	258	257	258	259	261	261	260	261	261	260	259	256	256	256	260	263	261	260	263	263	265	263	259	257	254	255	257	258	258	259	259	259	255	254	254	249	252	250	250	254	254	254	255	257	257	258	259	259	256	254	255	259	256	258	257	257	260	261	260	259	257	256	252	251	251	256	258	258	258	259	259	256	255	258	256	257	258	254	257	256	255	256	256	255	257	258	258	257	256	258	257	257	257	258	256	256	255	257	258	259	262	263	259	256	255	255	256	257	258	258	259	259	258	256	256	259	259	262	263	262	259	260	257	258	258	257	257	257	259	260	264	266	261	259	258	261	256	254	253	248	250	250	254	252	252	253	253	253	250	252	251	252	259	259	259	259	263	261	259	259	259	258	257	256	258	259	259	257	257	252	250	253	254	254	254	251	249	249	251	251	254	254	254	254	256	0	0	0	0	0	0	0
275	277	277	275	273	271	273	273	273	269	269	265	265	268	271	272	272	272	277	276	274	270	268	268	270	271	272	276	277	277	273	273	276	275	273	273	273	275	281	281	278	277	276	269	269	270	270	268	268	272	271	276	273	273	274	271	271	273	273	277	279	279	278	269	269	272	272	272	270	273	274	273	265	267	269	270	271	269	268	268	268	268	269	269	269	269	271	272	272	272	272	272	273	272	275	271	275	273	275	271	270	267	266	263	262	266	267	265	265	265	266	269	269	270	273	273	270	271	269	268	267	267	266	268	269	270	272	272	272	271	271	273	270	269	269	268	267	269	271	273	272	271	269	265	263	266	267	267	266	268	269	270	269	268	264	266	267	266	265	263	266	266	267	269	270	269	263	268	266	269	267	262	262	261	265	266	267	266	266	265	264	264	263	262	262	264	265	266	267	264	265	266	268	269	269	266	262	260	263	264	264	258	262	261	262	263	265	268	267	266	268	267	267	266	265	263	264	264	264	266	262	265	264	263	263	261	261	261	265	264	267	268	265	266	262	262	263	265	267	267	266	265	261	262	263	265	267	266	265	264	263	262	260	263	261	260	260	267	265	267	267	269	263	264	262	264	264	264	260	260	260	260	259	260	260	257	257	264	256	252	255	262	264	263	263	264	264	265	261	262	265	261	257	257	259	261	260	262	262	260	261	262	261	264	264	264	264	263	263	264	264	265	265	265	265	265	264	261	262	259	258	259	260	258	258	257	259	265	264	263	261	259	261	264	261	261	263	262	268	273	273	265	264	261	260	261	263	264	264	258	258	258	264	262	265	264	264	264	264	265	265	267	266	267	264	262	258	264	266	268	271	271	267	260	262	262	264	261	260	263	263	262	264	263	262	259	258	257	260	261	263	264	260	259	259	263	261	258	260	260	261	260	259	257	252	252	249	261	262	261	263	261	260	257	257	258	263	263	263	262	261	262	260	259	259	259	260	260	260	261	262	261	260	260	260	259	256	255	255	254	255	253	255	255	254	254	255	256	256	255	256	258	259	258	258	258	258	259	258	258	254	253	258	260	259	257	257	257	260	258	253	254	252	252	254	259	259	258	258	259	255	254	253	250	246	249	250	252	253	253	256	254	256	256	257	260	256	258	258	256	255	252	253	254	258	260	259	257	256	255	252	254	253	255	255	254	254	254	255	255	255	251	251	256	253	255	249	255	255	255	256	253	252	254	256	257	255	255	255	258	258	257	256	257	257	257	258	259	260	255	256	254	253	252	251	256	256	256	257	257	257	256	255	254	253	260	261	261	257	259	259	259	259	258	258	257	254	254	255	257	258	258	257	255	254	252	251	247	247	251	252	250	250	250	251	251	251	250	250	251	252	258	258	258	258	259	259	259	257	255	253	253	256	258	257	257	255	246	247	250	251	250	250	249	250	248	250	249	252	252	253	253	253	253	0	0	0	0	0	0
271	273	273	269	266	267	269	269	268	261	261	264	264	263	265	266	268	268	271	275	274	265	268	268	271	271	270	272	273	274	274	276	279	276	272	271	273	273	276	277	274	274	273	270	267	267	271	271	272	266	270	268	268	269	269	270	271	271	274	275	274	275	273	266	267	267	269	265	268	270	268	262	263	263	266	269	267	265	264	264	265	267	266	268	268	269	272	273	273	273	273	271	271	270	266	265	268	271	270	270	269	261	259	263	265	265	265	263	260	261	263	268	269	267	266	268	270	265	265	266	265	266	266	266	266	267	266	266	270	269	269	268	262	259	261	263	264	264	263	263	261	261	262	266	267	266	264	264	265	268	269	269	267	264	265	266	265	266	264	267	264	264	265	267	267	261	262	262	265	268	266	264	263	260	259	265	265	263	264	261	262	263	262	260	260	262	264	265	265	265	265	266	261	260	261	264	263	260	263	264	263	265	264	258	264	261	259	258	256	261	257	266	266	265	264	263	263	262	259	258	259	261	263	263	263	261	259	260	261	262	264	267	263	264	261	260	260	264	259	258	263	260	261	262	265	265	267	266	264	264	264	264	264	258	259	262	258	259	258	257	260	263	263	257	259	261	261	256	263	262	263	262	259	258	258	257	255	254	256	255	255	261	264	263	262	261	261	259	259	259	262	261	259	259	258	260	258	258	261	259	259	259	259	260	262	263	262	263	263	263	264	259	258	258	258	260	261	262	261	258	256	256	256	257	258	263	263	262	263	262	261	258	258	260	260	261	260	263	263	268	272	264	263	259	260	261	259	262	258	258	260	263	259	261	261	261	260	263	262	264	263	263	266	262	261	261	264	259	259	259	259	259	260	258	259	261	263	259	257	260	262	263	263	262	260	258	256	255	256	258	263	262	260	260	260	263	258	257	258	259	260	259	258	252	249	254	253	252	258	261	262	260	259	256	255	255	259	261	262	255	257	258	258	258	257	259	260	257	255	260	260	260	259	259	258	257	257	256	256	253	253	253	255	254	253	255	254	254	255	255	256	259	259	257	255	254	257	259	259	257	254	251	252	259	257	256	255	250	249	249	251	250	246	247	253	258	259	258	258	255	253	252	251	245	249	249	251	252	252	253	253	251	250	253	253	250	252	258	258	254	253	251	251	253	256	256	253	252	251	252	253	253	252	253	255	254	254	252	252	253	254	250	250	252	249	248	249	250	251	251	250	246	246	247	250	252	254	255	257	258	257	257	257	256	254	256	257	259	257	257	255	252	251	251	251	256	256	254	254	256	257	254	254	252	254	259	262	261	258	258	258	258	258	255	255	253	253	254	252	253	254	257	255	254	252	251	249	246	246	250	251	249	249	248	249	250	253	251	250	249	251	254	254	256	260	257	257	254	252	253	251	248	250	251	251	250	247	246	246	247	250	250	250	248	248	247	247	246	249	251	251	250	250	250	0	0	0	0	0	0
270	271	271	269	264	267	266	266	261	260	249	252	252	253	250	256	258	261	261	261	264	266	270	271	271	270	267	265	268	273	273	275	274	269	267	264	266	266	266	272	265	265	265	265	265	265	268	272	271	268	263	264	264	266	266	267	268	269	270	273	272	272	270	266	264	264	264	263	264	265	264	260	258	261	264	268	266	264	263	263	263	266	265	267	268	269	273	275	274	270	270	268	269	264	267	268	263	263	263	263	265	262	262	262	262	263	264	259	258	257	261	266	267	265	265	265	263	262	263	263	263	263	264	264	265	264	265	265	269	268	265	261	260	259	259	261	263	262	261	261	262	262	262	263	263	264	265	264	267	268	269	267	263	261	260	262	261	263	263	263	261	262	263	264	265	261	260	266	268	269	269	265	262	260	258	255	256	257	259	258	259	259	253	252	256	260	260	261	257	259	266	265	259	258	259	260	261	263	262	264	263	264	266	263	257	253	256	254	254	251	252	254	258	264	261	261	258	257	254	252	251	252	256	257	263	257	258	259	260	261	262	261	261	260	257	259	259	260	257	260	262	260	261	264	264	262	262	264	264	263	265	264	257	258	259	262	260	259	258	258	257	256	255	256	254	254	254	259	257	264	263	260	261	258	259	259	262	257	257	257	258	259	258	257	256	257	259	259	259	259	263	262	261	260	259	259	256	255	259	255	257	258	258	260	261	261	260	258	257	258	259	259	257	255	255	256	256	258	257	257	257	256	256	255	260	261	263	259	263	260	255	256	257	257	259	258	262	262	262	268	261	262	261	259	258	259	258	257	260	258	259	260	261	259	260	261	260	263	264	264	259	256	256	255	254	260	261	260	259	259	258	258	258	261	262	264	262	264	261	259	260	261	262	257	257	255	254	252	253	257	256	262	260	257	253	253	252	255	258	258	259	257	261	258	256	253	250	256	258	258	257	258	257	255	255	255	252	252	251	253	255	256	255	254	256	256	255	254	254	253	252	252	254	256	255	254	253	253	255	254	251	251	250	251	249	249	251	253	254	255	255	257	258	257	256	253	252	257	257	257	255	252	252	252	249	248	247	247	250	250	250	249	249	248	249	253	257	255	253	254	252	250	244	243	245	247	249	253	253	253	247	247	247	250	249	253	247	256	255	248	246	249	250	252	253	254	251	250	250	250	250	250	250	251	253	252	253	250	250	250	252	251	247	247	247	247	249	251	249	249	250	246	246	248	250	250	251	255	257	257	258	257	256	256	253	255	258	255	256	258	254	252	250	248	248	251	256	256	256	256	255	252	251	247	251	253	254	257	254	252	253	250	250	252	253	251	252	249	249	249	249	254	252	251	251	249	246	245	246	249	249	248	248	247	251	248	253	251	249	249	248	253	252	253	254	254	255	252	252	252	247	248	250	251	250	246	246	247	247	245	244	244	246	246	246	247	246	246	246	250	250	242	242	243	0	0	0	0	0	0
268	266	266	266	264	264	264	264	257	249	252	251	248	248	243	245	246	247	247	251	261	261	265	267	267	263	263	265	267	266	266	266	265	265	268	267	266	265	265	266	260	262	262	262	263	263	267	268	268	267	265	261	261	263	263	264	264	264	264	268	271	269	267	263	262	262	260	260	262	264	261	258	258	260	260	262	261	259	260	261	261	263	265	267	267	268	272	274	267	264	264	254	259	261	261	265	266	265	265	265	265	265	257	256	260	260	261	259	258	256	255	260	263	264	261	260	260	259	260	262	263	263	259	259	259	263	264	264	265	265	262	261	261	259	258	258	261	261	259	260	261	262	262	263	262	262	261	262	261	261	264	260	259	261	256	257	256	263	264	257	257	261	261	261	258	259	258	264	266	268	265	263	262	259	256	255	255	253	254	258	257	257	252	252	255	255	255	254	253	258	260	261	259	258	255	257	259	255	261	260	262	263	266	262	257	254	253	252	252	249	251	248	253	254	257	261	257	254	251	251	252	255	257	257	259	256	257	257	258	258	257	258	257	258	255	257	258	257	254	254	251	259	261	261	263	262	263	262	262	262	265	264	256	256	259	260	260	257	258	257	256	255	252	252	254	256	254	254	258	258	261	261	258	257	259	261	261	258	257	257	257	255	255	255	256	256	257	258	258	259	260	261	259	260	258	257	254	255	252	253	254	254	256	257	259	258	257	256	256	257	257	256	256	254	255	256	254	254	253	256	255	252	254	254	253	257	263	263	260	250	254	255	256	256	254	252	258	260	259	263	258	257	256	256	256	257	256	256	252	247	257	257	256	253	253	257	257	260	259	256	256	257	254	254	256	260	258	258	257	257	256	256	257	261	261	261	263	263	260	256	259	257	257	256	253	253	252	249	247	248	253	253	250	250	251	250	248	257	256	257	255	255	259	259	261	260	259	257	257	255	256	256	262	257	256	252	251	250	250	252	253	254	250	250	253	253	254	254	253	252	249	249	250	252	252	250	251	254	254	256	253	252	252	252	250	250	249	249	251	253	256	255	259	254	253	253	248	248	252	253	254	248	247	248	247	247	246	247	249	251	253	252	250	249	250	251	251	253	251	247	248	247	247	245	245	246	248	250	251	250	247	246	246	243	246	248	246	247	245	243	246	249	250	251	253	250	250	249	248	248	248	247	248	249	249	251	249	248	249	248	247	245	245	245	245	248	248	249	247	247	247	248	249	249	250	249	248	248	252	250	248	248	244	243	243	248	250	256	256	256	255	252	249	248	248	251	246	246	253	255	251	249	249	246	250	251	250	252	249	248	246	247	247	250	251	249	251	247	246	245	246	248	250	250	250	248	246	244	244	247	245	245	247	246	246	244	246	247	247	248	249	249	251	252	253	253	255	254	251	247	248	248	250	250	243	242	245	248	243	247	247	241	243	243	241	240	244	249	249	249	245	243	243	245	0	0	0	0	0	0
264	264	264	264	264	261	260	254	254	251	251	249	252	252	248	248	247	248	248	249	253	254	260	258	258	261	264	267	267	263	263	263	264	267	268	267	267	264	264	262	259	260	260	260	261	264	264	264	265	265	262	261	260	258	260	260	261	263	263	268	268	269	263	262	260	259	259	258	257	257	257	258	259	260	262	261	261	261	262	262	263	263	265	266	266	268	267	260	260	259	258	258	261	259	259	263	261	264	265	264	265	264	256	256	258	259	259	258	257	255	254	257	261	260	257	255	257	260	263	263	259	258	257	257	258	261	261	261	260	262	261	261	262	258	258	258	257	259	252	257	259	260	258	258	258	258	257	258	257	256	257	257	256	255	256	255	254	253	253	254	256	256	257	257	257	259	258	259	259	257	260	261	260	259	255	254	256	255	253	255	253	255	253	254	255	254	255	254	255	258	260	260	259	258	256	256	253	253	256	258	257	255	254	254	254	252	252	251	252	251	246	253	256	255	252	251	253	254	250	251	253	255	259	260	256	254	254	256	258	256	255	255	254	252	249	251	257	256	257	258	258	258	260	259	260	261	260	259	258	257	257	258	255	255	256	259	257	256	258	254	253	252	250	252	253	255	249	249	250	255	256	256	251	255	256	257	258	256	256	255	257	256	254	254	256	256	258	257	257	258	260	259	259	260	258	257	256	252	252	250	252	254	253	255	257	256	255	255	255	256	257	253	253	254	253	253	252	251	252	254	254	252	252	253	254	253	251	251	247	247	249	245	253	251	252	253	254	253	254	255	255	255	255	256	255	257	257	255	248	249	250	250	252	251	256	257	257	258	254	255	255	255	253	255	256	256	257	256	256	254	255	257	259	260	260	260	263	263	256	254	254	255	255	253	251	251	250	248	249	249	253	252	251	251	251	252	251	254	251	251	253	249	255	250	251	259	260	256	254	246	248	246	251	251	251	252	252	249	248	251	251	247	247	247	249	250	253	252	252	251	250	248	246	249	247	248	249	252	255	254	253	252	250	254	250	250	247	247	251	252	254	249	250	250	251	251	248	249	251	250	245	245	247	248	247	246	246	245	246	247	250	248	249	248	249	249	250	246	246	249	249	248	248	247	245	245	246	248	251	251	247	246	241	242	243	242	246	244	242	244	244	247	248	249	248	245	243	247	246	245	245	246	246	248	247	247	246	247	246	247	246	243	242	242	246	246	245	248	247	246	245	245	247	247	249	246	246	248	250	249	248	246	245	241	242	242	244	244	244	245	247	248	248	249	249	247	246	246	251	251	245	245	246	246	248	246	246	246	246	245	242	242	239	240	242	246	245	242	238	238	241	244	243	243	244	245	246	244	244	242	243	244	244	244	242	241	243	240	242	243	245	245	248	247	247	250	248	243	246	247	247	247	248	247	245	243	243	246	245	246	246	245	243	240	238	239	243	242	247	246	242	242	241	243	0	0	0	0	0	0
260	260	262	262	261	258	253	247	247	247	249	251	250	250	248	249	249	250	252	252	252	254	258	259	260	260	263	265	262	261	262	262	263	264	265	267	265	264	264	263	258	257	257	257	257	259	259	261	261	264	264	261	258	258	259	259	263	261	262	262	261	262	259	258	260	258	258	258	258	259	259	259	261	263	263	263	260	263	265	264	262	262	263	262	267	258	260	261	259	260	263	260	259	257	257	257	260	260	263	258	259	257	252	258	258	253	254	257	261	260	257	256	255	254	253	252	252	254	259	258	255	254	251	256	256	257	260	259	258	257	260	260	259	255	257	257	254	253	252	256	257	257	260	258	258	256	256	254	253	254	256	254	255	256	255	254	253	251	250	251	253	254	254	255	254	255	257	257	254	253	256	253	253	255	255	256	256	255	253	254	253	254	254	252	253	254	254	254	256	258	259	255	253	252	254	253	252	253	251	252	254	254	253	253	252	252	252	251	252	245	245	248	251	252	248	249	250	254	255	247	246	245	248	252	254	254	255	256	256	254	253	252	251	250	249	251	255	253	255	256	257	256	256	259	257	259	259	251	254	253	255	255	252	253	255	256	255	255	252	249	249	248	246	248	250	251	248	251	249	252	250	247	249	252	252	255	255	252	253	253	251	253	253	254	256	257	254	255	254	256	257	259	252	250	251	250	248	247	246	249	250	251	253	254	256	255	254	253	252	253	255	252	250	250	252	252	250	251	250	250	250	252	251	251	251	251	251	250	245	245	254	248	248	250	250	250	253	253	253	256	254	253	253	252	254	254	254	255	247	248	250	251	249	251	251	256	256	255	252	251	252	252	253	253	254	254	254	253	253	252	252	254	255	254	252	252	251	255	252	251	252	254	254	252	250	249	250	249	247	250	250	250	251	252	253	252	246	247	247	253	251	249	255	250	250	258	247	245	243	244	243	245	247	248	248	251	251	250	249	251	246	246	244	244	246	248	250	249	248	244	245	250	249	247	246	246	248	250	251	253	249	246	249	250	249	250	246	245	246	250	248	248	249	249	248	248	245	247	246	249	243	245	246	247	246	247	244	243	242	242	241	246	245	246	248	250	250	248	245	245	249	249	249	248	244	243	241	242	249	250	246	247	245	242	242	242	245	241	240	243	244	243	247	247	246	244	243	242	243	243	243	244	245	246	246	243	244	245	245	243	242	239	241	244	244	242	243	242	244	245	245	246	243	240	241	241	241	241	238	240	241	239	239	241	240	240	240	243	247	247	246	249	249	249	243	245	246	246	244	243	247	244	243	243	243	245	246	246	245	244	246	238	238	238	239	240	239	238	243	243	242	241	240	239	239	240	238	239	241	242	242	244	243	239	237	238	237	239	237	237	238	237	237	241	249	241	238	242	241	245	246	246	245	244	242	241	239	242	244	244	244	243	241	237	238	240	240	240	236	240	242	242	241	240	0	0	0	0	0	0
257	257	258	258	259	251	243	245	245	249	250	249	248	247	247	248	250	250	252	252	252	254	254	258	260	260	262	262	260	259	261	261	261	260	262	263	264	265	261	261	251	252	254	254	254	254	254	254	262	263	262	259	257	258	261	259	259	261	263	264	262	261	257	255	255	258	258	258	259	259	259	258	259	260	262	264	263	264	265	265	263	259	259	261	257	259	259	259	259	260	262	258	257	257	255	255	258	257	255	255	252	252	255	256	253	253	253	252	254	257	257	255	254	253	251	250	250	253	256	255	254	252	249	249	250	256	258	257	257	255	256	255	256	253	254	254	254	252	252	251	254	255	255	253	256	256	255	252	252	253	254	255	256	255	253	253	253	250	247	249	250	252	252	252	253	256	251	251	254	254	254	254	253	250	253	255	257	256	254	251	253	251	252	250	251	253	251	252	254	255	253	253	252	252	253	253	253	251	250	251	256	255	257	253	251	250	253	253	250	244	247	252	255	255	251	248	248	249	244	248	249	250	253	252	252	255	249	253	256	254	251	250	251	250	249	250	250	247	249	251	256	253	252	254	254	254	251	251	250	247	249	251	255	254	256	254	255	253	255	248	248	246	245	246	248	249	247	250	249	251	248	245	247	249	247	250	250	250	251	250	250	250	253	254	256	255	253	252	252	254	254	252	250	249	249	248	246	246	247	247	252	251	251	252	252	247	250	251	246	248	252	255	251	250	250	250	250	250	247	247	249	250	248	246	245	246	248	248	248	247	248	248	244	244	243	250	249	249	252	254	254	253	253	251	253	253	252	254	250	247	250	248	250	254	254	250	255	252	251	248	250	250	252	251	252	253	254	253	250	249	248	250	250	251	250	248	246	246	252	250	251	252	248	249	248	249	249	249	249	247	248	251	251	250	250	249	246	244	244	247	255	254	245	245	248	246	248	244	244	243	243	242	244	247	249	250	248	248	244	245	246	247	243	243	242	243	243	245	244	246	246	251	247	246	245	244	248	249	248	250	247	246	249	247	247	246	246	246	247	247	247	248	250	243	243	242	245	247	244	243	242	242	242	242	247	246	243	238	240	238	238	242	244	242	244	248	248	244	242	247	247	248	249	247	243	240	240	241	243	245	245	245	246	246	245	242	241	240	240	241	244	242	240	238	238	240	239	240	243	243	243	243	246	245	240	241	242	242	243	243	242	241	245	245	244	244	240	238	237	240	245	245	242	239	241	240	238	237	236	240	240	241	238	239	239	240	237	241	242	244	243	243	241	241	240	238	238	237	242	242	245	246	243	244	243	242	244	245	243	246	241	239	238	237	237	239	239	238	241	242	242	241	242	242	242	239	238	236	236	236	238	238	238	238	237	237	236	236	236	237	236	236	235	237	240	238	237	235	235	240	244	244	241	242	241	241	238	238	241	241	240	237	238	238	238	239	240	240	236	233	239	239	238	239	0	0	0	0	0	0
255	257	258	258	258	251	240	239	246	246	248	247	247	248	248	252	248	252	252	252	255	253	252	253	257	257	260	262	264	260	258	258	258	258	256	257	262	262	256	256	248	250	252	254	249	249	254	254	260	261	261	260	258	256	259	259	259	264	263	263	262	258	254	253	255	255	258	258	259	258	258	259	258	259	258	256	261	261	263	263	262	259	256	256	259	258	259	258	256	255	255	251	249	250	251	255	253	252	250	253	251	252	253	255	253	253	252	252	253	256	255	253	250	251	250	248	249	252	254	255	253	250	248	250	251	253	254	255	253	253	251	248	253	253	252	253	251	249	250	252	252	250	251	252	254	257	254	254	253	253	250	250	251	250	249	253	252	250	248	247	249	250	251	249	249	251	250	253	254	253	253	251	251	245	244	250	254	255	253	249	255	253	251	250	250	250	250	250	251	252	251	251	251	252	250	249	249	249	250	248	253	252	252	250	251	250	249	247	245	246	247	249	248	248	249	245	245	248	244	243	244	250	257	253	252	250	245	245	246	248	247	249	249	250	251	250	249	248	248	251	252	253	252	248	248	250	250	247	245	246	245	254	257	254	259	257	254	250	249	248	244	245	245	245	247	249	250	248	246	248	248	245	245	247	246	247	250	248	246	247	250	248	251	253	252	253	252	251	251	250	245	244	250	249	247	248	246	246	245	245	249	249	252	246	251	243	243	245	246	246	250	247	246	249	249	249	249	248	246	246	248	245	247	246	244	245	246	247	247	250	255	253	250	245	243	247	248	247	249	253	254	255	252	252	252	251	249	247	248	246	247	248	251	254	249	252	247	249	250	246	247	248	250	247	251	251	254	254	250	248	248	249	249	248	247	244	244	245	246	250	250	250	248	247	246	246	247	249	247	246	250	249	248	247	249	246	244	243	245	246	247	247	248	247	245	246	245	244	245	246	242	242	243	245	246	244	242	241	243	246	250	244	243	242	242	241	243	243	246	244	245	243	242	242	241	241	244	248	248	249	244	245	249	248	247	246	245	245	245	244	243	248	246	242	239	240	241	243	242	242	242	242	242	241	243	244	242	237	236	235	234	239	237	242	244	245	243	242	237	241	244	246	247	247	243	243	240	242	243	242	242	244	245	245	243	241	240	242	240	241	241	242	240	238	237	237	237	237	241	242	244	243	241	241	242	240	241	236	238	238	239	240	239	237	238	239	239	237	237	237	236	238	241	238	239	239	237	234	234	234	234	237	239	238	237	237	236	236	240	240	241	240	238	239	238	237	236	235	235	241	240	238	241	242	243	241	241	243	243	243	239	237	238	237	237	240	239	238	238	237	239	241	241	242	242	240	240	235	237	238	234	235	235	238	238	238	236	236	236	236	238	236	236	235	237	236	235	234	235	238	242	239	239	241	241	240	237	235	235	235	234	233	232	232	235	237	238	237	234	235	235	230	229	230	0	0	0	0	0	0
253	255	256	257	257	248	237	240	245	245	249	249	247	248	248	252	251	252	252	253	253	253	253	255	258	258	258	259	260	257	255	257	257	256	255	255	254	252	248	248	248	249	252	253	252	253	257	257	258	259	262	261	259	257	258	262	263	263	263	263	256	253	253	252	253	255	255	256	256	256	258	259	257	250	254	254	257	257	258	255	255	255	255	255	257	257	258	257	255	249	249	248	249	249	249	248	246	248	247	247	247	248	248	245	245	246	245	244	245	246	248	251	251	251	249	250	249	252	253	253	249	246	245	250	252	254	253	252	251	243	243	242	248	251	251	250	246	246	248	252	251	252	252	251	250	253	252	253	252	249	248	249	251	251	249	250	251	250	250	248	248	248	247	247	252	248	250	251	252	251	251	248	243	243	243	245	248	250	250	252	246	246	247	249	250	249	249	250	250	248	248	247	248	248	250	249	246	247	247	249	250	249	248	247	248	247	247	245	244	247	247	247	248	247	248	245	245	242	244	245	246	252	251	255	253	251	249	243	245	243	244	245	249	248	247	249	248	249	247	251	251	250	246	245	246	248	251	246	244	241	249	252	253	254	255	244	254	246	245	246	242	242	242	245	246	247	249	246	246	248	248	246	245	246	245	247	247	245	244	245	244	244	244	242	245	245	249	249	248	249	244	244	250	248	247	247	247	245	243	244	245	248	248	246	242	242	242	246	246	246	245	245	247	243	244	246	248	250	249	246	247	244	244	244	244	245	246	249	248	249	246	247	244	244	243	243	247	248	251	252	255	256	249	250	250	249	250	248	241	240	246	247	249	249	249	246	246	248	245	244	246	244	245	246	250	251	253	251	250	248	250	250	247	247	244	242	241	246	246	247	248	249	248	246	246	245	245	249	248	246	249	248	246	247	243	244	243	245	246	242	243	244	249	248	246	241	244	245	245	243	241	244	244	246	246	245	244	246	246	246	245	244	244	243	243	243	242	242	242	243	242	243	242	242	241	241	243	244	242	243	242	242	242	242	244	245	244	244	240	239	240	241	243	237	238	239	242	242	241	241	241	241	241	241	240	242	239	237	235	234	234	235	237	239	236	237	239	239	241	242	244	243	243	242	239	238	237	239	239	238	237	239	240	242	242	240	240	240	239	240	241	242	240	238	235	236	235	237	238	238	240	241	241	238	238	238	238	238	238	238	238	239	238	237	237	239	239	237	236	234	231	237	236	237	239	238	234	233	232	232	234	235	238	238	237	238	233	234	237	239	239	236	235	235	236	235	234	234	233	233	234	236	237	239	239	239	239	239	241	240	238	237	237	237	238	238	239	237	237	236	238	240	240	240	240	240	237	235	234	233	233	235	236	238	237	234	232	232	234	237	236	236	238	239	241	237	234	232	233	236	234	240	238	240	240	237	236	235	235	232	232	232	232	232	232	232	237	237	235	233	231	231	229	230	0	0	0	0	0	0
252	252	252	244	244	241	237	242	245	245	246	251	252	251	251	251	253	246	248	250	250	253	253	252	255	254	254	251	250	253	255	256	256	256	254	252	251	245	247	248	246	248	250	251	253	254	258	257	257	258	259	258	256	251	256	258	263	263	257	255	256	249	251	251	249	250	252	248	248	249	252	251	251	253	252	251	252	253	251	252	253	255	255	256	256	253	252	252	251	248	248	249	249	250	248	247	245	246	244	246	248	248	249	248	247	248	248	246	243	244	246	249	248	245	244	247	254	255	255	255	250	246	246	247	253	253	252	251	246	243	242	242	245	245	248	246	244	244	245	245	245	242	246	247	248	251	253	252	250	248	248	248	251	249	249	249	250	250	254	248	247	247	246	245	246	247	248	247	248	250	247	248	246	243	242	242	244	251	250	246	245	246	246	247	248	250	247	245	245	245	243	243	245	246	245	247	246	247	246	249	246	247	246	245	244	246	245	242	244	245	247	247	245	241	241	241	242	242	244	244	246	251	251	250	248	251	250	248	245	244	244	245	245	244	248	245	245	249	245	243	243	247	243	242	242	242	240	240	243	240	240	243	245	246	245	245	240	236	243	246	244	243	241	244	246	249	241	246	246	247	247	245	243	244	245	245	244	244	243	246	245	244	241	240	242	244	248	246	248	248	248	247	248	248	247	247	246	244	243	243	246	248	246	246	244	244	243	241	245	245	245	244	243	242	244	246	249	251	250	249	249	244	243	242	244	245	245	246	247	246	246	244	243	243	240	241	239	243	247	248	250	246	245	246	246	248	248	247	240	241	246	245	246	244	245	247	245	243	240	240	245	244	244	246	248	246	246	245	244	246	248	251	249	248	245	243	240	243	246	245	246	244	247	246	245	244	244	244	245	246	244	243	240	239	240	245	247	242	243	243	243	243	244	247	239	239	235	244	241	241	242	243	244	245	244	243	244	244	245	246	244	244	243	243	243	242	241	239	238	240	239	239	241	242	241	243	242	244	241	241	240	240	241	241	238	238	237	236	239	239	239	243	241	240	238	238	239	239	239	241	239	240	240	241	238	237	241	239	237	235	236	234	238	238	237	236	236	240	239	238	239	239	239	239	238	236	236	236	239	236	237	238	239	239	241	240	241	239	239	240	241	241	239	239	235	235	234	237	238	237	238	239	234	234	235	235	237	238	237	236	236	236	236	236	237	239	239	237	234	232	229	230	234	237	237	236	233	229	231	232	232	234	237	238	238	232	233	233	235	237	237	235	232	232	233	233	233	233	233	234	233	235	233	234	237	235	237	236	239	238	237	234	235	235	239	240	236	234	234	235	236	234	234	239	239	237	234	235	235	234	233	235	236	238	236	235	233	232	234	236	236	236	236	233	231	236	234	232	231	232	237	238	241	241	239	238	234	234	230	229	229	231	230	231	233	235	235	234	235	235	233	232	232	232	0	0	0	0	0	0
