1822	1829	1829	1831	1811	1790	1772	1779	1779	1793	1805	1807	1822	1820	1820	1846	1859	1867	1849	1861	1861	1838	1834	1848	1878	1887	1888	1888	1896	1877	1885	1877	1869	1861	1856	1856	1878	1887	1888	1883	1868	1857	1864	1871	1871	1881	1885	1883	1888	1891	1900	1906	1899	1887	1879	1879	1886	1896	1912	1929	1950	1957	1962	1944	1916	1894	1886	1901	1898	1904	1910	1918	1918	1920	1935	1945	1939	1914	1876	1881	1899	1921	1930	1937	1927	1931	1928	1912	1906	1889	1901	1926	1938	1938	1937	1941	1948	1936	1914	1900	1906	1929	1936	1945	1963	1949	1918	1914	1911	1908	1925	1935	1917	1908	1892	1946	1944	1941	1948	1946	1951	1948	1948	1927	1912	1911	1902	1893	1893	1903	1908	1907	1901	1908	1925	1936	1962	1988	2000	1993	1975	1978	1983	1970	1941	1916	1912	1915	1916	1911	1917	1937	1948	1939	1912	1890	1904	1931	1945	1948	1948	1938	1927	1928	1944	1949	1951	1963	1982	1998	2012	2008	1986	1974	1955	1950	1882	1773	1576	1500	1490	1480	1472	1445	1444	1454	1462	1462	1478	1487	1491	1486	1482	1469	1480	1488	1483	1477	1477	1469	1468	1468	1473	1486	1501	1502	1503	1507	1519	1495	1474	1456	1448	1465	1494	1519	1530	1516	1504	1511	1513	1494	1484	1462	1476	1504	1506	1511	1523	1510	1477	1468	1492	1523	1551	1564	1567	1567	1564	1611	1668	1696	1720	1789	1867	1925	1941	1958	1972	1962	1957	1942	1937	1940	1944	1954	1958	1917	1864	1866	1910	1885	1882	1902	1969	2006	2040	2075	2070	2085	2065	2057	2090	2108	2144	2193	2212	2201	2187	2183	2165	2141	2134	2165	2161	2157	2162	2178	2195	2179	2138	2113	2121	2142	2162	2182	2173	2156	2149	2171	2191	2226	2221	2207	2193	2191	2197	2205	2221	2228	2218	2075	1773	1714	1498	1481	1493	1497	1502	1496	1499	1493	1493	1490	1494	1488	1489	1497	1504	1511	1514	1501	1490	1482	1486	1496	1503	1505	1500	1507	1508	1509	1502	1496	1495	1493	1495	1495	1497	1488	1494	1494	1502	1489	1491	1482	1488	1494	1499	1499	1511	1509	1519	1517	1506	1498	1493	1500	1509	1514	1516	1512	1504	1494	1490	1490	1499	1505	1497	1488	1486	1485	1494	1497	1501	1497	1494	1483	1477	1482	1490	1499	1490	1493	1535	1716	2096	2300	2331	2359	2383	2384	2391	2392	2390	2407	2407	2419	2397	2413	2449	2372	2365	2357	2355	2357	2369	2383	2394	2390	2364	2341	2372	2413	2432	2405	2357	2336	2333	2334	2341	2384	2413	2433	2413	2420	2422	2422	2426	2379	2198	2104	2054	2033	2015	1970	1922	1892	1874	1844	1845	1852	1880	1910	1940	1963	1981	1980	1986	1950	1956	1956	1951	1945	1947	1954	1948	1935	1851	1721	1606	1599	1594	1573	1549	1516	1503	1502	1500	1500	1493	1488	1525	1530	1491	1482	1476	1454	1445	1465	1468	1489	1474	1487	1487	1477	1466	1456	1445	1464	1463	1461	1450	1442	1437	1447	1450	1449	1450	1445	1450	1463	1475	1478	1471	1464	1456	1460	1464	1458	1454	1451	1452	1459	1468	1467	1455	1437	1432	1434	1455	1482	1522	1544	1596	1879	2405	2617	2852	2855	2850	2857	2875	2869	2808	2772	2766	2755	2745	2793	2871	2888	2878	2844	2812	2793	2768	2779	2788	2793	2819	2850	2918	2957	2985	2989	2952	2933	2929	2929	2940	2936	2918	2901	2894	2899	2903	2911	2935	2949	2940	2923	2895	2879	2864	2862	2856	2882	2915	2925	2914	2914	2908	2912	2922	2922	2907	2867	2867	2787	2653	2522	2365	2085	2072	2063	2077	2085	2083	2063	2033	2017	2030	2035	2035	2043	2055	2063	2054	2046	2052	2046	2048	2047	2058	2066	2053	2032	2019	2009	2005	2005	0	0	0	0	0	0	0	0
1781	1786	1779	1779	1773	1757	1761	1773	1773	1784	1797	1792	1789	1802	1802	1821	1841	1837	1833	1816	1816	1803	1805	1815	1834	1846	1856	1856	1840	1848	1820	1806	1811	1808	1825	1825	1829	1853	1854	1848	1840	1844	1845	1851	1851	1860	1858	1854	1850	1859	1868	1874	1878	1869	1868	1868	1870	1884	1900	1917	1932	1940	1930	1915	1894	1873	1862	1846	1871	1880	1881	1883	1883	1876	1873	1884	1863	1831	1798	1811	1835	1853	1857	1865	1873	1892	1882	1851	1825	1820	1847	1874	1888	1892	1889	1900	1914	1908	1860	1855	1859	1885	1903	1908	1907	1902	1896	1899	1895	1900	1894	1891	1893	1884	1877	1888	1912	1920	1907	1884	1880	1874	1871	1873	1873	1863	1855	1853	1880	1890	1897	1900	1898	1895	1889	1898	1918	1961	1973	1958	1944	1942	1939	1911	1901	1889	1892	1892	1878	1872	1854	1866	1860	1871	1865	1864	1874	1899	1911	1907	1906	1906	1906	1919	1929	1937	1938	1934	1941	1957	1965	1947	1938	1917	1917	1887	1859	1711	1682	1490	1473	1493	1504	1483	1472	1483	1465	1470	1478	1485	1488	1489	1486	1480	1475	1485	1493	1493	1483	1476	1476	1477	1480	1492	1495	1495	1495	1503	1514	1523	1483	1470	1476	1489	1500	1508	1522	1526	1515	1517	1527	1500	1488	1471	1474	1504	1501	1491	1485	1473	1448	1461	1499	1528	1555	1567	1571	1581	1594	1634	1650	1670	1686	1787	1866	1902	1917	1941	1958	1947	1942	1940	1935	1935	1932	1944	1949	1918	1864	1862	1871	1945	1935	1973	1972	1965	1970	1985	1998	2032	2037	2116	2099	2071	2063	2125	2151	2153	2150	2136	2121	2110	2111	2119	2118	2119	2122	2142	2150	2109	2086	2076	2076	2102	2136	2153	2149	2136	2127	2129	2139	2142	2168	2154	2119	2128	2143	2153	2180	2184	2191	1998	1760	1705	1503	1489	1491	1503	1507	1490	1503	1511	1498	1498	1490	1488	1485	1490	1501	1513	1519	1509	1493	1485	1490	1499	1501	1498	1497	1509	1513	1517	1510	1499	1495	1498	1502	1505	1501	1494	1491	1495	1495	1478	1493	1496	1494	1511	1514	1500	1505	1510	1515	1518	1511	1504	1503	1491	1504	1511	1510	1511	1502	1495	1498	1500	1502	1506	1493	1489	1480	1477	1478	1482	1489	1486	1482	1476	1478	1481	1479	1488	1502	1507	1557	1746	2080	2249	2291	2309	2303	2326	2343	2342	2318	2306	2302	2344	2353	2214	2228	2230	2251	2241	2240	2254	2299	2318	2325	2325	2317	2319	2331	2364	2393	2376	2351	2326	2318	2320	2335	2377	2387	2387	2346	2352	2354	2359	2361	2368	2223	2094	2049	2027	1999	1987	1960	1953	1934	1918	1896	1880	1894	1892	1907	1950	1981	1981	1980	1944	1930	1944	1957	1962	1961	1961	1954	1922	1847	1726	1593	1592	1599	1589	1571	1554	1547	1544	1541	1513	1489	1477	1519	1533	1473	1504	1483	1448	1438	1455	1458	1479	1454	1462	1469	1468	1465	1463	1458	1465	1469	1466	1457	1449	1450	1449	1456	1458	1451	1450	1451	1462	1470	1471	1470	1466	1468	1477	1475	1466	1457	1451	1449	1450	1455	1461	1453	1441	1436	1443	1466	1486	1519	1531	1597	1922	2351	2582	2797	2797	2790	2774	2799	2812	2771	2744	2730	2727	2740	2775	2805	2804	2800	2785	2762	2733	2716	2723	2726	2744	2766	2824	2856	2871	2879	2881	2949	2931	2922	2921	2930	2915	2893	2877	2864	2873	2882	2907	2935	2950	2945	2917	2888	2860	2860	2843	2844	2870	2881	2903	2906	2915	2926	2946	2935	2920	2908	2876	2864	2824	2665	2526	2341	2075	2067	2068	2079	2084	2084	2071	2054	2032	2035	2050	2050	2064	2067	2060	2052	2045	2045	2045	2041	2033	2032	2042	2042	2035	2019	2014	2015	2015	0	0	0	0	0	0	0	0
1746	1747	1725	1725	1736	1755	1765	1779	1779	1781	1785	1783	1774	1791	1791	1810	1826	1823	1812	1810	1810	1789	1786	1793	1795	1811	1829	1803	1813	1795	1769	1742	1734	1753	1787	1787	1824	1830	1821	1818	1821	1825	1839	1840	1840	1829	1821	1821	1824	1831	1842	1845	1845	1835	1827	1827	1827	1835	1834	1858	1875	1880	1878	1847	1846	1838	1828	1815	1804	1815	1826	1839	1839	1852	1858	1854	1831	1795	1774	1783	1804	1813	1814	1817	1843	1867	1862	1827	1810	1809	1817	1828	1839	1851	1855	1871	1879	1872	1849	1824	1821	1832	1853	1866	1864	1853	1849	1856	1851	1844	1818	1844	1859	1862	1857	1846	1837	1835	1836	1846	1851	1852	1849	1844	1850	1842	1829	1821	1833	1853	1886	1886	1894	1888	1883	1883	1890	1899	1899	1885	1889	1878	1861	1857	1867	1878	1882	1862	1833	1823	1832	1832	1828	1837	1850	1853	1859	1862	1862	1871	1868	1873	1888	1904	1919	1925	1919	1921	1922	1931	1925	1895	1878	1881	1864	1864	1833	1655	1636	1484	1465	1503	1521	1508	1492	1501	1507	1508	1503	1496	1503	1506	1507	1502	1480	1483	1493	1497	1495	1490	1488	1489	1492	1488	1481	1480	1479	1488	1500	1509	1501	1501	1509	1506	1501	1505	1520	1529	1528	1517	1531	1507	1500	1479	1467	1489	1488	1461	1469	1464	1460	1477	1500	1522	1538	1551	1569	1589	1619	1651	1631	1642	1668	1774	1858	1903	1920	1927	1936	1907	1903	1890	1897	1902	1907	1920	1927	1920	1896	1870	1867	1879	1960	1971	1963	1953	1947	1953	1975	1989	1995	1998	2001	2027	2021	2047	2073	2099	2100	2096	2089	2092	2099	2093	2091	2095	2107	2109	2082	2072	2057	2055	2063	2076	2110	2130	2130	2124	2115	2113	2114	2091	2077	2092	2092	2103	2116	2133	2134	2122	2138	2025	1798	1738	1515	1490	1486	1500	1501	1487	1507	1512	1494	1497	1494	1486	1487	1491	1505	1518	1528	1513	1497	1491	1497	1501	1499	1495	1491	1507	1514	1514	1508	1502	1502	1503	1502	1502	1499	1491	1486	1478	1466	1468	1491	1494	1494	1498	1506	1497	1503	1511	1516	1516	1513	1513	1493	1484	1488	1503	1501	1497	1493	1502	1495	1505	1514	1501	1494	1492	1492	1474	1471	1465	1473	1466	1468	1470	1468	1475	1473	1485	1507	1523	1606	1785	2144	2210	2263	2283	2284	2290	2277	2266	2225	2207	2201	2203	2172	2159	2162	2158	2159	2187	2196	2230	2246	2270	2284	2295	2292	2290	2306	2308	2331	2332	2332	2314	2298	2292	2295	2341	2310	2282	2285	2298	2305	2289	2284	2289	2216	2122	2042	2019	2012	1991	1982	1995	1992	1982	1950	1914	1906	1887	1868	1907	1963	1975	1971	1939	1921	1935	1952	1962	1963	1956	1941	1916	1834	1623	1590	1588	1602	1595	1590	1601	1602	1605	1579	1548	1508	1488	1522	1515	1446	1515	1473	1453	1447	1441	1435	1446	1442	1450	1456	1458	1462	1470	1475	1464	1464	1465	1459	1448	1441	1449	1456	1457	1451	1450	1454	1455	1458	1466	1467	1465	1463	1472	1460	1458	1452	1446	1442	1440	1441	1442	1447	1435	1436	1445	1449	1478	1497	1503	1568	1888	2234	2505	2620	2735	2733	2722	2741	2742	2706	2664	2679	2702	2724	2757	2768	2747	2696	2690	2667	2659	2645	2632	2660	2687	2714	2728	2731	2717	2688	2657	2762	2793	2787	2720	2713	2749	2766	2750	2709	2725	2774	2798	2829	2832	2830	2805	2766	2737	2761	2771	2776	2774	2780	2780	2800	2835	2891	2932	2928	2902	2879	2872	2843	2750	2658	2549	2225	2066	2059	2067	2074	2081	2080	2058	2060	2044	2023	2023	2045	2071	2067	2058	2046	2042	2041	2037	2025	2014	2010	2012	2027	2031	2028	2027	2025	2025	0	0	0	0	0	0	0	0
1706	1701	1698	1698	1714	1738	1770	1780	1780	1782	1776	1780	1774	1782	1782	1793	1801	1798	1786	1795	1795	1772	1748	1769	1780	1787	1770	1770	1764	1752	1732	1715	1710	1720	1743	1743	1772	1785	1778	1785	1791	1808	1825	1837	1837	1819	1798	1777	1761	1750	1780	1804	1816	1809	1797	1781	1781	1773	1787	1800	1804	1790	1789	1765	1778	1791	1787	1768	1757	1752	1761	1781	1781	1799	1807	1836	1817	1788	1773	1786	1799	1811	1808	1799	1815	1833	1834	1809	1793	1797	1801	1804	1812	1818	1829	1834	1861	1860	1841	1816	1795	1786	1800	1834	1836	1832	1820	1816	1815	1806	1791	1802	1817	1828	1828	1822	1813	1791	1794	1806	1821	1830	1832	1827	1824	1821	1805	1782	1772	1801	1831	1851	1867	1858	1865	1872	1873	1861	1849	1845	1831	1813	1809	1821	1838	1860	1876	1831	1813	1794	1811	1817	1813	1820	1828	1839	1833	1831	1831	1841	1843	1853	1863	1887	1897	1900	1896	1896	1894	1895	1869	1838	1843	1839	1849	1860	1845	1624	1601	1482	1480	1491	1510	1497	1495	1495	1499	1504	1496	1509	1522	1529	1524	1518	1492	1490	1498	1505	1505	1505	1502	1499	1494	1485	1482	1470	1473	1479	1491	1500	1510	1517	1522	1514	1501	1505	1523	1531	1526	1509	1519	1511	1501	1505	1465	1447	1480	1456	1467	1467	1475	1487	1503	1516	1528	1546	1570	1601	1658	1644	1629	1626	1658	1797	1901	1931	1937	1937	1921	1897	1857	1856	1866	1876	1887	1897	1900	1902	1890	1877	1878	1895	1916	1921	1911	1898	1899	1909	1935	1952	1966	1967	1972	1958	1944	1992	2017	2038	2049	2063	2068	2078	2075	2074	2064	2059	2078	2079	2064	2057	2040	2034	2040	2055	2067	2067	2052	2044	2074	2083	2079	2066	2043	2029	2060	2085	2095	2105	2095	2080	2070	2027	1802	1750	1530	1495	1483	1500	1496	1485	1509	1509	1493	1493	1492	1482	1489	1497	1522	1521	1529	1520	1501	1492	1495	1496	1492	1491	1486	1491	1505	1502	1504	1503	1508	1507	1499	1472	1474	1464	1464	1467	1465	1465	1480	1482	1496	1494	1490	1509	1531	1511	1513	1509	1509	1503	1496	1480	1485	1494	1493	1489	1490	1504	1510	1508	1501	1491	1493	1500	1503	1497	1492	1476	1462	1462	1466	1462	1457	1467	1461	1484	1504	1521	1631	1829	2112	2176	2226	2246	2248	2231	2183	2179	2176	2185	2167	2161	2138	2127	2127	2143	2151	2181	2202	2219	2230	2249	2245	2241	2249	2222	2203	2207	2216	2220	2243	2241	2251	2246	2260	2245	2224	2215	2216	2239	2258	2255	2240	2233	2228	2132	2078	2035	2010	1990	1985	1987	1997	1992	1972	1938	1909	1880	1864	1900	1957	1967	1959	1945	1937	1934	1952	1951	1940	1917	1908	1908	1809	1636	1620	1603	1613	1604	1620	1642	1654	1634	1602	1560	1526	1498	1529	1503	1481	1519	1472	1483	1472	1459	1447	1433	1438	1444	1446	1441	1454	1470	1485	1464	1456	1456	1453	1440	1433	1444	1457	1458	1457	1455	1460	1463	1463	1470	1471	1471	1461	1458	1443	1440	1434	1438	1441	1433	1436	1439	1442	1438	1435	1449	1448	1444	1464	1485	1556	1893	2240	2399	2558	2590	2590	2587	2659	2657	2598	2611	2635	2652	2637	2614	2624	2657	2598	2592	2593	2569	2553	2571	2607	2632	2644	2648	2647	2635	2605	2594	2623	2649	2646	2640	2614	2596	2594	2607	2616	2632	2672	2700	2717	2712	2703	2681	2645	2626	2639	2661	2677	2697	2726	2736	2725	2715	2728	2731	2732	2752	2765	2759	2729	2654	2582	2514	2154	2067	2065	2063	2066	2058	2061	2049	2056	2054	2015	2015	2025	2045	2046	2037	2036	2039	2037	2029	2017	2007	2004	2010	2015	2029	2036	2033	2033	2033	0	0	0	0	0	0	0	0
1698	1696	1693	1693	1697	1703	1716	1702	1702	1713	1733	1747	1748	1741	1741	1748	1749	1759	1755	1737	1737	1712	1731	1755	1768	1703	1707	1707	1725	1730	1711	1704	1710	1727	1723	1723	1723	1721	1734	1740	1751	1774	1802	1818	1818	1797	1763	1726	1716	1735	1766	1770	1783	1780	1781	1756	1756	1759	1763	1765	1758	1740	1730	1734	1745	1746	1758	1752	1737	1734	1738	1754	1754	1762	1771	1763	1769	1771	1752	1774	1788	1801	1809	1789	1805	1806	1796	1781	1768	1771	1778	1784	1783	1787	1800	1833	1850	1831	1819	1802	1791	1782	1793	1813	1826	1825	1811	1799	1786	1772	1766	1772	1794	1812	1795	1786	1774	1769	1778	1787	1794	1794	1805	1812	1812	1788	1748	1735	1733	1767	1792	1817	1801	1808	1835	1844	1852	1833	1815	1794	1785	1774	1777	1784	1807	1828	1842	1808	1787	1783	1785	1792	1794	1795	1803	1805	1805	1802	1804	1805	1814	1831	1844	1843	1867	1867	1851	1840	1826	1807	1787	1787	1805	1817	1836	1853	1828	1600	1576	1494	1492	1483	1486	1480	1481	1489	1484	1472	1474	1486	1500	1518	1524	1523	1507	1498	1501	1507	1510	1508	1510	1513	1494	1490	1482	1477	1472	1483	1488	1488	1496	1500	1503	1497	1490	1500	1526	1531	1523	1489	1510	1513	1507	1512	1479	1470	1448	1455	1462	1480	1492	1499	1510	1529	1540	1550	1579	1619	1658	1624	1626	1634	1692	1804	1904	1885	1895	1913	1913	1908	1877	1871	1876	1874	1881	1880	1872	1876	1861	1857	1866	1878	1884	1882	1860	1856	1857	1865	1888	1922	1936	1940	1936	1923	1901	1872	1862	1979	1985	1983	1984	1986	1967	1962	1957	1956	1994	2042	2046	2023	2007	2004	2009	2022	2024	2008	1992	1969	1979	2014	2035	2033	2005	1977	1988	2024	2063	2078	2060	2047	2028	1982	1781	1734	1536	1502	1492	1498	1489	1483	1506	1501	1490	1492	1488	1485	1479	1518	1537	1537	1528	1502	1486	1470	1475	1483	1484	1480	1479	1482	1488	1500	1503	1508	1514	1513	1476	1464	1474	1473	1463	1470	1472	1472	1462	1463	1464	1479	1500	1504	1507	1527	1513	1515	1511	1509	1495	1483	1486	1489	1485	1472	1494	1507	1510	1509	1490	1496	1501	1504	1507	1496	1516	1506	1484	1482	1480	1457	1468	1457	1455	1476	1490	1506	1648	1923	2075	2125	2152	2174	2171	2148	2143	2139	2108	2110	2107	2116	2110	2114	2119	2137	2142	2169	2191	2199	2190	2172	2148	2173	2183	2167	2170	2172	2158	2152	2146	2143	2134	2164	2174	2177	2167	2160	2157	2182	2196	2203	2199	2199	2194	2193	2153	2084	2022	1975	1955	1948	1967	1978	1973	1948	1880	1870	1876	1916	1961	1952	1945	1954	1947	1943	1942	1932	1917	1905	1897	1882	1793	1672	1641	1633	1635	1631	1640	1653	1655	1642	1601	1567	1532	1521	1529	1480	1519	1528	1505	1502	1501	1473	1471	1440	1441	1446	1438	1436	1438	1452	1472	1471	1460	1455	1440	1428	1427	1445	1461	1460	1459	1465	1475	1476	1469	1475	1484	1477	1461	1443	1432	1424	1420	1438	1449	1447	1440	1441	1447	1442	1446	1447	1450	1449	1458	1491	1639	1938	2152	2356	2448	2479	2468	2448	2485	2519	2559	2577	2600	2580	2585	2557	2512	2497	2514	2508	2509	2506	2507	2539	2573	2575	2567	2554	2555	2548	2529	2523	2543	2551	2562	2554	2524	2524	2530	2536	2534	2527	2535	2584	2649	2660	2654	2627	2568	2558	2582	2603	2616	2625	2643	2665	2671	2660	2659	2662	2665	2680	2687	2677	2632	2569	2504	2451	2124	2069	2063	2054	2049	2048	2046	2043	2051	2050	2010	2010	2000	2006	2008	2008	2017	2031	2034	2029	2022	2017	2014	2017	2022	2030	2037	2038	2033	2033	0	0	0	0	0	0	0	0
1686	1687	1682	1682	1681	1683	1671	1671	1671	1656	1676	1698	1702	1709	1709	1699	1699	1713	1703	1690	1690	1687	1707	1718	1683	1684	1682	1682	1691	1699	1700	1708	1715	1715	1695	1695	1689	1695	1705	1718	1730	1747	1772	1763	1763	1723	1709	1696	1700	1726	1739	1738	1724	1708	1718	1709	1709	1709	1730	1725	1708	1689	1677	1675	1702	1724	1737	1727	1705	1697	1708	1724	1725	1725	1720	1722	1731	1725	1724	1738	1757	1780	1784	1778	1771	1765	1763	1753	1740	1760	1753	1756	1756	1742	1747	1785	1800	1794	1778	1766	1764	1767	1771	1795	1808	1822	1809	1792	1766	1740	1736	1739	1761	1772	1775	1769	1758	1756	1761	1770	1766	1761	1765	1770	1783	1715	1706	1699	1699	1732	1761	1780	1779	1776	1787	1809	1821	1805	1785	1769	1758	1755	1745	1750	1762	1779	1787	1780	1766	1766	1774	1781	1778	1769	1766	1760	1760	1767	1767	1773	1776	1781	1783	1798	1815	1806	1809	1796	1781	1766	1760	1763	1774	1799	1820	1833	1824	1619	1572	1501	1491	1479	1473	1469	1477	1477	1466	1456	1460	1460	1471	1491	1497	1505	1510	1503	1502	1500	1506	1505	1506	1504	1494	1480	1473	1478	1484	1486	1487	1483	1484	1480	1478	1481	1487	1504	1520	1518	1510	1472	1495	1512	1514	1502	1488	1493	1466	1450	1468	1484	1507	1508	1522	1540	1549	1562	1592	1634	1643	1597	1611	1630	1702	1772	1809	1831	1847	1867	1872	1871	1852	1847	1847	1845	1849	1852	1854	1849	1848	1850	1846	1822	1805	1808	1809	1825	1831	1848	1852	1855	1879	1886	1888	1882	1876	1853	1831	1834	1854	1911	1912	1911	1891	1890	1885	1881	1912	1930	1937	1932	1945	1965	1978	1987	1985	1971	1943	1939	1952	1980	1981	1970	1938	1918	1927	1955	1972	1997	2006	2000	1995	1940	1761	1712	1542	1519	1500	1496	1479	1480	1506	1515	1491	1492	1490	1492	1497	1533	1544	1544	1514	1498	1485	1468	1463	1467	1473	1474	1475	1478	1483	1495	1502	1512	1523	1523	1499	1477	1492	1529	1512	1490	1470	1461	1456	1464	1472	1479	1483	1499	1507	1526	1513	1510	1500	1502	1508	1511	1490	1485	1475	1476	1495	1502	1509	1496	1485	1493	1503	1507	1501	1521	1530	1526	1505	1500	1491	1497	1473	1452	1450	1469	1479	1484	1624	1878	1955	2017	2046	2063	2085	2095	2042	2042	2049	2057	2066	2081	2092	2100	2106	2121	2132	2106	2114	2124	2112	2083	2079	2086	2119	2134	2135	2136	2121	2103	2094	2103	2093	2093	2124	2142	2141	2137	2125	2109	2102	2124	2129	2133	2129	2148	2172	2135	2070	1966	1913	1910	1933	1950	1951	1881	1845	1851	1886	1950	1973	1960	1955	1958	1950	1943	1930	1923	1915	1903	1889	1866	1781	1670	1662	1657	1642	1636	1630	1633	1635	1620	1582	1553	1527	1498	1480	1473	1506	1517	1515	1509	1491	1490	1471	1444	1439	1444	1433	1425	1424	1440	1472	1461	1457	1455	1443	1431	1443	1460	1473	1471	1474	1480	1486	1486	1480	1485	1489	1476	1458	1443	1429	1419	1423	1451	1470	1473	1464	1456	1456	1445	1442	1444	1445	1470	1471	1507	1688	1920	2130	2286	2378	2400	2400	2385	2375	2396	2459	2494	2501	2464	2429	2400	2398	2434	2440	2442	2425	2414	2477	2514	2535	2524	2484	2472	2475	2477	2473	2463	2470	2465	2452	2449	2447	2457	2471	2481	2484	2469	2452	2460	2472	2501	2533	2527	2505	2499	2516	2537	2541	2543	2561	2582	2586	2588	2582	2590	2583	2586	2590	2577	2538	2484	2417	2360	2095	2039	2040	2041	2053	2043	2033	2034	2035	2030	2008	2008	1997	2001	2002	2002	2008	2019	2034	2033	2033	2032	2029	2032	2034	2037	2037	2033	2034	2034	0	0	0	0	0	0	0	0
1652	1658	1652	1652	1657	1654	1641	1630	1630	1628	1625	1632	1644	1652	1652	1668	1673	1669	1664	1664	1680	1680	1699	1701	1663	1661	1658	1640	1640	1632	1632	1646	1661	1665	1672	1672	1671	1670	1668	1683	1700	1718	1718	1711	1692	1692	1677	1672	1685	1700	1706	1698	1689	1679	1680	1676	1676	1672	1668	1653	1648	1645	1644	1652	1665	1688	1718	1709	1692	1674	1678	1681	1691	1691	1683	1673	1684	1690	1694	1704	1706	1712	1719	1726	1718	1731	1718	1709	1712	1709	1698	1683	1688	1692	1687	1705	1722	1742	1736	1741	1731	1730	1753	1774	1777	1778	1770	1751	1736	1721	1710	1709	1723	1735	1740	1743	1739	1738	1749	1743	1732	1725	1714	1715	1706	1681	1687	1675	1677	1705	1734	1763	1763	1756	1764	1783	1788	1775	1764	1752	1744	1731	1727	1725	1729	1741	1743	1745	1749	1748	1759	1759	1755	1733	1727	1734	1734	1731	1730	1722	1727	1743	1759	1777	1777	1773	1773	1765	1753	1740	1738	1747	1760	1776	1781	1783	1771	1620	1575	1510	1485	1470	1466	1468	1477	1480	1467	1453	1455	1455	1467	1484	1492	1498	1506	1504	1503	1502	1508	1516	1507	1497	1489	1468	1464	1470	1492	1492	1493	1485	1475	1474	1475	1483	1492	1502	1504	1495	1486	1459	1495	1501	1501	1492	1515	1497	1434	1441	1464	1504	1519	1520	1523	1543	1558	1572	1603	1632	1620	1589	1608	1631	1685	1734	1760	1782	1805	1778	1776	1793	1814	1819	1809	1801	1801	1818	1826	1827	1820	1825	1810	1804	1789	1788	1788	1796	1809	1806	1785	1795	1822	1838	1861	1869	1861	1838	1818	1805	1804	1809	1879	1885	1876	1861	1846	1843	1879	1878	1842	1849	1874	1884	1886	1874	1877	1890	1902	1920	1933	1922	1897	1896	1893	1896	1899	1912	1895	1897	1927	1943	1955	1895	1733	1684	1552	1520	1504	1500	1484	1478	1507	1518	1495	1495	1496	1498	1506	1510	1536	1525	1512	1499	1485	1472	1464	1469	1478	1477	1476	1478	1482	1496	1501	1503	1504	1527	1513	1503	1500	1528	1515	1483	1471	1454	1456	1457	1473	1475	1482	1485	1494	1508	1509	1503	1498	1494	1500	1517	1517	1500	1478	1483	1499	1508	1497	1495	1485	1481	1494	1498	1501	1520	1531	1523	1507	1510	1503	1502	1481	1466	1446	1470	1473	1467	1623	1827	1909	1980	2006	2021	1994	1987	1980	1985	1992	1998	2023	2038	2042	2054	2092	2104	2084	2059	2044	2061	2060	2047	2055	2072	2092	2103	2086	2079	2089	2066	2060	2059	2057	2070	2090	2106	2116	2100	2083	2055	2033	2033	2073	2090	2109	2140	2135	2119	2083	2019	1976	1973	1978	1962	1954	1857	1845	1844	1886	1975	1987	1969	1959	1946	1938	1927	1920	1916	1915	1903	1890	1855	1692	1667	1657	1654	1643	1622	1608	1610	1608	1601	1568	1544	1525	1504	1465	1466	1492	1512	1504	1491	1492	1490	1483	1455	1442	1437	1427	1419	1416	1420	1449	1457	1464	1465	1451	1443	1468	1483	1484	1480	1476	1478	1483	1479	1473	1480	1484	1472	1459	1440	1434	1429	1436	1460	1479	1489	1484	1475	1465	1448	1448	1450	1462	1492	1488	1525	1740	1870	2068	2182	2240	2265	2297	2289	2293	2316	2362	2387	2409	2393	2371	2353	2342	2342	2401	2387	2360	2355	2356	2355	2363	2392	2401	2408	2410	2426	2433	2423	2410	2400	2387	2385	2377	2408	2431	2430	2426	2435	2413	2411	2428	2448	2459	2464	2454	2448	2452	2455	2453	2454	2463	2486	2490	2484	2493	2494	2471	2472	2463	2443	2403	2380	2333	2289	2077	2026	2018	2037	2033	2034	2026	2015	2013	2019	2008	2008	2002	2000	2006	2004	2005	2011	2026	2038	2043	2045	2038	2042	2041	2043	2042	2037	2037	2036	0	0	0	0	0	0	0	0
1618	1612	1615	1615	1619	1615	1616	1615	1614	1614	1616	1616	1621	1621	1621	1627	1626	1624	1633	1644	1665	1665	1682	1616	1609	1615	1617	1616	1616	1609	1609	1618	1625	1626	1635	1635	1639	1640	1641	1648	1670	1680	1681	1665	1660	1660	1645	1643	1637	1646	1646	1658	1651	1656	1659	1658	1658	1646	1633	1621	1618	1614	1619	1634	1646	1654	1663	1653	1641	1636	1642	1651	1636	1636	1619	1612	1627	1646	1665	1666	1668	1645	1641	1637	1640	1647	1654	1663	1660	1652	1644	1640	1643	1653	1668	1681	1696	1706	1713	1722	1718	1705	1690	1695	1696	1694	1685	1683	1683	1677	1675	1673	1681	1698	1708	1701	1701	1672	1682	1695	1688	1692	1682	1677	1666	1656	1678	1666	1666	1687	1706	1731	1745	1737	1710	1705	1714	1715	1731	1734	1737	1722	1713	1707	1709	1709	1713	1723	1732	1741	1750	1743	1728	1711	1699	1699	1705	1705	1690	1686	1696	1717	1730	1749	1756	1765	1772	1765	1746	1715	1712	1728	1730	1731	1718	1723	1711	1624	1580	1558	1474	1459	1473	1477	1484	1488	1480	1470	1460	1463	1483	1490	1486	1496	1507	1517	1501	1502	1507	1507	1510	1492	1473	1460	1460	1479	1494	1496	1490	1478	1474	1479	1483	1492	1502	1499	1484	1476	1450	1480	1495	1494	1487	1486	1523	1496	1439	1451	1470	1497	1526	1515	1521	1540	1554	1565	1592	1617	1616	1600	1601	1627	1655	1699	1724	1734	1730	1746	1763	1776	1788	1780	1778	1773	1773	1785	1794	1793	1781	1772	1772	1782	1771	1764	1757	1767	1766	1771	1772	1777	1791	1817	1843	1852	1837	1817	1797	1794	1795	1791	1787	1782	1832	1812	1816	1826	1860	1845	1809	1806	1816	1827	1820	1829	1823	1841	1847	1848	1852	1839	1840	1865	1877	1864	1844	1826	1806	1806	1821	1828	1856	1851	1678	1630	1527	1508	1508	1517	1501	1474	1502	1515	1498	1495	1498	1494	1491	1496	1512	1519	1510	1502	1491	1484	1477	1479	1486	1483	1480	1482	1491	1502	1494	1493	1484	1482	1494	1493	1491	1500	1510	1498	1473	1454	1458	1464	1470	1475	1481	1494	1489	1510	1503	1499	1497	1496	1495	1499	1519	1513	1504	1504	1497	1507	1500	1490	1478	1476	1485	1493	1510	1523	1514	1511	1499	1490	1492	1510	1489	1478	1459	1466	1473	1466	1752	1831	1924	1974	1979	1992	1986	1971	1959	1960	1959	1964	1966	1968	1974	1995	2021	2028	2037	2039	2019	1995	2004	2003	2003	2038	2035	1995	1984	1994	2019	2027	2024	2026	2031	2062	2067	2044	2045	2053	2057	2056	2030	2013	2013	2026	2035	2061	2092	2094	2077	2054	2043	2024	2010	1987	1940	1857	1861	1848	1905	1979	1982	1963	1946	1934	1919	1910	1911	1904	1902	1897	1888	1875	1685	1656	1648	1642	1633	1609	1592	1588	1580	1588	1578	1565	1542	1509	1456	1461	1485	1504	1494	1483	1486	1482	1481	1466	1448	1435	1426	1417	1414	1414	1445	1458	1468	1470	1459	1465	1482	1497	1493	1483	1471	1468	1469	1469	1467	1457	1460	1456	1454	1453	1440	1437	1448	1458	1474	1474	1473	1471	1466	1455	1457	1464	1474	1504	1498	1534	1756	1898	2023	2116	2163	2187	2226	2250	2256	2262	2270	2283	2286	2313	2323	2306	2292	2278	2275	2288	2283	2270	2251	2248	2285	2307	2306	2291	2290	2339	2377	2390	2375	2358	2343	2346	2356	2378	2399	2389	2385	2386	2369	2367	2370	2398	2416	2410	2401	2385	2368	2381	2368	2323	2352	2390	2381	2359	2340	2337	2348	2351	2355	2341	2313	2291	2261	2226	2073	2032	2025	2030	2031	2024	2018	2004	1997	2007	2013	2013	2007	2001	2008	2019	2013	2017	2048	2050	2050	2049	2042	2037	2036	2033	2039	2041	2041	2038	0	0	0	0	0	0	0	0
1578	1573	1573	1573	1580	1587	1588	1601	1603	1603	1609	1608	1607	1602	1602	1579	1566	1554	1560	1591	1623	1623	1588	1586	1583	1582	1587	1590	1590	1589	1588	1594	1599	1603	1605	1609	1609	1616	1621	1619	1608	1592	1593	1599	1605	1605	1599	1583	1594	1617	1621	1621	1616	1613	1632	1635	1635	1614	1593	1589	1587	1583	1596	1620	1633	1616	1594	1582	1593	1606	1619	1618	1611	1611	1593	1589	1596	1625	1637	1635	1626	1621	1617	1627	1629	1628	1634	1640	1640	1639	1630	1626	1623	1623	1630	1642	1663	1685	1692	1682	1680	1678	1686	1689	1682	1669	1659	1658	1665	1663	1657	1645	1645	1650	1662	1659	1643	1643	1641	1651	1657	1667	1665	1651	1650	1649	1664	1668	1677	1680	1678	1653	1641	1649	1658	1661	1665	1661	1653	1677	1688	1694	1684	1677	1681	1683	1687	1706	1718	1732	1736	1731	1711	1692	1676	1675	1676	1665	1649	1642	1646	1659	1680	1706	1747	1754	1759	1757	1745	1717	1690	1690	1701	1690	1687	1679	1669	1628	1577	1556	1473	1468	1480	1484	1485	1486	1488	1486	1483	1477	1484	1487	1479	1486	1494	1505	1494	1491	1496	1500	1502	1488	1474	1472	1478	1483	1495	1492	1486	1483	1479	1493	1492	1497	1504	1496	1474	1454	1449	1481	1483	1483	1474	1486	1511	1499	1465	1479	1486	1498	1518	1515	1521	1535	1546	1560	1575	1604	1616	1614	1609	1615	1651	1671	1695	1705	1717	1733	1747	1763	1770	1753	1742	1735	1735	1742	1752	1750	1735	1731	1726	1726	1732	1721	1721	1724	1740	1751	1756	1762	1771	1783	1804	1813	1794	1778	1771	1769	1774	1774	1764	1759	1760	1758	1790	1794	1793	1768	1773	1786	1798	1807	1804	1781	1768	1764	1785	1795	1789	1775	1782	1816	1828	1814	1787	1774	1775	1788	1784	1773	1757	1767	1614	1564	1507	1488	1504	1516	1503	1474	1483	1499	1494	1493	1493	1488	1484	1481	1489	1509	1504	1506	1503	1495	1487	1487	1486	1484	1482	1487	1492	1497	1487	1479	1474	1475	1485	1492	1497	1502	1502	1507	1496	1477	1468	1466	1468	1473	1476	1479	1506	1495	1500	1497	1500	1509	1512	1501	1497	1514	1510	1505	1505	1500	1499	1492	1485	1482	1483	1481	1475	1477	1488	1491	1485	1488	1498	1513	1504	1495	1464	1468	1475	1475	1741	1826	1896	1938	1955	1965	1967	1955	1939	1934	1928	1928	1936	1943	1949	1959	1980	1999	2011	2013	1996	1966	1947	1952	1977	1983	1976	1975	1969	1965	1974	1984	1992	1997	2001	2032	2019	2007	1996	2025	2040	2051	2043	2022	2006	2004	2011	2035	2057	2057	2059	2053	2040	2026	2023	2016	1969	1874	1865	1933	1951	1966	1949	1945	1934	1928	1923	1917	1912	1900	1889	1893	1904	1904	1699	1654	1642	1640	1628	1604	1558	1550	1584	1593	1592	1575	1548	1510	1458	1496	1487	1489	1483	1480	1475	1468	1472	1471	1465	1447	1424	1418	1417	1420	1451	1469	1478	1479	1481	1481	1506	1504	1495	1474	1460	1452	1452	1448	1450	1445	1444	1451	1457	1457	1454	1451	1450	1453	1456	1444	1454	1454	1456	1458	1464	1475	1485	1497	1492	1552	1781	1883	1996	2079	2134	2165	2188	2205	2201	2224	2226	2237	2247	2237	2229	2223	2235	2237	2226	2224	2227	2209	2205	2220	2241	2261	2263	2232	2214	2227	2268	2358	2306	2281	2267	2284	2313	2346	2356	2332	2326	2325	2320	2309	2327	2343	2359	2350	2350	2336	2306	2284	2238	2231	2244	2243	2243	2238	2214	2242	2256	2274	2280	2266	2251	2230	2199	2158	2088	2047	2040	2044	2045	2036	2016	1997	1994	2001	2001	2018	2010	2008	2018	2034	2048	2054	2062	2060	2056	2038	2029	2023	2020	2020	2023	2036	2036	2042	0	0	0	0	0	0	0	0
1539	1542	1537	1537	1543	1556	1563	1580	1589	1589	1594	1596	1593	1577	1563	1563	1551	1542	1549	1564	1582	1582	1570	1570	1566	1559	1564	1571	1571	1570	1563	1544	1544	1548	1558	1568	1568	1575	1581	1585	1583	1563	1546	1538	1545	1545	1550	1535	1540	1578	1587	1581	1560	1559	1580	1585	1585	1587	1575	1573	1569	1571	1578	1595	1601	1594	1575	1566	1564	1580	1598	1591	1579	1579	1566	1567	1581	1610	1623	1615	1604	1598	1612	1622	1618	1608	1615	1618	1612	1612	1611	1610	1607	1607	1614	1624	1640	1649	1646	1647	1657	1664	1675	1679	1663	1652	1634	1633	1641	1647	1637	1625	1618	1600	1608	1612	1613	1618	1622	1629	1645	1653	1671	1670	1661	1643	1623	1645	1672	1676	1653	1644	1642	1642	1637	1635	1635	1625	1624	1637	1664	1669	1663	1654	1653	1652	1652	1660	1687	1694	1674	1654	1637	1629	1646	1652	1633	1618	1616	1620	1625	1636	1654	1685	1712	1714	1743	1740	1723	1701	1683	1676	1683	1686	1675	1663	1637	1609	1560	1545	1477	1481	1489	1478	1470	1478	1493	1493	1482	1471	1474	1474	1478	1477	1485	1489	1476	1469	1474	1485	1492	1489	1477	1463	1469	1480	1488	1485	1481	1475	1480	1495	1497	1499	1501	1490	1474	1444	1444	1476	1482	1480	1473	1494	1513	1496	1484	1488	1502	1499	1506	1510	1517	1536	1551	1553	1572	1607	1629	1631	1617	1622	1662	1672	1681	1704	1718	1722	1729	1733	1740	1730	1714	1714	1705	1703	1696	1700	1703	1708	1707	1701	1700	1695	1685	1692	1711	1726	1732	1720	1704	1694	1693	1698	1730	1719	1711	1709	1728	1729	1730	1737	1739	1738	1739	1736	1749	1749	1756	1760	1770	1776	1772	1760	1742	1733	1737	1739	1742	1738	1751	1765	1799	1797	1780	1776	1784	1791	1782	1772	1744	1702	1575	1528	1494	1463	1490	1503	1499	1476	1474	1468	1481	1487	1483	1483	1475	1481	1492	1513	1500	1498	1495	1497	1489	1484	1482	1481	1479	1484	1495	1495	1490	1480	1475	1478	1490	1500	1508	1509	1506	1501	1504	1483	1473	1470	1468	1472	1478	1482	1484	1504	1498	1494	1497	1508	1513	1513	1499	1501	1509	1502	1488	1491	1492	1484	1477	1464	1465	1462	1462	1482	1499	1502	1505	1513	1522	1525	1504	1499	1475	1468	1479	1637	1696	1804	1882	1918	1932	1928	1904	1894	1894	1907	1912	1916	1920	1918	1917	1933	1949	1970	1982	1981	1957	1945	1941	1949	1947	1939	1943	1939	1929	1937	1946	1958	1958	1954	1939	1938	1949	1949	1968	1984	2016	2030	2034	2020	2005	1995	2007	2018	2021	2009	2007	1991	1972	1972	1986	1982	1965	1965	1964	1969	1958	1941	1937	1930	1932	1931	1924	1921	1914	1900	1893	1887	1907	1914	1707	1673	1649	1649	1616	1572	1546	1540	1565	1586	1590	1587	1559	1517	1463	1494	1488	1482	1481	1477	1459	1457	1458	1473	1483	1453	1431	1425	1424	1429	1443	1463	1472	1475	1481	1490	1506	1504	1487	1469	1449	1437	1428	1440	1445	1441	1439	1444	1462	1466	1461	1453	1450	1449	1447	1435	1434	1443	1442	1442	1452	1461	1470	1482	1478	1555	1773	1861	1966	2056	2107	2141	2173	2180	2172	2188	2210	2228	2229	2221	2194	2189	2194	2201	2195	2177	2183	2167	2167	2189	2208	2221	2219	2202	2191	2181	2197	2190	2185	2193	2196	2201	2218	2255	2260	2247	2234	2236	2245	2258	2282	2296	2312	2306	2298	2285	2263	2247	2214	2205	2205	2205	2206	2178	2176	2193	2210	2221	2231	2228	2210	2181	2139	2120	2108	2050	2051	2049	2048	2046	2029	2010	2008	2013	2013	2021	2009	2011	2026	2042	2054	2060	2067	2064	2053	2034	2022	2013	2008	2010	2015	2030	2030	2046	0	0	0	0	0	0	0	0
1506	1508	1509	1509	1515	1518	1529	1543	1562	1562	1573	1588	1580	1558	1554	1554	1545	1540	1539	1546	1560	1547	1562	1560	1550	1537	1540	1547	1547	1542	1532	1518	1510	1515	1506	1511	1511	1513	1527	1539	1544	1527	1514	1517	1524	1524	1526	1513	1516	1530	1541	1544	1551	1546	1549	1551	1564	1564	1565	1572	1581	1579	1578	1582	1588	1585	1567	1552	1551	1544	1543	1538	1530	1530	1530	1531	1552	1577	1602	1599	1585	1582	1595	1603	1602	1598	1599	1605	1596	1598	1580	1577	1588	1595	1606	1615	1627	1622	1613	1611	1612	1633	1650	1666	1659	1628	1603	1591	1590	1589	1582	1582	1590	1580	1579	1595	1598	1595	1593	1597	1619	1644	1655	1641	1628	1604	1566	1566	1598	1623	1635	1637	1639	1632	1624	1619	1606	1597	1594	1600	1623	1649	1644	1632	1627	1620	1618	1614	1624	1617	1612	1609	1599	1596	1596	1590	1575	1572	1581	1585	1596	1610	1622	1640	1651	1655	1659	1671	1665	1663	1659	1660	1672	1677	1678	1647	1617	1599	1561	1541	1497	1509	1496	1470	1463	1474	1499	1500	1488	1472	1464	1459	1467	1463	1480	1482	1461	1452	1454	1470	1484	1490	1481	1472	1464	1467	1483	1485	1481	1471	1474	1482	1492	1492	1494	1479	1449	1438	1440	1479	1488	1478	1500	1516	1522	1500	1482	1489	1514	1511	1489	1493	1502	1523	1548	1553	1571	1606	1632	1654	1647	1674	1677	1668	1670	1674	1686	1687	1686	1691	1698	1706	1694	1694	1689	1679	1669	1673	1685	1694	1691	1690	1686	1671	1661	1662	1677	1701	1707	1701	1688	1673	1666	1669	1671	1675	1666	1662	1645	1658	1692	1702	1714	1724	1727	1717	1717	1720	1737	1737	1742	1737	1736	1726	1717	1720	1728	1728	1726	1728	1734	1737	1744	1774	1782	1764	1770	1778	1774	1754	1738	1682	1559	1523	1497	1460	1479	1488	1488	1488	1481	1465	1472	1474	1477	1483	1475	1481	1504	1518	1515	1490	1485	1472	1467	1455	1461	1473	1480	1486	1495	1493	1492	1483	1482	1488	1498	1508	1509	1513	1508	1503	1504	1482	1471	1469	1491	1498	1500	1493	1516	1509	1519	1520	1508	1505	1507	1496	1494	1505	1510	1495	1491	1490	1490	1490	1490	1478	1473	1462	1467	1480	1493	1497	1505	1507	1507	1505	1502	1504	1484	1497	1512	1609	1685	1789	1877	1910	1919	1899	1872	1858	1848	1863	1891	1901	1895	1884	1884	1906	1919	1927	1925	1914	1916	1925	1938	1942	1938	1926	1908	1894	1884	1873	1882	1889	1892	1903	1888	1883	1885	1895	1904	1926	1947	1971	1999	2003	1974	1952	1949	1964	1978	1964	1955	1944	1940	1940	1949	1958	1950	1938	1938	1940	1940	1933	1930	1929	1931	1928	1923	1919	1913	1908	1900	1897	1909	1835	1735	1699	1676	1643	1609	1570	1541	1534	1550	1574	1585	1587	1562	1517	1464	1487	1488	1483	1482	1469	1445	1445	1444	1470	1490	1469	1447	1442	1443	1445	1439	1446	1460	1466	1466	1476	1478	1481	1472	1451	1426	1416	1420	1427	1453	1454	1444	1446	1468	1468	1474	1460	1446	1449	1450	1449	1436	1433	1436	1441	1437	1450	1456	1466	1456	1567	1722	1828	1925	2021	2088	2141	2170	2181	2173	2170	2185	2195	2210	2217	2193	2161	2144	2138	2126	2129	2130	2142	2138	2128	2159	2187	2206	2197	2170	2159	2173	2169	2151	2160	2168	2183	2201	2209	2204	2203	2191	2179	2176	2188	2198	2209	2255	2266	2254	2243	2227	2201	2169	2159	2161	2176	2186	2194	2188	2157	2103	2072	2046	2040	2065	2097	2107	2102	2084	2056	2046	2051	2051	2053	2045	2024	2021	2025	2025	2026	2017	2022	2038	2050	2054	2055	2054	2046	2038	2027	2016	2008	2000	2000	2001	2019	2019	2040	0	0	0	0	0	0	0	0
1499	1491	1481	1474	1474	1476	1483	1504	1518	1518	1544	1553	1523	1519	1526	1526	1529	1519	1527	1527	1547	1526	1538	1533	1523	1518	1524	1524	1524	1525	1513	1500	1492	1490	1493	1498	1498	1499	1508	1512	1507	1496	1492	1500	1510	1510	1519	1525	1523	1529	1532	1535	1538	1534	1535	1533	1544	1544	1557	1573	1577	1566	1556	1555	1558	1562	1544	1537	1535	1530	1528	1528	1523	1521	1521	1523	1538	1550	1560	1572	1569	1565	1570	1582	1585	1586	1597	1604	1592	1568	1554	1551	1564	1588	1608	1611	1607	1600	1593	1586	1583	1578	1594	1590	1584	1586	1578	1567	1560	1544	1541	1551	1555	1569	1581	1584	1576	1559	1550	1556	1571	1593	1607	1592	1586	1567	1535	1546	1558	1570	1581	1593	1609	1615	1603	1593	1570	1562	1565	1572	1574	1574	1562	1567	1590	1592	1591	1584	1601	1602	1596	1589	1583	1577	1569	1559	1547	1539	1541	1540	1546	1557	1570	1597	1602	1614	1617	1612	1602	1612	1619	1627	1641	1662	1661	1654	1605	1585	1572	1540	1513	1518	1484	1464	1454	1471	1503	1496	1486	1477	1471	1471	1471	1474	1482	1476	1458	1443	1448	1461	1480	1493	1489	1490	1476	1473	1481	1482	1476	1468	1462	1460	1465	1478	1473	1457	1439	1439	1443	1498	1502	1495	1505	1522	1513	1481	1476	1496	1533	1529	1482	1477	1490	1524	1549	1562	1575	1615	1652	1651	1645	1633	1612	1597	1605	1616	1635	1635	1622	1614	1615	1642	1660	1664	1667	1660	1644	1637	1646	1658	1670	1668	1664	1655	1643	1638	1649	1668	1685	1675	1672	1670	1661	1657	1673	1675	1666	1645	1636	1634	1653	1673	1687	1691	1706	1701	1695	1703	1708	1702	1711	1696	1700	1694	1690	1689	1699	1722	1725	1721	1713	1712	1699	1718	1720	1731	1727	1740	1738	1734	1714	1664	1545	1530	1500	1476	1475	1475	1482	1506	1494	1463	1469	1476	1478	1486	1493	1492	1500	1511	1526	1519	1486	1471	1461	1469	1464	1469	1485	1498	1501	1500	1497	1491	1486	1488	1496	1507	1510	1513	1502	1498	1500	1498	1469	1477	1490	1505	1528	1527	1527	1521	1522	1525	1516	1504	1497	1494	1484	1503	1500	1495	1494	1496	1492	1490	1489	1485	1480	1467	1470	1484	1487	1497	1494	1491	1486	1490	1497	1505	1508	1516	1499	1601	1658	1752	1826	1852	1872	1881	1865	1843	1832	1825	1828	1831	1832	1831	1822	1827	1841	1857	1859	1866	1867	1882	1905	1928	1916	1904	1870	1846	1844	1852	1863	1864	1866	1860	1842	1846	1866	1874	1872	1883	1900	1908	1921	1966	1948	1926	1912	1902	1927	1944	1939	1932	1924	1915	1924	1938	1931	1912	1901	1886	1883	1892	1917	1938	1938	1935	1922	1914	1914	1918	1918	1909	1900	1852	1800	1700	1661	1631	1606	1579	1552	1544	1558	1576	1583	1577	1547	1511	1470	1476	1480	1481	1477	1462	1440	1442	1448	1475	1485	1480	1480	1472	1472	1448	1442	1439	1447	1455	1461	1457	1457	1455	1450	1434	1420	1408	1413	1437	1462	1467	1462	1451	1452	1470	1475	1460	1447	1446	1456	1465	1464	1457	1439	1434	1433	1439	1450	1471	1463	1529	1720	1806	1897	2001	2053	2080	2125	2130	2132	2135	2143	2149	2142	2147	2118	2080	2064	2077	2089	2103	2111	2111	2101	2091	2067	2083	2089	2091	2077	2075	2076	2083	2077	2074	2077	2075	2105	2108	2099	2093	2108	2118	2109	2122	2130	2135	2128	2116	2119	2130	2116	2102	2087	2096	2088	2120	2140	2152	2151	2134	2102	2084	2057	2035	2030	2043	2067	2082	2063	2050	2047	2044	2051	2052	2049	2043	2026	2038	2038	2023	2019	2028	2045	2049	2049	2036	2040	2033	2023	2013	2011	2011	2001	1991	1990	2000	2000	2016	0	0	0	0	0	0	0	0
1463	1455	1454	1453	1453	1454	1463	1479	1498	1498	1512	1482	1489	1493	1488	1488	1472	1477	1485	1499	1501	1501	1508	1506	1502	1491	1499	1511	1511	1513	1486	1467	1474	1476	1485	1491	1491	1492	1497	1497	1496	1487	1486	1490	1500	1500	1515	1524	1526	1530	1532	1529	1524	1521	1506	1484	1474	1474	1487	1506	1521	1530	1520	1517	1519	1532	1527	1518	1512	1512	1518	1521	1518	1518	1518	1517	1524	1531	1535	1514	1523	1534	1552	1568	1578	1580	1585	1590	1573	1532	1508	1512	1520	1534	1559	1572	1580	1582	1582	1580	1568	1561	1555	1551	1549	1551	1548	1545	1532	1521	1526	1537	1540	1532	1528	1526	1539	1539	1534	1547	1560	1535	1524	1529	1551	1554	1531	1541	1552	1561	1564	1561	1553	1546	1537	1543	1540	1535	1530	1533	1544	1538	1544	1538	1549	1572	1586	1585	1587	1584	1576	1565	1576	1575	1568	1553	1531	1517	1509	1502	1516	1530	1546	1550	1558	1580	1583	1574	1567	1564	1575	1591	1611	1618	1611	1604	1603	1576	1553	1535	1521	1504	1487	1471	1471	1493	1489	1489	1482	1485	1487	1488	1477	1473	1480	1464	1465	1459	1454	1476	1484	1487	1493	1501	1498	1483	1479	1475	1469	1459	1455	1459	1451	1448	1453	1449	1444	1443	1471	1505	1504	1507	1528	1530	1515	1493	1483	1499	1534	1540	1522	1524	1547	1571	1585	1588	1587	1597	1649	1654	1646	1638	1630	1606	1605	1612	1617	1603	1591	1582	1574	1576	1587	1624	1633	1630	1616	1611	1616	1629	1640	1642	1642	1638	1632	1625	1632	1636	1640	1644	1657	1659	1668	1680	1672	1675	1662	1637	1636	1637	1647	1659	1665	1659	1658	1678	1683	1682	1677	1611	1614	1616	1635	1674	1672	1679	1697	1701	1704	1699	1687	1680	1681	1681	1693	1696	1701	1699	1706	1698	1684	1666	1545	1526	1514	1481	1474	1471	1500	1516	1498	1456	1460	1473	1482	1488	1488	1493	1496	1498	1507	1516	1522	1501	1491	1484	1476	1478	1486	1500	1514	1507	1502	1494	1480	1486	1491	1495	1495	1504	1501	1501	1501	1492	1487	1486	1497	1511	1512	1510	1505	1498	1494	1504	1506	1499	1493	1486	1500	1507	1497	1488	1498	1500	1495	1499	1498	1514	1484	1479	1479	1486	1491	1492	1483	1478	1471	1468	1465	1477	1498	1514	1503	1587	1628	1743	1774	1794	1801	1800	1797	1799	1802	1796	1785	1776	1780	1782	1785	1809	1811	1818	1828	1829	1832	1837	1865	1872	1846	1819	1809	1822	1827	1839	1844	1842	1836	1820	1817	1822	1847	1846	1835	1826	1839	1852	1866	1875	1882	1881	1870	1861	1869	1892	1909	1920	1912	1907	1903	1914	1911	1903	1885	1871	1872	1881	1905	1933	1949	1950	1943	1926	1926	1926	1898	1881	1852	1823	1773	1661	1630	1615	1603	1584	1568	1572	1574	1585	1578	1555	1521	1497	1475	1453	1459	1470	1473	1452	1442	1470	1469	1483	1482	1484	1485	1485	1480	1454	1440	1439	1445	1462	1468	1452	1441	1438	1434	1429	1417	1412	1418	1457	1464	1472	1459	1443	1423	1441	1444	1448	1439	1441	1454	1472	1483	1471	1451	1439	1431	1445	1466	1480	1479	1539	1729	1802	1893	1988	2017	2036	2056	2087	2082	2064	2063	2084	2103	2097	2040	2033	2034	2047	2056	2071	2078	2062	2034	2024	2027	2044	2046	2053	2050	2029	2030	2044	2046	2037	2023	2020	2023	2032	2045	2059	2050	2030	2018	2029	2071	2089	2079	2081	2059	2064	2086	2098	2085	2075	2063	2052	2054	2061	2072	2079	2079	2067	2044	2031	2029	2036	2056	2061	2058	2047	2044	2047	2048	2053	2044	2030	2031	2031	2028	2066	2016	2030	2027	2026	2025	2030	2015	2001	2004	2013	2023	2028	2023	2015	2001	1984	1984	2000	0	0	0	0	0	0	0	0
1415	1418	1421	1430	1430	1439	1447	1453	1454	1454	1458	1461	1466	1454	1445	1445	1438	1446	1456	1473	1466	1466	1472	1482	1479	1450	1444	1443	1443	1460	1453	1451	1456	1467	1481	1484	1484	1486	1490	1484	1478	1476	1476	1475	1476	1486	1486	1499	1511	1499	1506	1515	1500	1473	1455	1451	1455	1455	1465	1478	1485	1487	1491	1494	1502	1509	1510	1499	1493	1492	1501	1512	1512	1515	1515	1510	1512	1510	1503	1490	1482	1472	1482	1498	1523	1539	1539	1520	1492	1476	1474	1476	1490	1510	1538	1553	1556	1560	1560	1561	1565	1542	1527	1523	1527	1531	1531	1525	1515	1510	1522	1538	1536	1522	1505	1495	1500	1522	1529	1533	1520	1510	1504	1519	1537	1540	1530	1532	1538	1536	1524	1509	1503	1506	1515	1529	1539	1533	1524	1520	1526	1535	1536	1529	1530	1529	1534	1542	1551	1562	1567	1565	1573	1582	1579	1555	1536	1516	1501	1490	1501	1515	1530	1529	1522	1551	1537	1524	1528	1542	1556	1579	1589	1586	1574	1567	1556	1540	1526	1515	1515	1515	1501	1495	1503	1495	1480	1479	1484	1491	1498	1495	1485	1471	1456	1457	1465	1470	1475	1490	1488	1481	1483	1491	1490	1478	1473	1469	1469	1458	1455	1463	1456	1443	1444	1451	1457	1453	1492	1505	1504	1504	1533	1545	1524	1507	1489	1483	1510	1525	1520	1535	1572	1575	1563	1563	1574	1600	1629	1646	1639	1636	1634	1631	1620	1615	1599	1590	1582	1564	1558	1558	1571	1604	1615	1613	1602	1601	1605	1615	1621	1621	1622	1619	1607	1607	1608	1615	1613	1619	1638	1658	1662	1645	1646	1643	1639	1618	1622	1626	1632	1632	1632	1624	1623	1610	1587	1580	1579	1594	1599	1596	1590	1588	1597	1680	1683	1680	1660	1660	1658	1654	1656	1662	1664	1675	1659	1644	1664	1648	1648	1639	1561	1535	1527	1487	1475	1467	1492	1506	1492	1468	1463	1468	1477	1482	1490	1494	1495	1490	1489	1485	1491	1508	1506	1508	1500	1491	1492	1493	1513	1506	1496	1477	1483	1488	1485	1479	1485	1491	1497	1504	1510	1509	1508	1511	1514	1505	1498	1497	1494	1490	1480	1488	1496	1510	1509	1522	1518	1509	1482	1481	1490	1497	1505	1497	1501	1511	1505	1484	1484	1490	1494	1490	1483	1480	1495	1474	1458	1473	1494	1512	1517	1574	1599	1694	1727	1749	1762	1759	1749	1738	1749	1754	1741	1730	1730	1728	1750	1783	1790	1802	1797	1789	1797	1798	1795	1785	1780	1780	1788	1793	1807	1818	1821	1821	1814	1794	1794	1812	1819	1816	1797	1788	1795	1805	1815	1819	1828	1816	1811	1823	1830	1842	1848	1846	1849	1853	1852	1846	1861	1876	1868	1858	1855	1861	1874	1904	1935	1917	1908	1906	1878	1884	1886	1874	1839	1815	1723	1625	1595	1595	1597	1592	1588	1589	1582	1576	1568	1546	1526	1500	1448	1439	1437	1458	1464	1434	1438	1442	1458	1493	1480	1476	1478	1481	1475	1452	1445	1438	1451	1467	1472	1451	1434	1424	1430	1434	1427	1426	1428	1460	1466	1459	1449	1434	1414	1413	1426	1446	1444	1435	1444	1468	1489	1490	1456	1449	1445	1443	1468	1480	1490	1546	1729	1793	1865	1957	1994	2021	2037	2003	1993	1955	1951	1964	1990	2008	1994	1989	2005	2015	2035	2050	2060	2039	2006	1975	1987	1982	1982	1994	1991	1986	1989	2014	2029	2021	2001	1990	1996	2016	2033	2029	1998	1983	1977	1979	1988	2008	2030	2026	2017	2024	2033	2063	2067	2060	2046	2031	2021	2031	2037	2027	2036	2023	1999	1986	1993	2010	2025	2037	2042	2042	2042	2042	2047	2047	2042	2019	2010	2010	2008	2018	2035	1970	1967	1973	1977	1972	1955	1947	1953	2007	2028	2025	1982	1969	1953	1953	1961	1987	0	0	0	0	0	0	0	0
1382	1388	1400	1411	1411	1420	1432	1439	1439	1439	1444	1436	1428	1427	1426	1426	1432	1441	1442	1421	1425	1442	1442	1455	1449	1437	1426	1420	1425	1425	1434	1438	1441	1442	1443	1454	1454	1462	1465	1455	1439	1432	1447	1443	1437	1441	1441	1444	1454	1452	1459	1459	1456	1448	1447	1445	1444	1444	1448	1454	1459	1463	1461	1467	1482	1491	1487	1481	1468	1477	1494	1509	1509	1499	1499	1495	1492	1494	1490	1485	1478	1466	1451	1453	1466	1488	1483	1461	1453	1457	1459	1465	1474	1494	1518	1529	1492	1486	1486	1497	1500	1486	1470	1468	1473	1477	1453	1451	1458	1471	1488	1509	1496	1471	1441	1433	1436	1437	1434	1442	1467	1470	1469	1472	1474	1472	1496	1505	1499	1496	1487	1489	1485	1496	1509	1526	1527	1523	1510	1511	1522	1534	1536	1530	1519	1506	1515	1509	1516	1526	1539	1548	1559	1572	1579	1570	1554	1541	1519	1503	1498	1507	1523	1522	1520	1519	1512	1493	1508	1524	1548	1567	1566	1570	1558	1543	1530	1526	1528	1528	1533	1526	1520	1511	1502	1482	1476	1480	1486	1496	1505	1498	1481	1462	1446	1447	1460	1468	1486	1490	1482	1478	1472	1476	1477	1472	1474	1481	1477	1472	1464	1469	1483	1454	1447	1465	1470	1467	1474	1502	1497	1501	1528	1547	1537	1517	1514	1481	1462	1463	1478	1534	1532	1525	1532	1538	1558	1580	1602	1615	1626	1623	1617	1593	1567	1556	1552	1553	1560	1568	1575	1564	1558	1589	1596	1587	1580	1586	1590	1597	1595	1580	1560	1550	1546	1569	1584	1586	1593	1604	1621	1624	1617	1591	1583	1586	1598	1603	1602	1606	1583	1578	1572	1581	1593	1587	1572	1562	1561	1565	1580	1575	1572	1573	1577	1587	1597	1627	1639	1641	1639	1637	1633	1630	1628	1633	1601	1586	1575	1589	1597	1614	1567	1549	1542	1502	1471	1461	1474	1488	1486	1473	1466	1473	1480	1483	1486	1490	1491	1490	1490	1491	1498	1497	1495	1487	1479	1475	1481	1490	1495	1495	1481	1482	1488	1497	1485	1471	1476	1488	1494	1505	1511	1523	1519	1519	1510	1501	1505	1514	1520	1515	1493	1474	1495	1503	1513	1500	1469	1458	1464	1475	1486	1490	1491	1490	1490	1492	1491	1487	1480	1486	1496	1493	1504	1511	1501	1473	1464	1471	1486	1509	1541	1565	1585	1661	1690	1710	1720	1719	1695	1671	1693	1699	1699	1690	1685	1708	1732	1765	1780	1774	1742	1738	1745	1750	1738	1738	1744	1750	1759	1775	1796	1798	1803	1798	1793	1782	1786	1794	1794	1791	1768	1763	1773	1779	1779	1782	1787	1790	1782	1788	1797	1802	1791	1801	1807	1801	1808	1805	1840	1834	1820	1817	1824	1836	1851	1864	1849	1850	1817	1816	1816	1834	1842	1844	1801	1784	1681	1604	1578	1580	1591	1594	1584	1566	1559	1559	1554	1548	1532	1507	1447	1435	1433	1451	1458	1442	1437	1445	1452	1496	1478	1469	1464	1466	1468	1452	1449	1447	1450	1466	1464	1445	1429	1420	1427	1436	1436	1435	1436	1449	1455	1452	1445	1434	1418	1416	1428	1443	1434	1426	1443	1467	1485	1491	1457	1444	1444	1445	1452	1471	1511	1553	1658	1700	1820	1904	1932	1956	1991	1976	1951	1928	1936	1952	1969	1976	1971	1963	1952	1973	1994	2024	2033	2017	1987	1956	1938	1940	1952	1958	1956	1945	1961	1984	2002	1984	1982	1979	1982	1994	1987	1971	1951	1945	1942	1934	1954	1969	1976	1979	1960	1953	1965	1981	1993	2010	2026	2034	2025	2011	2002	1997	1975	1969	1964	1961	1968	1980	1998	2013	1993	1980	1980	2002	2012	2034	2025	2003	1991	1991	1984	1998	2008	1986	1963	1949	1954	1950	1942	1942	1945	1958	1958	1945	1921	1915	1923	1923	1934	1956	0	0	0	0	0	0	0	0
1368	1386	1387	1390	1390	1399	1414	1428	1418	1418	1423	1419	1415	1415	1419	1419	1426	1424	1426	1400	1401	1418	1418	1437	1443	1423	1408	1408	1408	1408	1420	1418	1413	1412	1411	1429	1445	1445	1446	1435	1421	1420	1428	1422	1411	1414	1414	1423	1428	1434	1437	1441	1443	1443	1442	1437	1434	1434	1433	1431	1430	1437	1445	1459	1472	1481	1477	1465	1454	1461	1477	1490	1486	1455	1461	1461	1468	1475	1472	1469	1458	1444	1432	1420	1423	1451	1458	1459	1455	1451	1442	1443	1450	1466	1477	1466	1460	1465	1472	1482	1481	1463	1456	1446	1436	1426	1417	1420	1429	1432	1444	1457	1456	1442	1429	1419	1420	1422	1423	1430	1448	1462	1464	1459	1454	1449	1451	1466	1476	1475	1467	1474	1492	1492	1491	1483	1466	1442	1437	1443	1475	1493	1515	1520	1513	1508	1489	1493	1498	1500	1504	1530	1547	1539	1534	1543	1534	1522	1516	1509	1503	1515	1533	1536	1525	1499	1496	1488	1492	1493	1492	1485	1481	1478	1488	1493	1505	1517	1519	1504	1491	1498	1503	1499	1489	1481	1476	1481	1494	1501	1507	1502	1483	1463	1452	1448	1444	1487	1491	1481	1476	1471	1470	1466	1470	1462	1465	1469	1471	1472	1472	1482	1501	1454	1453	1466	1474	1464	1471	1464	1472	1484	1509	1514	1523	1513	1502	1506	1495	1493	1512	1517	1500	1491	1503	1521	1542	1553	1561	1566	1574	1581	1583	1576	1560	1545	1529	1539	1545	1558	1562	1547	1532	1533	1552	1555	1535	1518	1523	1527	1539	1544	1547	1540	1536	1533	1541	1550	1559	1566	1579	1567	1556	1549	1550	1551	1564	1569	1572	1562	1553	1548	1543	1541	1536	1543	1560	1554	1555	1564	1566	1557	1548	1556	1563	1567	1579	1591	1604	1606	1629	1625	1616	1606	1597	1582	1570	1563	1555	1553	1565	1569	1573	1549	1550	1523	1478	1465	1466	1472	1484	1480	1470	1470	1481	1482	1485	1481	1485	1487	1496	1501	1496	1493	1489	1482	1475	1471	1485	1493	1502	1500	1492	1487	1486	1492	1489	1486	1480	1492	1490	1508	1521	1525	1523	1515	1502	1497	1482	1481	1504	1506	1493	1481	1478	1500	1470	1476	1466	1457	1462	1472	1482	1487	1484	1486	1491	1488	1489	1501	1485	1487	1486	1487	1492	1499	1484	1480	1479	1477	1480	1504	1523	1543	1565	1639	1661	1685	1693	1656	1628	1632	1641	1640	1635	1648	1661	1686	1699	1720	1737	1727	1719	1720	1715	1710	1715	1718	1721	1729	1726	1763	1767	1760	1749	1754	1777	1779	1778	1772	1771	1771	1760	1758	1767	1765	1754	1752	1757	1760	1762	1765	1770	1763	1758	1761	1781	1779	1782	1802	1820	1824	1811	1808	1806	1801	1816	1821	1789	1794	1794	1775	1769	1771	1791	1806	1776	1720	1660	1658	1588	1581	1588	1580	1561	1539	1525	1526	1543	1538	1526	1501	1439	1440	1451	1450	1448	1437	1425	1447	1451	1498	1475	1461	1456	1461	1483	1462	1455	1457	1460	1464	1468	1445	1425	1422	1424	1433	1428	1422	1423	1436	1447	1443	1446	1445	1439	1427	1443	1435	1427	1423	1433	1458	1483	1483	1453	1442	1436	1436	1437	1437	1457	1551	1597	1662	1790	1882	1902	1909	1915	1916	1903	1899	1906	1917	1944	1943	1941	1927	1911	1905	1917	1941	1967	1971	1956	1935	1915	1906	1915	1931	1936	1928	1931	1950	1954	1951	1953	1952	1953	1926	1910	1912	1907	1901	1896	1917	1924	1928	1917	1919	1924	1925	1933	1945	1960	1975	1984	1983	1973	1959	1952	1946	1932	1932	1953	1957	1954	1920	1927	1937	1951	1955	1958	1956	1943	1937	1928	1925	1943	1962	1970	1987	1991	1983	1972	1965	1944	1928	1920	1924	1925	1928	1931	1923	1912	1901	1899	1899	1912	1927	0	0	0	0	0	0	0	0
1378	1379	1379	1377	1377	1383	1396	1401	1393	1385	1385	1397	1397	1404	1405	1405	1405	1402	1372	1368	1375	1385	1385	1397	1408	1396	1385	1384	1398	1398	1403	1402	1387	1385	1393	1409	1423	1423	1423	1415	1414	1410	1412	1409	1402	1398	1398	1404	1412	1424	1426	1430	1433	1434	1426	1430	1423	1418	1418	1413	1417	1419	1428	1434	1455	1468	1472	1466	1453	1430	1432	1436	1430	1424	1427	1427	1434	1446	1454	1453	1440	1437	1433	1428	1436	1450	1465	1470	1453	1438	1425	1418	1433	1436	1440	1434	1442	1450	1460	1466	1458	1442	1435	1436	1443	1439	1430	1424	1427	1420	1432	1447	1450	1437	1421	1415	1412	1417	1422	1427	1441	1448	1446	1440	1437	1430	1426	1425	1432	1435	1441	1455	1463	1454	1449	1438	1432	1421	1417	1420	1432	1450	1462	1465	1480	1476	1489	1488	1492	1488	1481	1482	1497	1496	1485	1480	1485	1493	1497	1496	1494	1480	1475	1471	1470	1458	1463	1466	1471	1484	1482	1464	1452	1449	1457	1471	1494	1513	1505	1490	1477	1484	1481	1477	1470	1461	1450	1465	1476	1485	1490	1488	1476	1459	1455	1464	1478	1500	1484	1470	1467	1466	1484	1489	1481	1467	1460	1465	1477	1483	1494	1506	1509	1500	1482	1478	1476	1462	1463	1460	1462	1469	1477	1476	1489	1489	1504	1513	1504	1515	1521	1511	1491	1490	1500	1509	1523	1529	1536	1537	1542	1551	1554	1548	1544	1525	1525	1532	1541	1548	1540	1526	1514	1516	1521	1517	1513	1523	1530	1528	1533	1541	1551	1543	1539	1535	1534	1533	1528	1541	1538	1525	1533	1532	1532	1537	1540	1542	1545	1531	1528	1524	1517	1515	1517	1525	1534	1548	1550	1551	1540	1505	1504	1521	1530	1538	1540	1549	1567	1582	1577	1555	1575	1557	1546	1548	1555	1552	1547	1549	1563	1542	1503	1541	1529	1531	1497	1479	1471	1466	1485	1486	1479	1476	1482	1482	1483	1478	1467	1470	1471	1484	1488	1481	1488	1484	1479	1473	1479	1498	1507	1505	1506	1498	1490	1486	1490	1494	1503	1502	1504	1507	1517	1520	1519	1496	1480	1483	1472	1477	1481	1493	1489	1476	1465	1472	1474	1471	1472	1466	1467	1469	1478	1484	1482	1487	1500	1514	1519	1508	1507	1503	1491	1488	1484	1482	1486	1491	1489	1483	1443	1495	1526	1532	1542	1592	1603	1610	1607	1593	1588	1610	1634	1638	1621	1606	1625	1654	1671	1678	1684	1690	1688	1682	1676	1670	1685	1686	1695	1712	1719	1729	1687	1685	1685	1686	1718	1738	1752	1745	1740	1735	1752	1758	1758	1736	1726	1728	1734	1739	1734	1738	1740	1740	1739	1738	1740	1747	1759	1783	1787	1782	1780	1768	1759	1749	1735	1751	1761	1754	1746	1738	1734	1731	1724	1716	1746	1736	1702	1650	1661	1654	1624	1578	1543	1518	1507	1505	1522	1514	1501	1480	1427	1438	1458	1451	1434	1434	1428	1448	1453	1495	1470	1459	1453	1471	1466	1458	1460	1460	1462	1463	1469	1474	1449	1443	1437	1429	1429	1421	1417	1427	1440	1454	1466	1464	1457	1444	1445	1438	1430	1428	1441	1460	1476	1471	1450	1451	1447	1438	1429	1414	1433	1536	1582	1655	1781	1850	1874	1877	1870	1859	1855	1862	1870	1876	1889	1890	1891	1880	1868	1866	1880	1895	1909	1930	1922	1899	1875	1865	1878	1897	1907	1910	1901	1904	1895	1890	1893	1896	1902	1881	1875	1869	1864	1853	1842	1882	1902	1908	1902	1894	1895	1903	1905	1918	1937	1954	1955	1950	1934	1917	1914	1901	1902	1896	1903	1904	1898	1891	1898	1916	1928	1935	1936	1936	1920	1901	1886	1885	1885	1883	1906	1939	1970	1972	1971	1963	1952	1937	1927	1922	1925	1909	1900	1897	1887	1877	1871	1871	1882	1904	0	0	0	0	0	0	0	0
1328	1333	1348	1356	1356	1362	1370	1366	1361	1368	1368	1368	1379	1386	1381	1382	1382	1376	1352	1350	1351	1360	1360	1366	1368	1364	1362	1359	1365	1365	1365	1371	1369	1362	1377	1394	1408	1408	1410	1401	1385	1394	1399	1399	1397	1383	1383	1378	1385	1399	1403	1415	1419	1413	1414	1417	1412	1405	1405	1397	1401	1405	1412	1414	1434	1459	1467	1465	1447	1424	1402	1396	1398	1409	1414	1414	1410	1408	1417	1421	1396	1411	1424	1428	1435	1443	1449	1454	1439	1422	1408	1400	1394	1407	1407	1407	1423	1432	1445	1449	1444	1428	1421	1432	1443	1443	1437	1429	1422	1419	1424	1429	1433	1435	1422	1407	1404	1406	1410	1416	1421	1421	1417	1417	1410	1410	1401	1406	1406	1407	1423	1433	1427	1420	1418	1419	1417	1413	1407	1410	1424	1437	1445	1452	1449	1457	1458	1459	1462	1442	1423	1429	1463	1462	1458	1454	1462	1468	1471	1468	1465	1459	1457	1449	1446	1451	1458	1456	1454	1453	1458	1455	1455	1466	1467	1466	1474	1490	1489	1481	1472	1487	1475	1457	1445	1443	1444	1446	1451	1460	1469	1466	1460	1446	1442	1453	1460	1475	1463	1445	1450	1472	1484	1487	1478	1469	1463	1471	1483	1485	1488	1486	1483	1470	1462	1450	1430	1428	1434	1444	1455	1465	1470	1473	1460	1456	1477	1476	1478	1489	1480	1486	1491	1509	1510	1506	1509	1511	1512	1510	1506	1506	1502	1510	1502	1493	1503	1516	1522	1502	1501	1493	1494	1499	1504	1478	1483	1498	1521	1535	1544	1554	1559	1549	1534	1524	1516	1513	1506	1489	1486	1489	1503	1499	1501	1508	1497	1498	1511	1514	1502	1495	1487	1499	1514	1523	1519	1514	1505	1508	1500	1493	1492	1504	1510	1495	1484	1484	1482	1491	1500	1501	1511	1517	1514	1528	1526	1526	1526	1534	1548	1545	1505	1479	1486	1497	1488	1493	1486	1476	1485	1489	1490	1486	1482	1478	1473	1476	1467	1458	1466	1476	1477	1477	1478	1477	1478	1479	1483	1500	1508	1514	1512	1506	1497	1494	1493	1496	1507	1510	1519	1528	1508	1487	1477	1477	1470	1472	1472	1479	1482	1495	1492	1474	1464	1459	1466	1466	1472	1467	1467	1480	1487	1488	1487	1488	1487	1480	1485	1500	1504	1506	1507	1498	1483	1476	1484	1494	1508	1481	1426	1436	1499	1514	1541	1580	1593	1601	1602	1593	1587	1595	1607	1590	1581	1570	1551	1567	1594	1614	1624	1621	1615	1614	1636	1653	1652	1656	1676	1691	1697	1677	1640	1637	1655	1663	1664	1673	1678	1677	1650	1646	1684	1725	1717	1702	1687	1678	1679	1686	1704	1714	1724	1722	1705	1691	1693	1703	1715	1736	1736	1743	1731	1720	1691	1704	1710	1725	1731	1721	1714	1697	1684	1681	1680	1679	1689	1711	1707	1690	1657	1628	1621	1588	1533	1508	1493	1489	1501	1500	1487	1448	1412	1431	1466	1452	1418	1422	1437	1449	1453	1474	1449	1444	1446	1459	1455	1455	1461	1467	1470	1466	1469	1464	1468	1467	1462	1452	1439	1428	1428	1431	1440	1465	1485	1484	1475	1446	1449	1449	1450	1474	1481	1472	1468	1471	1461	1458	1448	1436	1426	1403	1432	1525	1572	1665	1780	1826	1861	1864	1852	1837	1826	1834	1831	1829	1824	1816	1823	1810	1807	1811	1837	1866	1873	1868	1866	1857	1850	1856	1867	1879	1876	1869	1846	1828	1831	1836	1835	1845	1852	1854	1855	1854	1854	1830	1825	1856	1872	1882	1876	1849	1849	1852	1864	1887	1911	1932	1923	1899	1881	1874	1877	1876	1873	1868	1854	1837	1824	1841	1878	1893	1906	1909	1918	1896	1893	1882	1872	1868	1868	1864	1862	1859	1892	1919	1932	1962	1948	1935	1928	1924	1920	1894	1874	1863	1857	1858	1856	1856	1863	1879	0	0	0	0	0	0	0	0
1304	1296	1301	1320	1320	1317	1329	1336	1347	1344	1344	1342	1357	1358	1352	1349	1349	1353	1337	1336	1332	1336	1336	1342	1347	1349	1343	1330	1324	1324	1329	1333	1338	1345	1359	1376	1392	1392	1381	1374	1369	1372	1379	1386	1372	1366	1366	1361	1358	1361	1365	1376	1382	1390	1408	1403	1391	1379	1379	1375	1391	1406	1411	1423	1438	1455	1457	1435	1422	1409	1391	1380	1379	1376	1372	1372	1375	1364	1372	1375	1378	1389	1405	1411	1418	1420	1423	1424	1436	1428	1415	1401	1379	1376	1383	1390	1407	1418	1425	1428	1423	1416	1390	1386	1398	1414	1417	1418	1414	1413	1410	1413	1406	1405	1405	1397	1399	1404	1407	1402	1400	1397	1390	1392	1389	1394	1381	1389	1403	1404	1404	1400	1393	1387	1396	1405	1407	1399	1392	1399	1412	1426	1431	1434	1427	1438	1445	1441	1428	1413	1408	1409	1410	1396	1389	1393	1442	1453	1471	1471	1463	1450	1440	1426	1424	1436	1452	1441	1433	1420	1418	1421	1444	1456	1456	1452	1450	1448	1454	1454	1465	1467	1462	1438	1431	1433	1428	1428	1424	1419	1422	1434	1447	1449	1440	1446	1457	1466	1458	1443	1449	1466	1476	1474	1465	1456	1460	1472	1481	1476	1463	1454	1428	1433	1457	1449	1430	1427	1427	1428	1426	1433	1451	1460	1458	1451	1448	1449	1467	1459	1448	1450	1484	1501	1514	1510	1497	1492	1491	1486	1480	1475	1463	1461	1464	1477	1488	1489	1484	1476	1469	1468	1480	1484	1479	1462	1464	1475	1497	1522	1536	1544	1545	1538	1531	1510	1501	1501	1511	1496	1483	1478	1484	1499	1501	1484	1479	1472	1477	1487	1483	1479	1476	1492	1504	1510	1496	1476	1468	1474	1480	1485	1489	1493	1498	1478	1453	1435	1441	1458	1472	1482	1479	1475	1475	1477	1487	1484	1494	1517	1528	1528	1522	1470	1463	1474	1492	1500	1486	1480	1478	1489	1491	1476	1475	1467	1462	1476	1484	1474	1471	1469	1464	1464	1464	1466	1471	1476	1488	1497	1509	1517	1518	1508	1498	1490	1488	1491	1489	1486	1494	1506	1512	1507	1500	1491	1474	1468	1469	1477	1483	1488	1500	1496	1480	1474	1464	1459	1464	1453	1472	1477	1467	1473	1475	1465	1445	1435	1433	1447	1492	1508	1513	1501	1487	1478	1481	1479	1502	1487	1440	1435	1438	1499	1529	1561	1569	1578	1575	1569	1563	1563	1570	1571	1552	1559	1555	1559	1560	1568	1579	1581	1583	1596	1615	1620	1613	1600	1596	1608	1620	1616	1607	1615	1618	1637	1630	1610	1598	1600	1614	1616	1612	1616	1623	1624	1616	1612	1617	1650	1688	1705	1715	1699	1682	1656	1660	1667	1680	1688	1689	1689	1653	1662	1671	1676	1685	1694	1687	1682	1671	1657	1653	1655	1654	1646	1647	1672	1686	1674	1653	1610	1588	1578	1564	1508	1482	1484	1485	1485	1473	1446	1423	1426	1473	1463	1419	1411	1441	1448	1454	1456	1444	1443	1444	1458	1450	1448	1459	1465	1451	1455	1450	1452	1448	1456	1469	1472	1459	1447	1430	1443	1449	1463	1489	1499	1489	1473	1476	1476	1485	1490	1487	1471	1465	1478	1474	1473	1461	1443	1422	1424	1436	1532	1570	1631	1765	1820	1846	1852	1837	1823	1810	1805	1808	1789	1776	1780	1772	1765	1756	1746	1770	1825	1845	1833	1827	1822	1803	1818	1833	1838	1840	1827	1807	1815	1816	1811	1810	1816	1831	1836	1837	1836	1842	1845	1841	1840	1830	1808	1813	1819	1822	1823	1842	1847	1843	1832	1821	1815	1828	1839	1844	1848	1853	1844	1832	1817	1797	1792	1825	1856	1843	1857	1861	1865	1875	1877	1870	1850	1850	1847	1852	1854	1844	1834	1830	1828	1834	1850	1924	1922	1910	1876	1854	1839	1836	1843	1843	1840	1843	1854	0	0	0	0	0	0	0	0
1279	1273	1270	1274	1281	1281	1295	1323	1329	1329	1329	1331	1334	1329	1322	1318	1318	1331	1315	1315	1310	1316	1316	1323	1318	1320	1315	1305	1295	1295	1289	1293	1300	1316	1328	1317	1317	1317	1321	1328	1330	1348	1353	1340	1353	1355	1346	1346	1344	1343	1343	1351	1358	1361	1365	1367	1366	1354	1354	1364	1379	1386	1390	1396	1404	1413	1414	1411	1406	1395	1384	1371	1348	1341	1331	1337	1337	1350	1361	1363	1366	1373	1386	1394	1397	1389	1389	1395	1410	1414	1405	1387	1378	1365	1368	1378	1388	1392	1399	1404	1405	1389	1359	1350	1357	1376	1390	1399	1401	1401	1399	1398	1388	1374	1365	1368	1375	1377	1387	1387	1379	1374	1369	1367	1370	1367	1378	1385	1399	1406	1400	1384	1381	1373	1366	1377	1388	1383	1379	1387	1404	1413	1421	1420	1420	1419	1412	1403	1395	1394	1396	1401	1397	1384	1368	1369	1380	1402	1408	1404	1425	1445	1424	1404	1405	1424	1427	1416	1403	1401	1392	1402	1423	1439	1443	1429	1427	1427	1429	1430	1433	1446	1436	1427	1424	1423	1417	1414	1410	1405	1408	1423	1439	1445	1441	1438	1440	1447	1437	1425	1437	1448	1456	1452	1437	1437	1443	1454	1462	1455	1434	1408	1394	1407	1450	1448	1438	1429	1426	1421	1408	1411	1436	1445	1437	1436	1436	1438	1436	1429	1432	1435	1469	1480	1485	1484	1467	1445	1428	1434	1442	1445	1448	1453	1461	1468	1468	1460	1442	1433	1448	1452	1463	1470	1473	1464	1451	1447	1446	1457	1496	1512	1526	1535	1518	1501	1489	1498	1500	1480	1477	1465	1462	1471	1479	1471	1465	1464	1467	1474	1479	1481	1476	1473	1476	1477	1471	1460	1450	1453	1463	1479	1492	1473	1471	1459	1438	1425	1424	1434	1455	1457	1456	1454	1459	1454	1460	1461	1464	1464	1467	1474	1478	1474	1472	1469	1489	1487	1487	1476	1477	1482	1481	1461	1458	1456	1455	1478	1497	1496	1481	1465	1459	1462	1467	1467	1468	1464	1469	1484	1504	1520	1514	1501	1485	1478	1480	1483	1481	1481	1489	1498	1509	1506	1501	1493	1478	1477	1476	1478	1487	1492	1497	1498	1490	1486	1474	1461	1452	1473	1478	1469	1470	1468	1466	1456	1438	1432	1435	1441	1443	1447	1451	1460	1464	1464	1451	1469	1498	1489	1486	1451	1464	1486	1517	1540	1533	1535	1534	1533	1522	1517	1511	1511	1521	1546	1545	1552	1549	1535	1515	1508	1522	1551	1572	1579	1557	1536	1528	1525	1541	1548	1564	1577	1597	1611	1602	1583	1564	1557	1560	1570	1580	1567	1585	1604	1609	1606	1613	1631	1664	1682	1687	1670	1649	1633	1619	1652	1644	1633	1612	1616	1622	1621	1623	1613	1606	1602	1602	1648	1638	1629	1625	1630	1627	1609	1612	1612	1628	1611	1613	1591	1584	1594	1610	1601	1543	1510	1495	1480	1475	1469	1446	1428	1470	1471	1426	1410	1440	1448	1451	1452	1466	1461	1466	1464	1445	1445	1456	1447	1441	1429	1423	1430	1438	1446	1467	1477	1470	1460	1437	1437	1442	1459	1461	1481	1481	1480	1486	1488	1489	1483	1475	1470	1463	1474	1475	1475	1465	1447	1433	1433	1440	1532	1567	1612	1732	1799	1822	1838	1825	1811	1800	1782	1769	1756	1757	1758	1754	1747	1732	1725	1739	1757	1809	1807	1798	1783	1759	1744	1747	1778	1797	1790	1781	1794	1795	1790	1795	1801	1818	1825	1824	1820	1829	1836	1832	1823	1778	1776	1786	1792	1795	1802	1818	1816	1810	1789	1767	1774	1794	1801	1797	1792	1800	1825	1818	1799	1780	1776	1780	1795	1804	1801	1802	1812	1833	1858	1846	1832	1832	1827	1839	1839	1828	1809	1798	1792	1811	1829	1858	1861	1901	1860	1835	1820	1817	1826	1826	1827	1816	1812	0	0	0	0	0	0	0	0
1269	1258	1252	1246	1254	1254	1276	1299	1318	1319	1319	1320	1315	1302	1290	1295	1295	1293	1296	1289	1284	1284	1284	1287	1285	1283	1285	1282	1280	1280	1270	1275	1281	1289	1301	1308	1304	1304	1304	1306	1304	1300	1295	1306	1325	1335	1329	1329	1329	1321	1325	1335	1342	1338	1326	1318	1320	1334	1334	1352	1365	1368	1362	1354	1340	1343	1354	1373	1389	1384	1360	1316	1317	1317	1323	1334	1334	1342	1357	1360	1360	1363	1374	1379	1373	1367	1370	1374	1377	1388	1378	1376	1365	1358	1356	1358	1364	1370	1373	1374	1378	1364	1349	1342	1343	1354	1370	1378	1381	1386	1390	1387	1371	1351	1340	1344	1351	1355	1348	1357	1352	1353	1353	1356	1357	1356	1352	1380	1390	1400	1396	1376	1376	1365	1354	1351	1352	1357	1353	1366	1381	1395	1400	1400	1402	1388	1373	1363	1361	1377	1382	1388	1386	1373	1361	1363	1370	1377	1379	1371	1372	1374	1369	1367	1378	1406	1397	1392	1387	1387	1388	1397	1408	1416	1410	1404	1406	1404	1410	1409	1416	1418	1414	1412	1411	1415	1413	1410	1405	1400	1396	1404	1418	1428	1423	1418	1420	1422	1416	1407	1417	1423	1424	1415	1412	1413	1409	1406	1414	1411	1393	1377	1376	1388	1432	1441	1435	1431	1422	1402	1396	1395	1408	1427	1431	1431	1425	1426	1427	1428	1420	1414	1438	1466	1469	1462	1444	1426	1397	1391	1402	1422	1432	1439	1445	1448	1452	1438	1434	1426	1423	1431	1447	1463	1466	1464	1441	1435	1436	1439	1442	1449	1468	1481	1470	1459	1459	1462	1458	1459	1454	1438	1431	1444	1451	1445	1434	1434	1439	1437	1442	1462	1466	1466	1464	1460	1454	1442	1433	1434	1434	1456	1465	1447	1436	1434	1429	1418	1418	1425	1436	1433	1432	1423	1431	1440	1442	1439	1441	1439	1435	1435	1454	1455	1463	1477	1492	1488	1486	1478	1472	1464	1455	1448	1443	1441	1445	1456	1478	1480	1466	1455	1445	1442	1447	1451	1459	1460	1465	1472	1488	1499	1493	1476	1460	1461	1476	1481	1478	1471	1469	1482	1489	1492	1493	1491	1487	1465	1465	1475	1489	1494	1499	1489	1482	1455	1449	1453	1470	1469	1475	1476	1471	1466	1460	1451	1440	1434	1437	1441	1444	1445	1458	1468	1467	1467	1467	1450	1457	1476	1471	1470	1473	1474	1475	1476	1473	1470	1475	1486	1492	1487	1469	1457	1456	1491	1523	1527	1526	1519	1503	1499	1501	1519	1527	1525	1519	1501	1502	1500	1508	1506	1517	1533	1563	1551	1547	1539	1540	1545	1538	1532	1530	1535	1538	1547	1589	1592	1598	1606	1603	1583	1567	1555	1566	1568	1563	1570	1539	1544	1568	1579	1587	1589	1586	1578	1564	1554	1540	1539	1558	1580	1602	1616	1612	1596	1596	1595	1592	1586	1569	1551	1552	1591	1628	1611	1523	1525	1556	1580	1538	1495	1468	1423	1466	1478	1441	1423	1440	1443	1447	1454	1476	1472	1471	1451	1448	1449	1453	1434	1425	1419	1416	1418	1425	1445	1467	1480	1475	1456	1414	1416	1429	1446	1471	1480	1486	1493	1496	1495	1488	1474	1459	1451	1454	1464	1465	1471	1468	1450	1431	1432	1437	1540	1566	1600	1699	1766	1766	1774	1783	1776	1781	1759	1740	1732	1738	1750	1752	1748	1730	1722	1727	1728	1739	1740	1753	1751	1740	1732	1735	1740	1760	1760	1760	1767	1775	1773	1777	1794	1812	1809	1788	1766	1785	1799	1812	1767	1757	1755	1761	1765	1777	1780	1789	1789	1779	1759	1739	1744	1747	1771	1773	1769	1776	1787	1788	1776	1764	1760	1766	1773	1770	1770	1780	1794	1803	1813	1816	1816	1802	1794	1802	1821	1809	1790	1775	1774	1788	1794	1799	1784	1771	1781	1805	1791	1795	1796	1796	1790	1780	1764	0	0	0	0	0	0	0	0
1257	1244	1237	1238	1257	1257	1270	1288	1306	1303	1303	1296	1289	1282	1269	1276	1276	1270	1269	1267	1263	1264	1265	1265	1265	1276	1281	1279	1273	1269	1269	1271	1286	1298	1304	1304	1300	1295	1295	1290	1281	1274	1272	1278	1293	1308	1309	1309	1307	1304	1305	1314	1320	1318	1315	1303	1311	1322	1340	1340	1358	1361	1351	1349	1336	1323	1317	1322	1345	1313	1307	1294	1300	1310	1320	1333	1333	1333	1333	1354	1347	1348	1347	1356	1351	1331	1337	1343	1351	1350	1327	1329	1333	1337	1341	1340	1335	1333	1338	1337	1340	1340	1334	1331	1332	1339	1346	1352	1357	1362	1368	1372	1358	1332	1317	1320	1326	1331	1325	1323	1328	1331	1329	1331	1340	1345	1340	1363	1379	1382	1372	1366	1364	1356	1349	1350	1350	1342	1336	1346	1361	1366	1359	1352	1355	1360	1352	1342	1342	1356	1364	1363	1362	1362	1357	1359	1364	1367	1362	1356	1359	1363	1364	1360	1359	1357	1354	1348	1377	1379	1387	1393	1396	1394	1377	1372	1376	1375	1385	1388	1395	1387	1392	1392	1397	1403	1400	1401	1393	1392	1378	1377	1387	1395	1395	1394	1395	1402	1395	1390	1388	1392	1397	1402	1400	1392	1390	1382	1391	1392	1386	1377	1373	1379	1389	1419	1423	1417	1410	1396	1381	1393	1404	1420	1426	1423	1408	1394	1389	1384	1375	1371	1397	1416	1426	1419	1411	1395	1381	1378	1383	1398	1409	1414	1422	1435	1442	1437	1427	1419	1415	1413	1429	1447	1454	1452	1438	1439	1438	1434	1428	1424	1416	1423	1437	1441	1440	1440	1435	1432	1425	1418	1419	1438	1439	1433	1420	1418	1421	1423	1439	1450	1457	1460	1457	1452	1441	1431	1424	1423	1426	1434	1434	1432	1415	1419	1418	1415	1413	1419	1426	1415	1423	1419	1427	1434	1435	1432	1429	1421	1414	1414	1429	1439	1443	1451	1449	1446	1442	1442	1454	1446	1436	1427	1424	1428	1432	1446	1463	1457	1448	1432	1425	1431	1436	1448	1454	1456	1451	1458	1467	1469	1467	1453	1444	1449	1454	1459	1463	1457	1453	1454	1459	1456	1454	1459	1464	1459	1456	1450	1480	1466	1457	1447	1434	1429	1429	1434	1447	1456	1469	1467	1465	1461	1457	1454	1442	1439	1440	1434	1439	1441	1453	1466	1468	1462	1457	1450	1447	1453	1466	1476	1483	1486	1476	1473	1462	1450	1454	1458	1465	1465	1457	1442	1434	1447	1460	1483	1493	1494	1493	1483	1487	1489	1479	1478	1488	1491	1488	1495	1494	1501	1513	1526	1536	1523	1504	1526	1532	1539	1538	1519	1513	1516	1524	1532	1534	1540	1536	1526	1525	1523	1517	1519	1523	1529	1507	1520	1531	1534	1537	1536	1540	1528	1532	1532	1547	1543	1539	1535	1535	1543	1560	1579	1593	1605	1605	1594	1581	1563	1536	1528	1535	1554	1579	1574	1534	1525	1531	1531	1527	1496	1433	1422	1468	1478	1443	1428	1439	1438	1441	1447	1462	1464	1461	1450	1455	1459	1456	1426	1419	1420	1426	1432	1443	1455	1462	1452	1442	1430	1424	1433	1448	1465	1472	1480	1486	1494	1496	1486	1480	1470	1458	1449	1443	1453	1458	1461	1455	1449	1430	1437	1452	1545	1572	1612	1699	1724	1723	1729	1732	1723	1699	1690	1719	1719	1727	1736	1743	1736	1727	1723	1724	1725	1722	1724	1732	1738	1729	1717	1713	1717	1727	1735	1734	1740	1746	1744	1763	1786	1800	1783	1744	1712	1704	1728	1745	1743	1739	1737	1744	1746	1748	1749	1765	1767	1764	1745	1718	1700	1700	1700	1714	1726	1745	1755	1757	1749	1736	1741	1755	1762	1754	1746	1750	1769	1775	1779	1771	1771	1759	1744	1747	1749	1758	1767	1760	1761	1764	1760	1753	1751	1739	1747	1758	1758	1760	1761	1761	1769	1771	1762	0	0	0	0	0	0	0	0
1240	1235	1233	1247	1261	1261	1271	1281	1282	1271	1271	1265	1259	1239	1242	1254	1254	1259	1260	1254	1249	1245	1254	1254	1258	1270	1275	1273	1263	1259	1259	1268	1275	1284	1289	1289	1287	1262	1262	1257	1255	1254	1255	1261	1273	1285	1285	1285	1289	1298	1304	1312	1312	1305	1302	1301	1306	1302	1310	1310	1325	1336	1342	1337	1325	1311	1299	1280	1280	1274	1274	1276	1282	1298	1305	1307	1307	1310	1311	1312	1308	1292	1291	1304	1298	1275	1271	1272	1278	1289	1292	1291	1293	1310	1319	1313	1308	1289	1291	1294	1298	1311	1311	1314	1319	1316	1320	1322	1326	1332	1337	1344	1345	1333	1311	1302	1305	1315	1311	1303	1303	1305	1303	1307	1312	1317	1321	1338	1345	1345	1342	1342	1346	1343	1341	1344	1343	1328	1317	1323	1334	1336	1338	1339	1347	1351	1343	1337	1331	1318	1302	1305	1311	1310	1323	1339	1356	1354	1348	1343	1347	1352	1352	1345	1335	1333	1334	1326	1336	1355	1370	1370	1380	1375	1364	1354	1358	1362	1358	1361	1365	1356	1356	1378	1388	1391	1390	1384	1375	1368	1363	1363	1366	1364	1373	1380	1383	1380	1368	1362	1362	1367	1375	1378	1380	1380	1366	1364	1372	1382	1387	1376	1368	1368	1364	1384	1387	1387	1394	1387	1378	1392	1399	1409	1404	1388	1377	1372	1373	1368	1366	1367	1371	1400	1402	1378	1403	1388	1366	1367	1377	1389	1395	1400	1406	1422	1433	1436	1421	1410	1403	1410	1418	1425	1430	1426	1427	1433	1432	1429	1409	1397	1398	1406	1412	1420	1419	1416	1411	1416	1408	1416	1420	1422	1428	1419	1401	1397	1401	1404	1405	1414	1424	1433	1439	1440	1430	1416	1407	1407	1410	1408	1398	1390	1403	1413	1413	1413	1416	1419	1419	1415	1416	1416	1421	1427	1426	1422	1419	1411	1408	1410	1413	1421	1426	1430	1430	1429	1430	1428	1428	1418	1413	1414	1416	1419	1423	1428	1439	1440	1425	1416	1407	1421	1435	1450	1454	1451	1438	1439	1442	1441	1438	1436	1434	1440	1438	1448	1455	1456	1453	1455	1449	1439	1432	1422	1423	1421	1426	1423	1428	1435	1429	1422	1412	1412	1418	1422	1423	1432	1427	1421	1417	1423	1428	1435	1441	1440	1430	1426	1420	1427	1440	1453	1460	1457	1444	1431	1437	1443	1448	1457	1462	1462	1462	1468	1470	1458	1450	1453	1456	1456	1449	1436	1413	1417	1436	1459	1459	1451	1453	1462	1471	1475	1474	1478	1488	1496	1492	1485	1488	1495	1508	1522	1499	1490	1492	1496	1515	1518	1521	1509	1503	1504	1511	1524	1529	1526	1510	1507	1508	1508	1509	1507	1479	1475	1501	1505	1514	1503	1490	1459	1455	1477	1488	1504	1510	1520	1528	1528	1527	1533	1544	1570	1587	1580	1569	1571	1574	1562	1546	1523	1519	1524	1529	1522	1527	1534	1530	1506	1472	1438	1428	1472	1452	1460	1446	1429	1432	1441	1439	1430	1447	1452	1446	1449	1459	1462	1452	1441	1425	1428	1434	1445	1458	1463	1447	1445	1443	1441	1436	1445	1454	1464	1470	1475	1482	1485	1485	1481	1473	1461	1445	1444	1433	1438	1449	1443	1445	1442	1444	1451	1471	1544	1571	1632	1677	1687	1683	1677	1690	1684	1664	1648	1663	1701	1714	1720	1719	1712	1697	1702	1709	1707	1704	1703	1713	1727	1724	1708	1696	1692	1692	1684	1677	1695	1703	1704	1712	1724	1730	1735	1705	1680	1677	1698	1716	1710	1708	1710	1710	1714	1712	1717	1731	1748	1753	1736	1713	1694	1687	1691	1694	1708	1711	1729	1732	1711	1710	1719	1739	1748	1731	1716	1723	1741	1735	1728	1715	1715	1701	1691	1693	1703	1718	1721	1718	1731	1730	1727	1720	1706	1707	1718	1740	1747	1751	1757	1757	1767	1780	1771	0	0	0	0	0	0	0	0
1215	1219	1231	1248	1261	1261	1267	1268	1266	1254	1240	1240	1227	1227	1231	1243	1243	1251	1252	1243	1230	1228	1235	1235	1244	1249	1249	1248	1244	1250	1250	1259	1264	1265	1266	1259	1252	1245	1245	1239	1244	1247	1255	1262	1265	1276	1277	1277	1280	1291	1309	1315	1311	1302	1295	1294	1292	1292	1291	1291	1282	1282	1296	1304	1304	1256	1254	1255	1254	1246	1244	1257	1265	1272	1275	1284	1289	1289	1287	1286	1279	1271	1256	1256	1256	1262	1271	1272	1273	1272	1274	1276	1277	1282	1283	1284	1282	1281	1276	1277	1276	1277	1286	1291	1292	1285	1288	1297	1301	1306	1305	1309	1312	1315	1310	1303	1303	1306	1301	1289	1281	1275	1283	1301	1307	1313	1310	1318	1329	1331	1328	1329	1327	1320	1322	1319	1308	1298	1292	1286	1298	1314	1321	1323	1336	1345	1345	1337	1323	1311	1299	1292	1295	1292	1301	1317	1330	1330	1325	1318	1322	1324	1326	1318	1311	1314	1317	1310	1319	1334	1345	1353	1354	1358	1355	1346	1352	1347	1337	1330	1328	1334	1336	1358	1368	1375	1371	1363	1352	1348	1346	1350	1350	1349	1356	1359	1362	1362	1327	1335	1342	1351	1355	1358	1358	1360	1365	1366	1364	1366	1362	1363	1358	1349	1335	1338	1350	1342	1340	1340	1335	1338	1353	1366	1371	1367	1363	1361	1357	1354	1353	1354	1355	1346	1345	1355	1354	1353	1365	1354	1349	1359	1368	1381	1386	1396	1403	1407	1400	1393	1383	1393	1408	1398	1387	1375	1385	1415	1415	1389	1379	1384	1383	1387	1390	1395	1397	1392	1390	1395	1402	1404	1411	1416	1412	1399	1381	1377	1380	1387	1391	1402	1416	1421	1424	1418	1418	1399	1384	1384	1385	1385	1382	1377	1382	1411	1407	1397	1400	1404	1403	1402	1400	1400	1406	1420	1422	1418	1408	1405	1402	1403	1405	1410	1411	1416	1409	1412	1416	1415	1413	1410	1410	1413	1418	1413	1406	1405	1404	1397	1382	1369	1381	1398	1417	1434	1450	1441	1430	1424	1420	1416	1406	1404	1408	1402	1402	1412	1425	1429	1431	1427	1421	1414	1406	1412	1406	1418	1412	1408	1408	1405	1405	1405	1408	1411	1413	1413	1411	1406	1404	1402	1400	1406	1411	1420	1422	1428	1425	1407	1407	1409	1421	1441	1446	1440	1419	1413	1414	1423	1430	1432	1436	1435	1443	1452	1457	1455	1451	1450	1453	1454	1451	1437	1417	1412	1418	1428	1424	1411	1412	1435	1449	1462	1456	1467	1480	1484	1491	1482	1473	1476	1479	1481	1481	1468	1461	1476	1480	1499	1492	1482	1474	1474	1478	1488	1502	1498	1491	1489	1491	1501	1486	1478	1468	1462	1472	1486	1488	1472	1460	1455	1455	1461	1474	1487	1496	1488	1487	1505	1495	1467	1473	1512	1547	1544	1524	1538	1557	1551	1533	1519	1506	1511	1508	1500	1489	1492	1519	1552	1506	1462	1451	1446	1445	1450	1439	1439	1446	1443	1430	1420	1425	1441	1441	1457	1465	1457	1451	1448	1438	1466	1457	1456	1475	1465	1448	1440	1441	1459	1457	1456	1453	1457	1461	1470	1479	1484	1486	1484	1486	1482	1470	1453	1443	1440	1442	1442	1455	1455	1458	1459	1469	1502	1527	1612	1630	1643	1645	1639	1635	1646	1626	1625	1638	1652	1665	1686	1684	1663	1650	1650	1673	1680	1679	1683	1690	1686	1684	1665	1640	1645	1643	1636	1646	1676	1683	1667	1663	1662	1677	1696	1689	1677	1672	1687	1681	1675	1667	1650	1644	1644	1663	1678	1687	1690	1677	1668	1675	1680	1681	1685	1686	1689	1689	1697	1672	1678	1682	1682	1681	1679	1677	1684	1694	1701	1696	1690	1690	1679	1669	1667	1671	1680	1690	1683	1689	1683	1701	1691	1667	1670	1672	1689	1707	1717	1720	1720	1721	1747	1751	1747	0	0	0	0	0	0	0	0
1191	1208	1223	1232	1242	1242	1254	1251	1247	1234	1220	1220	1212	1215	1227	1239	1239	1239	1239	1230	1218	1218	1223	1223	1236	1237	1237	1230	1226	1236	1236	1244	1247	1246	1238	1236	1232	1232	1232	1229	1229	1241	1250	1257	1258	1263	1271	1271	1272	1289	1303	1310	1306	1295	1284	1273	1262	1258	1263	1263	1253	1258	1263	1247	1244	1246	1241	1237	1233	1227	1226	1228	1241	1251	1253	1260	1260	1260	1257	1253	1252	1252	1237	1231	1237	1249	1262	1267	1266	1265	1274	1274	1272	1267	1269	1268	1274	1272	1263	1255	1237	1242	1260	1274	1275	1270	1268	1280	1288	1289	1281	1277	1279	1288	1279	1278	1280	1286	1292	1285	1298	1301	1304	1302	1294	1297	1290	1275	1288	1310	1305	1299	1296	1301	1301	1304	1302	1299	1294	1289	1291	1298	1302	1300	1302	1312	1329	1328	1321	1306	1290	1289	1284	1283	1286	1293	1291	1286	1292	1296	1298	1301	1302	1304	1296	1294	1297	1295	1302	1315	1319	1323	1327	1335	1347	1334	1326	1326	1326	1324	1316	1317	1324	1341	1340	1345	1347	1343	1335	1330	1333	1343	1345	1350	1351	1329	1311	1304	1309	1326	1332	1337	1347	1343	1327	1324	1342	1349	1354	1347	1336	1332	1333	1333	1317	1314	1317	1320	1309	1319	1325	1331	1332	1341	1343	1336	1341	1338	1338	1338	1333	1323	1316	1304	1312	1329	1332	1337	1341	1339	1343	1350	1350	1355	1355	1358	1373	1374	1341	1334	1327	1330	1345	1358	1360	1362	1360	1387	1383	1363	1368	1369	1372	1373	1370	1362	1359	1347	1359	1377	1393	1405	1410	1410	1400	1384	1371	1364	1367	1372	1378	1392	1402	1371	1355	1350	1353	1354	1353	1354	1351	1353	1364	1368	1384	1396	1379	1370	1379	1382	1380	1378	1378	1380	1388	1376	1372	1375	1391	1397	1397	1399	1395	1391	1386	1393	1394	1391	1386	1397	1405	1407	1410	1412	1416	1409	1404	1401	1394	1378	1358	1356	1366	1378	1399	1412	1413	1412	1410	1394	1390	1379	1365	1371	1382	1388	1396	1402	1412	1418	1415	1412	1408	1400	1393	1394	1388	1384	1383	1388	1389	1386	1388	1393	1401	1401	1404	1403	1400	1397	1394	1389	1387	1388	1396	1399	1407	1413	1406	1393	1394	1400	1417	1429	1432	1414	1406	1399	1390	1400	1408	1401	1407	1412	1425	1432	1432	1436	1439	1445	1452	1444	1421	1419	1419	1425	1431	1429	1411	1396	1382	1382	1388	1401	1410	1420	1435	1446	1453	1453	1436	1428	1427	1454	1452	1443	1434	1432	1432	1437	1435	1436	1429	1422	1416	1417	1437	1450	1456	1466	1460	1465	1474	1464	1456	1445	1427	1427	1432	1444	1446	1438	1438	1440	1456	1464	1463	1450	1443	1443	1444	1440	1425	1427	1456	1460	1454	1458	1502	1523	1512	1501	1492	1497	1494	1490	1479	1473	1483	1523	1523	1508	1469	1448	1438	1435	1445	1451	1452	1440	1424	1421	1420	1425	1440	1464	1466	1457	1475	1480	1482	1480	1485	1493	1489	1470	1460	1454	1454	1474	1473	1472	1458	1451	1459	1469	1483	1498	1510	1516	1512	1503	1492	1476	1456	1447	1447	1460	1468	1472	1476	1474	1476	1485	1540	1569	1596	1611	1615	1616	1616	1608	1603	1601	1617	1628	1635	1637	1632	1623	1610	1594	1617	1642	1648	1647	1642	1632	1630	1619	1621	1612	1615	1617	1625	1646	1647	1644	1630	1628	1637	1633	1628	1650	1645	1638	1635	1634	1639	1644	1633	1622	1634	1646	1656	1639	1629	1628	1645	1657	1660	1662	1659	1654	1653	1639	1620	1612	1613	1619	1625	1635	1632	1637	1653	1657	1665	1664	1664	1663	1654	1645	1645	1651	1655	1661	1665	1662	1657	1651	1662	1663	1659	1662	1655	1647	1632	1632	1644	1651	1649	1697	0	0	0	0	0	0	0	0
1166	1190	1204	1212	1217	1217	1213	1200	1198	1197	1194	1194	1202	1210	1218	1230	1223	1223	1219	1214	1209	1209	1207	1207	1210	1217	1220	1217	1214	1221	1221	1233	1233	1229	1223	1219	1221	1221	1221	1217	1224	1231	1236	1235	1240	1247	1250	1256	1256	1261	1274	1258	1261	1260	1254	1248	1243	1241	1243	1243	1253	1250	1238	1240	1243	1243	1238	1224	1216	1217	1217	1216	1226	1233	1234	1233	1231	1231	1226	1229	1231	1237	1231	1221	1226	1236	1245	1249	1243	1238	1232	1230	1231	1226	1222	1245	1260	1261	1245	1225	1227	1233	1252	1266	1274	1274	1271	1274	1265	1266	1257	1251	1251	1244	1252	1262	1267	1264	1275	1288	1289	1292	1292	1290	1288	1283	1275	1262	1271	1277	1271	1271	1271	1279	1286	1288	1288	1287	1285	1287	1285	1288	1287	1283	1281	1287	1304	1310	1307	1292	1285	1286	1282	1280	1272	1267	1261	1262	1270	1284	1291	1291	1291	1291	1287	1283	1278	1284	1295	1300	1299	1291	1294	1297	1313	1319	1316	1317	1318	1313	1302	1304	1310	1314	1316	1322	1327	1328	1321	1316	1325	1337	1332	1331	1312	1305	1297	1297	1300	1306	1307	1314	1316	1304	1298	1307	1317	1332	1338	1314	1306	1309	1311	1306	1300	1296	1286	1293	1303	1314	1317	1317	1325	1326	1324	1315	1317	1313	1313	1316	1307	1306	1300	1288	1294	1300	1311	1320	1324	1318	1305	1302	1329	1317	1303	1291	1306	1326	1336	1331	1322	1318	1319	1326	1343	1346	1347	1345	1358	1354	1346	1342	1351	1349	1344	1325	1324	1333	1340	1351	1388	1405	1408	1406	1389	1378	1368	1365	1364	1353	1334	1326	1325	1330	1327	1335	1350	1348	1341	1333	1325	1330	1340	1350	1356	1348	1341	1351	1361	1365	1358	1355	1358	1365	1363	1354	1351	1349	1350	1349	1340	1348	1369	1376	1380	1373	1361	1359	1376	1389	1399	1396	1388	1388	1390	1382	1384	1385	1374	1360	1349	1350	1359	1363	1368	1371	1369	1371	1378	1375	1379	1371	1365	1359	1365	1371	1380	1386	1392	1397	1397	1399	1397	1390	1384	1382	1379	1369	1370	1370	1357	1365	1373	1376	1378	1379	1385	1388	1390	1387	1383	1384	1375	1370	1378	1378	1379	1380	1375	1372	1376	1391	1398	1403	1405	1400	1394	1386	1380	1384	1382	1381	1385	1397	1409	1414	1413	1406	1418	1433	1425	1414	1405	1408	1413	1421	1430	1416	1403	1386	1380	1374	1369	1385	1392	1408	1422	1425	1432	1426	1413	1405	1421	1415	1404	1401	1410	1412	1414	1416	1414	1411	1398	1392	1386	1390	1409	1425	1402	1427	1450	1451	1431	1424	1424	1419	1413	1417	1425	1420	1414	1412	1414	1412	1413	1416	1418	1422	1427	1431	1434	1429	1422	1411	1411	1409	1412	1415	1434	1452	1465	1478	1474	1478	1455	1459	1449	1444	1445	1488	1487	1475	1480	1478	1490	1496	1501	1475	1455	1439	1423	1415	1421	1458	1468	1480	1485	1494	1508	1518	1507	1480	1486	1491	1483	1476	1480	1471	1457	1460	1495	1512	1512	1496	1485	1474	1488	1490	1508	1523	1516	1513	1507	1497	1474	1464	1454	1455	1457	1472	1491	1505	1516	1517	1526	1557	1574	1586	1600	1607	1613	1597	1584	1580	1593	1600	1611	1625	1628	1619	1602	1591	1582	1583	1600	1613	1617	1619	1615	1607	1601	1596	1593	1601	1606	1622	1622	1617	1610	1601	1613	1610	1605	1594	1604	1609	1595	1604	1608	1623	1627	1620	1621	1628	1621	1626	1625	1610	1622	1627	1636	1635	1630	1631	1624	1613	1604	1599	1598	1608	1614	1621	1620	1617	1616	1621	1628	1636	1636	1642	1636	1622	1620	1612	1618	1630	1637	1629	1635	1642	1647	1656	1642	1617	1603	1605	1588	1588	1582	1610	1622	1639	0	0	0	0	0	0	0	0
1140	1167	1186	1192	1195	1189	1189	1181	1162	1168	1180	1180	1199	1209	1214	1219	1202	1202	1196	1200	1198	1190	1179	1179	1162	1163	1195	1199	1199	1209	1209	1219	1219	1213	1209	1210	1217	1215	1210	1210	1209	1215	1216	1221	1217	1218	1209	1211	1211	1207	1207	1194	1199	1212	1234	1239	1236	1235	1237	1241	1224	1225	1223	1220	1236	1239	1234	1221	1211	1206	1207	1208	1211	1214	1216	1211	1206	1207	1207	1212	1220	1227	1230	1222	1223	1213	1219	1221	1212	1216	1213	1214	1216	1215	1212	1204	1208	1212	1220	1214	1218	1233	1245	1258	1264	1267	1261	1259	1256	1251	1245	1234	1233	1225	1224	1230	1240	1250	1257	1267	1269	1270	1277	1277	1272	1267	1261	1255	1257	1261	1262	1259	1254	1262	1263	1267	1262	1255	1263	1272	1277	1280	1275	1265	1261	1265	1273	1279	1279	1278	1274	1276	1276	1267	1258	1246	1238	1244	1260	1280	1292	1291	1286	1271	1265	1258	1251	1257	1273	1281	1276	1264	1270	1274	1276	1284	1296	1295	1298	1303	1297	1289	1282	1278	1303	1308	1298	1291	1292	1305	1318	1314	1301	1295	1292	1299	1290	1281	1268	1274	1281	1291	1255	1248	1263	1283	1299	1304	1299	1281	1282	1298	1297	1299	1300	1297	1297	1301	1297	1303	1300	1298	1311	1315	1311	1306	1299	1287	1279	1282	1294	1302	1298	1294	1294	1296	1290	1285	1284	1284	1287	1288	1282	1285	1289	1280	1289	1310	1326	1331	1319	1301	1295	1305	1319	1332	1336	1332	1350	1338	1324	1317	1326	1341	1334	1327	1322	1329	1335	1342	1350	1356	1366	1372	1375	1373	1363	1360	1346	1335	1324	1297	1292	1296	1306	1315	1324	1325	1321	1312	1307	1310	1316	1320	1322	1316	1320	1334	1339	1340	1335	1338	1342	1347	1352	1348	1337	1329	1319	1312	1313	1321	1329	1336	1345	1344	1345	1361	1369	1372	1373	1366	1354	1346	1355	1372	1378	1379	1368	1334	1319	1315	1347	1357	1354	1347	1338	1332	1339	1353	1355	1358	1352	1339	1335	1336	1342	1350	1362	1376	1373	1374	1379	1375	1371	1363	1365	1352	1347	1341	1337	1337	1347	1348	1348	1353	1358	1367	1375	1375	1361	1366	1368	1362	1361	1359	1345	1338	1342	1355	1360	1371	1384	1381	1384	1391	1380	1372	1360	1355	1358	1351	1349	1351	1364	1363	1361	1357	1375	1402	1404	1395	1392	1392	1400	1404	1399	1409	1403	1388	1377	1371	1378	1383	1399	1397	1397	1406	1413	1410	1384	1375	1373	1371	1378	1393	1398	1403	1403	1399	1393	1392	1388	1384	1382	1384	1391	1396	1405	1404	1395	1386	1372	1371	1372	1380	1383	1383	1393	1397	1399	1398	1403	1398	1395	1391	1392	1400	1402	1403	1405	1413	1412	1394	1399	1400	1400	1394	1404	1420	1442	1451	1441	1436	1436	1432	1416	1405	1416	1441	1456	1466	1469	1469	1486	1486	1472	1462	1461	1465	1461	1454	1457	1452	1471	1473	1479	1500	1512	1506	1474	1452	1452	1447	1451	1458	1459	1443	1428	1446	1470	1494	1494	1494	1486	1473	1460	1461	1486	1495	1504	1515	1512	1502	1481	1473	1459	1451	1451	1479	1502	1513	1504	1503	1520	1532	1548	1562	1574	1588	1595	1557	1536	1549	1568	1580	1594	1607	1615	1612	1602	1588	1575	1575	1578	1583	1596	1599	1598	1599	1591	1589	1592	1587	1592	1596	1598	1597	1594	1596	1593	1597	1588	1572	1577	1576	1570	1557	1573	1584	1597	1594	1587	1588	1596	1611	1612	1606	1600	1595	1609	1610	1610	1601	1588	1588	1584	1585	1588	1599	1601	1601	1599	1607	1604	1596	1586	1586	1587	1587	1591	1583	1582	1582	1588	1596	1604	1601	1599	1604	1609	1613	1597	1583	1582	1579	1569	1569	1560	1559	1608	1624	0	0	0	0	0	0	0	0
1138	1138	1152	1167	1171	1165	1165	1159	1158	1164	1183	1183	1199	1206	1208	1199	1167	1167	1168	1170	1176	1176	1162	1152	1152	1148	1154	1163	1167	1171	1178	1178	1186	1187	1189	1186	1201	1207	1207	1207	1201	1204	1202	1201	1205	1194	1190	1190	1190	1184	1175	1179	1192	1202	1215	1233	1234	1230	1228	1193	1193	1192	1191	1190	1202	1221	1227	1218	1203	1193	1187	1191	1184	1192	1197	1201	1199	1198	1198	1205	1213	1224	1228	1225	1208	1196	1197	1193	1195	1197	1201	1201	1204	1205	1198	1188	1171	1183	1194	1204	1217	1224	1229	1235	1225	1216	1211	1220	1218	1233	1237	1231	1222	1217	1206	1207	1214	1216	1231	1247	1252	1251	1247	1240	1242	1240	1235	1231	1244	1251	1255	1251	1246	1247	1250	1241	1229	1227	1235	1247	1251	1254	1258	1250	1240	1239	1237	1244	1250	1249	1237	1243	1249	1242	1235	1231	1228	1235	1253	1273	1292	1286	1257	1237	1239	1239	1236	1226	1238	1248	1253	1252	1255	1250	1243	1240	1241	1243	1238	1230	1227	1227	1237	1241	1236	1233	1232	1259	1275	1290	1295	1292	1289	1276	1268	1267	1260	1248	1250	1255	1267	1255	1242	1234	1238	1253	1270	1278	1276	1261	1260	1270	1284	1297	1301	1305	1300	1290	1281	1274	1265	1274	1287	1296	1297	1290	1285	1280	1272	1274	1284	1295	1296	1294	1293	1293	1286	1278	1270	1266	1272	1272	1275	1275	1258	1249	1271	1285	1300	1306	1300	1287	1287	1288	1294	1311	1313	1321	1329	1313	1302	1299	1302	1320	1328	1325	1321	1317	1321	1317	1308	1296	1298	1308	1323	1349	1337	1323	1313	1303	1297	1287	1290	1293	1303	1304	1304	1297	1293	1290	1294	1301	1310	1312	1304	1302	1298	1310	1320	1320	1312	1310	1315	1315	1311	1309	1317	1309	1301	1299	1300	1307	1312	1308	1304	1322	1336	1342	1343	1342	1341	1340	1335	1332	1341	1350	1359	1350	1315	1308	1301	1294	1293	1307	1307	1302	1302	1302	1314	1326	1333	1335	1338	1334	1331	1330	1327	1326	1332	1341	1346	1343	1341	1351	1355	1351	1344	1346	1334	1327	1319	1313	1312	1316	1314	1313	1324	1342	1350	1347	1323	1331	1338	1341	1330	1318	1311	1314	1321	1334	1351	1362	1371	1363	1363	1368	1367	1351	1337	1336	1331	1327	1321	1328	1334	1333	1329	1339	1351	1370	1379	1367	1369	1370	1370	1363	1361	1360	1379	1385	1376	1367	1381	1392	1390	1384	1382	1384	1388	1384	1375	1356	1348	1354	1351	1361	1374	1368	1366	1380	1382	1379	1380	1384	1382	1391	1398	1400	1399	1392	1382	1367	1361	1353	1346	1349	1354	1360	1372	1379	1383	1384	1383	1376	1377	1375	1379	1391	1390	1390	1386	1389	1384	1386	1395	1404	1403	1390	1391	1411	1431	1446	1437	1432	1430	1424	1405	1399	1396	1421	1439	1452	1445	1437	1430	1422	1416	1427	1448	1443	1429	1427	1438	1446	1445	1442	1439	1441	1447	1456	1453	1445	1437	1433	1443	1448	1452	1451	1439	1457	1468	1469	1473	1491	1500	1491	1471	1454	1458	1467	1480	1494	1500	1504	1484	1474	1459	1447	1473	1488	1505	1517	1515	1502	1509	1524	1527	1536	1549	1560	1558	1540	1526	1523	1533	1544	1561	1583	1598	1592	1583	1574	1565	1554	1554	1562	1572	1572	1571	1578	1578	1578	1571	1564	1564	1562	1560	1570	1574	1579	1576	1567	1565	1553	1553	1551	1542	1541	1546	1561	1576	1578	1572	1563	1563	1566	1575	1579	1580	1584	1584	1587	1583	1573	1566	1559	1562	1572	1575	1588	1589	1587	1591	1593	1589	1577	1561	1561	1554	1556	1563	1571	1570	1565	1559	1566	1573	1572	1574	1576	1574	1573	1567	1569	1568	1559	1559	1548	1537	1526	1546	1561	0	0	0	0	0	0	0	0
1124	1124	1127	1134	1141	1143	1143	1152	1158	1165	1179	1179	1193	1200	1199	1182	1157	1157	1152	1164	1172	1171	1162	1150	1150	1145	1150	1152	1148	1147	1146	1146	1147	1157	1168	1177	1182	1192	1193	1193	1194	1191	1186	1165	1168	1168	1175	1173	1173	1168	1164	1169	1183	1194	1193	1187	1184	1161	1167	1165	1165	1168	1167	1162	1179	1190	1193	1190	1183	1164	1155	1150	1160	1170	1181	1181	1187	1182	1182	1194	1202	1209	1205	1194	1162	1149	1150	1155	1160	1168	1182	1189	1191	1182	1167	1162	1158	1154	1165	1187	1205	1212	1212	1210	1190	1171	1169	1170	1175	1187	1209	1224	1212	1197	1194	1195	1199	1205	1206	1209	1216	1216	1217	1221	1222	1219	1213	1208	1213	1218	1225	1212	1212	1214	1227	1216	1201	1199	1207	1222	1228	1221	1214	1210	1211	1211	1219	1229	1239	1233	1225	1222	1218	1224	1222	1224	1228	1236	1247	1255	1251	1245	1229	1220	1218	1214	1215	1212	1222	1230	1231	1237	1243	1238	1228	1222	1222	1223	1217	1211	1214	1217	1223	1228	1232	1230	1230	1233	1239	1248	1263	1258	1252	1237	1236	1233	1236	1237	1242	1252	1266	1251	1237	1228	1232	1242	1256	1257	1221	1222	1240	1252	1266	1281	1302	1299	1293	1273	1262	1244	1242	1248	1257	1272	1274	1274	1272	1270	1269	1267	1278	1284	1288	1288	1294	1286	1279	1266	1254	1251	1253	1258	1267	1264	1245	1239	1242	1259	1277	1283	1286	1279	1271	1270	1271	1270	1280	1294	1304	1291	1282	1281	1289	1288	1294	1297	1302	1302	1298	1277	1272	1279	1285	1283	1269	1278	1271	1272	1266	1265	1268	1275	1279	1291	1298	1294	1281	1268	1269	1279	1289	1292	1297	1296	1294	1288	1282	1298	1299	1287	1291	1294	1302	1291	1286	1290	1292	1292	1293	1295	1300	1314	1308	1290	1281	1290	1305	1313	1319	1307	1307	1310	1314	1324	1318	1319	1314	1302	1294	1293	1284	1283	1292	1294	1287	1275	1292	1293	1293	1299	1311	1320	1322	1322	1321	1321	1317	1311	1315	1313	1319	1316	1318	1330	1333	1334	1337	1336	1314	1302	1292	1288	1288	1286	1277	1271	1275	1281	1283	1292	1294	1302	1314	1310	1300	1295	1296	1312	1328	1338	1347	1350	1337	1335	1333	1326	1329	1330	1331	1330	1328	1325	1327	1332	1332	1321	1317	1314	1313	1312	1314	1329	1356	1353	1349	1340	1341	1333	1341	1349	1352	1352	1364	1371	1366	1365	1363	1365	1372	1370	1359	1339	1335	1335	1340	1345	1343	1349	1342	1355	1361	1369	1362	1364	1370	1376	1388	1391	1385	1373	1357	1353	1350	1348	1333	1337	1340	1348	1349	1354	1352	1351	1343	1344	1348	1362	1372	1374	1379	1373	1369	1362	1364	1376	1392	1406	1398	1388	1385	1394	1412	1415	1415	1418	1421	1411	1398	1388	1389	1413	1420	1402	1393	1390	1383	1376	1377	1375	1363	1391	1408	1420	1432	1438	1424	1414	1413	1402	1405	1422	1438	1434	1431	1427	1428	1433	1434	1434	1448	1456	1458	1442	1436	1449	1452	1455	1449	1432	1447	1475	1485	1480	1481	1485	1479	1464	1450	1458	1469	1487	1505	1518	1522	1519	1519	1519	1517	1495	1504	1511	1527	1513	1518	1514	1512	1515	1527	1541	1553	1564	1560	1555	1548	1536	1533	1532	1532	1535	1544	1549	1555	1554	1542	1535	1519	1523	1525	1529	1539	1536	1525	1529	1527	1524	1522	1522	1520	1519	1523	1541	1558	1559	1550	1537	1532	1531	1539	1552	1559	1559	1560	1560	1550	1538	1529	1531	1537	1539	1543	1557	1572	1575	1570	1574	1567	1557	1540	1540	1527	1530	1539	1545	1549	1543	1536	1523	1523	1541	1545	1546	1545	1543	1545	1550	1549	1533	1533	1516	1500	1508	1512	1519	0	0	0	0	0	0	0	0
1109	1109	1112	1119	1126	1122	1122	1126	1147	1161	1166	1179	1179	1181	1178	1156	1137	1137	1140	1147	1161	1167	1171	1161	1161	1151	1139	1136	1143	1149	1153	1153	1152	1151	1150	1156	1165	1174	1177	1177	1174	1165	1152	1147	1149	1156	1157	1154	1156	1156	1150	1156	1156	1157	1160	1155	1141	1149	1159	1164	1164	1157	1153	1156	1166	1176	1175	1168	1160	1149	1143	1141	1146	1150	1144	1134	1132	1131	1145	1145	1158	1172	1174	1162	1149	1139	1140	1145	1147	1147	1155	1167	1166	1162	1152	1144	1143	1147	1157	1173	1195	1197	1198	1184	1170	1161	1156	1149	1147	1150	1160	1175	1181	1179	1178	1177	1181	1191	1196	1199	1207	1211	1209	1202	1187	1178	1173	1175	1181	1191	1196	1201	1201	1197	1192	1191	1188	1189	1196	1203	1208	1210	1204	1198	1195	1202	1211	1219	1221	1219	1217	1215	1210	1210	1216	1221	1227	1232	1226	1225	1224	1222	1212	1202	1193	1193	1195	1203	1214	1216	1217	1223	1229	1221	1207	1202	1193	1189	1187	1195	1207	1216	1223	1227	1236	1233	1224	1221	1227	1233	1236	1230	1225	1232	1224	1223	1228	1233	1237	1240	1236	1229	1208	1220	1223	1228	1224	1214	1209	1204	1217	1232	1250	1259	1274	1270	1262	1251	1241	1232	1235	1238	1239	1242	1245	1251	1253	1248	1229	1218	1218	1238	1236	1239	1244	1256	1250	1240	1235	1229	1238	1246	1249	1253	1245	1238	1243	1254	1259	1263	1272	1265	1256	1249	1243	1239	1240	1258	1273	1282	1270	1248	1241	1241	1242	1260	1274	1273	1263	1255	1253	1258	1266	1262	1252	1250	1242	1269	1287	1287	1286	1278	1255	1259	1273	1258	1252	1255	1254	1261	1277	1284	1273	1262	1269	1283	1295	1296	1268	1262	1257	1249	1252	1262	1267	1264	1270	1271	1280	1286	1281	1277	1267	1260	1255	1247	1238	1254	1273	1284	1284	1266	1280	1284	1281	1291	1285	1281	1278	1275	1262	1271	1277	1285	1282	1275	1272	1277	1283	1281	1287	1303	1305	1298	1289	1294	1294	1287	1286	1289	1297	1287	1281	1281	1286	1295	1303	1298	1291	1274	1269	1274	1280	1279	1267	1265	1275	1278	1283	1286	1280	1277	1280	1286	1285	1280	1281	1297	1322	1334	1339	1326	1302	1297	1301	1310	1316	1320	1321	1323	1322	1322	1322	1311	1309	1304	1300	1299	1303	1307	1307	1318	1345	1348	1340	1327	1323	1318	1312	1313	1322	1330	1341	1341	1337	1337	1343	1342	1350	1349	1331	1321	1322	1327	1326	1330	1329	1336	1339	1341	1337	1344	1346	1354	1347	1343	1346	1361	1356	1350	1344	1344	1337	1341	1360	1353	1335	1332	1337	1345	1344	1342	1333	1332	1346	1354	1374	1375	1370	1364	1354	1342	1353	1363	1382	1399	1400	1390	1388	1389	1390	1379	1379	1378	1400	1388	1362	1362	1375	1373	1372	1357	1356	1351	1359	1369	1378	1378	1367	1364	1374	1378	1375	1398	1400	1378	1371	1377	1385	1399	1404	1423	1416	1409	1409	1412	1399	1408	1439	1448	1450	1443	1440	1432	1419	1420	1423	1422	1422	1430	1439	1435	1426	1430	1443	1444	1438	1432	1435	1440	1451	1462	1479	1493	1501	1495	1483	1469	1470	1483	1494	1497	1487	1478	1491	1496	1503	1509	1509	1509	1519	1524	1523	1518	1503	1496	1503	1515	1522	1527	1532	1532	1525	1493	1491	1506	1508	1507	1499	1486	1475	1472	1476	1479	1482	1484	1479	1478	1496	1520	1540	1540	1529	1516	1507	1502	1504	1509	1530	1535	1538	1528	1515	1510	1502	1506	1508	1506	1505	1505	1502	1525	1539	1545	1546	1526	1526	1510	1508	1508	1512	1517	1520	1519	1516	1505	1504	1514	1516	1521	1520	1515	1522	1525	1518	1507	1507	1491	1484	1481	1491	1501	0	0	0	0	0	0	0	0
