0	0	0	0	0	0	0	0	0	0	0	0	0	0	0	0	0	0	0	0	0	0	0	0	0	0	0	0	0	0	0	0	0	0	0	0	0	0	0	0	0	0	0	0	0	0	0	0	0	0	0	0	0	0	0	0	0	0	0	0	0	0	0	0	0	0	0	0	0	0	0	0	0	0	0	0	0	0	0	0	0	0	0	0	0	0	0	0	0	0	0	0	0	0	0	0	0	0	0	0	0	0	0	0	0	0	0	0	0	0	0	0	0	0	0	0	0	0	0	0	0	0	0	0	0	0	0	0	0	0	0	0	0	0	0	0	0	0	0	0	0	0	0	0	0	0	0	0	0	0	0	0	0	0	0	0	0	0	0	0	0	0	0	0	0	0	0	0	0	0	0	0	0	0	0	0	0	0	0	0	0	0	0	0	0	0	0	0	0	0	0	0	0	0	0	0	0	0	0	0	0	0	0	0	0	0	0	0	0	0	0	0	0	0	0	0	0	0	0	0	0	0	0	0	0	0	0	0	0	0	0	0	0	0	0	0	0	0	0	0	0	0	0	0	0	0	0	0	0	0	0	0	0	0	0	0	0	0	0	0	0	0	0	0	0	0	0	0	0	0	0	0	0	0	0	0	0	0	0	0	0	0	0	0	0	0	0	0	0	0	0	0	0	0	0	0	0	0	0	0	0	0	0	0	0	0	0	0	0	0	0	0	0	0	0	0	0	0	0	0	0	0	0	0	0	0	0	0	0	0	0	0	0	0	0	0	0	0	1198	1185	1189	1217	1221	1198	1169	1143	1125	1112	1154	1257	1285	1477	1552	1568	1557	1564	1570	1581	1588	1590	1599	1598	1593	1587	1591	1590	1589	1592	1593	1609	1619	1617	1612	1613	1624	1627	1633	1639	1634	1633	1635	1637	1627	1612	1600	1588	1578	1550	1554	1575	1586	1589	1584	1569	1577	1580	1583	1576	1566	1552	1525	1502	1487	1493	1516	1523	1545	1556	1551	1528	1501	1484	1499	1508	1497	1497	1511	1519	1517	1529	1522	1508	1488	1483	1472	1460	1448	1440	1438	1441	1454	1465	1462	1454	1444	1435	1432	1436	1428	1431	1427	1428	1427	1425	1421	1413	1401	1393	1403	1406	1411	1422	1438	1443	1427	1401	1381	1381	1395	1399	1399	1391	1385	1367	1344	1352	1338	1339	1349	1363	1374	1373	1319	1263	1125	1127	1224	1309	1356	1368	1379	1389	1393	1398	1425	1423	1417	1407	1403	1393	1393	1375	1364	1383	1375	1367	1348	1306	1287	1286	1286	1291	1282	1276	1371	1488	1518	1528	1519	1505	1491	1481	1485	1509	1534	1575	1629	1754	1811	1861	1897	1935	1935	1908	1879	1906	1930	1945	1946	1938	1938	1959	2061	2112	2274	2419	2461	2481	2530	2546	2547	2519	2371	2220	2128	2119	2139	2156	2140	2086	2074	2062	2040	2023	2023	2021	2011	1999	1999	2006	2018	2019	2015	1991	1939	1927	1927	1965	1961	1947	1931	1932	1926	1916	1927	1906	1907	1911	1916	1921	1918	1908	1880	1858	1853	1849	1845	1838	1818	1800	1800	1810	1832	1831	1819	1812	1788	1773	1764	1756	1747	1746	1753	1765	1774	1777	1773	1773	1765	1768	1774	1774	1769	1768	1769	1773	1770	1756	1747	1751	1756	1759	1746	1737	1724	1710	1699	1703	1703	1702	1699	1698	0	0	0	0	0	0	0	0
0	0	0	0	0	0	0	0	0	0	0	0	0	0	0	0	0	0	0	0	0	0	0	0	0	0	0	0	0	0	0	0	0	0	0	0	0	0	0	0	0	0	0	0	0	0	0	0	0	0	0	0	0	0	0	0	0	0	0	0	0	0	0	0	0	0	0	0	0	0	0	0	0	0	0	0	0	0	0	0	0	0	0	0	0	0	0	0	0	0	0	0	0	0	0	0	0	0	0	0	0	0	0	0	0	0	0	0	0	0	0	0	0	0	0	0	0	0	0	0	0	0	0	0	0	0	0	0	0	0	0	0	0	0	0	0	0	0	0	0	0	0	0	0	0	0	0	0	0	0	0	0	0	0	0	0	0	0	0	0	0	0	0	0	0	0	0	0	0	0	0	0	0	0	0	0	0	0	0	0	0	0	0	0	0	0	0	0	0	0	0	0	0	0	0	0	0	0	0	0	0	0	0	0	0	0	0	0	0	0	0	0	0	0	0	0	0	0	0	0	0	0	0	0	0	0	0	0	0	0	0	0	0	0	0	0	0	0	0	0	0	0	0	0	0	0	0	0	0	0	0	0	0	0	0	0	0	0	0	0	0	0	0	0	0	0	0	0	0	0	0	0	0	0	0	0	0	0	0	0	0	0	0	0	0	0	0	0	0	0	0	0	0	0	0	0	0	0	0	0	0	0	0	0	0	0	0	0	0	0	0	0	0	0	0	0	0	0	0	0	0	0	0	0	0	0	1451	1451	1444	1428	0	0	0	0	1380	1366	1319	1251	1208	1198	1205	1227	1221	1205	1164	1133	1112	1106	1104	1156	1257	1312	1432	1532	1535	1530	1531	1549	1559	1579	1597	1610	1622	1624	1607	1597	1606	1598	1584	1574	1617	1621	1605	1587	1574	1568	1565	1558	1525	1495	1494	1550	1570	1579	1566	1505	1510	1513	1540	1557	1573	1573	1563	1550	1560	1567	1562	1551	1547	1532	1501	1488	1474	1474	1489	1485	1472	1462	1448	1437	1414	1420	1431	1443	1454	1456	1454	1451	1446	1438	1445	1453	1461	1461	1455	1450	1445	1450	1465	1461	1457	1471	1462	1454	1445	1434	1435	1436	1433	1427	1423	1424	1420	1418	1420	1415	1404	1390	1389	1395	1405	1410	1414	1408	1403	1393	1378	1358	1354	1358	1371	1373	1367	1352	1331	1317	1315	1325	1341	1347	1360	1349	1317	1255	1070	1072	1149	1228	1295	1307	1313	1336	1354	1396	1412	1417	1407	1384	1363	1369	1372	1363	1373	1362	1347	1340	1324	1300	1274	1272	1279	1280	1268	1269	1338	1473	1505	1517	1506	1476	1464	1468	1474	1487	1504	1516	1543	1672	1743	1833	1894	1943	1971	1964	1961	1968	1969	1983	1997	1995	2004	2031	2099	2218	2314	2451	2481	2517	2544	2551	2538	2510	2389	2220	2132	2119	2132	2148	2136	2085	2076	2077	2050	2048	2051	2050	2028	2008	2004	2013	2021	2012	1990	1960	1927	1916	1916	1949	1953	1942	1933	1931	1930	1930	1918	1892	1892	1893	1897	1887	1898	1897	1887	1872	1865	1867	1870	1852	1823	1808	1806	1809	1817	1813	1808	1800	1785	1769	1764	1767	1775	1776	1772	1777	1780	1771	1767	1767	1767	1770	1768	1766	1765	1765	1760	1756	1744	1744	1748	1751	1756	1754	1747	1740	1728	1718	1714	1707	1705	1705	1704	1704	0	0	0	0	0	0	0	0
0	0	0	0	0	0	0	0	0	0	0	0	0	0	0	0	0	0	0	0	0	0	0	0	0	0	0	0	0	0	0	0	0	0	0	0	0	0	0	0	0	0	0	0	0	0	0	0	0	0	0	0	0	0	0	0	0	0	0	0	0	0	0	0	0	0	0	0	0	0	0	0	0	0	0	0	0	0	0	0	0	0	0	0	0	0	0	0	0	0	0	0	0	0	0	0	0	0	0	0	0	0	0	0	0	0	0	0	0	0	0	0	0	0	0	0	0	0	0	0	0	0	0	0	0	0	0	0	0	0	0	0	0	0	0	0	0	0	0	0	0	0	0	0	0	0	0	0	0	0	0	0	0	0	0	0	0	0	0	0	0	0	0	0	0	0	0	0	0	0	0	0	0	0	0	0	0	0	0	0	0	0	0	0	0	0	0	0	0	0	0	0	0	0	0	0	0	0	0	0	0	0	0	0	0	0	0	0	0	0	0	0	0	0	0	0	0	0	0	0	0	0	0	0	0	0	0	0	0	0	0	0	0	0	0	0	0	0	0	0	0	0	0	0	0	0	0	0	0	0	0	0	0	0	0	0	0	0	0	0	0	0	0	0	0	0	0	0	0	0	0	0	0	0	0	0	0	0	0	0	0	0	0	0	0	0	0	0	0	0	0	0	0	0	0	0	0	0	0	0	0	0	0	0	0	0	0	0	0	0	0	0	0	0	0	0	0	0	0	0	0	0	0	0	1506	1558	1687	1726	1722	1689	1553	1405	0	0	1370	1351	1312	1263	1218	1202	1223	1224	1195	1168	1154	1147	1118	1101	1121	1150	1235	1276	1378	1331	1482	1489	1499	1488	1474	1448	1434	1437	1436	1459	1514	1543	1546	1542	1532	1523	1584	1588	1587	1572	1560	1549	1555	1545	1514	1484	1481	1542	1562	1577	1561	1495	1489	1487	1482	1473	1472	1456	1447	1443	1447	1456	1460	1467	1447	1439	1440	1446	1450	1456	1464	1461	1455	1451	1435	1428	1417	1405	1412	1430	1434	1436	1432	1417	1402	1410	1452	1471	1465	1459	1454	1449	1449	1455	1470	1473	1477	1466	1457	1453	1446	1443	1439	1439	1433	1427	1430	1431	1432	1425	1420	1406	1391	1386	1388	1395	1398	1387	1352	1341	1342	1347	1366	1353	1370	1374	1368	1369	1364	1353	1334	1320	1311	1316	1327	1330	1323	1304	1241	1194	984	1013	1111	1185	1252	1279	1288	1295	1324	1341	1356	1378	1389	1375	1332	1348	1354	1350	1358	1339	1314	1309	1304	1293	1281	1273	1276	1257	1255	1272	1331	1447	1508	1510	1480	1454	1443	1452	1456	1475	1473	1482	1503	1601	1716	1812	1906	1973	2001	2006	2011	2006	2007	2020	2027	2022	2022	2040	2084	2208	2312	2463	2498	2533	2551	2548	2535	2513	2453	2264	2152	2136	2128	2125	2109	2074	2088	2095	2099	2095	2082	2061	2035	2007	1999	2008	2021	2004	1969	1947	1912	1882	1860	1873	1921	1928	1929	1935	1939	1933	1900	1881	1883	1880	1869	1871	1882	1900	1907	1904	1896	1886	1882	1868	1859	1852	1841	1828	1820	1813	1801	1789	1789	1794	1798	1801	1805	1808	1815	1815	1797	1779	1768	1763	1763	1760	1754	1755	1758	1756	1753	1741	1740	1741	1742	1741	1740	1740	1738	1733	1730	1725	1729	1716	1712	1712	1710	1705	0	0	0	0	0	0	0	0
0	0	0	0	0	0	0	0	0	0	0	0	0	0	0	0	0	0	0	0	0	0	0	0	0	0	0	0	0	0	0	0	0	0	0	0	0	0	0	0	0	0	0	0	0	0	0	0	0	0	0	0	0	0	0	0	0	0	0	0	0	0	0	0	0	0	0	0	0	0	0	0	0	0	0	0	0	0	0	0	0	0	0	0	0	0	0	0	0	0	0	0	0	0	0	0	0	0	0	0	0	0	0	0	0	0	0	0	0	0	0	0	0	0	0	0	0	0	0	0	0	0	0	0	0	0	0	0	0	0	0	0	0	0	0	0	0	0	0	0	0	0	0	0	0	0	0	0	0	0	0	0	0	0	0	0	0	0	0	0	0	0	0	0	0	0	0	0	0	0	0	0	0	0	0	0	0	0	0	0	0	0	0	0	0	0	0	0	0	0	0	0	0	0	0	0	0	0	0	0	0	0	0	0	0	0	0	0	0	0	0	0	0	0	0	0	0	0	0	0	0	0	0	0	0	0	0	0	0	0	0	0	0	0	0	0	0	0	0	0	0	0	0	0	0	0	0	0	0	0	0	0	0	0	0	0	0	0	0	0	0	0	0	0	0	0	0	0	0	0	0	0	0	0	0	0	0	0	0	0	0	0	0	0	0	0	0	0	0	0	0	0	0	0	0	0	0	0	0	0	0	0	0	0	0	0	0	0	0	0	0	0	0	0	0	0	0	0	0	0	0	0	0	0	1607	1676	1712	1732	1739	1718	1696	1557	1393	1368	1350	1336	1293	1263	1230	1223	1228	1196	1208	1256	1268	1258	1246	1242	1247	1217	1222	1215	1352	1314	1373	1466	1475	1476	1455	1430	1419	1422	1423	1440	1476	1499	1495	1481	1475	1470	1460	1447	1418	1404	1415	1419	1446	1454	1447	1447	1456	1468	1475	1476	1468	1463	1465	1465	1449	1449	1447	1450	1446	1442	1451	1446	1452	1451	1459	1451	1444	1447	1449	1451	1455	1453	1446	1438	1428	1423	1418	1399	1400	1413	1420	1423	1415	1401	1400	1403	1454	1473	1466	1451	1444	1443	1451	1466	1483	1484	1472	1455	1445	1440	1437	1452	1436	1426	1431	1443	1439	1437	1431	1415	1412	1407	1395	1386	1388	1389	1383	1358	1335	1306	1327	1319	1306	1356	1345	1396	1381	1360	1360	1358	1342	1320	1302	1295	1297	1307	1300	1289	1227	1199	1101	1104	1102	1151	1232	1262	1271	1284	1309	1320	1337	1357	1367	1354	1327	1336	1330	1336	1332	1311	1292	1289	1284	1283	1281	1284	1276	1247	1238	1267	1346	1490	1527	1521	1497	1461	1441	1440	1450	1451	1451	1454	1477	1568	1683	1817	1914	1990	2025	2040	2035	2027	2030	2038	2040	2022	2018	2017	2043	2084	2293	2426	2488	2528	2543	2545	2536	2506	2460	2297	2177	2147	2128	2113	2098	2067	2079	2089	2107	2097	2081	2046	1998	1989	1987	1999	2013	1998	1973	1951	1908	1872	1776	1798	1859	1901	1926	1912	1916	1917	1904	1929	1935	1943	1919	1887	1880	1890	1901	1902	1895	1889	1885	1875	1866	1865	1857	1846	1834	1822	1806	1796	1798	1803	1810	1811	1815	1816	1817	1813	1801	1787	1776	1771	1771	1756	1750	1751	1754	1752	1752	1748	1744	1744	1744	1738	1726	1717	1723	1730	1734	1736	1734	1725	1709	1709	1700	1701	0	0	0	0	0	0	0	0
0	0	0	0	0	0	0	0	0	0	0	0	0	0	0	0	0	0	0	0	0	0	0	0	0	0	0	0	0	0	0	0	0	0	0	0	0	0	0	0	0	0	0	0	0	0	0	0	0	0	0	0	0	0	0	0	0	0	0	0	0	0	0	0	0	0	0	0	0	0	0	0	0	0	0	0	0	0	0	0	0	0	0	0	0	0	0	0	0	0	0	0	0	0	0	0	0	0	0	0	0	0	0	0	0	0	0	0	0	0	0	0	0	0	0	0	0	0	0	0	0	0	0	0	0	0	0	0	0	0	0	0	0	0	0	0	0	0	0	0	0	0	0	0	0	0	0	0	0	0	0	0	0	0	0	0	0	0	0	0	0	0	0	0	0	0	0	0	0	0	0	0	0	0	0	0	0	0	0	0	0	0	0	0	0	0	0	0	0	0	0	0	0	0	0	0	0	0	0	0	0	0	0	0	0	0	0	0	0	0	0	0	0	0	0	0	0	0	0	0	0	0	0	0	0	0	0	0	0	0	0	0	0	0	0	0	0	0	0	0	0	0	0	0	0	0	0	0	0	0	0	0	0	0	0	0	0	0	0	0	0	0	0	0	0	0	0	0	0	0	0	0	0	0	0	0	0	0	0	0	0	0	0	0	0	0	0	0	0	0	0	0	0	0	0	0	0	0	0	0	0	0	0	0	0	0	0	0	0	0	0	0	0	0	0	0	0	0	0	0	0	0	0	1566	1663	1685	1725	1737	1717	1684	1659	1657	1493	1444	1427	1415	1367	1353	1331	1307	1333	1349	1364	1382	1413	1388	1355	1331	1361	1371	1375	1352	1303	1298	1296	1346	1470	1350	1392	1383	1383	1376	1391	1398	1409	1418	1423	1433	1436	1436	1434	1421	1417	1419	1420	1423	1439	1441	1439	1442	1456	1465	1470	1465	1459	1452	1458	1460	1456	1451	1450	1451	1452	1453	1451	1442	1441	1451	1460	1462	1459	1455	1453	1452	1450	1432	1433	1439	1437	1430	1418	1402	1403	1408	1415	1423	1419	1407	1405	1421	1415	1426	1426	1425	1438	1443	1444	1448	1459	1470	1475	1460	1436	1427	1423	1455	1426	1422	1423	1428	1439	1435	1414	1408	1408	1403	1394	1385	1382	1381	1384	1342	1294	1295	1299	1318	1298	1331	1400	1372	1389	1346	1346	1342	1333	1314	1295	1283	1280	1287	1292	1283	1232	1224	1157	1140	1162	1263	1263	1267	1274	1274	1274	1267	1280	1291	1300	1308	1303	1289	1309	1307	1305	1284	1270	1270	1269	1271	1276	1278	1268	1236	1222	1268	1361	1516	1551	1548	1537	1520	1477	1464	1460	1453	1443	1452	1483	1592	1692	1808	1912	2002	2041	2059	2064	2061	2067	2067	2037	2009	1993	1994	2024	2060	2240	2371	2451	2496	2526	2537	2534	2514	2496	2340	2200	2142	2111	2095	2072	2046	2073	2092	2079	2066	2040	2015	1997	1986	1988	1994	2004	2003	2008	2041	1954	1813	1788	1767	1832	1892	1897	1905	1913	1923	1935	1961	1969	1952	1940	1913	1895	1889	1894	1903	1898	1893	1886	1871	1873	1877	1873	1859	1849	1834	1815	1807	1808	1817	1821	1821	1818	1815	1817	1817	1809	1796	1785	1767	1760	1760	1751	1754	1754	1754	1757	1757	1758	1762	1764	1756	1744	1722	1724	1746	1755	1766	1761	1733	1697	1697	1668	1665	0	0	0	0	0	0	0	0
0	0	0	0	0	0	0	0	0	0	0	0	0	0	0	0	0	0	0	0	0	0	0	0	0	0	0	0	0	0	0	0	0	0	0	0	0	0	0	0	0	0	0	0	0	0	0	0	0	0	0	0	0	0	0	0	0	0	0	0	0	0	0	0	0	0	0	0	0	0	0	0	0	0	0	0	0	0	0	0	0	0	0	0	0	0	0	0	0	0	0	0	0	0	0	0	0	0	0	0	0	0	0	0	0	0	0	0	0	0	0	0	0	0	0	0	0	0	0	0	0	0	0	0	0	0	0	0	0	0	0	0	0	0	0	0	0	0	0	0	0	0	0	0	0	0	0	0	0	0	0	0	0	0	0	0	0	0	0	0	0	0	0	0	0	0	0	0	0	0	0	0	0	0	0	0	0	0	0	0	0	0	0	0	0	0	0	0	0	0	0	0	0	0	0	0	0	0	0	0	0	0	0	0	0	0	0	0	0	0	0	0	0	0	0	0	0	0	0	0	0	0	0	0	0	0	0	0	0	0	0	0	0	0	0	0	0	0	0	0	0	0	0	0	0	0	0	0	0	0	0	0	0	0	0	0	0	0	0	0	0	0	0	0	0	0	0	0	0	0	0	0	0	0	0	0	0	0	0	0	0	0	0	0	0	0	0	0	0	0	0	0	0	0	0	0	0	0	0	0	0	0	0	0	0	0	0	0	0	0	0	0	1174	1321	1379	1357	1309	1296	1304	1307	1310	1317	1355	1405	1435	1503	1527	1535	1541	1526	1535	1510	1484	1433	1437	1444	1445	1438	1426	1419	1429	1428	1432	1444	1455	1425	1418	1414	1415	1448	1415	1383	1348	1286	1256	1302	1332	1395	1388	1408	1391	1381	1377	1375	1358	1380	1422	1433	1435	1431	1434	1434	1432	1422	1427	1430	1440	1440	1435	1436	1452	1459	1464	1460	1455	1447	1444	1449	1453	1455	1455	1455	1454	1456	1447	1421	1421	1443	1457	1462	1461	1455	1447	1456	1449	1449	1446	1440	1437	1431	1421	1423	1411	1412	1420	1446	1441	1434	1428	1447	1431	1413	1424	1426	1438	1442	1442	1447	1451	1470	1473	1464	1446	1421	1409	1412	1412	1414	1413	1418	1422	1423	1416	1400	1407	1396	1380	1375	1376	1377	1383	1362	1304	1291	1292	1318	1308	1340	1373	1377	1375	1344	1332	1325	1314	1312	1290	1285	1282	1291	1296	1291	1280	1233	1231	1243	1285	1289	1287	1284	1276	1275	1271	1264	1266	1275	1285	1289	1287	1278	1279	1280	1257	1246	1243	1246	1250	1259	1263	1259	1260	1233	1216	1267	1367	1506	1574	1576	1565	1548	1516	1481	1472	1458	1456	1471	1511	1643	1734	1817	1906	1991	2055	2089	2089	2082	2089	2078	2050	2007	1977	1983	2021	2051	2204	2339	2421	2470	2497	2519	2540	2539	2514	2358	2192	2132	2109	2081	2064	2038	2060	2075	2066	2045	2014	1997	1996	2001	2007	2009	2026	2072	2059	2032	1967	1842	1824	1796	1839	1900	1899	1906	1915	1933	1940	1967	1971	1965	1950	1929	1908	1892	1899	1903	1901	1899	1889	1872	1872	1883	1883	1871	1861	1846	1832	1820	1818	1824	1839	1837	1829	1821	1819	1818	1817	1804	1797	1783	1774	1774	1762	1762	1764	1776	1779	1775	1785	1798	1800	1792	1784	1770	1771	1793	1817	1814	1798	1763	1731	1731	1722	1728	0	0	0	0	0	0	0	0
0	0	0	0	0	0	0	0	0	0	0	0	0	0	0	0	0	0	0	0	0	0	0	0	0	0	0	0	0	0	0	0	0	0	0	0	0	0	0	0	0	0	0	0	0	0	0	0	0	0	0	0	0	0	0	0	0	0	0	0	0	0	0	0	0	0	0	0	0	0	0	0	0	0	0	0	0	0	0	0	0	0	0	0	0	0	0	0	0	0	0	0	0	0	0	0	0	0	0	0	0	0	0	0	0	0	0	0	0	0	0	0	0	0	0	0	0	0	0	0	0	0	0	0	0	0	0	0	0	0	0	0	0	0	0	0	0	0	0	0	0	0	0	0	0	0	0	0	0	0	0	0	0	0	0	0	0	0	0	0	0	0	0	0	0	0	0	0	0	0	0	0	0	0	0	0	0	0	0	0	0	0	0	0	0	0	0	0	0	0	0	0	0	0	0	0	0	0	0	0	0	0	0	0	0	0	0	0	0	0	0	0	0	0	0	0	0	0	0	0	0	0	0	0	0	0	0	0	0	0	0	0	0	0	0	0	0	0	0	0	0	0	0	0	0	0	0	0	0	0	0	0	0	0	0	0	0	0	0	0	0	0	0	0	0	0	0	0	0	0	0	0	0	0	0	0	0	0	0	0	0	0	0	0	0	0	0	0	0	0	0	0	0	0	1183	1287	1337	1356	1328	1276	1202	1266	1375	1417	1418	1410	1416	1433	1432	1403	1384	1376	1378	1396	1436	1435	1415	1402	1408	1416	1424	1432	1422	1423	1415	1435	1451	1463	1455	1447	1452	1453	1447	1454	1434	1436	1428	1436	1439	1463	1431	1424	1420	1427	1433	1425	1421	1412	1412	1422	1426	1414	1384	1278	1271	1248	1344	1420	1436	1433	1392	1389	1376	1372	1363	1387	1390	1420	1423	1427	1444	1448	1445	1436	1432	1442	1447	1444	1435	1434	1441	1440	1444	1439	1440	1448	1451	1450	1449	1447	1452	1462	1461	1463	1456	1434	1426	1433	1445	1450	1452	1442	1455	1465	1466	1464	1457	1447	1439	1430	1426	1430	1424	1419	1428	1456	1453	1449	1477	1475	1456	1441	1431	1436	1438	1448	1451	1452	1454	1468	1473	1468	1453	1429	1414	1411	1410	1403	1395	1395	1400	1404	1404	1403	1394	1376	1358	1349	1349	1356	1368	1377	1326	1303	1296	1314	1308	1345	1371	1371	1358	1343	1327	1318	1303	1301	1295	1301	1311	1314	1308	1302	1295	1274	1267	1279	1295	1301	1300	1293	1289	1287	1280	1271	1262	1270	1274	1279	1276	1267	1265	1249	1236	1228	1228	1236	1245	1250	1255	1261	1251	1234	1212	1308	1402	1534	1634	1637	1642	1631	1592	1605	1615	1610	1592	1601	1633	1756	1831	1899	1973	2046	2093	2128	2151	2156	2128	2094	2070	2040	2010	2010	2140	2243	2271	2361	2419	2464	2504	2543	2572	2577	2556	2360	2245	2187	2159	2137	2095	2050	2058	2066	2058	2048	2015	1997	1999	2010	2017	2028	2025	2042	2044	2028	1979	1881	1867	1844	1851	1904	1910	1913	1919	1935	1937	1953	1958	1960	1954	1940	1919	1892	1894	1935	1963	1971	1962	1925	1916	1935	1951	1959	1939	1912	1891	1875	1872	1895	1918	1937	1961	1968	1943	1938	1932	1899	1851	1837	1830	1830	1850	1871	1894	1896	1875	1863	1841	1835	1835	1825	1814	1810	1813	1835	1848	1847	1832	1798	1771	1771	1791	1821	0	0	0	0	0	0	0	0
0	0	0	0	0	0	0	0	0	0	0	0	0	0	0	0	0	0	0	0	0	0	0	0	0	0	0	0	0	0	0	0	0	0	0	0	0	0	0	0	0	0	0	0	0	0	0	0	0	0	0	0	0	0	0	0	0	0	0	0	0	0	0	0	0	0	0	0	0	0	0	0	0	0	0	0	0	0	0	0	0	0	0	0	0	0	0	0	0	0	0	0	0	0	0	0	0	0	0	0	0	0	0	0	0	0	0	0	0	0	0	0	0	0	0	0	0	0	0	0	0	0	0	0	0	0	0	0	0	0	0	0	0	0	0	0	0	0	0	0	0	0	0	0	0	0	0	0	0	0	0	0	0	0	0	0	0	0	0	0	0	0	0	0	0	0	0	0	0	0	0	0	0	0	0	0	0	0	0	0	0	0	0	0	0	0	0	0	0	0	0	0	0	0	0	0	0	0	0	0	0	0	0	0	0	0	0	0	0	0	0	0	0	0	0	0	0	0	0	0	0	0	0	0	0	0	0	0	0	0	0	0	0	0	0	0	0	0	0	0	0	0	0	0	0	0	0	0	0	0	0	0	0	0	0	0	0	0	0	0	0	0	0	0	0	0	0	0	0	0	0	0	0	0	0	0	1203	1213	1248	1283	1297	1314	1342	1354	1349	1334	1323	1339	1353	1385	1426	1424	1373	1340	1336	1381	1407	1419	1401	1397	1391	1376	1430	1450	1457	1451	1455	1460	1461	1464	1469	1461	1419	1417	1409	1418	1423	1428	1430	1447	1440	1445	1444	1445	1459	1426	1421	1437	1430	1440	1451	1460	1451	1446	1435	1441	1433	1430	1436	1453	1424	1424	1420	1426	1422	1441	1422	1415	1414	1406	1410	1415	1383	1281	1274	1240	1346	1328	1417	1394	1390	1394	1397	1396	1393	1393	1394	1396	1431	1407	1440	1448	1450	1442	1437	1429	1429	1430	1437	1428	1436	1439	1450	1445	1435	1438	1455	1452	1437	1427	1450	1466	1473	1480	1462	1454	1447	1450	1444	1446	1452	1449	1450	1453	1465	1468	1460	1453	1443	1432	1426	1425	1421	1424	1431	1448	1452	1466	1497	1492	1468	1452	1440	1433	1441	1444	1449	1451	1458	1465	1478	1474	1460	1437	1423	1419	1414	1400	1388	1387	1389	1398	1398	1400	1390	1371	1354	1350	1351	1354	1359	1367	1329	1314	1313	1310	1301	1350	1380	1375	1361	1346	1320	1313	1305	1306	1309	1322	1325	1326	1320	1312	1308	1298	1269	1281	1297	1300	1299	1297	1299	1293	1285	1270	1262	1261	1267	1269	1268	1252	1238	1231	1221	1219	1225	1235	1239	1240	1249	1261	1252	1240	1215	1320	1465	1657	1768	1730	1716	1713	1653	1679	1707	1708	1703	1688	1703	1778	1841	1910	1997	2065	2111	2159	2188	2200	2199	2258	2251	2256	2265	2297	2319	2343	2405	2410	2443	2490	2553	2594	2623	2620	2565	2380	2252	2186	2163	2145	2105	2064	2058	2063	2066	2064	2052	2027	2009	2014	2025	2036	2023	2017	2020	2004	1942	1940	1922	1908	1902	1912	1926	1927	1933	1940	1930	1944	1943	1943	1942	1931	1926	1929	1940	1983	2014	2010	2002	1978	1978	1986	2001	2001	1990	1953	1942	1927	1921	1927	1941	1957	1976	1988	1995	1999	2004	1985	1962	1951	1943	1950	1950	1960	1953	1916	1900	1885	1869	1859	1857	1849	1861	1887	1878	1871	1874	1858	1856	1822	1858	1898	1898	1916	0	0	0	0	0	0	0	0
0	0	0	0	0	0	0	0	0	0	0	0	0	0	0	0	0	0	0	0	0	0	0	0	0	0	0	0	0	0	0	0	0	0	0	0	0	0	0	0	0	0	0	0	0	0	0	0	0	0	0	0	0	0	0	0	0	0	0	0	0	0	0	0	0	0	0	0	0	0	0	0	0	0	0	0	0	0	0	0	0	0	0	0	0	0	0	0	0	0	0	0	0	0	0	0	0	0	0	0	0	0	0	0	0	0	0	0	0	0	0	0	0	0	0	0	0	0	0	0	0	0	0	0	0	0	0	0	0	0	0	0	0	0	0	0	0	0	0	0	0	0	0	0	0	0	0	0	0	0	0	0	0	0	0	0	0	0	0	0	0	0	0	0	0	0	0	0	0	0	0	0	0	0	0	0	0	0	0	0	0	0	0	0	0	0	0	0	0	0	0	0	0	0	0	0	0	0	0	0	0	0	0	0	0	0	0	0	0	0	0	0	0	0	0	0	0	0	0	0	0	0	0	0	0	0	0	0	0	0	0	0	0	0	0	0	0	0	0	0	0	0	0	0	0	0	0	0	0	0	0	0	0	0	0	0	0	0	0	0	0	1161	1225	1289	1349	1329	1262	1317	1356	1390	1381	1383	1385	1382	1381	1375	1373	1373	1387	1417	1437	1450	1445	1433	1414	1407	1425	1433	1428	1419	1409	1418	1411	1395	1384	1376	1397	1423	1429	1436	1433	1414	1421	1413	1420	1402	1417	1425	1458	1462	1461	1453	1450	1450	1456	1436	1432	1433	1454	1458	1448	1452	1438	1449	1453	1446	1423	1420	1408	1434	1444	1438	1437	1458	1440	1434	1440	1435	1425	1438	1449	1428	1426	1435	1443	1423	1420	1413	1412	1418	1401	1410	1401	1291	1274	1250	1304	1337	1322	1319	1334	1355	1375	1398	1389	1393	1411	1437	1414	1440	1448	1443	1438	1467	1469	1453	1437	1430	1438	1444	1451	1449	1455	1447	1441	1420	1454	1447	1438	1456	1460	1473	1484	1475	1470	1467	1466	1459	1452	1451	1449	1457	1456	1451	1456	1461	1460	1456	1445	1432	1420	1418	1419	1424	1430	1433	1433	1473	1495	1495	1471	1452	1442	1437	1436	1443	1445	1443	1449	1459	1475	1472	1462	1455	1443	1425	1418	1424	1403	1399	1395	1396	1396	1397	1389	1374	1357	1356	1356	1355	1355	1334	1316	1319	1326	1310	1294	1366	1390	1382	1407	1351	1306	1302	1295	1301	1314	1318	1327	1326	1322	1312	1307	1301	1278	1285	1297	1298	1295	1298	1300	1298	1283	1264	1256	1253	1257	1265	1264	1247	1227	1213	1201	1211	1229	1239	1236	1239	1249	1260	1255	1243	1239	1346	1573	1890	1993	2017	2063	2025	2041	2044	1887	1842	1811	1774	1766	1835	1912	1970	2042	2093	2139	2182	2220	2252	2306	2376	2401	2405	2416	2450	2458	2464	2466	2468	2491	2527	2571	2601	2626	2635	2601	2410	2277	2202	2176	2176	2160	2122	2117	2130	2142	2165	2169	2160	2141	2123	2121	2117	2137	2150	2107	2021	2008	1990	1979	1972	1978	1969	1950	1961	1968	1946	1935	1937	1938	1935	1931	1928	1939	1965	1978	2004	2011	2003	1999	1996	1999	2002	1999	1988	1981	1976	1973	1978	1975	1969	1963	1965	1968	1985	1992	1998	2002	2005	1988	1975	1958	1960	1960	1964	1968	1957	1985	1983	1981	1981	1967	1945	1923	1892	1891	1874	1874	1886	1923	2001	2049	2078	2078	2083	0	0	0	0	0	0	0	0
0	0	0	0	0	0	0	0	0	0	0	0	0	0	0	0	0	0	0	0	0	0	0	0	0	0	0	0	0	0	0	0	0	0	0	0	0	0	0	0	0	0	0	0	0	0	0	0	0	0	0	0	0	0	0	0	0	0	0	0	0	0	0	0	0	0	0	0	0	0	0	0	0	0	0	0	0	0	0	0	0	0	0	0	0	0	0	0	0	0	0	0	0	0	0	0	0	0	0	0	0	0	0	0	0	0	0	0	0	0	0	0	0	0	0	0	0	0	0	0	0	0	0	0	0	0	0	0	0	0	0	0	0	0	0	0	0	0	0	0	0	0	0	0	0	0	0	0	0	0	0	0	0	0	0	0	0	0	0	0	0	0	0	0	0	0	0	0	0	0	0	0	0	0	0	0	0	0	0	0	0	0	0	0	0	0	0	0	0	0	0	0	0	0	0	0	0	0	0	0	0	0	0	0	0	0	0	0	0	0	0	0	0	0	0	0	0	0	0	0	0	0	0	0	0	0	0	0	0	0	0	0	0	0	0	0	0	0	0	0	0	0	0	1066	1055	1041	1049	1094	1182	1312	1322	1288	1263	1243	1262	1326	1350	1357	1363	1370	1393	1448	1449	1437	1415	1389	1369	1390	1406	1388	1405	1424	1424	1425	1421	1431	1436	1434	1437	1459	1465	1470	1464	1460	1410	1402	1419	1435	1433	1411	1435	1439	1412	1417	1403	1393	1403	1421	1431	1442	1429	1417	1420	1419	1400	1420	1446	1437	1465	1470	1473	1464	1454	1452	1443	1439	1427	1428	1428	1435	1438	1425	1432	1433	1454	1446	1441	1438	1444	1434	1441	1440	1444	1451	1432	1440	1443	1431	1437	1419	1431	1440	1434	1437	1413	1433	1408	1402	1407	1414	1408	1420	1412	1307	1283	1265	1320	1322	1320	1319	1325	1343	1376	1381	1403	1400	1428	1414	1435	1461	1448	1449	1433	1439	1448	1457	1446	1440	1447	1468	1462	1454	1453	1455	1448	1421	1451	1449	1460	1468	1469	1480	1479	1467	1467	1470	1461	1453	1441	1437	1435	1451	1454	1453	1453	1449	1457	1457	1451	1436	1420	1413	1414	1421	1415	1429	1431	1460	1477	1478	1470	1448	1437	1436	1436	1442	1445	1445	1447	1468	1482	1475	1474	1458	1431	1420	1422	1449	1455	1452	1426	1411	1401	1385	1368	1357	1358	1359	1364	1346	1291	1258	1262	1318	1331	1311	1295	1319	1387	1384	1378	1346	1291	1280	1283	1301	1308	1312	1316	1316	1307	1297	1294	1295	1296	1300	1307	1303	1297	1297	1297	1294	1284	1266	1253	1247	1249	1257	1258	1247	1234	1212	1212	1214	1241	1254	1251	1240	1251	1257	1256	1254	1253	1410	1583	1905	2222	2278	2316	2340	2298	2146	2097	1945	1886	1834	1810	1976	2068	2070	2090	2102	2140	2185	2226	2281	2363	2396	2414	2447	2462	2474	2473	2495	2497	2534	2539	2566	2583	2594	2615	2618	2613	2444	2286	2257	2244	2255	2257	2242	2261	2273	2289	2242	2232	2228	2233	2233	2221	2213	2252	2288	2219	2098	2050	2043	2044	2064	2219	2088	1998	2007	1988	1965	1941	1928	1929	1925	1928	1940	1973	1984	1992	2002	2003	1999	1998	1997	2008	2013	2004	1994	1984	1979	1979	1984	1983	1986	1982	1978	1961	1972	1988	1992	1999	2003	1999	1990	1974	1975	1975	1973	1994	2024	2128	2129	2151	2190	2151	2063	1980	1898	1830	1810	1905	1972	2063	2192	2314	2386	2386	2360	0	0	0	0	0	0	0	0
0	0	0	0	0	0	0	0	0	0	0	0	0	0	0	0	0	0	0	0	0	0	0	0	0	0	0	0	0	0	0	0	0	0	0	0	0	0	0	0	0	0	0	0	0	0	0	0	0	0	0	0	0	0	0	0	0	0	0	0	0	0	0	0	0	0	0	0	0	0	0	0	0	0	0	0	0	0	0	0	0	0	0	0	0	0	0	0	0	0	0	0	0	0	0	0	0	0	0	0	0	0	0	0	0	0	0	0	0	0	0	0	0	0	0	0	0	0	0	0	0	0	0	0	0	0	0	0	0	0	0	0	0	0	0	0	0	0	0	0	0	0	0	0	0	0	0	0	0	0	0	0	0	0	0	0	0	0	0	0	0	0	0	0	0	0	0	0	0	0	0	0	0	0	0	0	0	0	0	0	0	0	0	0	0	0	0	0	0	0	0	0	0	0	0	0	0	0	0	0	0	0	0	0	0	0	0	0	0	0	0	0	0	0	0	0	0	0	0	0	0	0	0	0	0	0	0	0	0	1006	1154	1203	1184	1138	1216	1307	1325	1340	1353	1343	1324	1306	1314	1326	1302	1281	1316	1350	1414	1431	1425	1399	1380	1359	1335	1353	1373	1402	1406	1392	1401	1434	1442	1430	1414	1402	1411	1423	1430	1428	1419	1410	1400	1402	1406	1435	1438	1434	1432	1441	1445	1425	1433	1441	1433	1395	1429	1446	1445	1411	1437	1442	1415	1422	1409	1390	1399	1413	1429	1430	1425	1419	1427	1431	1423	1442	1435	1450	1441	1436	1448	1446	1420	1423	1417	1428	1423	1422	1426	1411	1414	1428	1426	1420	1435	1430	1430	1436	1438	1447	1437	1449	1454	1453	1422	1444	1449	1430	1421	1419	1430	1430	1416	1414	1413	1424	1395	1398	1391	1412	1424	1447	1415	1314	1286	1275	1321	1295	1303	1308	1336	1333	1344	1382	1408	1427	1431	1416	1433	1445	1453	1427	1445	1462	1451	1447	1435	1454	1454	1442	1444	1436	1442	1461	1454	1443	1457	1454	1454	1472	1469	1491	1469	1459	1465	1463	1453	1441	1433	1423	1430	1445	1449	1462	1460	1450	1452	1453	1452	1437	1407	1405	1409	1414	1417	1417	1435	1449	1451	1451	1445	1428	1411	1410	1433	1451	1476	1508	1496	1475	1517	1501	1489	1483	1474	1458	1471	1476	1471	1454	1423	1364	1332	1300	1293	1288	1289	1291	1295	1278	1241	1213	1214	1268	1319	1303	1293	1316	1388	1383	1371	1339	1286	1275	1283	1305	1313	1307	1304	1299	1289	1283	1281	1283	1300	1309	1315	1312	1306	1291	1287	1291	1288	1287	1278	1260	1257	1258	1261	1254	1241	1230	1224	1231	1264	1277	1271	1250	1251	1252	1251	1257	1266	1447	1618	1997	2300	2408	2466	2464	2384	2315	2185	2011	1949	1901	1867	2065	2094	2107	2106	2114	2152	2189	2230	2277	2347	2400	2442	2460	2476	2488	2497	2514	2528	2550	2573	2590	2587	2578	2596	2607	2624	2622	2466	2325	2339	2361	2380	2379	2390	2416	2489	2536	2542	2540	2508	2416	2389	2456	2474	2469	2479	2511	2521	2522	2496	2431	2325	2186	2046	2039	2001	1976	1955	1934	1930	1927	1937	1981	1982	1982	1987	1997	2001	1994	1991	2004	2014	2015	2005	1997	1993	1985	1985	1991	1999	1996	1991	1984	1968	1974	1987	1991	1996	1997	2000	1994	1994	1995	1998	1998	2053	2154	2290	2304	2355	2357	2329	2271	2181	2029	1822	1727	1792	1925	2079	2259	2384	2495	2495	2536	0	0	0	0	0	0	0	0
0	0	0	0	0	0	0	0	0	0	0	0	0	0	0	0	0	0	0	0	0	0	0	0	0	0	0	0	0	0	0	0	0	0	0	0	0	0	0	0	0	0	0	0	0	0	0	0	0	0	0	0	0	0	0	0	0	0	0	0	0	0	0	0	0	0	0	0	0	0	0	0	0	0	0	0	0	0	0	0	0	0	0	0	0	0	0	0	0	0	0	0	0	0	0	0	0	0	0	0	0	0	0	0	0	0	0	0	0	0	0	0	0	0	0	0	0	0	0	0	0	0	0	0	0	0	0	0	0	0	0	0	0	0	0	0	0	0	0	0	0	0	0	0	0	0	0	0	0	0	0	0	0	0	0	0	0	0	0	0	0	0	0	0	0	0	0	0	0	0	0	0	0	0	0	0	0	0	0	0	0	0	0	0	0	0	0	0	0	0	0	0	0	0	0	0	0	0	0	0	1227	1241	1245	1254	1206	1137	1158	0	0	0	1149	1172	1182	1202	1232	1325	1338	1341	1327	1322	1310	1292	1240	1250	1259	1263	1278	1316	1333	1307	1332	1324	1310	1283	1374	1373	1361	1368	1398	1402	1390	1380	1378	1381	1374	1373	1407	1423	1418	1420	1418	1420	1418	1408	1389	1388	1397	1414	1408	1392	1387	1397	1411	1416	1406	1406	1411	1425	1431	1433	1419	1398	1396	1404	1420	1445	1436	1428	1428	1437	1443	1421	1428	1434	1420	1380	1375	1427	1429	1403	1394	1440	1441	1433	1414	1397	1404	1418	1420	1427	1425	1426	1439	1440	1421	1440	1447	1442	1459	1455	1437	1448	1428	1430	1423	1418	1416	1412	1427	1429	1419	1426	1429	1434	1432	1429	1431	1432	1443	1454	1458	1445	1451	1453	1418	1429	1426	1430	1435	1432	1431	1428	1421	1411	1411	1420	1392	1381	1383	1399	1433	1432	1407	1409	1288	1312	1289	1295	1295	1300	1336	1338	1342	1377	1405	1432	1441	1431	1413	1432	1443	1444	1449	1454	1450	1435	1429	1447	1462	1449	1458	1451	1443	1465	1460	1451	1459	1456	1453	1459	1487	1459	1459	1454	1463	1464	1452	1438	1425	1421	1441	1443	1447	1458	1471	1462	1447	1440	1436	1435	1418	1435	1445	1451	1447	1440	1438	1410	1426	1456	1462	1441	1448	1478	1510	1647	1503	1573	1499	1595	1705	1742	1755	1766	1774	1767	1740	1665	1496	1435	1370	1313	1274	1243	1219	1188	1161	1144	1129	1109	1097	1169	1190	1203	1275	1288	1280	1317	1388	1389	1360	1351	1300	1286	1288	1306	1321	1312	1305	1296	1281	1271	1272	1277	1298	1314	1321	1321	1305	1295	1289	1288	1289	1294	1294	1282	1274	1270	1270	1266	1250	1236	1235	1255	1275	1279	1274	1249	1238	1243	1246	1254	1277	1478	1820	2074	2329	2442	2505	2510	2481	2422	2305	2097	1995	1955	1935	2086	2124	2124	2124	2123	2156	2185	2225	2277	2335	2399	2443	2453	2468	2482	2507	2521	2553	2573	2589	2577	2566	2564	2581	2606	2635	2663	2680	2698	2721	2744	2753	2713	2704	2709	2715	2713	2722	2722	2720	2715	2726	2755	2771	2761	2743	2724	2712	2711	2641	2495	2391	2239	2059	2046	1992	1968	1959	1946	1941	1957	1970	1976	1979	1981	1979	1978	1980	1987	1999	2007	2010	2009	2007	2001	2002	1997	1994	1996	2002	2006	2000	1991	1993	1997	1992	1995	1991	1989	1995	2003	1999	1997	2003	2003	2090	2298	2322	2451	2510	2516	2493	2416	2314	2163	1936	1764	1769	1842	1994	2188	2364	2495	2495	2576	0	0	0	0	0	0	0	0
0	0	0	0	0	0	0	0	0	0	0	0	0	0	0	0	0	0	0	0	0	0	0	0	0	0	0	0	0	0	0	0	0	0	0	0	0	0	0	0	0	0	0	0	0	0	0	0	0	0	0	0	0	0	0	0	0	0	0	0	0	0	0	0	0	0	0	0	0	0	0	0	0	0	0	0	0	0	0	0	0	0	0	0	0	0	0	0	0	0	0	0	0	0	0	0	0	0	0	0	0	0	0	0	0	0	0	0	0	0	0	0	0	0	0	0	0	0	0	0	0	0	0	0	0	0	0	0	0	0	0	0	0	0	0	0	0	0	0	0	0	0	0	0	0	0	0	0	0	0	0	0	0	0	0	0	0	0	0	0	0	0	0	0	0	0	0	0	0	0	0	0	0	0	0	0	0	0	0	0	0	0	0	0	0	0	0	0	0	0	1201	1182	1211	1263	1303	1327	1327	1341	1353	1370	1375	1381	1380	1391	1392	1381	1389	1400	1389	1359	1352	1366	1371	1369	1363	1389	1405	1420	1420	1396	1387	1393	1411	1406	1384	1370	1362	1372	1400	1369	1347	1321	1306	1350	1375	1386	1375	1381	1382	1379	1383	1384	1384	1405	1421	1433	1435	1425	1421	1418	1422	1421	1411	1412	1411	1409	1416	1422	1409	1399	1385	1393	1395	1404	1406	1408	1413	1421	1433	1436	1425	1409	1407	1416	1432	1448	1436	1430	1425	1441	1430	1436	1436	1427	1387	1381	1377	1416	1419	1426	1405	1438	1440	1433	1420	1409	1406	1415	1416	1417	1416	1421	1445	1441	1413	1417	1446	1452	1451	1454	1457	1441	1425	1417	1415	1410	1407	1412	1428	1430	1440	1429	1431	1438	1430	1430	1431	1429	1437	1455	1454	1453	1448	1432	1433	1425	1428	1431	1440	1425	1431	1418	1412	1416	1424	1417	1401	1391	1376	1405	1426	1425	1414	1405	1403	1390	1376	1312	1302	1316	1336	1326	1325	1372	1403	1427	1420	1435	1435	1429	1442	1443	1442	1443	1429	1430	1449	1466	1464	1448	1453	1445	1448	1469	1468	1466	1471	1459	1455	1460	1475	1462	1442	1430	1437	1447	1458	1459	1452	1432	1429	1430	1450	1482	1507	1501	1424	1424	1433	1443	1453	1462	1483	1488	1495	1480	1461	1454	1477	1481	1497	1541	1713	1747	1516	1758	1666	1810	1721	1788	1768	1785	1799	1809	1812	1799	1760	1555	1509	1326	1273	1241	1220	1196	1172	1158	1151	1142	1131	1108	1085	1078	1142	1189	1262	1285	1283	1327	1363	1369	1360	1346	1310	1315	1307	1312	1321	1324	1319	1306	1284	1280	1281	1282	1302	1317	1324	1321	1298	1288	1288	1295	1297	1302	1302	1292	1285	1281	1279	1272	1255	1252	1257	1270	1280	1278	1269	1247	1232	1233	1241	1267	1289	1444	1782	2069	2336	2492	2550	2551	2543	2493	2402	2207	2056	1988	1981	2100	2135	2159	2156	2151	2173	2192	2221	2291	2356	2417	2444	2446	2460	2483	2515	2538	2552	2582	2589	2574	2569	2569	2592	2628	2661	2686	2706	2736	2753	2778	2794	2780	2749	2745	2732	2741	2764	2767	2759	2765	2759	2748	2750	2737	2742	2756	2758	2738	2683	2538	2414	2274	2037	2019	1976	1977	1972	1962	1956	1980	1978	1976	1979	1979	1975	1964	1966	1980	1998	1996	1994	2004	2000	2002	2009	2009	2004	2006	2013	2009	2007	2012	2012	2006	2002	1995	1978	1983	1994	2003	2002	1997	2012	2012	2107	2303	2465	2489	2513	2537	2508	2471	2377	2245	2120	1811	1757	1813	1922	2089	2276	2426	2426	2525	0	0	0	0	0	0	0	0
0	0	0	0	0	0	0	0	0	0	0	0	0	0	0	0	0	0	0	0	0	0	0	0	0	0	0	0	0	0	0	0	0	0	0	0	0	0	0	0	0	0	0	0	0	0	0	0	0	0	0	0	0	0	0	0	0	0	0	0	0	0	0	0	0	0	0	0	0	0	0	0	0	0	0	0	0	0	0	0	0	0	0	0	0	0	0	0	0	0	0	0	0	0	0	0	0	0	0	0	0	0	0	0	0	0	0	0	0	0	0	0	0	0	0	0	0	0	0	0	0	0	0	0	0	0	0	0	0	0	0	0	0	0	0	0	0	0	0	0	0	0	0	0	0	0	0	0	0	0	0	0	0	0	0	0	0	0	0	0	0	0	0	0	0	0	0	0	0	0	1081	1086	1105	1135	1258	1298	1316	1309	1295	1331	1335	1337	1313	1268	1254	1248	1286	1336	1347	1399	1382	1358	1340	1354	1377	1385	1393	1395	1392	1393	1393	1396	1402	1405	1404	1384	1402	1413	1415	1397	1394	1408	1418	1419	1405	1393	1392	1390	1391	1388	1396	1411	1424	1414	1404	1399	1392	1392	1395	1385	1367	1347	1343	1358	1380	1401	1405	1398	1387	1379	1381	1382	1384	1414	1415	1419	1432	1428	1424	1423	1429	1424	1415	1414	1413	1409	1418	1422	1413	1403	1390	1381	1383	1394	1403	1409	1412	1416	1427	1438	1429	1415	1418	1430	1459	1447	1441	1441	1452	1435	1418	1402	1397	1394	1390	1389	1409	1408	1412	1420	1426	1433	1428	1429	1424	1425	1425	1435	1429	1419	1424	1415	1427	1438	1430	1426	1446	1454	1459	1455	1457	1441	1425	1423	1419	1409	1433	1415	1424	1425	1418	1430	1439	1437	1441	1445	1439	1430	1439	1452	1460	1463	1451	1433	1457	1447	1446	1435	1425	1438	1431	1430	1414	1419	1419	1432	1421	1408	1408	1421	1425	1417	1420	1435	1448	1413	1392	1377	1324	1332	1346	1321	1322	1369	1374	1396	1418	1413	1403	1433	1440	1450	1415	1408	1425	1439	1455	1456	1440	1439	1441	1462	1453	1461	1455	1447	1437	1426	1419	1421	1435	1444	1437	1430	1434	1440	1453	1449	1424	1442	1483	1547	1871	2149	2190	2218	2000	1976	1979	1910	1735	1599	1548	1530	1534	1531	1526	1528	1534	1550	1587	1603	1650	1731	1755	1806	1857	1855	1847	1804	1807	1819	1836	1840	1842	1827	1798	1591	1401	1328	1278	1243	1216	1200	1172	1140	1137	1131	1124	1105	1084	1075	1124	1186	1261	1285	1289	1336	1373	1374	1372	1341	1315	1322	1319	1312	1316	1323	1330	1330	1322	1314	1304	1297	1304	1317	1324	1316	1296	1287	1289	1298	1298	1306	1304	1298	1289	1287	1283	1272	1267	1268	1273	1286	1290	1287	1275	1246	1240	1241	1247	1276	1294	1387	1728	2067	2336	2522	2578	2589	2572	2536	2438	2272	2127	2023	2003	2121	2164	2198	2194	2191	2185	2204	2237	2310	2379	2449	2464	2462	2466	2488	2529	2546	2576	2591	2594	2594	2594	2601	2622	2648	2674	2698	2722	2753	2769	2788	2808	2798	2761	2762	2752	2763	2780	2780	2777	2779	2782	2771	2751	2738	2744	2759	2762	2758	2684	2530	2403	2263	2001	1972	1974	1982	1979	1976	1976	1990	2012	1982	1978	1978	1969	1961	1961	1969	2004	2004	2010	2004	1998	1999	2009	2011	2009	2007	2013	2013	2014	2022	2024	2018	2005	1993	1984	1983	1992	1998	1997	1988	2000	2000	2127	2311	2461	2444	2477	2505	2491	2463	2376	2244	2113	1971	1752	1784	1864	1986	2161	2327	2413	2413	0	0	0	0	0	0	0	0
0	0	0	0	0	0	0	0	0	0	0	0	0	0	0	0	0	0	0	0	0	0	0	0	0	0	0	0	0	0	0	0	0	0	0	0	0	0	0	0	0	0	0	0	0	0	0	0	0	0	0	0	0	0	0	0	0	0	0	0	0	0	0	0	0	0	0	0	0	0	0	0	0	0	0	0	0	0	0	0	0	0	0	0	0	0	0	0	0	0	0	0	0	0	0	0	0	0	0	0	0	0	0	0	0	0	0	0	0	0	0	0	0	0	0	0	0	0	0	0	0	0	0	0	0	0	0	0	0	0	0	0	0	0	0	0	0	0	0	0	0	0	0	0	0	0	0	0	0	0	0	0	0	0	1115	1094	1097	1120	1091	1039	1097	1167	1194	1231	1247	1268	1282	1285	1285	1272	1289	1295	1298	1304	1346	1351	1347	1333	1320	1334	1357	1383	1398	1394	1371	1344	1323	1330	1344	1374	1378	1366	1363	1361	1366	1374	1378	1385	1384	1380	1369	1347	1330	1322	1332	1404	1416	1407	1395	1392	1388	1385	1389	1395	1398	1394	1395	1395	1395	1394	1400	1404	1411	1403	1400	1401	1401	1395	1392	1388	1372	1356	1353	1364	1384	1404	1413	1407	1391	1387	1385	1382	1381	1415	1415	1419	1436	1438	1435	1431	1433	1427	1417	1418	1419	1420	1425	1423	1406	1399	1388	1384	1389	1400	1410	1418	1419	1420	1422	1424	1424	1419	1426	1438	1460	1457	1457	1451	1460	1443	1415	1418	1406	1392	1392	1395	1416	1410	1410	1414	1426	1426	1426	1423	1424	1425	1432	1437	1448	1437	1433	1419	1407	1424	1425	1434	1455	1459	1450	1457	1466	1459	1421	1424	1423	1428	1432	1444	1446	1418	1445	1438	1452	1441	1422	1439	1441	1454	1442	1441	1457	1452	1443	1454	1431	1452	1460	1459	1449	1441	1437	1419	1414	1416	1424	1434	1428	1428	1409	1407	1405	1419	1437	1459	1456	1434	1408	1371	1333	1342	1346	1324	1320	1322	1368	1377	1395	1392	1392	1411	1409	1405	1377	1389	1406	1418	1396	1363	1336	1333	1336	1344	1339	1366	1362	1322	1288	1271	1291	1319	1353	1345	1326	1323	1329	1362	1381	1401	1456	1550	1683	1958	1778	2080	2245	2261	2073	2076	2048	1890	1781	1650	1612	1591	1593	1586	1572	1578	1569	1584	1601	1649	1720	1758	1774	1830	1872	1863	1859	1851	1843	1843	1850	1862	1859	1848	1821	1642	1410	1340	1280	1239	1221	1205	1173	1133	1118	1122	1120	1113	1102	1096	1131	1208	1269	1273	1292	1331	1384	1398	1399	1350	1311	1317	1311	1307	1319	1325	1327	1328	1331	1328	1320	1310	1304	1313	1318	1317	1304	1292	1292	1291	1295	1302	1302	1297	1296	1294	1296	1296	1302	1289	1292	1305	1300	1293	1287	1265	1252	1255	1264	1284	1287	1356	1717	2042	2328	2552	2605	2609	2580	2522	2422	2297	2139	2053	2022	2160	2220	2273	2254	2220	2221	2237	2249	2327	2389	2464	2483	2480	2476	2495	2541	2570	2589	2597	2597	2613	2629	2631	2656	2673	2680	2698	2722	2760	2769	2793	2799	2788	2774	2757	2752	2765	2776	2783	2787	2796	2799	2778	2762	2760	2768	2778	2782	2751	2665	2533	2424	2203	1954	1959	1975	1984	1981	1970	1982	1995	2010	2014	1987	1982	1986	1999	1996	2004	2003	2004	2008	2008	2003	2004	2008	2003	1995	1996	2000	2004	2014	2018	2021	2016	2004	1992	1989	1996	1997	1996	1991	1990	1995	2105	2105	2299	2375	2380	2420	2443	2425	2369	2305	2200	2097	2026	1814	1760	1808	1928	2030	2193	2284	2284	0	0	0	0	0	0	0	0
0	0	0	0	0	0	0	0	0	0	0	0	0	0	0	0	0	0	0	0	0	0	0	0	0	0	0	0	0	0	0	0	0	0	0	0	0	0	0	0	0	0	0	0	0	0	0	0	0	0	0	0	0	0	0	0	0	0	0	0	0	0	0	0	0	0	0	0	0	0	0	0	0	0	0	0	0	0	0	0	0	0	0	0	0	0	0	0	0	0	0	0	0	0	0	0	0	0	0	0	0	0	0	0	0	0	0	0	0	0	0	0	0	0	0	0	0	0	0	0	0	0	0	0	0	0	0	0	0	0	0	0	0	0	0	0	0	1167	0	0	0	1157	1167	1160	1176	1290	1347	1322	1286	1273	1287	1312	1313	1287	1287	1303	1321	1326	1310	1263	1316	1347	1354	1342	1318	1311	1304	1306	1312	1316	1331	1342	1345	1347	1393	1409	1402	1381	1352	1347	1361	1375	1378	1378	1372	1362	1348	1336	1373	1395	1386	1366	1361	1365	1368	1366	1370	1382	1396	1404	1399	1362	1345	1350	1382	1427	1424	1398	1394	1393	1386	1381	1384	1396	1405	1415	1405	1398	1398	1401	1403	1401	1403	1403	1407	1409	1406	1399	1398	1391	1385	1374	1365	1374	1388	1423	1437	1438	1428	1398	1370	1356	1372	1412	1426	1435	1442	1438	1436	1428	1424	1392	1393	1412	1435	1444	1443	1431	1404	1418	1408	1406	1404	1406	1412	1423	1427	1434	1432	1422	1417	1421	1430	1438	1461	1458	1453	1459	1459	1453	1435	1427	1428	1398	1396	1392	1397	1419	1387	1419	1387	1418	1414	1412	1413	1422	1433	1450	1443	1435	1427	1424	1409	1410	1406	1427	1456	1444	1432	1448	1451	1446	1419	1422	1435	1433	1444	1454	1448	1464	1487	1452	1439	1450	1435	1427	1429	1448	1470	1449	1447	1449	1451	1447	1452	1440	1455	1451	1448	1451	1437	1420	1410	1416	1429	1436	1418	1432	1432	1407	1403	1403	1411	1441	1441	1433	1408	1382	1353	1337	1338	1330	1312	1296	1244	1260	1279	1286	1288	1293	1280	1263	1226	1201	1192	1198	1183	1186	1200	1190	1197	1204	1219	0	0	0	0	0	0	0	0	0	0	0	0	0	0	0	0	0	1698	1858	2077	2199	2317	2327	2222	2174	2156	2001	1734	1671	1626	1613	1617	1609	1604	1595	1589	1594	1618	1667	1744	1784	1793	1836	1881	1879	1884	1880	1855	1844	1847	1866	1871	1866	1850	1687	1414	1342	1290	1254	1242	1224	1188	1136	1104	1115	1136	1133	1131	1134	1151	1208	1265	1273	1286	1313	1403	1401	1398	1353	1302	1287	1293	1307	1326	1329	1329	1327	1327	1329	1324	1317	1304	1309	1316	1311	1303	1299	1294	1292	1293	1295	1298	1306	1307	1309	1310	1310	1314	1320	1320	1316	1309	1299	1298	1298	1281	1275	1275	1282	1281	1339	1669	2024	2415	2553	2602	2603	2563	2493	2380	2244	2114	2067	2066	2223	2303	2306	2294	2256	2240	2253	2273	2323	2384	2453	2483	2485	2483	2500	2568	2592	2596	2593	2601	2617	2642	2659	2657	2670	2675	2682	2696	2749	2775	2794	2799	2789	2764	2743	2746	2753	2768	2768	2779	2792	2800	2795	2774	2775	2782	2786	2759	2712	2639	2520	2422	2198	1964	1966	1982	1987	1987	1982	1995	1990	2008	2017	2003	1991	1995	2006	2015	2014	2000	1995	1999	2004	2001	2002	2003	1996	1992	1993	2001	2008	2005	2004	2005	2001	1995	1994	1998	2007	2005	1998	1989	1985	1982	2077	2077	2205	2318	2300	2329	2358	2349	2315	2268	2186	2108	2033	1920	1783	1788	1855	1947	2031	2126	2126	0	0	0	0	0	0	0	0
0	0	0	0	0	0	0	0	0	0	0	0	0	0	0	0	0	0	0	0	0	0	0	0	0	0	0	0	0	0	0	0	0	0	0	0	0	0	0	0	0	0	0	0	0	0	0	0	0	0	0	0	0	0	0	0	0	0	0	0	0	0	0	0	0	0	0	0	0	0	0	0	0	0	0	0	0	0	0	0	0	0	0	0	0	0	0	0	0	0	0	0	0	0	0	0	0	0	0	0	0	0	0	0	0	0	0	0	0	0	0	0	0	0	0	0	0	0	0	0	0	0	0	0	0	0	0	0	0	0	0	0	0	0	0	1169	1308	1310	1294	1332	1353	1376	1329	1331	1339	1364	1386	1380	1369	1355	1361	1376	1392	1397	1402	1401	1387	1369	1351	1347	1348	1352	1332	1326	1308	1298	1298	1295	1311	1365	1364	1367	1361	1363	1399	1414	1411	1395	1377	1366	1373	1378	1374	1366	1358	1358	1365	1373	1387	1397	1380	1362	1366	1374	1381	1379	1380	1389	1405	1412	1408	1390	1378	1377	1390	1443	1416	1396	1394	1397	1393	1381	1385	1399	1413	1423	1416	1407	1403	1400	1396	1389	1393	1401	1402	1404	1401	1403	1407	1399	1395	1386	1385	1389	1402	1421	1430	1433	1426	1403	1391	1388	1369	1389	1413	1421	1436	1432	1428	1410	1386	1387	1388	1400	1416	1425	1436	1402	1399	1405	1420	1414	1411	1414	1421	1430	1440	1450	1449	1432	1415	1418	1425	1431	1448	1456	1447	1442	1420	1423	1433	1433	1435	1404	1395	1391	1391	1401	1405	1383	1404	1403	1408	1412	1416	1425	1442	1451	1449	1429	1423	1411	1406	1413	1418	1429	1452	1437	1415	1451	1434	1452	1420	1421	1441	1445	1440	1433	1470	1476	1466	1449	1448	1457	1433	1438	1435	1434	1465	1457	1455	1458	1458	1450	1450	1451	1452	1459	1456	1459	1438	1419	1414	1425	1434	1412	1427	1429	1435	1432	1432	1422	1413	1445	1440	1431	1413	1393	1362	1331	1328	1341	1325	1258	1273	1211	1037	1006	973	978	1008	1032	1030	1031	1060	0	0	0	0	0	0	0	0	0	0	0	0	0	0	0	0	0	0	0	0	0	0	0	0	0	0	1972	2138	2248	2345	2355	2317	2245	2222	2070	1716	1660	1630	1626	1630	1635	1618	1601	1577	1569	1594	1654	1761	1808	1806	1836	1876	1894	1908	1899	1859	1845	1844	1857	1874	1880	1876	1744	1437	1333	1273	1266	1258	1240	1206	1145	1120	1129	1150	1161	1163	1166	1161	1195	1256	1277	1279	1294	1361	1402	1404	1358	1286	1269	1291	1315	1328	1331	1322	1317	1314	1322	1318	1311	1309	1308	1311	1307	1310	1304	1307	1296	1294	1291	1297	1303	1316	1321	1316	1310	1313	1322	1321	1325	1314	1305	1306	1310	1308	1298	1289	1283	1289	1316	1658	2034	2084	2283	2387	2416	2414	2367	2286	2162	2108	2088	2094	2261	2309	2319	2317	2256	2239	2237	2261	2296	2375	2420	2454	2475	2492	2515	2591	2597	2596	2594	2605	2624	2634	2650	2668	2665	2658	2659	2687	2745	2770	2804	2788	2777	2752	2737	2733	2710	2708	2701	2738	2759	2769	2770	2747	2753	2740	2721	2634	2570	2512	2465	2388	2275	2018	1982	1988	1992	1996	2006	2005	1979	1987	1998	1999	1994	1998	2009	2015	2012	1999	1994	1989	1990	1989	1993	1998	1998	1995	1997	2001	2004	1997	1990	1982	1985	1988	1998	2002	2002	2011	2002	1996	1995	1991	2064	2064	2178	2261	2239	2252	2279	2281	2258	2224	2175	2113	2025	1901	1793	1745	1779	1849	1924	2001	2001	0	0	0	0	0	0	0	0
0	0	0	0	0	0	0	0	0	0	0	0	0	0	0	0	0	0	0	0	0	0	0	0	0	0	0	0	0	0	0	0	0	0	0	0	0	0	0	0	0	0	0	0	0	0	0	0	0	0	0	0	0	0	0	0	0	0	0	0	0	0	0	0	0	0	0	0	0	0	0	0	0	0	0	0	0	0	0	0	0	0	0	0	0	0	0	0	0	0	0	0	0	0	0	0	0	0	0	0	0	0	0	0	0	0	0	0	0	0	0	0	0	0	0	0	0	0	0	0	0	0	0	0	0	0	0	0	0	0	0	0	0	0	1141	1279	1283	1298	1284	1330	1374	1380	1352	1353	1362	1373	1382	1382	1389	1388	1392	1403	1406	1401	1395	1383	1376	1368	1352	1334	1340	1343	1340	1323	1297	1297	1297	1300	1366	1368	1353	1360	1369	1375	1394	1401	1394	1380	1377	1377	1382	1384	1380	1370	1365	1359	1363	1370	1387	1393	1382	1367	1370	1369	1378	1377	1381	1392	1405	1413	1407	1397	1392	1388	1397	1436	1435	1421	1432	1425	1416	1396	1387	1402	1423	1426	1423	1411	1406	1400	1393	1384	1368	1389	1400	1392	1387	1396	1400	1401	1396	1390	1386	1388	1386	1400	1418	1423	1419	1403	1397	1398	1395	1383	1391	1396	1405	1416	1419	1407	1383	1383	1387	1398	1406	1419	1432	1432	1409	1408	1422	1410	1414	1418	1431	1438	1451	1460	1459	1441	1421	1415	1420	1424	1432	1453	1442	1435	1432	1427	1434	1433	1438	1403	1395	1387	1405	1429	1421	1422	1425	1428	1413	1416	1421	1428	1448	1453	1440	1417	1409	1412	1405	1427	1437	1430	1437	1449	1440	1438	1444	1435	1421	1423	1442	1441	1434	1442	1444	1452	1439	1438	1448	1461	1437	1441	1436	1440	1432	1436	1454	1458	1457	1456	1456	1450	1437	1440	1447	1449	1435	1434	1434	1433	1410	1440	1435	1433	1432	1435	1427	1428	1441	1446	1443	1434	1422	1398	1372	1342	1336	1350	1338	1297	1243	1092	1067	0	0	0	0	0	0	0	0	0	0	0	0	0	0	0	0	0	0	0	0	0	0	0	0	0	0	0	0	0	0	0	0	0	0	2026	2140	2254	2338	2354	2364	2309	2266	2102	1713	1654	1631	1633	1643	1654	1635	1592	1559	1542	1551	1620	1764	1824	1823	1859	1880	1908	1916	1904	1863	1856	1848	1850	1862	1871	1880	1789	1464	1329	1272	1264	1266	1252	1209	1163	1144	1155	1165	1182	1187	1176	1158	1178	1241	1270	1268	1266	1362	1399	1414	1378	1296	1272	1292	1317	1324	1323	1319	1318	1311	1312	1309	1298	1303	1306	1306	1306	1311	1311	1315	1308	1298	1287	1292	1298	1304	1309	1303	1294	1293	1294	1306	1310	1314	1311	1315	1318	1316	1309	1304	1303	1303	1301	1498	1820	2002	2105	2144	2144	2138	2146	2127	2116	2113	2107	2120	2185	2288	2308	2268	2226	2209	2211	2234	2271	2332	2379	2427	2444	2472	2520	2567	2577	2575	2586	2594	2620	2627	2641	2647	2628	2564	2564	2621	2656	2653	2634	2603	2598	2573	2545	2550	2541	2529	2530	2542	2540	2550	2538	2540	2538	2524	2510	2474	2452	2431	2410	2360	2202	2022	1996	2001	2002	2001	2019	2019	1988	1971	1976	1983	1993	1995	2006	2017	2016	2003	1998	1995	1994	1986	1993	1998	2001	1995	1992	2000	1997	1992	1985	1984	1985	1995	2002	2007	2008	2011	2012	2010	2003	2007	2063	2063	2140	2133	2184	2178	2198	2222	2220	2197	2158	2089	2000	1901	1817	1733	1720	1770	1837	1906	1906	0	0	0	0	0	0	0	0
0	0	0	0	0	0	0	0	0	0	0	0	0	0	0	0	0	0	0	0	0	0	0	0	0	0	0	0	0	0	0	0	0	0	0	0	0	0	0	0	0	0	0	0	0	0	0	0	0	0	0	0	0	0	0	0	0	0	0	0	0	0	0	0	0	0	0	0	0	0	0	0	0	0	0	0	0	0	0	0	0	0	0	0	0	0	0	0	0	0	0	0	0	0	0	0	0	0	0	0	0	0	0	0	0	0	0	0	0	0	0	0	0	0	0	0	0	0	0	0	0	0	0	0	0	0	0	0	0	0	0	0	0	0	1170	1283	1302	1290	1312	1345	1370	1371	1364	1354	1339	1345	1361	1380	1390	1397	1390	1379	1376	1381	1382	1379	1374	1373	1363	1368	1340	1336	1341	1336	1310	1310	1308	1349	1370	1361	1359	1366	1381	1387	1387	1386	1382	1381	1379	1378	1385	1385	1396	1389	1371	1363	1362	1363	1361	1376	1378	1379	1371	1374	1372	1374	1377	1385	1398	1403	1412	1408	1410	1411	1432	1446	1454	1444	1445	1436	1421	1403	1393	1406	1426	1428	1419	1411	1403	1399	1391	1383	1356	1370	1396	1388	1380	1384	1405	1409	1392	1385	1380	1377	1379	1390	1400	1406	1406	1400	1399	1398	1395	1386	1390	1394	1403	1412	1414	1402	1396	1395	1405	1408	1406	1415	1432	1446	1432	1428	1415	1419	1427	1432	1434	1442	1456	1465	1460	1447	1428	1421	1418	1423	1437	1448	1444	1444	1438	1428	1423	1425	1433	1400	1397	1413	1437	1423	1469	1465	1445	1425	1430	1421	1422	1428	1438	1445	1441	1422	1405	1396	1409	1432	1443	1433	1442	1452	1443	1451	1438	1450	1423	1420	1423	1452	1439	1446	1442	1448	1438	1441	1446	1446	1443	1442	1443	1443	1433	1438	1441	1445	1455	1455	1448	1442	1437	1452	1448	1445	1435	1419	1420	1427	1435	1441	1444	1440	1431	1427	1437	1419	1420	1432	1435	1445	1430	1411	1403	1365	1354	1363	1350	1321	1284	1219	0	0	0	0	0	0	0	0	0	0	0	0	0	0	0	0	0	0	0	0	0	0	0	0	0	0	0	0	0	0	0	0	0	0	0	2024	2147	2272	2345	2365	2397	2341	2319	2139	1733	0	0	1644	1655	1656	1639	1606	1556	1526	1511	1599	1779	1829	1838	1874	1897	1903	1904	1889	1869	1862	1856	1854	1859	1867	1876	1809	1531	1346	1286	1261	1260	1256	1216	1180	1167	1172	1178	1187	1194	1181	1150	1160	1224	1254	1252	1247	1339	1372	1377	1383	1314	1289	1297	1307	1309	1308	1308	1313	1317	1312	1300	1286	1294	1298	1302	1304	1308	1311	1309	1305	1294	1287	1284	1282	1285	1282	1277	1263	1259	1263	1273	1289	1304	1312	1320	1322	1322	1314	1320	1324	1323	1293	1405	1684	2010	2087	2119	2116	2096	2090	2084	2090	2101	2118	2146	2169	2173	2199	2181	2193	2187	2183	2190	2224	2288	2303	2302	2310	2333	2341	2348	2364	2380	2396	2393	2431	2467	2484	2490	2472	2473	2491	2511	2494	2469	2454	2539	2522	2495	2472	2438	2445	2450	2436	2437	2435	2454	2467	2454	2441	2432	2421	2393	2370	2359	2341	2287	2148	2007	2010	2012	2008	1997	1994	2010	2017	1982	1968	1970	1985	2001	2017	2026	2027	2016	2002	1995	1989	1983	1990	1998	1997	1988	1985	1988	1993	1992	1994	1998	2002	2007	2007	2005	2009	2014	2016	2017	2013	2027	2058	2058	2058	2113	2026	2019	2017	2029	2053	2078	2080	2041	2000	1961	1919	1873	1720	1719	1759	1809	1809	0	0	0	0	0	0	0	0
0	0	0	0	0	0	0	0	0	0	0	0	0	0	0	0	0	0	0	0	0	0	0	0	0	0	0	0	0	0	0	0	0	0	0	0	0	0	0	0	0	0	0	0	0	0	0	0	0	0	0	0	0	0	0	0	0	0	0	0	0	0	0	0	0	0	0	0	0	0	0	0	0	0	0	0	0	0	0	0	0	0	0	0	0	0	0	0	0	0	0	0	0	0	0	0	0	0	0	0	0	0	0	0	0	0	0	0	0	0	0	0	0	0	0	0	0	0	0	0	0	0	0	0	0	0	0	0	0	0	0	0	0	0	1218	1299	1301	1300	1327	1368	1369	1367	1371	1380	1372	1362	1368	1378	1385	1387	1387	1380	1380	1400	1393	1384	1382	1382	1390	1392	1370	1340	1353	1361	1339	1332	1320	1348	1386	1377	1368	1370	1380	1385	1388	1389	1391	1385	1380	1374	1369	1410	1420	1400	1393	1366	1362	1354	1364	1375	1377	1379	1377	1382	1378	1382	1384	1387	1387	1393	1405	1414	1424	1429	1426	1434	1443	1451	1441	1430	1417	1401	1390	1400	1417	1421	1415	1407	1400	1393	1383	1378	1351	1366	1394	1384	1381	1388	1404	1415	1402	1390	1384	1392	1388	1388	1391	1395	1394	1395	1393	1389	1389	1397	1401	1402	1411	1428	1421	1406	1403	1410	1424	1418	1411	1410	1437	1450	1448	1441	1424	1422	1433	1428	1431	1441	1451	1467	1467	1456	1439	1430	1429	1437	1441	1456	1462	1458	1427	1407	1413	1409	1415	1400	1406	1425	1457	1464	1460	1466	1467	1445	1426	1427	1417	1418	1422	1428	1425	1423	1412	1400	1410	1431	1442	1450	1452	1447	1442	1436	1439	1443	1420	1429	1407	1428	1447	1447	1446	1433	1442	1435	1436	1455	1450	1453	1447	1457	1437	1441	1445	1454	1456	1459	1452	1447	1444	1432	1435	1442	1419	1425	1409	1404	1420	1443	1437	1438	1435	1433	1418	1411	1415	1433	1434	1450	1433	1419	1406	1378	1367	1369	1356	1343	1338	1433	1451	0	0	0	0	0	0	0	0	0	0	0	0	0	0	0	0	0	0	0	0	0	0	0	0	0	0	0	0	0	0	0	0	0	0	1993	2138	2290	2415	2379	2390	2364	2351	2173	1791	0	0	0	1655	1656	1641	1627	1597	1571	1556	1616	1782	1829	1847	1891	1901	1895	1896	1860	1861	1862	1859	1859	1860	1863	1877	1804	1555	1357	1316	1290	1273	1252	1218	1181	1164	1164	1164	1175	1177	1177	1154	1160	1212	1245	1238	1243	1325	1347	1349	1376	1328	1307	1300	1299	1293	1293	1299	1310	1317	1310	1294	1275	1289	1297	1299	1291	1288	1288	1286	1286	1286	1277	1271	1266	1257	1253	1246	1232	1224	1227	1244	1266	1291	1304	1309	1311	1315	1318	1324	1335	1345	1300	1359	1618	1946	2056	2100	2110	2090	2068	2063	2075	2108	2139	2164	2172	2161	2155	2155	2159	2160	2157	2164	2195	2224	2241	2244	2253	2277	2295	2309	2319	2310	2307	2319	2347	2376	2407	2420	2414	2399	2421	2443	2436	2422	2402	2439	2434	2407	2374	2365	2362	2365	2335	2328	2333	2339	2298	2293	2324	2336	2320	2307	2293	2291	2259	2189	2050	1991	2023	2023	2011	1983	1969	1967	1997	1993	1968	1967	1986	1997	2026	2035	2034	2023	2003	1986	1981	1984	1993	2009	1995	1986	1984	1988	2000	2004	2009	2013	2015	2014	2009	1996	1999	2004	2010	2010	2006	2011	2024	2018	2018	2013	1989	1976	1965	1970	1976	1975	1971	1958	1932	1915	1910	1868	1851	1721	1737	1743	1743	0	0	0	0	0	0	0	0
0	0	0	0	0	0	0	0	0	0	0	0	0	0	0	0	0	0	0	0	0	0	0	0	0	0	0	0	0	0	0	0	0	0	0	0	0	0	0	0	0	0	0	0	0	0	0	0	0	0	0	0	0	0	0	0	0	0	0	0	0	0	0	0	0	0	0	0	0	0	0	0	0	0	0	0	0	0	0	0	0	0	0	0	0	0	0	0	0	0	0	0	0	0	0	0	0	0	0	0	0	0	0	0	0	0	0	0	0	0	0	0	0	0	0	0	0	0	0	0	0	0	0	0	0	0	0	0	0	0	0	0	0	0	1232	1309	1310	1306	1325	1354	1364	1365	1388	1391	1377	1370	1360	1369	1380	1386	1392	1394	1406	1414	1415	1398	1394	1397	1405	1397	1385	1355	1366	1379	1361	1351	1333	1346	1393	1393	1384	1376	1384	1380	1383	1387	1388	1384	1381	1378	1396	1395	1389	1408	1396	1393	1366	1374	1392	1387	1374	1374	1384	1392	1397	1394	1394	1393	1397	1396	1402	1412	1419	1423	1413	1404	1430	1444	1438	1428	1408	1392	1383	1387	1397	1408	1405	1404	1395	1379	1378	1375	1358	1368	1393	1388	1385	1387	1401	1412	1406	1392	1391	1402	1421	1435	1411	1380	1385	1391	1385	1383	1389	1406	1407	1404	1414	1426	1436	1413	1406	1415	1423	1421	1411	1418	1446	1456	1443	1434	1431	1429	1421	1410	1407	1386	1407	1452	1463	1475	1469	1464	1476	1478	1461	1440	1427	1362	1336	1321	1394	1393	1402	1411	1419	1426	1452	1462	1428	1430	1462	1445	1430	1437	1416	1410	1409	1408	1426	1427	1430	1421	1390	1404	1442	1454	1445	1441	1438	1434	1461	1446	1430	1414	1411	1424	1426	1423	1435	1435	1426	1440	1458	1464	1460	1465	1471	1462	1457	1441	1445	1461	1455	1457	1450	1455	1452	1432	1438	1444	1430	1414	1408	1405	1405	1417	1428	1429	1430	1438	1416	1409	1413	1424	1425	1435	1431	1416	1392	1374	1373	1372	1359	1369	1417	1744	1846	1789	1886	0	0	0	0	0	0	0	0	0	0	0	0	0	0	0	0	0	2913	2920	2983	2991	3002	3005	2986	2926	0	0	0	0	0	0	0	1950	2125	2262	2427	2419	2368	2352	2355	2189	1936	1747	0	0	1668	1642	1645	1646	1639	1615	1613	1654	1770	1820	1850	1886	1906	1890	1892	1844	1853	1859	1859	1859	1860	1867	1870	1789	1580	1395	1355	1328	1309	1288	1230	1177	1152	1144	1143	1149	1157	1153	1151	1174	1224	1241	1229	1236	1334	1350	1351	1362	1338	1314	1307	1305	1299	1296	1300	1308	1313	1311	1294	1280	1282	1284	1287	1285	1271	1260	1258	1259	1263	1263	1260	1256	1243	1232	1226	1210	1201	1201	1217	1241	1271	1292	1297	1297	1300	1311	1324	1336	1344	1313	1368	1613	1859	2054	2137	2148	2112	2078	2072	2092	2112	2137	2161	2167	2149	2139	2138	2140	2137	2130	2145	2155	2168	2176	2177	2191	2210	2236	2278	2292	2270	2253	2257	2271	2300	2326	2343	2333	2330	2353	2364	2351	2333	2325	2356	2349	2325	2312	2304	2293	2255	2191	2189	2154	2140	2128	2173	2220	2217	2205	2211	2233	2228	2171	2033	1988	1981	2024	2016	1996	1971	1948	1941	1968	1990	1961	1962	1986	1999	2025	2032	2033	2017	1997	1983	1984	1999	2008	1996	1987	1987	1984	1989	2001	2004	2005	2002	2005	2008	1993	1984	1987	1998	1995	1998	1991	1958	1976	1967	1967	1962	1964	1945	1929	1922	1926	1941	1943	1932	1909	1901	1823	1814	1804	1768	1764	1752	1752	0	0	0	0	0	0	0	0
0	0	0	0	0	0	0	0	0	0	0	0	0	0	0	0	0	0	0	0	0	0	0	0	0	0	0	0	0	0	0	0	0	0	0	0	0	0	0	0	0	0	0	0	0	0	0	0	0	0	0	0	0	0	0	0	0	0	0	0	0	0	0	0	0	0	0	0	0	0	0	0	0	0	0	0	0	0	0	0	0	0	0	0	0	0	0	0	0	0	0	0	0	0	0	0	0	0	0	0	0	0	0	0	0	0	0	0	0	0	0	0	0	0	0	0	0	0	0	0	0	0	0	0	0	0	0	0	0	0	0	0	0	0	1195	1318	1339	1328	1332	1341	1362	1373	1392	1395	1384	1378	1366	1365	1379	1390	1404	1413	1413	1408	1406	1407	1401	1409	1413	1399	1389	1374	1360	1370	1371	1360	1347	1341	1401	1401	1396	1388	1391	1383	1379	1381	1380	1378	1375	1387	1401	1395	1408	1395	1398	1400	1409	1416	1415	1401	1369	1372	1382	1397	1403	1399	1400	1399	1400	1402	1400	1404	1410	1414	1402	1383	1403	1436	1434	1424	1412	1390	1382	1378	1390	1397	1401	1401	1390	1382	1377	1381	1365	1376	1396	1400	1396	1400	1403	1409	1401	1393	1390	1398	1412	1424	1405	1370	1372	1384	1383	1385	1392	1410	1408	1395	1398	1412	1417	1426	1422	1399	1403	1414	1437	1450	1440	1431	1429	1428	1430	1421	1405	1379	1366	1358	1378	1389	1404	1407	1398	1416	1437	1451	1449	1399	1344	1317	1334	1440	1335	1389	1399	1425	1424	1420	1427	1437	1428	1428	1439	1449	1448	1444	1440	1410	1407	1407	1415	1430	1427	1421	1397	1393	1417	1436	1442	1432	1431	1452	1471	1469	1444	1428	1420	1426	1429	1420	1424	1426	1429	1439	1446	1477	1469	1462	1460	1467	1450	1462	1455	1457	1467	1459	1458	1451	1472	1461	1421	1444	1430	1410	1412	1416	1412	1416	1422	1427	1429	1440	1415	1411	1405	1433	1434	1428	1422	1399	1369	1357	1371	1378	1371	1389	1587	2136	2186	2223	2267	2381	2441	2461	2471	2514	2580	2678	2756	2827	2887	2941	3004	2999	2997	2986	2985	3008	3054	3092	3117	3151	3127	3092	3045	2968	2858	0	0	0	0	0	0	1904	2109	2249	2407	2447	2358	2345	2319	2179	1926	1796	1752	1720	1678	1653	1644	1654	1648	1633	1623	1654	1749	1807	1844	1877	1909	1909	1900	1879	1860	1862	1863	1866	1859	1863	1867	1780	1580	1435	1391	1362	1341	1308	1254	1186	1142	1136	1137	1142	1141	1143	1147	1194	1235	1238	1228	1235	1337	1356	1357	1355	1346	1317	1315	1318	1314	1303	1300	1303	1310	1311	1306	1290	1275	1276	1284	1276	1256	1244	1239	1245	1252	1256	1257	1246	1241	1230	1223	1209	1201	1197	1204	1216	1246	1258	1258	1281	1293	1309	1321	1327	1320	1322	1406	1668	1857	2024	2112	2178	2199	2147	2112	2111	2117	2131	2145	2113	2100	2100	2112	2116	2093	2103	2113	2130	2130	2128	2112	2110	2143	2188	2245	2271	2245	2221	2212	2220	2236	2254	2262	2266	2272	2284	2283	2280	2263	2232	2258	2243	2224	2207	2181	2129	2090	2061	2060	2066	2064	2059	2040	2039	2043	2110	2089	2068	2060	2033	1991	1949	1991	2005	1999	1984	1962	1939	1925	1952	1977	1955	1950	1967	2005	2013	2004	1977	1956	1946	1947	1962	1973	1980	1974	1948	1954	1972	1979	1978	1956	1940	1945	1967	1987	2002	1995	1934	1920	1922	1921	1903	1903	1911	1924	1924	1941	1942	1919	1900	1890	1890	1898	1855	1840	1826	1801	1782	1768	1777	1763	1740	1732	0	0	0	0	0	0	0	0	0
0	0	0	0	0	0	0	0	0	0	0	0	0	0	0	0	0	0	0	0	0	0	0	0	0	0	0	0	0	0	0	0	0	0	0	0	0	0	0	0	0	0	0	0	0	0	0	0	0	0	0	0	0	0	0	0	0	0	0	0	0	0	0	0	0	0	0	0	0	0	0	0	0	0	0	0	0	0	0	0	0	0	0	0	0	0	0	0	0	0	0	0	0	0	0	0	0	0	0	0	0	0	0	0	0	0	0	0	0	0	0	0	0	0	0	0	0	0	0	0	0	0	0	0	0	0	0	0	0	0	0	0	0	0	1177	1306	1353	1361	1344	1342	1374	1387	1396	1392	1393	1386	1379	1376	1382	1398	1415	1423	1413	1400	1398	1400	1402	1404	1408	1390	1378	1370	1349	1349	1364	1362	1357	1347	1381	1395	1395	1399	1397	1392	1379	1375	1365	1370	1371	1392	1420	1387	1402	1413	1407	1411	1421	1430	1435	1419	1382	1383	1394	1399	1402	1396	1395	1396	1398	1393	1392	1391	1393	1401	1392	1369	1378	1419	1427	1426	1418	1393	1377	1378	1386	1399	1400	1401	1385	1390	1386	1391	1386	1389	1396	1415	1415	1415	1411	1386	1381	1383	1389	1392	1393	1395	1402	1379	1377	1401	1419	1427	1405	1375	1381	1399	1421	1431	1430	1435	1441	1448	1455	1473	1500	1524	1551	1468	1399	1369	1356	1346	1295	1256	1249	1261	1268	1253	1249	1245	1270	0	0	0	0	0	0	0	1323	1371	1433	1401	1410	1428	1431	1417	1428	1438	1428	1430	1436	1449	1457	1455	1447	1436	1425	1426	1428	1433	1427	1415	1398	1398	1412	1422	1434	1439	1433	1454	1461	1463	1439	1435	1438	1428	1423	1419	1418	1431	1427	1438	1453	1459	1464	1449	1449	1438	1445	1441	1426	1424	1444	1445	1438	1467	1475	1459	1424	1411	1435	1411	1416	1417	1415	1412	1418	1413	1414	1431	1409	1402	1400	1441	1439	1424	1410	1388	1357	1359	1365	1382	1383	1403	1629	2096	2397	2477	2533	2587	2605	2609	2594	2647	2687	2748	2809	2885	2920	2996	3080	3095	3103	3090	3063	3064	3093	3115	3144	3134	3150	3113	3063	2986	2874	2722	0	0	0	0	0	1892	2103	2233	2367	2432	2364	2331	2301	2160	1895	1793	1761	1727	1689	1646	1639	1643	1639	1622	1617	1655	1714	1773	1818	1849	1882	1901	1894	1884	1867	1874	1867	1874	1872	1864	1853	1786	1588	1462	1421	1398	1380	1333	1272	1214	1167	1150	1155	1180	1160	1145	1143	1205	1247	1236	1226	1241	1350	1354	1352	1347	1343	1317	1317	1313	1308	1303	1303	1302	1306	1306	1305	1290	1270	1270	1275	1270	1254	1243	1240	1243	1245	1247	1254	1254	1247	1242	1238	1226	1215	1211	1215	1211	1208	1212	1227	1247	1276	1297	1313	1316	1290	1323	1473	1715	1832	1985	2059	2100	2104	2111	2121	2127	2126	2124	2116	2096	2090	2080	2061	2051	2040	2043	2068	2098	2096	2088	2083	2081	2101	2136	2214	2219	2191	2156	2144	2142	2139	2155	2200	2225	2235	2226	2212	2199	2186	2159	2119	2139	2136	2121	2083	2053	2031	2045	2050	2058	2048	2034	2021	1993	1985	1987	1966	1943	1933	1925	1927	1934	1965	1981	1986	1978	1960	1936	1926	1940	1960	1968	1943	1956	1956	1971	1990	1970	1935	1912	1902	1902	1902	1895	1885	1870	1876	1882	1888	1886	1871	1858	1863	1880	1891	1900	1901	1896	1870	1837	1839	1848	1859	1887	1895	1895	1904	1903	1805	1783	1778	1783	1771	1739	1715	1698	1692	1688	1674	1637	1610	1590	1603	0	0	0	0	0	0	0	0	0
0	0	0	0	0	0	0	0	0	0	0	0	0	0	0	0	0	0	0	0	0	0	0	0	0	0	0	0	0	0	0	0	0	0	0	0	0	0	0	0	0	0	0	0	0	0	0	0	0	0	0	0	0	0	0	0	0	0	0	0	0	0	0	0	0	0	0	0	0	0	0	0	0	0	0	0	0	0	0	0	0	0	0	0	0	0	0	0	0	0	0	0	0	0	0	0	0	0	0	0	0	0	0	0	0	0	0	0	0	0	0	0	0	0	0	0	0	0	0	0	0	0	0	0	0	0	0	0	0	0	0	0	0	0	0	1283	1336	1364	1360	1357	1399	1409	1404	1382	1383	1392	1393	1388	1390	1398	1412	1416	1406	1390	1389	1390	1392	1397	1398	1378	1371	1373	1381	1353	1335	1351	1349	1375	1380	1389	1394	1400	1399	1399	1394	1387	1379	1371	1380	1388	1401	1407	1413	1406	1411	1422	1416	1418	1441	1433	1400	1393	1401	1403	1403	1401	1394	1396	1389	1385	1383	1380	1387	1385	1375	1361	1365	1376	1424	1424	1407	1397	1393	1398	1403	1410	1412	1407	1414	1449	1448	1442	1452	1459	1458	1453	1446	1445	1445	1426	1423	1419	1415	1419	1431	1443	1458	1443	1432	1429	1459	1565	1578	1743	1793	1976	2188	2184	2069	1957	1816	1759	1721	1705	1712	1719	1759	1689	0	0	0	0	0	0	0	0	0	0	0	0	0	0	0	0	0	0	0	0	0	1334	1371	1403	1424	1433	1429	1425	1435	1440	1433	1429	1427	1435	1449	1450	1445	1433	1436	1435	1432	1433	1422	1410	1409	1405	1410	1411	1420	1441	1435	1455	1457	1467	1436	1437	1429	1405	1417	1410	1423	1430	1432	1431	1440	1456	1469	1454	1446	1439	1417	1416	1424	1424	1421	1436	1436	1433	1439	1459	1437	1418	1438	1414	1414	1402	1410	1415	1406	1436	1421	1426	1406	1391	1395	1435	1439	1428	1417	1376	1361	1361	1353	1373	1390	1413	1660	2156	2465	2567	2642	2683	2684	2685	2705	2746	2764	2786	2832	2885	2937	2998	3043	3105	3127	3112	3061	3052	3058	3046	3033	3054	3103	3077	3015	2953	2889	2765	2441	0	0	0	0	1931	2098	2201	2316	2403	2376	2330	2296	2175	1895	1789	1744	1708	1671	1634	1633	1627	1622	1631	1632	1677	1724	1765	1828	1872	1887	1889	1886	1880	1871	1879	1873	1880	1873	1876	1872	1787	1606	1480	1445	1423	1386	1336	1282	1240	1206	1176	1179	1218	1212	1176	1142	1194	1239	1242	1238	1268	1353	1347	1348	1340	1332	1299	1299	1290	1288	1289	1298	1303	1308	1299	1291	1281	1260	1257	1260	1258	1251	1243	1244	1242	1241	1246	1249	1249	1254	1256	1256	1253	1229	1222	1218	1215	1215	1210	1211	1232	1260	1297	1320	1304	1275	1327	1492	1737	1865	1964	2021	2049	2059	2064	2075	2082	2098	2118	2123	2128	2121	2096	2056	2042	2036	2032	2038	2050	2065	2088	2082	2079	2093	2111	2133	2141	2151	2141	2148	2148	2120	2100	2094	2098	2109	2124	2133	2142	2137	2111	2070	2054	2048	2014	1999	1999	2017	2032	2035	2027	2007	1989	1984	1980	1969	1962	1953	1940	1931	1922	1914	1907	1936	1963	1968	1966	1952	1922	1915	1923	1941	1950	1945	1942	1939	1929	1942	1938	1919	1905	1890	1884	1879	1876	1871	1871	1873	1875	1870	1863	1848	1849	1859	1865	1869	1873	1873	1857	1838	1822	1809	1802	1763	1773	1787	1787	1779	1763	1740	1711	1692	1692	1689	1682	1682	1681	1678	1661	1631	1615	1601	1591	1585	0	0	0	0	0	0	0	0	0
0	0	0	0	0	0	0	0	0	0	0	0	0	0	0	0	0	0	0	0	0	0	0	0	0	0	0	0	0	0	0	0	0	0	0	0	0	0	0	0	0	0	0	0	0	0	0	0	0	0	0	0	0	0	0	0	0	0	0	0	0	0	0	0	0	0	0	0	0	0	0	0	0	0	0	0	0	0	0	0	0	0	0	0	0	0	0	0	0	0	0	0	0	0	0	0	0	0	0	0	0	0	0	0	0	0	0	0	0	0	0	0	0	0	0	0	0	0	0	0	0	0	0	0	0	0	0	0	0	0	0	0	0	0	0	1274	1328	1347	1363	1374	1406	1409	1404	1369	1374	1385	1391	1385	1383	1386	1390	1383	1389	1383	1378	1381	1375	1366	1387	1372	1373	1381	1393	1401	1369	1371	1377	1391	1395	1394	1399	1399	1397	1401	1420	1411	1395	1386	1395	1396	1408	1404	1404	1400	1414	1427	1413	1409	1436	1430	1407	1397	1402	1404	1410	1413	1408	1393	1377	1379	1404	1408	1410	1403	1410	1434	1425	1415	1407	1401	1394	1424	1458	1465	1473	1475	1486	1485	1637	1469	1491	1500	1525	1628	1598	1534	1493	1497	1544	1600	1664	1668	1641	1622	1637	1663	1680	1670	1667	1688	1739	1841	1916	1898	1902	2048	2114	2123	2098	1970	1934	1989	1947	1921	1894	1853	1808	1695	0	0	0	0	0	0	0	0	0	0	0	0	0	0	0	0	0	0	0	0	0	1314	1346	1393	1431	1438	1435	1434	1445	1439	1433	1433	1432	1429	1436	1441	1439	1430	1415	1415	1424	1436	1423	1408	1407	1406	1406	1407	1403	1410	1430	1438	1474	1440	1437	1429	1422	1415	1418	1412	1413	1432	1429	1429	1438	1458	1473	1422	1455	1427	1419	1418	1420	1421	1416	1415	1434	1439	1441	1454	1454	1442	1461	1420	1399	1401	1418	1417	1427	1421	1412	1401	1403	1382	1382	1401	1414	1438	1420	1376	1364	1359	1342	1357	1413	1514	1705	2140	2504	2643	2709	2745	2739	2714	2736	2770	2779	2780	2805	2855	2921	2978	3013	3049	3050	3039	2979	2981	3004	2990	2966	2962	2992	2979	2936	2903	2870	2796	2522	2282	0	0	2015	1994	2123	2205	2288	2369	2364	2344	2317	2199	1924	1788	1726	1697	1648	1630	1617	1626	1632	1656	1677	1711	1726	1751	1820	1874	1907	1897	1894	1876	1868	1870	1859	1878	1887	1888	1882	1778	1614	1481	1449	1424	1367	1322	1282	1248	1219	1193	1203	1217	1212	1183	1130	1182	1230	1246	1252	1283	1352	1350	1348	1331	1307	1285	1278	1272	1274	1282	1297	1307	1305	1294	1280	1279	1256	1253	1246	1243	1244	1247	1243	1237	1236	1233	1234	1235	1237	1247	1259	1262	1240	1228	1226	1230	1226	1226	1223	1233	1262	1290	1313	1327	1310	1355	1510	1742	1892	1988	2034	2051	2056	2057	2043	2020	2019	2061	2101	2123	2117	2084	2059	2048	2047	2042	2031	2016	2002	2043	2065	2082	2085	2087	2105	2119	2129	2136	2115	2088	2087	2080	2060	2050	2052	2053	2074	2121	2125	2105	2031	2035	2028	2013	1995	1993	1991	1994	1996	1975	1969	1960	1951	1939	1943	1947	1949	1946	1938	1929	1913	1901	1919	1942	1952	1949	1937	1904	1903	1906	1925	1929	1918	1906	1903	1910	1918	1920	1901	1874	1871	1861	1846	1846	1854	1866	1869	1867	1854	1841	1844	1845	1848	1849	1847	1793	1802	1795	1789	1775	1751	1738	1745	1758	1781	1769	1769	1753	1734	1713	1702	1704	1708	1717	1710	1696	1672	1656	1635	1621	1620	1623	1628	0	0	0	0	0	0	0	0	0
0	0	0	0	0	0	0	0	0	0	0	0	0	0	0	0	0	0	0	0	0	0	0	0	0	0	0	0	0	0	0	0	0	0	0	0	0	0	0	0	0	0	0	0	0	0	0	0	0	0	0	0	0	0	0	0	0	0	0	0	0	0	0	0	0	0	0	0	0	0	0	0	0	0	0	0	0	0	0	0	0	0	0	0	0	0	0	0	0	0	0	0	0	0	0	0	0	0	0	0	0	0	0	0	0	0	0	0	0	0	0	0	0	0	0	0	0	0	0	0	0	0	0	0	0	0	0	0	0	0	0	0	0	0	0	1294	1342	1344	1349	1366	1396	1396	1391	1358	1360	1372	1373	1372	1366	1361	1364	1360	1364	1364	1366	1366	1362	1363	1379	1381	1378	1387	1395	1409	1393	1370	1375	1392	1399	1397	1395	1396	1384	1397	1432	1429	1406	1397	1393	1406	1417	1400	1404	1409	1420	1424	1402	1386	1421	1394	1387	1388	1402	1425	1444	1451	1439	1426	1436	1450	1466	1474	1485	1490	1504	1510	1530	1574	1610	1640	1651	1653	1654	1668	1677	1699	1727	1701	1575	1695	1567	1728	1674	1678	1633	1603	1629	1642	1676	1710	1724	1702	1687	1680	1695	1716	1740	1743	1752	1777	1846	1933	1993	2016	2045	2145	2275	2273	2210	2095	2063	2037	2006	1986	1948	1925	1888	1855	0	0	0	0	0	0	0	0	0	0	0	0	0	0	0	0	0	0	0	0	0	1306	1341	1392	1433	1443	1444	1447	1457	1449	1440	1440	1438	1433	1432	1437	1435	1436	1418	1409	1418	1422	1422	1407	1412	1412	1412	1406	1402	1399	1417	1427	1441	1426	1414	1412	1420	1419	1421	1427	1421	1415	1423	1428	1434	1444	1444	1465	1420	1432	1427	1424	1431	1432	1420	1404	1442	1427	1449	1447	1453	1457	1447	1417	1400	1416	1406	1396	1430	1441	1398	1404	1401	1396	1397	1393	1404	1412	1418	1367	1360	1360	1343	1353	1407	1478	1644	2092	2521	2658	2716	2747	2722	2701	2708	2757	2763	2766	2772	2828	2891	2946	2956	2914	2872	2829	2816	2811	2812	2855	2848	2841	2851	2879	2872	2854	2837	2765	2636	2325	2194	2127	2105	2216	2228	2233	2256	2331	2342	2335	2315	2213	1935	1798	1726	1674	1643	1629	1619	1626	1643	1669	1691	1706	1717	1738	1798	1867	1919	1916	1907	1886	1864	1847	1854	1859	1865	1874	1866	1759	1619	1472	1442	1407	1355	1317	1281	1246	1218	1195	1189	1192	1191	1154	1132	1169	1217	1244	1254	1293	1338	1351	1350	1325	1297	1276	1275	1276	1279	1287	1299	1299	1294	1279	1267	1273	1253	1234	1225	1218	1217	1221	1226	1225	1224	1221	1220	1222	1231	1246	1256	1266	1253	1236	1234	1240	1245	1254	1245	1238	1260	1290	1301	1307	1317	1365	1536	1731	1893	1993	2045	2068	2077	2065	2032	2004	1998	2010	2024	2034	2027	2009	2012	2027	2025	2019	1993	1940	1922	1937	2015	2051	2056	2056	2057	2062	2062	2062	2058	2046	2042	2063	2054	2026	2020	2026	2045	2068	2053	2027	1979	1995	2023	2022	2014	2020	2017	1998	1975	1946	1937	1938	1937	1939	1942	1948	1949	1946	1940	1929	1908	1890	1912	1923	1932	1916	1893	1889	1887	1898	1901	1914	1907	1897	1891	1891	1897	1894	1871	1850	1838	1830	1809	1815	1831	1851	1859	1859	1837	1829	1826	1820	1811	1790	1775	1769	1773	1777	1778	1761	1730	1696	1684	1697	1728	1736	1736	1738	1721	1704	1698	1701	1707	1722	1704	1688	1670	1655	1630	1613	1603	1611	1625	0	0	0	0	0	0	0	0	0
0	0	0	0	0	0	0	0	0	0	0	0	0	0	0	0	0	0	0	0	0	0	0	0	0	0	0	0	0	0	0	0	0	0	0	0	0	0	0	0	0	0	0	0	0	0	0	0	0	0	0	0	0	0	0	0	0	0	0	0	0	0	0	0	0	0	0	0	0	0	0	0	0	0	0	0	0	0	0	0	0	0	0	0	0	0	0	0	0	0	0	0	0	0	0	0	0	0	0	0	0	0	0	0	0	0	0	0	0	0	0	0	0	0	0	0	0	0	0	0	0	0	0	0	0	0	0	0	0	0	0	0	0	0	0	1316	1352	1346	1347	1355	1375	1380	1379	1354	1350	1354	1356	1355	1343	1344	1341	1344	1356	1362	1357	1353	1358	1358	1372	1389	1388	1398	1400	1396	1382	1368	1372	1386	1395	1397	1388	1381	1368	1390	1439	1432	1418	1400	1393	1418	1425	1412	1406	1410	1408	1406	1389	1377	1404	1393	1398	1407	1428	1439	1440	1433	1429	1433	1442	1456	1465	1470	1475	1464	1472	1512	1552	1603	1650	1686	1709	1717	1715	1721	1715	1737	1761	1782	1772	1753	1788	1842	1807	1761	1710	1672	1684	1707	1725	1746	1748	1742	1714	1712	1741	1778	1802	1812	1825	1851	1924	1988	2043	2111	2157	2218	2316	2317	2259	2161	2146	2102	2063	2025	2016	2003	1999	2030	0	0	0	0	0	0	0	0	0	0	0	0	0	0	0	0	0	0	0	0	0	1322	1353	1399	1436	1448	1447	1459	1447	1414	1435	1442	1437	1433	1432	1431	1428	1427	1427	1414	1417	1416	1415	1403	1420	1424	1418	1414	1408	1407	1407	1429	1420	1426	1426	1425	1434	1438	1432	1437	1440	1440	1440	1432	1428	1432	1448	1450	1432	1437	1432	1447	1449	1461	1442	1427	1418	1444	1446	1444	1458	1444	1419	1409	1406	1420	1426	1415	1405	1430	1408	1411	1399	1392	1395	1407	1401	1421	1412	1358	1355	1361	1353	1354	1370	1397	1574	2006	2480	2596	2655	2673	2662	2659	2656	2654	2653	2689	2713	2760	2855	2896	2867	2823	2717	2692	2645	2645	2667	2636	2602	2590	2612	2753	2745	2773	2623	2585	2528	2402	2342	2329	2325	2294	2266	2226	2240	2274	2315	2303	2280	2186	1957	1812	1716	1684	1660	1638	1623	1615	1624	1641	1674	1677	1700	1731	1798	1862	1905	1916	1904	1896	1865	1852	1856	1860	1854	1854	1840	1755	1626	1453	1418	1389	1331	1296	1268	1240	1213	1179	1172	1171	1157	1150	1128	1160	1199	1218	1256	1288	1319	1345	1352	1323	1295	1279	1279	1280	1282	1293	1293	1287	1278	1267	1261	1259	1241	1217	1210	1211	1212	1215	1222	1224	1219	1218	1211	1216	1220	1234	1251	1267	1260	1241	1234	1235	1246	1258	1255	1244	1255	1270	1292	1301	1313	1378	1536	1636	1860	1982	2034	2059	2075	2054	2014	1990	1986	1996	2011	2011	2000	1984	1986	1989	1982	1972	1944	1916	1910	1924	1956	1995	2009	1998	1991	1982	1978	2022	2005	1993	2008	2023	2022	2022	2012	2005	2010	1988	1949	1921	1930	1974	2003	2012	2003	2000	1997	1981	1947	1915	1899	1890	1882	1898	1912	1921	1915	1922	1924	1899	1858	1835	1878	1871	1855	1842	1843	1859	1859	1855	1861	1861	1888	1881	1875	1862	1845	1845	1844	1839	1815	1830	1838	1810	1775	1777	1813	1823	1817	1805	1790	1782	1778	1771	1765	1760	1757	1759	1760	1742	1715	1685	1680	1676	1696	1728	1728	1732	1713	1692	1681	1686	1696	1706	1710	1695	1698	1680	1648	1624	1598	1602	1618	0	0	0	0	0	0	0	0	0
0	0	0	0	0	0	0	0	0	0	0	0	0	0	0	0	0	0	0	0	0	0	0	0	0	0	0	0	0	0	0	0	0	0	0	0	0	0	0	0	0	0	0	0	0	0	0	0	0	0	0	0	0	0	0	0	0	0	0	0	0	0	0	0	0	0	0	0	0	0	0	0	0	0	0	0	0	0	0	0	0	0	0	0	0	0	0	0	0	0	0	0	0	0	0	0	0	0	0	0	0	0	0	0	0	0	0	0	0	0	0	0	0	0	0	0	0	0	0	0	0	0	0	0	0	0	0	0	0	0	0	0	0	0	0	1304	1336	1346	1348	1339	1356	1362	1369	1355	1340	1338	1344	1351	1350	1347	1340	1345	1358	1371	1364	1359	1356	1355	1368	1384	1398	1399	1393	1384	1374	1368	1372	1381	1387	1390	1389	1382	1380	1385	1403	1425	1408	1395	1393	1424	1428	1404	1411	1421	1406	1401	1389	1378	1403	1405	1402	1412	1417	1418	1418	1419	1423	1426	1437	1456	1453	1446	1439	1444	1448	1517	1572	1625	1685	1728	1755	1768	1773	1775	1784	1794	1805	1806	1797	1740	1801	1861	1826	1791	1745	1689	1710	1732	1754	1763	1756	1749	1741	1746	1775	1813	1843	1853	1860	1879	1946	2015	2062	2134	2183	2239	2323	2320	2283	2183	2167	2135	2093	2102	2092	2102	2126	2170	2309	0	0	0	0	0	0	0	0	0	0	0	0	0	2641	0	0	0	0	0	0	1356	1377	1400	1428	1446	1445	1442	1417	1412	1429	1439	1434	1431	1426	1426	1417	1414	1428	1421	1417	1414	1413	1410	1427	1435	1443	1432	1428	1421	1417	1441	1434	1433	1431	1432	1440	1438	1434	1446	1438	1419	1427	1436	1442	1434	1433	1454	1471	1471	1466	1456	1443	1430	1419	1437	1434	1439	1439	1452	1431	1415	1413	1414	1408	1423	1428	1414	1414	1429	1431	1417	1400	1391	1395	1403	1414	1422	1408	1347	1336	1367	1376	1355	1327	1367	1552	2009	2217	2498	2531	2555	2586	2608	2602	2587	2567	2558	2604	2602	2527	2526	2586	2650	2602	2560	2518	2531	2545	2510	2433	2422	2424	2487	2498	2514	2456	2368	2354	2319	2299	2288	2264	2226	2196	2193	2202	2233	2270	2266	2230	2185	2053	1832	1736	1685	1672	1651	1628	1603	1604	1627	1649	1672	1699	1721	1803	1870	1891	1900	1892	1891	1859	1858	1861	1868	1868	1855	1826	1767	1639	1436	1400	1372	1322	1287	1264	1241	1213	1191	1179	1166	1151	1134	1123	1153	1182	1215	1242	1275	1307	1347	1347	1323	1296	1288	1287	1285	1287	1287	1288	1280	1267	1260	1252	1249	1224	1214	1211	1213	1215	1221	1224	1222	1212	1214	1214	1219	1218	1223	1236	1255	1250	1238	1232	1230	1243	1254	1255	1250	1248	1266	1295	1307	1316	1361	1543	1621	1750	1909	1974	1994	1993	1980	1976	1972	1979	1993	1999	1977	1962	1955	1958	1952	1943	1928	1917	1900	1892	1907	1942	1970	1977	1979	1979	1975	1965	1946	1933	1942	1964	1980	1975	1974	1965	1966	1973	1953	1924	1909	1927	1927	1954	1975	1978	1980	1962	1917	1883	1868	1854	1825	1827	1837	1856	1858	1859	1867	1862	1828	1806	1810	1843	1839	1831	1820	1831	1835	1839	1844	1847	1809	1781	1777	1782	1780	1804	1805	1793	1777	1764	1759	1760	1737	1717	1731	1741	1756	1757	1749	1748	1746	1759	1757	1750	1739	1739	1743	1745	1733	1704	1682	1673	1675	1709	1738	1738	1729	1716	1688	1679	1679	1688	1692	1699	1699	1691	1677	1653	1637	1620	1612	1621	0	0	0	0	0	0	0	0	0
0	0	0	0	0	0	0	0	0	0	0	0	0	0	0	0	0	0	0	0	0	0	0	0	0	0	0	0	0	0	0	0	0	0	0	0	0	0	0	0	0	0	0	0	0	0	0	0	0	0	0	0	0	0	0	0	0	0	0	0	0	0	0	0	0	0	0	0	0	0	0	0	0	0	0	0	0	0	0	0	0	0	0	0	0	0	0	0	0	0	0	0	0	0	0	0	0	0	0	0	0	0	0	0	0	0	0	0	0	0	0	0	0	0	0	0	0	0	0	0	0	0	0	0	0	0	0	0	0	0	0	0	0	0	0	1266	1304	1351	1355	1327	1338	1347	1364	1354	1339	1333	1345	1361	1361	1362	1351	1363	1372	1380	1380	1374	1366	1362	1365	1382	1397	1403	1396	1381	1369	1365	1372	1377	1384	1390	1394	1392	1384	1384	1391	1402	1399	1397	1398	1428	1431	1411	1413	1427	1413	1407	1402	1382	1399	1406	1406	1414	1416	1406	1407	1411	1414	1421	1439	1458	1454	1447	1441	1445	1456	1525	1580	1642	1700	1753	1781	1795	1794	1795	1799	1803	1800	1795	1791	1739	1808	1807	1808	1795	1741	1691	1708	1725	1754	1757	1759	1753	1755	1766	1796	1823	1854	1868	1872	1887	1950	2016	2073	2145	2184	2228	2297	2305	2296	2210	2176	2136	2116	2136	2157	2183	2228	2291	2417	2511	0	2574	2565	0	0	0	0	0	0	2735	2723	2724	2721	2707	2691	0	0	0	0	1384	1382	1390	1419	1446	1438	1425	1402	1407	1423	1413	1419	1408	1410	1401	1396	1401	1414	1428	1414	1417	1420	1431	1426	1439	1448	1454	1442	1423	1420	1424	1441	1436	1438	1433	1449	1446	1429	1421	1414	1411	1407	1438	1446	1434	1434	1445	1466	1465	1458	1451	1416	1412	1404	1402	1418	1434	1453	1434	1418	1422	1425	1416	1420	1433	1426	1417	1402	1423	1420	1418	1407	1395	1411	1416	1416	1419	1409	1397	1362	1382	1389	1358	1327	1368	1568	2009	2096	2249	2284	2391	2473	2538	2532	2512	2494	2458	2434	2392	2315	2313	2393	2491	2457	2418	2336	2349	2388	2343	2329	2300	2275	2284	2270	2287	2325	2331	2249	2220	2214	2212	2192	2149	2126	2113	2100	2107	2158	2163	2168	2131	2049	1920	1815	1703	1681	1678	1653	1618	1602	1615	1642	1667	1701	1722	1799	1859	1885	1880	1871	1872	1848	1855	1868	1882	1874	1860	1831	1785	1647	1429	1390	1358	1318	1291	1270	1249	1232	1206	1193	1174	1159	1137	1133	1152	1172	1209	1230	1245	1306	1336	1337	1325	1299	1297	1290	1287	1291	1291	1283	1274	1265	1255	1247	1236	1213	1212	1213	1216	1221	1223	1226	1218	1217	1223	1228	1232	1222	1221	1225	1238	1238	1237	1233	1232	1238	1250	1249	1245	1242	1259	1292	1310	1325	1347	1536	1628	1731	1834	1917	1955	1962	1949	1943	1949	1955	1951	1957	1933	1926	1931	1925	1920	1917	1909	1898	1890	1883	1882	1909	1946	1955	1953	1959	1960	1960	1943	1915	1908	1926	1938	1933	1941	1914	1911	1922	1908	1886	1883	1909	1912	1906	1893	1877	1890	1892	1843	1817	1794	1786	1780	1773	1764	1757	1770	1794	1808	1819	1816	1809	1798	1761	1760	1760	1771	1764	1758	1759	1782	1777	1763	1756	1736	1742	1754	1787	1785	1774	1750	1733	1731	1704	1701	1697	1693	1710	1722	1725	1715	1724	1736	1740	1748	1742	1734	1717	1725	1724	1711	1692	1686	1691	1695	1716	1727	1727	1723	1717	1696	1677	1671	1659	1656	1660	1665	1665	1648	1636	1637	1633	1624	1630	0	0	0	0	0	0	0	0	0
0	0	0	0	0	0	0	0	0	0	0	0	0	0	0	0	0	0	0	0	0	0	0	0	0	0	0	0	0	0	0	0	0	0	0	0	0	0	0	0	0	0	0	0	0	0	0	0	0	0	0	0	0	0	0	0	0	0	0	0	0	0	0	0	0	0	0	0	0	0	0	0	0	0	0	0	0	0	0	0	0	0	0	0	0	0	0	0	0	0	0	0	0	0	0	0	0	0	0	0	0	0	0	0	0	0	0	0	0	0	0	0	0	0	0	0	0	0	0	0	0	0	0	0	0	0	0	0	0	0	0	0	0	0	0	1251	1302	1352	1354	1323	1327	1336	1351	1350	1338	1338	1346	1368	1374	1380	1377	1376	1377	1387	1386	1385	1378	1380	1373	1374	1397	1401	1397	1385	1375	1368	1370	1372	1378	1387	1397	1393	1388	1385	1386	1390	1385	1386	1400	1429	1462	1448	1428	1412	1395	1407	1414	1388	1389	1404	1412	1418	1406	1405	1400	1408	1410	1415	1433	1454	1456	1452	1457	1461	1476	1526	1591	1651	1716	1762	1790	1800	1799	1797	1801	1796	1789	1779	1781	1745	1782	1790	1788	1779	1711	1663	1664	1685	1710	1750	1752	1759	1766	1781	1810	1839	1859	1869	1868	1893	1943	2011	2075	2168	2221	2246	2281	2289	2293	2216	2167	2131	2136	2144	2187	2229	2293	2364	2492	2586	2627	2641	2639	2652	2703	2742	2747	2714	2717	2676	2692	2722	2740	2754	2738	2678	2491	0	0	1441	1395	1383	1411	1445	1435	1417	1394	1391	1396	1409	1399	1404	1408	1400	1388	1395	1402	1413	1406	1414	1420	1432	1445	1453	1454	1449	1436	1422	1422	1434	1430	1439	1414	1429	1423	1441	1431	1422	1417	1412	1418	1441	1461	1431	1427	1436	1442	1450	1432	1429	1424	1420	1419	1424	1434	1447	1427	1466	1428	1428	1432	1436	1435	1431	1426	1422	1404	1399	1409	1424	1426	1401	1412	1417	1420	1416	1417	1405	1379	1388	1390	1364	1360	1393	1632	2005	2101	2166	2200	2235	2267	2339	2350	2304	2260	2226	2248	2258	2256	2254	2277	2286	2284	2271	2247	2251	2282	2287	2254	2198	2200	2197	2206	2210	2217	2223	2170	2121	2125	2137	2143	2123	2097	2068	2045	2040	2077	2111	2125	2099	2042	1957	1874	1778	1708	1696	1672	1646	1630	1633	1647	1684	1703	1719	1783	1838	1850	1859	1856	1852	1847	1854	1864	1866	1862	1850	1833	1797	1656	1445	1397	1363	1327	1303	1290	1265	1249	1224	1200	1180	1166	1157	1166	1160	1172	1213	1226	1232	1305	1338	1342	1331	1311	1300	1298	1299	1291	1298	1288	1276	1265	1253	1241	1226	1215	1222	1226	1226	1226	1227	1229	1237	1235	1237	1235	1240	1237	1230	1235	1230	1236	1239	1239	1237	1243	1247	1246	1238	1242	1261	1284	1310	1326	1327	1464	1622	1721	1830	1903	1930	1928	1909	1897	1900	1907	1918	1916	1901	1898	1896	1893	1891	1888	1887	1882	1879	1874	1868	1875	1887	1905	1902	1917	1912	1908	1890	1879	1870	1880	1875	1864	1861	1873	1888	1893	1877	1849	1862	1879	1876	1867	1849	1823	1819	1823	1801	1784	1771	1749	1743	1731	1721	1714	1720	1728	1734	1732	1740	1748	1756	1742	1744	1743	1738	1721	1726	1726	1729	1728	1722	1729	1718	1709	1723	1744	1760	1758	1727	1697	1663	1662	1659	1666	1678	1698	1712	1707	1702	1699	1700	1708	1713	1708	1698	1671	1673	1679	1678	1663	1656	1659	1664	1673	1671	1671	1676	1676	1672	1653	1623	1602	1593	1593	1605	1613	1607	1604	1620	1626	1633	1628	0	0	0	0	0	0	0	0	0
0	0	0	0	0	0	0	0	0	0	0	0	0	0	0	0	0	0	0	0	0	0	0	0	0	0	0	0	0	0	0	0	0	0	0	0	0	0	0	0	0	0	0	0	0	0	0	0	0	0	0	0	0	0	0	0	0	0	0	0	0	0	0	0	0	0	0	0	0	0	0	0	0	0	0	0	0	0	0	0	0	0	0	0	0	0	0	0	0	0	0	0	0	0	0	0	0	0	0	0	0	0	0	0	0	0	0	0	0	0	0	0	0	0	0	0	0	0	0	0	0	0	0	0	0	0	0	0	0	0	0	0	0	0	0	1267	1322	1345	1353	1332	1321	1326	1340	1347	1338	1339	1348	1361	1366	1369	1378	1379	1379	1379	1388	1387	1386	1387	1385	1384	1390	1396	1395	1389	1378	1380	1379	1372	1372	1385	1394	1397	1395	1392	1385	1380	1380	1391	1400	1424	1454	1450	1431	1418	1402	1420	1414	1390	1378	1384	1417	1377	1392	1393	1397	1407	1404	1409	1416	1430	1441	1449	1466	1488	1502	1533	1599	1661	1721	1761	1778	1787	1784	1791	1792	1783	1775	1773	1765	1749	1766	1758	1752	1748	1677	1634	1644	1654	1674	1726	1759	1765	1774	1804	1827	1863	1876	1877	1870	1893	1951	2011	2082	2209	2252	2273	2298	2290	2267	2188	2144	2097	2099	2130	2169	2224	2285	2380	2494	2645	2687	2659	2650	2675	2719	2758	2752	2722	2673	2643	2654	2693	2727	2728	2689	2644	2508	2235	2039	1552	1414	1386	1392	1423	1437	1417	1390	1385	1395	1411	1407	1415	1412	1412	1405	1393	1395	1405	1409	1413	1420	1428	1430	1426	1418	1416	1429	1437	1435	1438	1433	1428	1423	1420	1424	1434	1430	1425	1424	1426	1424	1443	1457	1439	1424	1433	1443	1439	1428	1423	1432	1438	1441	1445	1451	1464	1457	1434	1428	1440	1436	1436	1437	1428	1430	1429	1419	1419	1405	1438	1436	1405	1413	1416	1414	1413	1423	1426	1423	1405	1391	1386	1387	1427	1659	1863	2099	2160	2180	2187	2197	2198	2198	2191	2174	2176	2191	2208	2204	2184	2166	2159	2162	2173	2160	2172	2179	2179	2178	2133	2103	2106	2118	2127	2102	2080	2059	2038	2048	2078	2074	2071	2062	2048	2033	2021	2048	2052	2044	2030	2011	1972	1943	1882	1836	1823	1806	1753	1701	1679	1680	1706	1724	1723	1775	1819	1828	1836	1848	1846	1846	1849	1856	1857	1848	1840	1828	1801	1669	1467	1418	1384	1342	1322	1306	1289	1252	1245	1216	1194	1183	1189	1197	1175	1177	1237	1239	1229	1304	1338	1345	1350	1319	1299	1294	1300	1300	1299	1291	1274	1259	1249	1242	1232	1231	1239	1242	1236	1230	1227	1232	1242	1246	1247	1238	1232	1233	1233	1241	1234	1239	1246	1246	1244	1247	1245	1237	1229	1236	1252	1273	1301	1321	1309	1469	1557	1681	1789	1861	1891	1895	1882	1860	1851	1865	1887	1887	1879	1881	1876	1868	1864	1862	1861	1862	1861	1858	1857	1849	1836	1828	1811	1823	1837	1841	1835	1835	1825	1821	1801	1790	1804	1835	1862	1867	1841	1815	1809	1755	1749	1752	1742	1740	1740	1749	1749	1748	1732	1720	1715	1703	1686	1685	1687	1710	1715	1714	1713	1713	1692	1674	1651	1657	1662	1681	1694	1702	1709	1698	1695	1699	1687	1691	1694	1709	1698	1688	1670	1663	1655	1651	1646	1648	1658	1677	1686	1686	1674	1664	1667	1683	1693	1688	1662	1615	1619	1635	1651	1645	1638	1637	1639	1619	1601	1601	1613	1635	1645	1644	1623	1600	1590	1588	1589	1592	1591	1580	1579	1587	1599	1601	0	0	0	0	0	0	0	0	0
0	0	0	0	0	0	0	0	0	0	0	0	0	0	0	0	0	0	0	0	0	0	0	0	0	0	0	0	0	0	0	0	0	0	0	0	0	0	0	0	0	0	0	0	0	0	0	0	0	0	0	0	0	0	0	0	0	0	0	0	0	0	0	0	0	0	0	0	0	0	0	0	0	0	0	0	0	0	0	0	0	0	0	0	0	0	0	0	0	0	0	0	0	0	0	0	0	0	0	0	0	0	0	0	0	0	0	0	0	0	0	0	0	0	0	0	0	0	0	0	0	0	0	0	0	0	0	0	0	0	0	0	0	0	0	1296	1313	1313	1329	1346	1344	1337	1345	1348	1338	1341	1345	1357	1360	1362	1355	1349	1348	1365	1373	1377	1385	1384	1381	1379	1383	1387	1391	1384	1384	1386	1383	1370	1370	1378	1394	1398	1397	1394	1385	1381	1385	1401	1418	1427	1440	1442	1425	1415	1407	1422	1414	1392	1377	1377	1384	1381	1387	1398	1403	1400	1399	1394	1393	1404	1412	1428	1457	1482	1505	1539	1603	1671	1725	1749	1762	1768	1770	1766	1763	1756	1754	1765	1766	1753	1750	1747	1735	1722	1659	1639	1641	1639	1647	1693	1760	1779	1796	1819	1851	1886	1898	1885	1873	1894	1940	2012	2118	2250	2269	2284	2305	2297	2256	2158	2119	2045	2043	2067	2115	2179	2259	2352	2482	2578	2669	2662	2641	2652	2718	2761	2753	2707	2654	2622	2636	2668	2703	2676	2636	2574	2439	2168	1915	1635	1430	1378	1370	1397	1419	1422	1404	1384	1398	1421	1419	1428	1423	1419	1407	1397	1399	1407	1408	1408	1414	1422	1415	1408	1402	1404	1414	1428	1438	1439	1437	1425	1429	1430	1435	1450	1436	1436	1439	1443	1430	1449	1457	1429	1426	1438	1431	1435	1430	1424	1447	1448	1455	1457	1463	1463	1458	1440	1432	1444	1446	1440	1434	1430	1427	1434	1440	1434	1443	1443	1426	1406	1414	1415	1414	1412	1419	1423	1426	1421	1405	1390	1395	1435	1577	1793	2027	2113	2156	2161	2167	2161	2139	2114	2111	2115	2124	2142	2141	2125	2116	2112	2124	2123	2121	2115	2125	2119	2102	2080	2066	2052	2050	2062	2063	2041	2010	1985	1968	1975	1987	2011	2033	2031	2021	2007	2020	2029	2015	1999	1976	1954	1945	1936	1906	1919	1914	1886	1837	1803	1769	1748	1739	1746	1773	1828	1819	1822	1831	1841	1853	1865	1868	1859	1845	1833	1818	1798	1699	1485	1437	1396	1358	1335	1324	1311	1284	1254	1234	1201	1199	1208	1217	1192	1190	1250	1256	1241	1298	1341	1346	1347	1323	1291	1281	1291	1304	1298	1293	1273	1258	1252	1244	1243	1250	1253	1243	1228	1222	1222	1229	1237	1243	1234	1223	1212	1214	1227	1241	1245	1246	1248	1251	1253	1255	1236	1226	1223	1235	1246	1261	1283	1302	1316	1470	1550	1637	1741	1816	1839	1848	1860	1848	1845	1853	1864	1869	1864	1865	1868	1857	1850	1821	1826	1819	1806	1806	1819	1813	1802	1797	1789	1799	1818	1825	1815	1806	1739	1725	1733	1745	1760	1769	1775	1770	1768	1748	1720	1729	1734	1733	1709	1694	1698	1709	1712	1707	1694	1693	1699	1694	1671	1647	1645	1668	1683	1690	1676	1669	1648	1643	1638	1640	1635	1648	1663	1681	1664	1665	1664	1662	1660	1649	1642	1640	1644	1650	1651	1647	1643	1636	1621	1607	1612	1624	1641	1653	1649	1642	1632	1657	1663	1657	1592	1568	1576	1579	1579	1579	1579	1574	1573	1578	1586	1586	1575	1595	1603	1594	1579	1548	1553	1562	1562	1560	1565	1562	1552	1548	1546	1552	0	0	0	0	0	0	0	0	0
0	0	0	0	0	0	0	0	0	0	0	0	0	0	0	0	0	0	0	0	0	0	0	0	0	0	0	0	0	0	0	0	0	0	0	0	0	0	0	0	0	0	0	0	0	0	0	0	0	0	0	0	0	0	0	0	0	0	0	0	0	0	0	0	0	0	0	0	0	0	0	0	0	0	0	0	0	0	0	0	0	0	0	0	0	0	0	0	0	0	0	0	0	0	0	0	0	0	0	0	0	0	0	0	0	0	0	0	0	0	0	0	0	0	0	0	0	0	0	0	0	0	0	0	0	0	0	0	0	0	0	0	0	0	0	1283	1289	1301	1330	1357	1357	1350	1357	1355	1351	1356	1357	1356	1354	1345	1336	1343	1336	1349	1360	1373	1379	1371	1371	1367	1368	1379	1389	1393	1393	1393	1387	1372	1366	1379	1392	1403	1401	1389	1382	1387	1394	1417	1427	1427	1418	1422	1419	1429	1424	1421	1373	1387	1378	1369	1402	1405	1406	1409	1400	1382	1373	1372	1381	1394	1401	1412	1444	1469	1491	1544	1605	1665	1711	1732	1738	1744	1741	1738	1732	1724	1750	1761	1760	1739	1738	1738	1695	1695	1657	1645	1638	1591	1609	1669	1763	1792	1804	1824	1862	1897	1908	1884	1858	1872	1968	2070	2169	2241	2271	2278	2291	2286	2269	2158	2081	1996	1980	2009	2074	2147	2240	2336	2453	2529	2583	2583	2580	2610	2663	2700	2705	2672	2636	2595	2602	2651	2643	2620	2599	2533	2442	2133	1864	1684	1452	1438	1364	1378	1402	1412	1416	1436	1427	1432	1436	1443	1433	1421	1405	1406	1409	1407	1406	1403	1402	1392	1397	1399	1393	1393	1408	1428	1441	1442	1444	1459	1442	1459	1451	1454	1456	1454	1448	1441	1436	1436	1441	1432	1427	1429	1429	1428	1429	1431	1441	1444	1452	1468	1470	1452	1457	1453	1443	1445	1446	1421	1416	1405	1413	1425	1439	1453	1458	1446	1425	1412	1409	1415	1423	1421	1420	1417	1433	1431	1404	1382	1391	1420	1540	1776	1952	2062	2113	2135	2145	2122	2098	2085	2081	2084	2096	2097	2093	2089	2085	2083	2093	2082	2077	2094	2107	2094	2067	2033	2011	1996	1996	1998	2004	1990	1974	1954	1945	1935	1941	1967	1999	2007	2003	1990	1993	2002	1990	1971	1949	1931	1911	1911	1941	1952	1938	1905	1876	1866	1859	1804	1748	1766	1831	1845	1829	1816	1829	1840	1868	1883	1885	1874	1857	1842	1833	1801	1718	1509	1442	1401	1364	1334	1324	1327	1313	1287	1252	1227	1206	1210	1228	1204	1209	1260	1256	1243	1285	1305	1334	1333	1332	1295	1280	1288	1299	1304	1296	1277	1259	1255	1260	1264	1259	1249	1237	1223	1221	1224	1228	1230	1232	1225	1214	1207	1206	1221	1238	1244	1242	1244	1253	1267	1271	1267	1231	1222	1238	1245	1258	1279	1294	1335	1470	1538	1624	1722	1793	1806	1807	1820	1823	1815	1825	1829	1826	1819	1820	1830	1826	1819	1801	1794	1799	1795	1784	1783	1740	1757	1749	1731	1728	1738	1742	1738	1716	1710	1716	1721	1733	1748	1753	1759	1752	1734	1703	1688	1685	1682	1682	1668	1669	1669	1667	1660	1647	1639	1645	1664	1673	1654	1632	1625	1633	1629	1643	1629	1627	1616	1616	1618	1617	1613	1609	1614	1622	1622	1622	1627	1631	1633	1622	1606	1605	1606	1607	1623	1621	1614	1604	1596	1585	1571	1561	1567	1586	1597	1600	1583	1558	1537	1532	1541	1549	1558	1548	1547	1549	1552	1549	1547	1543	1542	1529	1529	1523	1530	1526	1516	1471	1477	1501	1503	1500	1492	1497	1506	1506	1514	1509	0	0	0	0	0	0	0	0	0
0	0	0	0	0	0	0	0	0	0	0	0	0	0	0	0	0	0	0	0	0	0	0	0	0	0	0	0	0	0	0	0	0	0	0	0	0	0	0	0	0	0	0	0	0	0	0	0	0	0	0	0	0	0	0	0	0	0	0	0	0	0	0	0	0	0	0	0	0	0	0	0	0	0	0	0	0	0	0	0	0	0	0	0	0	0	0	0	0	0	0	0	0	0	0	0	0	0	0	0	0	0	0	0	0	0	0	0	0	0	0	0	0	0	0	0	0	0	0	0	0	0	0	0	0	0	0	0	0	0	0	0	0	0	0	1272	1287	1322	1347	1369	1363	1366	1369	1357	1360	1367	1367	1361	1356	1350	1349	1344	1350	1359	1370	1373	1366	1359	1355	1351	1365	1381	1396	1404	1402	1390	1375	1365	1364	1378	1392	1398	1393	1379	1368	1382	1400	1418	1420	1413	1395	1415	1452	1452	1450	1414	1378	1388	1387	1386	1409	1415	1415	1407	1396	1363	1347	1363	1389	1410	1419	1427	1437	1451	1472	1545	1607	1660	1689	1707	1710	1709	1715	1714	1718	1736	1748	1751	1741	1709	1724	1740	1676	1672	1663	1636	1599	1554	1566	1643	1752	1786	1810	1821	1859	1884	1905	1899	1873	1873	1947	2066	2167	2229	2245	2247	2273	2279	2270	2170	2091	1982	1958	1970	2059	2154	2247	2349	2442	2543	2558	2544	2530	2538	2584	2608	2615	2606	2557	2526	2501	2511	2540	2574	2558	2435	2392	2091	1850	1701	1465	1442	1379	1366	1392	1389	1404	1433	1443	1460	1448	1446	1432	1414	1415	1404	1413	1404	1405	1404	1404	1397	1396	1400	1405	1403	1413	1426	1454	1458	1463	1467	1464	1461	1445	1450	1454	1452	1448	1435	1426	1417	1425	1425	1424	1433	1427	1429	1418	1418	1434	1440	1440	1437	1447	1455	1458	1454	1447	1441	1437	1410	1410	1401	1409	1420	1441	1456	1463	1443	1417	1405	1413	1422	1431	1427	1415	1407	1433	1432	1389	1359	1370	1403	1517	1752	1858	1993	2047	2106	2100	2087	2060	2042	2046	2059	2068	2070	2064	2064	2058	2060	2052	2053	2046	2052	2058	2021	1986	1959	1962	1947	1928	1938	1940	1938	1930	1927	1916	1920	1927	1929	1942	1952	1954	1946	1951	1944	1936	1934	1934	1922	1911	1895	1895	1890	1888	1889	1885	1871	1865	1836	1807	1821	1848	1852	1852	1842	1840	1848	1865	1879	1887	1884	1868	1858	1848	1809	1735	1508	1446	1396	1358	1331	1319	1319	1316	1298	1260	1236	1211	1192	1212	1217	1235	1259	1247	1257	1288	1322	1309	1311	1337	1310	1293	1291	1295	1300	1299	1289	1282	1274	1274	1274	1261	1251	1237	1229	1225	1230	1231	1231	1223	1217	1215	1217	1223	1233	1244	1244	1240	1245	1253	1266	1279	1284	1271	1260	1253	1260	1270	1277	1293	1354	1479	1541	1607	1731	1774	1786	1779	1777	1780	1790	1796	1800	1794	1768	1737	1741	1744	1744	1752	1729	1741	1752	1742	1732	1718	1710	1707	1699	1707	1718	1716	1707	1696	1694	1699	1716	1722	1724	1734	1732	1708	1682	1647	1639	1644	1649	1648	1644	1644	1638	1631	1629	1624	1627	1628	1630	1626	1620	1613	1606	1600	1598	1590	1578	1583	1588	1584	1590	1596	1587	1584	1589	1593	1598	1596	1593	1596	1602	1599	1590	1583	1580	1582	1578	1570	1568	1566	1568	1560	1551	1535	1536	1546	1555	1553	1545	1523	1512	1510	1517	1523	1524	1525	1530	1537	1538	1536	1528	1521	1515	1508	1508	1497	1480	1475	1463	1444	1446	1456	1465	1470	1466	1467	1461	1464	1467	1456	0	0	0	0	0	0	0	0	0
0	0	0	0	0	0	0	0	0	0	0	0	0	0	0	0	0	0	0	0	0	0	0	0	0	0	0	0	0	0	0	0	0	0	0	0	0	0	0	0	0	0	0	0	0	0	0	0	0	0	0	0	0	0	0	0	0	0	0	0	0	0	0	0	0	0	0	0	0	0	0	0	0	0	0	0	0	0	0	0	0	0	0	0	0	0	0	0	0	0	0	0	0	0	0	0	0	0	0	0	0	0	0	0	0	0	0	0	0	0	0	0	0	0	0	0	0	0	0	0	0	0	0	0	0	0	0	0	0	0	0	0	0	0	0	1288	1300	1351	1394	1382	1374	1376	1373	1367	1368	1369	1367	1365	1366	1364	1360	1365	1370	1376	1377	1372	1371	1371	1357	1352	1364	1380	1391	1396	1391	1380	1364	1361	1365	1380	1394	1397	1387	1363	1356	1383	1403	1408	1406	1393	1366	1403	1444	1448	1454	1432	1416	1405	1398	1393	1400	1407	1406	1394	1383	1363	1373	1401	1414	1433	1440	1443	1444	1455	1469	1543	1602	1645	1675	1689	1689	1688	1690	1701	1723	1737	1729	1724	1709	1682	1704	1725	1684	1666	1644	1593	1536	1526	1537	1591	1726	1783	1817	1821	1838	1866	1894	1897	1873	1875	1946	2079	2169	2206	2216	2216	2253	2263	2260	2194	2102	2034	2004	1994	2067	2166	2279	2371	2493	2532	2529	2519	2504	2492	2504	2510	2503	2469	2435	2413	2430	2452	2428	2377	2337	2291	2264	2135	1846	1764	1468	1423	1392	1399	1387	1372	1380	1423	1437	1438	1453	1441	1429	1418	1410	1403	1416	1420	1409	1410	1413	1409	1404	1403	1405	1413	1423	1446	1461	1464	1472	1475	1464	1459	1444	1445	1451	1450	1444	1422	1411	1420	1425	1418	1419	1421	1424	1429	1427	1428	1426	1427	1429	1418	1434	1445	1437	1433	1456	1447	1436	1420	1407	1416	1414	1417	1435	1450	1445	1429	1403	1401	1408	1422	1433	1439	1413	1400	1432	1437	1393	1371	1374	1388	1538	1616	1825	1913	1972	2024	2020	1993	1976	1958	1981	2010	2014	2006	2012	2004	1989	1997	2012	2019	2014	2008	2005	1984	1951	1911	1886	1870	1869	1897	1908	1910	1920	1909	1896	1886	1887	1889	1890	1888	1900	1905	1919	1919	1912	1913	1918	1924	1927	1906	1881	1874	1880	1901	1917	1899	1883	1863	1848	1858	1884	1894	1880	1865	1849	1850	1850	1838	1813	1813	1811	1801	1798	1800	1699	1496	1437	1392	1367	1334	1318	1312	1307	1289	1272	1236	1201	1181	1182	1215	1238	1239	1235	1271	1300	1332	1330	1332	1356	1333	1316	1296	1293	1294	1303	1306	1306	1299	1288	1282	1262	1250	1243	1238	1235	1241	1237	1235	1228	1229	1225	1235	1242	1242	1249	1247	1245	1244	1246	1257	1276	1287	1305	1315	1312	1309	1298	1296	1305	1365	1472	1525	1578	1731	1750	1754	1705	1703	1705	1716	1712	1718	1719	1707	1712	1711	1705	1686	1667	1675	1687	1706	1724	1714	1701	1683	1670	1673	1679	1696	1685	1679	1666	1665	1669	1698	1700	1687	1686	1683	1666	1643	1633	1632	1628	1625	1612	1604	1607	1596	1599	1599	1601	1604	1600	1597	1594	1589	1581	1566	1568	1573	1568	1566	1571	1566	1559	1564	1575	1576	1570	1568	1570	1568	1562	1562	1563	1576	1578	1573	1562	1552	1543	1545	1535	1524	1523	1523	1519	1514	1503	1509	1516	1521	1519	1513	1502	1484	1481	1484	1493	1489	1498	1508	1513	1493	1481	1473	1487	1498	1497	1497	1475	1456	1439	1429	1414	1427	1440	1447	1439	1430	1425	1413	1404	1410	1433	0	0	0	0	0	0	0	0	0
0	0	0	0	0	0	0	0	0	0	0	0	0	0	0	0	0	0	0	0	0	0	0	0	0	0	0	0	0	0	0	0	0	0	0	0	0	0	0	0	0	0	0	0	0	0	0	0	0	0	0	0	0	0	0	0	0	0	0	0	0	0	0	0	0	0	0	0	0	0	0	0	0	0	0	0	0	0	0	0	0	0	0	0	0	0	0	0	0	0	0	0	0	0	0	0	0	0	0	0	0	0	0	0	0	0	0	0	0	0	0	0	0	0	0	0	0	0	0	0	0	0	0	0	0	0	0	0	0	0	0	0	0	0	0	1329	1324	1355	1406	1397	1392	1388	1371	1380	1379	1376	1371	1367	1372	1376	1375	1384	1383	1389	1381	1383	1384	1388	1394	1365	1366	1369	1378	1383	1384	1379	1377	1374	1381	1393	1405	1414	1399	1381	1368	1404	1403	1410	1402	1391	1385	1416	1422	1426	1452	1436	1422	1414	1410	1395	1396	1405	1396	1379	1376	1389	1406	1426	1441	1451	1458	1456	1456	1461	1474	1537	1585	1625	1655	1676	1683	1681	1685	1697	1708	1726	1720	1701	1683	1667	1675	1715	1698	1674	1630	1569	1510	1492	1511	1556	1690	1771	1813	1828	1848	1861	1889	1887	1872	1875	1915	2049	2158	2188	2192	2192	2240	2250	2255	2230	2207	2131	2095	2093	2123	2179	2294	2391	2477	2491	2484	2395	2352	2331	2364	2440	2417	2372	2321	2330	2356	2356	2321	2275	2251	2156	2134	2054	1888	1812	1475	1412	1399	1406	1394	1369	1365	1394	1421	1416	1418	1413	1405	1417	1412	1407	1418	1437	1434	1424	1423	1418	1405	1406	1409	1419	1426	1439	1451	1451	1453	1471	1469	1459	1446	1443	1450	1452	1449	1428	1409	1426	1427	1418	1415	1424	1425	1425	1419	1420	1438	1442	1444	1432	1420	1437	1440	1440	1438	1456	1450	1434	1425	1417	1418	1422	1424	1429	1424	1410	1372	1385	1429	1435	1438	1413	1407	1398	1428	1438	1409	1386	1385	1402	1560	1655	1754	1849	1920	1933	1926	1917	1899	1909	1914	1941	1961	1973	1969	1946	1929	1925	1938	1961	1966	1946	1923	1904	1875	1839	1816	1823	1851	1869	1877	1875	1860	1875	1886	1885	1868	1864	1858	1858	1864	1868	1861	1861	1876	1868	1854	1835	1854	1890	1872	1856	1852	1874	1891	1919	1893	1864	1815	1794	1835	1853	1861	1859	1848	1848	1829	1811	1784	1765	1775	1783	1778	1744	1665	1549	1458	1416	1387	1352	1321	1294	1289	1279	1261	1226	1192	1165	1188	1213	1236	1232	1236	1289	1312	1333	1341	1347	1373	1345	1327	1308	1295	1294	1300	1316	1317	1309	1297	1282	1257	1242	1239	1241	1243	1240	1239	1239	1243	1240	1243	1249	1247	1250	1249	1247	1244	1243	1241	1246	1262	1300	1315	1322	1320	1318	1310	1313	1319	1361	1421	1465	1526	1651	1661	1661	1671	1669	1662	1658	1669	1683	1691	1688	1687	1683	1665	1653	1649	1648	1648	1662	1672	1672	1675	1664	1663	1648	1637	1639	1624	1634	1626	1610	1614	1631	1640	1612	1607	1623	1629	1629	1624	1615	1615	1608	1581	1568	1567	1563	1545	1547	1544	1556	1554	1569	1572	1570	1553	1544	1548	1546	1541	1544	1545	1544	1541	1549	1561	1567	1554	1552	1544	1535	1528	1527	1534	1541	1548	1548	1536	1525	1512	1496	1493	1490	1487	1474	1472	1471	1474	1481	1490	1492	1491	1483	1466	1457	1458	1462	1462	1456	1460	1457	1466	1457	1445	1445	1442	1447	1449	1449	1417	1375	1369	1374	1389	1390	1395	1428	1424	1397	1384	1372	1361	1358	1357	0	0	0	0	0	0	0	0	0
