556	558	556	552	541	541	534	530	536	542	542	547	550	546	543	543	543	540	540	545	545	541	540	543	544	551	551	552	550	551	548	548	548	555	556	558	559	561	566	566	572	576	579	564	562	559	559	555	556	557	553	556	560	561	564	564	563	563	554	558	553	552	543	537	550	550	555	558	561	564	557	540	539	548	552	552	554	554	558	557	554	555	548	546	550	551	548	544	548	548	551	554	557	557	554	554	552	555	554	549	552	555	560	560	559	556	553	554	553	560	562	562	557	554	555	556	559	560	564	565	566	566	567	566	566	566	562	569	568	570	566	563	563	561	560	556	560	566	566	568	570	581	574	569	569	570	570	567	561	562	566	570	574	574	576	576	575	572	570	570	571	569	570	571	571	579	583	579	570	568	570	571	572	578	576	572	569	561	562	575	581	580	577	568	565	565	565	565	568	573	577	572	575	572	568	569	570	568	563	563	569	571	570	572	578	578	576	568	568	568	573	576	575	568	562	571	572	576	579	574	574	574	570	564	572	579	572	575	566	575	584	574	573	580	579	578	577	580	582	582	579	581	583	583	570	580	582	578	573	570	575	576	575	576	577	583	580	578	577	574	577	578	581	579	578	573	577	572	579	588	593	585	586	582	585	586	585	585	585	583	579	576	576	577	577	578	581	595	587	588	583	583	586	585	585	587	580	578	580	580	585	583	583	583	574	569	578	583	586	583	580	580	577	577	579	582	587	590	590	589	590	588	579	583	580	578	578	595	581	586	589	587	583	589	586	587	586	587	586	592	596	593	582	588	593	591	591	592	589	588	589	587	587	588	585	587	589	588	590	590	589	592	591	592	593	596	600	586	593	596	591	595	598	608	611	610	597	602	597	604	611	606	598	592	589	594	595	607	598	597	598	599	600	599	598	599	600	603	603	604	605	606	607	608	608	608	605	598	594	595	596	599	600	601	604	610	612	608	605	606	602	603	611	619	619	618	614	609	599	598	611	614	617	618	618	613	609	611	613	612	614	606	601	599	597	598	602	605	604	602	598	598	600	603	619	607	596	597	599	606	609	611	610	602	603	602	598	601	609	609	610	605	601	597	603	602	597	605	612	616	612	608	605	615	618	612	617	614	611	612	610	607	604	604	607	608	610	612	620	623	622	618	611	607	610	613	619	622	623	620	618	616	610	608	610	622	624	623	621	618	620	619	615	614	611	617	623	620	617	615	612	614	617	619	623	626	622	616	612	613	612	615	616	618	619	617	618	625	618	609	603	601	604	606	606	603	606	611	623	622	619	622	629	630	626	628	624	619	602	612	620	640	640	639	634	629	629	625	620	618	620	621	633	634	634	633	631	632	632	637	632	631	629	630	628	628	631	631	627	627	630	636	634	631	630	624	618	618	618	644	651	651	648	644	642	642	641	642	635	634	632	632	630	634	639	640	643	646	648	648	640	637	637	634	637	0	0	0	0	0
560	560	559	552	546	546	535	534	538	544	544	540	540	534	541	541	544	544	542	538	538	534	535	541	542	545	545	552	545	543	542	544	544	548	558	562	561	561	563	563	566	568	570	552	549	556	559	559	554	553	555	555	555	558	551	551	549	554	556	554	552	541	533	541	549	549	555	561	562	556	540	537	535	539	547	549	550	550	550	551	554	552	546	547	549	549	542	547	548	547	549	555	557	557	555	554	554	552	550	545	550	551	554	557	557	552	551	551	552	554	558	555	554	553	555	555	551	556	560	563	568	572	572	564	562	558	554	551	552	558	560	563	563	561	556	557	563	564	566	564	566	562	560	565	569	570	564	563	563	564	566	576	575	570	566	563	558	561	558	560	559	561	562	566	568	580	584	580	565	560	564	567	572	572	572	567	561	559	556	558	575	578	571	563	561	565	566	568	571	572	572	571	574	575	577	571	570	568	564	564	566	568	567	572	574	574	572	571	568	567	562	565	565	565	561	568	571	573	573	569	569	568	568	565	570	570	572	574	574	576	578	580	574	579	570	571	574	575	577	576	576	580	583	582	568	570	583	580	575	569	576	576	577	576	565	560	573	574	574	566	566	570	566	562	568	568	561	563	572	572	576	575	574	580	579	577	573	579	581	582	581	578	577	581	577	575	582	581	581	584	581	578	574	577	582	577	576	573	575	576	575	580	580	571	569	570	578	580	580	575	573	576	575	575	576	578	579	588	595	594	589	578	578	583	580	578	578	582	585	586	583	583	577	582	584	584	585	579	581	580	586	584	587	583	580	581	582	585	586	585	583	583	580	578	580	583	583	586	588	582	582	585	584	592	593	588	590	596	585	589	587	590	597	605	607	590	597	595	598	594	599	605	594	589	587	586	594	598	598	596	600	605	597	592	587	588	598	601	601	598	594	595	608	609	611	609	606	601	595	592	591	594	598	598	603	599	600	606	601	601	601	596	596	604	608	611	612	613	605	604	602	611	614	616	615	609	603	609	611	607	607	613	601	589	588	589	594	610	604	602	597	597	595	594	612	602	601	603	601	601	602	599	595	596	597	597	594	599	599	605	607	604	598	594	593	593	595	600	607	610	610	608	601	601	604	610	611	610	611	612	613	603	605	604	606	612	616	618	620	620	618	615	612	608	612	615	617	614	610	612	618	618	609	609	617	622	623	623	619	608	610	610	612	610	607	608	618	603	598	597	601	612	615	617	617	614	609	607	608	611	610	613	615	618	619	619	618	616	615	611	608	605	604	599	608	610	606	607	611	616	614	611	611	611	620	620	615	609	612	620	633	635	639	633	625	621	626	623	617	614	614	614	614	628	632	631	627	627	630	630	625	627	626	628	633	639	635	632	627	626	628	626	624	625	623	623	621	620	620	638	643	647	639	640	634	635	638	637	632	628	627	627	626	631	631	637	640	641	646	641	638	638	632	629	627	0	0	0	0	0
560	557	552	550	539	539	536	539	544	540	540	536	531	534	538	538	546	545	546	544	541	541	542	546	541	542	543	543	540	538	537	534	546	546	553	561	559	556	552	557	557	559	556	552	544	543	545	545	547	547	546	546	548	548	546	548	548	550	550	550	543	543	543	543	548	549	549	551	552	545	541	539	538	536	545	549	550	547	547	549	552	550	541	546	547	547	548	552	552	551	548	554	555	555	553	550	550	550	544	544	547	548	551	556	556	553	552	552	554	555	556	555	554	552	553	550	547	544	551	555	558	570	567	563	559	555	550	551	558	559	559	561	561	556	552	553	560	561	565	563	563	559	559	561	565	564	557	552	552	551	558	566	571	568	563	560	553	552	554	549	549	550	554	554	561	564	567	569	563	561	559	562	565	566	561	566	556	555	551	554	556	561	558	558	558	564	567	567	567	569	567	568	568	573	577	573	573	565	563	563	560	561	564	569	570	571	570	567	564	561	559	552	551	550	557	557	560	571	573	566	564	554	557	563	566	572	571	570	572	574	577	575	571	567	564	559	566	570	574	571	575	579	580	580	569	570	576	574	573	570	563	577	565	566	564	556	559	560	564	560	563	565	567	569	570	570	570	566	570	570	569	567	568	574	574	575	582	580	579	580	577	581	587	592	584	579	575	575	576	579	577	575	574	576	572	569	571	568	562	566	571	579	578	571	569	573	577	579	577	577	577	571	573	572	573	573	572	578	582	591	595	587	583	579	575	572	568	568	580	585	591	583	575	574	579	583	583	582	577	578	582	586	580	576	576	579	583	585	585	586	585	581	578	576	577	576	584	583	584	582	581	585	590	598	594	582	586	581	585	574	577	583	589	594	583	582	589	593	585	591	595	597	582	582	582	589	593	593	582	589	593	594	601	586	583	585	587	597	596	594	592	594	596	598	599	600	600	599	595	590	585	590	593	598	596	595	585	593	598	599	601	590	586	583	601	608	609	608	604	599	596	597	597	597	598	595	599	602	604	601	596	592	582	576	581	586	589	596	604	602	598	595	593	592	593	598	599	603	604	600	596	593	594	593	593	594	597	597	598	598	603	604	594	589	591	592	596	596	606	617	616	606	601	599	602	607	609	606	611	607	604	600	600	603	605	596	595	599	610	613	614	612	608	611	612	611	610	610	600	597	596	613	606	604	604	607	614	616	611	592	591	598	599	599	599	600	602	598	595	593	596	602	612	614	609	595	592	593	607	607	604	604	608	614	615	617	618	616	616	613	606	604	604	599	608	609	609	609	614	612	609	611	611	610	609	611	612	615	619	624	628	635	622	617	611	612	610	609	613	615	617	615	615	610	621	620	620	622	625	625	620	623	625	626	631	631	619	621	622	622	616	616	617	620	620	622	624	624	617	619	624	629	636	638	636	634	633	632	629	627	627	626	624	622	621	616	632	638	638	641	636	636	633	629	622	0	0	0	0	0
557	541	535	536	537	532	532	535	540	533	531	531	533	533	537	536	536	538	543	549	550	550	549	545	539	540	539	539	531	533	531	533	542	542	547	552	552	548	547	548	548	550	551	550	543	544	544	543	543	542	540	541	545	544	540	539	539	550	551	550	546	546	540	534	535	536	536	537	543	544	541	540	541	539	537	550	554	555	556	556	553	546	543	539	542	547	549	549	543	551	552	550	549	549	547	546	545	543	543	543	545	548	548	554	554	552	552	553	551	552	550	549	549	550	549	546	545	543	546	552	556	560	559	558	556	551	548	550	555	552	552	555	554	551	547	544	546	553	553	554	553	557	555	555	555	551	548	549	550	547	551	559	548	547	547	554	552	550	549	552	550	551	554	552	555	558	562	565	567	558	556	558	563	565	556	559	554	551	549	550	553	553	558	561	559	565	567	566	560	567	567	566	563	563	566	567	566	561	561	560	559	558	561	565	565	564	567	564	560	558	556	560	549	543	547	551	555	566	568	568	563	556	558	560	564	567	567	564	569	571	570	570	571	566	562	556	552	550	550	547	553	552	552	563	568	571	574	575	568	561	564	566	564	563	556	555	553	552	551	561	562	560	562	566	566	564	559	565	568	569	568	561	564	567	569	577	580	580	579	579	570	575	576	579	586	572	570	570	573	575	575	574	570	570	566	564	567	564	560	562	569	570	574	573	574	573	574	579	577	578	575	571	571	569	570	569	569	565	575	576	577	583	574	570	569	566	566	569	578	581	581	589	588	575	576	577	580	580	573	575	579	579	573	575	575	579	586	584	583	584	591	584	578	576	568	569	574	580	581	582	580	585	590	596	603	596	580	586	572	571	565	569	575	578	577	578	565	569	585	589	592	595	577	580	579	580	583	577	577	580	588	584	586	585	585	586	586	586	594	593	592	592	595	594	590	589	585	588	593	588	582	586	594	595	592	591	582	588	591	594	599	593	582	581	586	602	604	601	597	591	588	594	592	591	589	592	584	583	598	601	599	592	587	581	583	586	587	587	596	603	600	596	589	593	594	594	597	606	595	589	593	587	582	584	589	592	596	595	595	596	599	597	590	588	588	593	599	602	601	607	608	609	604	600	597	591	592	607	607	606	601	595	598	598	591	592	591	605	608	613	609	607	606	606	610	611	606	606	602	599	592	592	596	602	607	608	612	613	608	603	602	603	605	604	604	604	612	607	601	599	599	602	605	606	603	589	592	595	609	607	604	603	604	612	613	613	613	613	614	604	604	604	608	612	613	612	610	610	610	609	606	606	612	611	608	608	612	608	616	618	620	619	613	609	610	610	606	604	604	616	618	619	619	608	614	614	613	615	619	619	615	618	619	621	626	626	622	619	616	617	616	613	613	615	616	616	616	622	623	618	622	624	626	623	635	634	628	629	627	626	626	623	621	621	613	616	617	628	630	636	636	634	629	624	621	0	0	0	0	0
541	535	521	524	530	530	530	529	530	532	531	531	536	537	537	530	530	536	542	546	547	544	544	541	540	537	534	534	531	530	526	527	538	542	542	541	541	543	545	544	545	545	546	545	542	546	545	539	539	540	541	542	545	538	536	535	535	535	537	545	544	535	531	531	538	535	535	535	536	538	538	537	537	538	540	544	552	557	565	559	559	549	536	539	541	545	546	543	546	546	554	541	545	545	547	548	547	543	543	543	543	545	545	550	554	544	543	544	545	540	539	547	547	547	548	545	540	542	544	550	555	551	555	553	550	548	545	539	540	540	544	549	548	547	546	542	543	541	541	541	548	551	551	550	548	544	540	537	538	541	546	546	546	545	546	552	551	548	552	552	549	551	552	549	551	547	559	563	562	561	555	556	558	559	556	554	552	549	545	547	548	551	555	556	549	550	550	553	558	566	566	555	563	557	555	560	560	560	562	562	560	551	555	552	547	560	558	558	557	555	555	549	547	544	544	547	551	551	555	560	553	557	555	558	561	563	565	557	559	563	566	569	567	564	562	557	552	546	546	546	548	550	553	561	561	569	555	549	553	558	561	565	563	555	555	555	553	549	548	549	555	559	561	561	556	551	554	561	566	567	557	560	561	561	565	574	578	577	577	578	564	563	565	570	570	563	563	561	561	559	563	560	563	559	560	564	565	564	560	561	568	570	574	577	574	572	574	580	581	582	570	577	567	565	564	565	566	572	573	574	577	571	570	571	572	576	569	574	573	576	577	584	583	578	573	576	576	574	574	576	578	578	570	572	574	582	583	580	580	582	587	590	577	572	568	568	577	578	578	575	568	570	578	581	584	586	586	580	573	573	579	579	580	569	578	569	564	564	571	587	588	588	575	576	578	577	576	571	572	574	580	580	579	584	587	586	585	584	590	593	607	602	594	587	583	579	578	580	588	583	584	588	589	593	590	588	575	576	589	595	594	577	577	584	587	591	591	590	585	588	579	586	582	578	579	578	579	582	594	596	597	592	589	586	586	587	587	580	589	593	597	596	591	594	594	598	594	592	589	583	579	573	574	575	581	587	593	600	600	594	590	591	586	583	583	589	595	597	599	597	599	599	598	595	592	590	590	601	606	604	599	594	594	594	596	590	590	600	604	598	593	592	596	591	590	591	602	597	597	591	589	590	595	600	604	607	610	609	613	596	603	603	605	604	599	591	599	600	598	597	596	594	595	596	600	599	598	594	608	597	599	602	606	609	610	610	610	611	601	600	601	603	609	614	616	615	611	611	609	606	605	607	609	608	604	604	595	595	596	609	613	611	606	602	607	607	605	602	600	613	621	621	609	605	605	603	602	603	609	609	616	618	619	617	626	625	622	619	610	604	607	609	611	611	610	611	611	610	606	600	616	615	608	612	614	627	626	621	621	621	618	617	619	617	612	615	624	619	622	632	632	630	625	620	615	0	0	0	0	0
523	521	520	526	526	525	526	526	529	528	529	529	536	535	531	529	532	532	538	542	541	538	538	538	539	535	531	531	531	521	521	530	533	535	535	539	541	542	543	541	541	541	540	541	541	548	542	540	541	541	542	545	544	544	539	535	537	537	541	541	541	524	529	538	535	537	535	535	532	532	532	535	532	533	537	557	559	558	544	540	540	539	536	536	539	541	541	543	546	543	539	537	537	539	548	546	545	541	541	541	541	543	543	541	538	537	540	540	538	536	535	538	542	544	543	535	534	537	538	543	551	549	550	547	546	541	539	537	538	537	542	544	549	549	545	541	537	537	536	538	542	545	546	544	544	538	536	535	540	539	544	541	541	543	544	548	547	547	550	550	548	546	548	546	545	546	542	547	552	553	554	552	553	553	551	549	549	545	546	548	550	552	551	550	544	549	548	547	548	546	548	550	544	544	548	551	554	560	547	547	547	546	539	539	542	542	553	555	552	557	551	549	546	544	545	548	548	549	550	556	557	557	563	556	557	555	547	543	545	559	561	562	560	561	563	560	561	550	547	546	554	553	550	553	553	551	548	549	550	552	555	558	559	558	556	555	555	553	550	552	554	561	562	561	557	550	549	552	561	560	562	562	562	561	559	557	558	559	560	561	563	561	569	571	570	568	558	557	558	557	558	550	549	555	552	554	553	552	553	556	554	554	554	556	562	577	576	577	572	566	565	571	566	562	561	562	566	572	575	577	564	567	567	570	566	571	573	571	570	570	571	578	583	578	573	567	567	567	567	571	562	562	564	571	573	572	569	562	569	576	582	583	582	583	577	570	566	571	564	566	563	567	566	566	571	575	580	575	572	573	572	577	576	564	571	567	562	562	563	575	579	579	579	578	579	579	571	569	568	572	570	574	572	579	581	579	578	579	588	592	590	585	581	581	577	575	575	575	580	581	583	587	587	592	584	577	569	567	567	567	570	572	574	583	585	582	578	571	577	573	570	573	583	581	578	575	580	583	590	592	590	589	585	588	587	587	581	575	578	585	589	588	591	601	595	592	593	591	589	585	579	576	571	573	575	575	578	581	588	592	586	577	579	583	583	584	583	584	593	594	593	593	594	592	591	584	582	587	596	592	596	594	591	595	589	588	584	589	595	593	595	593	592	590	588	591	587	587	585	585	583	589	595	598	599	603	606	606	610	596	592	591	597	592	585	588	592	594	595	594	592	593	594	594	596	596	597	601	600	597	590	594	598	605	610	606	608	607	597	597	598	603	604	613	615	615	612	609	606	604	604	605	596	591	597	594	595	593	594	602	607	607	610	610	605	605	601	600	601	604	606	601	601	603	604	601	598	603	608	611	611	612	613	614	616	614	605	601	599	602	607	609	607	603	600	600	604	602	604	612	602	608	612	608	610	618	622	617	617	613	611	614	615	615	618	619	611	605	608	622	622	623	619	616	611	0	0	0	0	0
520	520	520	521	516	523	522	522	528	527	526	532	532	531	530	529	526	526	527	530	528	528	528	532	534	534	530	529	529	521	522	522	527	530	533	533	536	538	541	540	539	539	536	536	541	541	540	540	542	542	543	545	544	543	540	534	536	538	538	536	530	524	533	529	534	535	535	530	530	527	524	521	522	531	535	538	543	543	540	541	539	539	535	541	542	540	540	541	541	543	541	531	525	536	540	546	541	539	540	542	542	542	541	537	535	535	535	536	536	533	534	532	539	540	538	532	530	531	531	534	540	541	540	533	539	537	534	532	532	537	540	543	545	544	540	537	532	532	535	535	539	540	541	538	536	536	537	537	544	544	544	538	540	544	547	547	545	546	547	550	550	550	544	545	540	535	543	546	546	550	550	550	549	548	545	545	545	545	546	550	551	551	550	547	545	543	542	549	542	543	546	548	539	539	542	546	553	558	547	546	544	541	537	539	541	542	542	544	549	552	549	543	544	544	544	544	547	549	545	548	551	557	557	554	555	545	544	544	544	545	559	559	559	552	551	550	551	543	541	540	543	543	545	542	547	550	545	546	549	549	549	556	551	550	550	554	554	549	549	550	554	559	562	560	549	548	548	547	555	564	561	562	561	560	556	555	556	559	560	561	556	558	553	562	569	567	560	557	554	553	553	548	547	546	547	550	552	552	552	554	554	554	553	557	561	558	577	569	570	564	561	559	560	560	558	560	560	564	567	563	563	565	569	571	558	561	564	566	566	566	565	570	571	573	570	565	562	562	555	556	556	558	556	565	570	567	565	559	562	567	575	576	579	580	578	570	562	564	564	560	565	567	567	566	568	565	569	573	570	564	567	571	570	565	558	555	561	563	563	574	567	562	566	564	563	564	575	563	562	563	566	569	572	576	576	575	563	569	577	587	588	585	585	581	572	560	556	569	572	577	583	582	581	578	577	567	566	565	566	566	568	571	579	571	572	566	567	567	569	575	573	563	561	569	572	575	577	580	585	585	586	572	586	583	587	587	579	575	574	577	580	583	593	593	589	591	591	591	586	583	581	576	569	565	567	573	577	581	587	586	581	583	579	581	582	583	583	583	582	582	576	586	587	587	586	579	577	576	581	582	586	587	588	590	586	584	578	580	584	592	592	590	589	588	592	594	594	587	582	581	582	595	599	599	597	588	588	591	592	591	589	589	590	585	586	585	591	594	592	592	591	592	585	594	593	595	595	590	604	596	590	588	587	584	595	594	590	605	599	597	598	607	608	611	617	612	610	600	599	599	600	603	596	593	590	591	591	594	594	594	602	595	598	596	602	602	602	598	595	595	595	595	597	599	600	598	600	599	600	606	606	607	607	607	607	609	609	602	600	602	604	605	603	586	586	581	579	596	608	610	613	612	609	608	606	609	608	609	609	602	600	602	611	613	617	604	607	605	605	608	614	615	614	611	606	0	0	0	0	0
525	524	521	516	507	510	512	512	519	523	525	526	526	528	524	526	517	517	516	515	519	521	525	525	528	525	526	523	521	521	519	521	523	523	527	527	529	534	530	525	524	528	528	535	538	532	535	537	542	544	544	544	543	541	540	538	536	536	536	533	524	519	517	517	522	524	525	526	527	527	525	524	522	527	527	530	531	534	534	535	535	532	532	531	530	526	528	531	532	533	533	530	529	521	533	535	540	532	533	536	540	540	540	539	533	532	533	532	534	533	530	523	524	529	533	531	531	529	527	534	536	538	538	528	526	530	529	529	533	534	535	533	542	539	538	526	523	527	530	532	535	537	536	534	535	535	536	540	532	539	538	535	536	542	546	547	543	544	546	549	551	549	543	536	532	538	545	547	547	543	542	542	545	548	548	544	542	540	541	546	553	550	548	546	545	546	555	544	537	541	541	547	549	543	538	549	552	554	554	543	542	538	535	539	541	545	541	542	545	547	548	543	548	552	547	547	545	544	547	551	552	554	551	547	541	535	540	541	543	543	556	555	543	542	547	547	539	535	532	539	543	541	536	536	538	536	540	542	547	548	548	549	549	547	545	545	539	547	547	548	555	551	550	548	542	541	544	549	556	553	557	560	559	555	554	555	556	554	553	555	555	552	549	562	561	561	557	552	552	551	550	545	547	548	548	545	547	549	552	552	554	554	552	551	558	555	561	561	561	559	557	553	555	555	556	556	555	557	562	563	565	566	568	568	558	559	559	561	561	557	555	558	563	563	562	556	549	551	553	553	553	554	554	555	565	569	562	560	560	564	567	566	566	563	558	555	554	562	563	565	570	570	570	567	569	565	566	562	560	560	562	564	564	559	558	560	561	563	570	564	564	564	557	562	559	557	556	556	558	562	565	568	570	571	569	567	562	569	573	579	585	586	582	581	578	572	565	559	561	562	577	583	578	574	566	565	565	565	567	570	570	566	575	576	567	567	566	567	567	574	575	574	574	572	572	575	577	582	582	578	580	571	574	582	581	583	584	575	573	574	578	577	577	572	575	576	589	588	589	584	582	581	571	566	570	574	572	575	580	580	576	570	569	580	582	581	578	578	580	581	576	572	569	569	568	571	575	577	586	584	577	577	580	583	590	582	578	576	577	579	580	580	584	586	588	595	596	590	586	584	580	583	588	579	583	587	588	589	587	587	585	586	588	588	589	586	585	591	592	588	586	578	594	593	593	592	584	590	588	588	593	589	584	578	575	583	590	595	599	600	598	596	610	610	602	601	605	591	593	592	597	598	599	593	591	590	590	589	592	594	592	592	594	594	597	601	601	598	593	592	592	590	595	600	596	595	596	596	596	601	601	603	603	600	603	608	609	600	599	599	600	601	592	592	585	581	578	593	606	606	611	611	608	606	603	602	602	602	601	597	595	589	586	588	594	603	606	607	607	605	609	611	611	608	603	0	0	0	0	0
525	525	516	516	509	510	511	518	518	520	523	523	521	521	522	519	517	513	513	516	518	516	518	518	525	530	528	520	520	520	520	520	517	517	520	520	522	528	524	518	524	525	525	526	528	523	528	530	539	543	543	541	540	538	537	532	530	535	537	537	538	529	523	517	520	519	519	519	520	520	520	520	521	522	527	534	535	534	537	539	537	530	530	528	526	525	525	525	526	527	527	529	531	528	530	532	538	537	530	531	536	536	538	538	530	529	531	525	523	525	524	525	527	531	536	541	540	532	523	531	533	534	534	531	524	522	527	530	531	531	533	531	530	532	534	529	522	519	521	522	523	532	532	531	531	531	529	532	531	535	535	533	539	540	545	543	539	540	541	539	537	537	536	527	529	530	538	538	536	529	528	529	532	536	540	540	533	531	533	535	542	554	554	554	547	553	553	542	539	542	542	543	544	539	532	548	553	548	549	540	541	542	541	541	541	544	546	537	540	542	546	538	535	535	534	535	536	540	545	550	552	552	549	536	533	530	536	538	537	541	544	545	539	546	546	541	533	530	531	533	538	538	530	529	528	529	530	532	538	542	542	544	545	546	545	539	538	541	548	548	554	550	547	544	543	540	543	543	554	553	554	549	547	539	543	549	550	549	550	552	555	554	546	555	557	558	555	547	548	547	541	546	551	550	548	542	543	547	549	551	547	549	550	556	555	553	557	557	558	551	547	547	549	548	545	547	550	555	559	560	561	557	558	558	556	558	559	560	558	552	552	548	552	554	555	554	551	551	552	553	552	554	555	555	554	556	553	551	551	551	552	553	553	555	556	557	548	550	564	567	568	568	568	550	551	551	561	560	556	554	554	558	561	561	560	558	559	564	567	562	563	562	558	554	562	556	554	555	558	563	567	566	565	565	566	563	561	561	568	574	573	575	575	578	576	571	562	558	559	560	569	574	564	565	565	565	566	555	550	555	560	563	576	577	570	567	569	569	573	574	576	576	577	583	572	573	574	581	581	581	582	582	580	580	579	582	584	580	577	578	578	576	569	577	569	575	568	586	587	584	585	584	583	574	574	572	568	568	571	570	570	567	567	576	579	578	579	575	580	579	576	567	566	567	565	571	575	578	579	580	576	577	580	585	590	587	580	577	574	575	575	576	580	581	581	586	589	589	587	587	582	587	584	571	575	584	587	584	583	582	584	584	586	590	579	576	576	581	585	582	579	574	577	591	591	580	582	581	582	585	588	598	587	573	571	580	574	574	591	600	596	582	578	586	591	594	595	587	587	589	593	594	596	593	589	588	587	587	588	592	594	588	587	590	590	592	598	592	589	589	587	586	591	596	592	587	587	593	587	582	586	589	597	596	596	590	590	592	594	597	597	597	596	596	585	579	577	596	597	596	609	605	603	601	600	598	599	599	598	600	599	591	582	580	588	598	602	602	604	607	606	606	608	605	599	0	0	0	0	0
524	525	517	517	504	509	513	514	514	515	516	518	519	519	517	515	512	516	516	516	516	520	512	517	517	522	520	521	521	520	520	516	512	511	514	517	517	521	514	519	521	522	520	520	520	518	518	524	531	538	537	537	530	526	522	519	522	522	532	532	531	519	516	515	512	514	514	515	517	520	520	520	519	524	527	530	531	533	534	534	532	528	524	524	523	523	524	524	522	524	526	527	527	527	526	527	530	531	532	531	526	530	534	538	538	530	537	534	527	525	526	530	530	537	532	528	532	532	528	526	530	531	528	530	531	533	533	533	530	531	533	535	527	527	524	521	521	522	521	523	522	525	531	532	531	531	531	531	528	529	529	527	532	544	536	535	531	532	532	530	527	518	515	517	524	528	533	534	533	528	527	531	531	530	531	526	528	529	532	525	523	533	550	549	537	528	533	534	537	538	536	535	532	530	530	543	551	548	540	541	542	542	529	531	536	536	537	542	534	535	535	527	528	531	534	535	535	536	541	547	549	536	536	534	527	525	532	532	528	533	538	536	532	533	534	536	535	529	532	531	530	535	532	527	522	528	524	528	532	529	534	539	540	544	539	536	534	532	536	543	542	538	536	537	543	545	546	544	540	546	546	546	547	544	543	547	546	544	544	539	544	538	536	540	556	556	549	547	543	541	539	545	548	550	546	537	539	542	547	546	545	546	558	557	555	551	554	552	551	552	543	543	538	545	540	543	546	551	545	548	551	555	555	555	555	556	548	545	547	549	542	542	544	550	547	542	544	550	552	551	549	551	554	554	553	550	552	549	551	552	550	545	547	556	562	557	546	548	554	566	564	565	546	549	555	553	552	549	547	548	558	563	562	564	560	561	559	557	562	557	557	559	557	556	558	554	554	555	557	558	557	557	558	562	562	562	561	565	569	569	563	564	565	565	564	562	559	557	558	560	566	567	563	563	560	558	554	553	552	554	555	557	566	565	568	568	569	568	569	570	568	564	585	569	567	569	565	567	570	574	578	578	579	577	578	581	581	580	580	577	575	575	572	566	568	573	566	566	581	582	583	585	585	582	575	566	565	564	564	569	565	562	568	566	573	579	572	569	566	564	573	564	563	563	566	576	578	579	580	584	573	575	579	584	587	583	576	580	576	574	567	561	562	563	565	570	579	580	581	580	576	583	573	565	559	565	570	582	576	579	582	583	585	580	576	576	574	572	574	570	570	569	577	576	576	578	574	578	577	575	587	585	577	575	570	568	574	577	579	569	574	569	566	578	585	589	590	588	576	576	577	588	590	588	588	587	586	591	587	590	592	592	591	581	581	584	588	588	589	587	583	582	582	587	593	588	585	582	571	569	571	580	580	585	584	587	585	586	589	596	597	599	599	592	586	581	577	589	584	581	590	597	596	595	594	593	593	592	591	594	593	588	573	571	582	588	593	593	602	604	602	603	602	595	587	0	0	0	0	0
511	511	507	504	504	500	503	503	503	509	508	515	518	518	513	513	514	510	513	513	516	517	513	514	514	505	509	515	517	517	517	512	508	506	510	514	514	517	513	515	517	515	514	514	517	518	515	513	513	529	521	521	517	515	516	518	519	519	529	526	526	519	516	510	507	511	511	513	516	517	517	517	517	517	520	521	526	526	522	527	528	522	522	522	522	523	523	521	520	520	522	524	525	524	524	527	527	528	535	521	523	526	528	535	539	539	533	530	526	521	529	532	533	531	527	527	524	522	527	535	536	532	517	524	528	531	532	529	524	522	531	533	527	523	520	522	524	522	521	523	518	527	531	531	533	535	535	532	526	524	524	527	529	538	533	527	525	520	520	521	521	518	514	514	516	521	523	523	526	528	522	531	531	526	524	522	524	529	531	534	518	521	527	527	528	525	522	525	528	525	526	526	527	523	523	527	530	530	537	538	529	531	532	533	531	524	528	530	533	534	527	525	525	526	531	533	535	534	533	532	530	532	535	530	524	524	530	532	529	530	536	533	529	524	523	528	527	528	532	535	531	525	520	520	521	518	514	522	522	523	523	535	534	534	534	535	532	531	535	541	539	536	532	530	531	531	530	531	535	530	543	547	547	545	546	542	541	543	533	534	532	536	534	538	535	538	544	547	543	540	534	542	546	545	542	530	532	536	544	543	542	540	554	554	545	544	545	545	547	546	540	541	541	535	535	539	540	544	542	546	549	554	554	553	546	548	554	554	544	543	540	540	539	545	544	542	538	540	540	543	546	549	552	550	547	547	546	549	551	550	548	540	547	554	559	561	550	550	548	555	555	547	549	554	554	551	545	547	554	559	560	560	558	555	555	553	549	554	554	555	556	558	556	552	552	552	547	551	554	556	556	555	554	561	564	563	563	567	570	569	563	564	564	563	561	561	560	558	553	551	555	559	574	564	562	556	553	553	554	556	557	558	561	559	562	564	565	561	568	568	563	563	567	565	561	560	560	561	559	553	567	575	575	576	577	580	579	577	574	574	574	575	566	571	568	565	558	560	564	579	581	581	571	569	565	562	563	562	561	560	560	559	561	560	572	574	577	565	563	559	556	565	564	564	577	572	574	577	581	581	572	576	578	578	579	570	571	571	570	565	565	567	558	556	559	568	575	579	578	570	570	577	567	562	555	551	563	569	571	570	572	574	579	579	575	577	570	565	568	567	567	568	575	574	573	574	568	569	565	571	585	581	581	573	569	569	574	576	576	569	566	561	556	559	566	575	583	581	578	573	571	572	581	583	588	586	583	588	579	584	587	586	585	572	574	577	577	581	583	584	582	582	577	572	570	568	568	569	563	566	575	579	583	587	584	583	583	585	589	593	595	595	594	590	587	580	576	576	575	570	579	586	593	589	589	589	587	586	590	591	592	590	584	576	574	576	576	581	602	604	598	598	594	585	585	585	0	0	0	0
503	502	503	490	490	500	498	499	495	495	508	507	505	503	503	503	508	510	509	509	512	518	516	504	504	504	505	509	514	516	516	507	505	504	509	513	514	514	511	510	511	509	510	510	510	517	512	513	510	512	513	515	515	516	517	517	516	516	515	515	515	515	505	507	510	511	510	511	511	511	514	514	515	518	513	510	511	516	520	519	522	519	519	524	524	524	523	520	518	515	517	521	524	523	523	524	522	522	525	520	521	525	523	524	533	516	516	518	515	518	521	519	521	525	524	523	520	519	524	531	533	529	524	518	516	522	528	519	517	522	527	530	525	522	519	520	522	522	522	519	527	531	530	531	532	534	536	531	525	523	523	524	525	534	527	521	515	517	520	519	520	518	514	511	515	516	516	520	518	518	521	526	529	525	522	523	525	528	527	527	518	515	521	522	524	524	525	525	522	522	522	525	526	525	529	529	530	528	523	521	519	524	525	531	527	523	526	529	530	530	528	524	523	525	526	528	528	530	531	529	529	532	532	530	528	526	528	531	527	527	530	528	526	520	521	525	526	528	530	530	526	522	517	521	520	526	523	524	526	526	521	530	527	527	526	528	532	528	535	534	535	533	529	528	525	525	525	521	519	527	531	530	531	538	539	531	527	525	525	526	526	519	532	535	532	546	536	528	529	538	537	534	537	534	536	531	532	535	535	530	531	548	544	547	543	540	538	543	543	541	538	539	540	535	535	535	539	538	538	541	542	549	548	546	544	546	554	552	543	542	543	540	538	545	543	541	539	537	540	545	548	549	548	546	543	546	546	545	550	549	548	545	545	546	554	554	553	549	548	548	548	552	555	555	554	555	554	550	550	555	559	557	553	550	547	546	546	547	549	552	556	558	557	551	545	547	545	546	553	555	555	551	555	549	548	545	555	562	566	565	556	562	558	554	551	549	549	555	551	551	551	571	569	565	561	553	551	553	553	555	556	557	557	555	550	549	546	558	556	551	562	562	565	562	559	555	560	560	558	553	556	558	558	558	557	554	568	569	577	573	570	567	571	570	566	562	558	557	560	565	566	564	563	562	562	563	567	565	563	559	560	559	560	563	567	567	558	564	564	562	556	556	562	576	574	567	568	563	572	574	574	577	574	574	572	563	564	564	566	564	565	563	563	561	555	562	575	577	565	562	563	569	564	556	554	553	553	561	565	563	564	563	574	569	574	575	568	567	567	568	572	572	572	570	570	571	566	569	563	566	571	570	570	573	572	572	571	566	567	567	566	564	561	563	568	570	579	579	577	572	568	566	570	576	580	580	575	570	571	579	577	574	574	566	566	566	569	569	569	578	581	582	581	570	569	568	566	563	569	571	573	581	587	581	581	582	583	585	587	582	582	573	578	586	588	584	580	573	572	569	573	577	585	585	584	584	581	581	586	587	591	588	585	585	585	585	585	586	587	604	603	596	589	586	583	583	0	0	0	0
491	491	495	493	497	497	498	495	500	500	497	501	505	504	504	504	507	506	503	503	508	510	517	507	500	500	506	505	507	511	507	507	497	504	507	514	513	513	508	505	506	504	507	511	511	513	511	509	509	508	511	509	509	514	516	516	514	514	514	514	506	506	512	513	514	515	512	511	509	510	512	518	518	518	515	513	511	514	519	520	517	511	508	509	508	508	519	515	514	514	519	514	515	518	518	518	516	521	519	525	525	527	527	520	512	508	511	511	513	516	516	516	518	519	523	520	520	521	523	528	530	527	521	514	512	512	518	520	517	521	525	530	527	519	519	519	522	522	519	525	526	527	527	530	529	531	519	526	526	525	523	522	524	525	525	516	515	516	518	519	523	515	514	512	511	509	510	513	514	512	517	521	527	523	521	522	521	525	524	524	515	515	517	518	519	522	523	520	519	519	521	524	525	523	522	526	525	523	522	520	519	517	517	517	519	518	524	524	529	531	529	527	521	524	525	525	525	529	534	535	532	526	530	528	524	525	525	529	523	531	527	526	525	524	524	524	524	529	531	530	522	522	520	526	522	526	526	525	523	524	530	529	526	524	524	525	524	528	535	530	528	524	524	524	527	530	525	520	517	522	524	523	530	530	534	537	530	525	521	522	526	532	536	540	536	528	531	527	527	528	535	538	538	536	533	535	534	532	534	535	538	540	544	542	539	539	538	538	541	539	535	535	538	533	534	534	533	533	533	538	540	543	543	541	542	543	543	542	541	540	538	539	540	543	541	543	543	540	540	550	544	547	551	543	542	542	542	539	535	544	547	545	545	544	546	550	552	552	547	545	547	553	554	552	549	549	551	554	549	550	551	548	546	544	545	544	545	546	548	552	558	560	559	555	542	541	547	542	554	553	554	551	549	546	545	543	543	555	564	561	557	552	552	548	542	547	551	551	549	547	547	547	549	559	561	552	550	550	550	551	552	553	552	549	542	544	544	545	544	544	542	559	558	552	551	551	554	557	557	551	553	555	555	554	549	547	546	549	563	557	555	557	555	566	568	563	559	559	560	567	561	560	552	551	551	546	541	539	551	555	558	556	560	562	561	559	548	562	564	562	557	559	561	564	559	566	563	560	562	565	572	570	570	570	570	571	571	568	567	563	562	560	562	561	557	562	567	568	557	556	557	558	561	560	558	555	552	555	560	559	561	563	563	562	562	565	573	575	567	560	558	553	557	564	563	571	567	566	561	558	563	566	570	569	574	571	568	563	562	565	567	567	565	567	560	566	567	571	569	568	565	563	567	573	575	572	569	564	562	564	570	569	569	563	563	566	564	558	560	567	572	574	574	572	570	577	568	568	571	574	575	577	583	589	592	585	584	584	575	570	570	573	578	578	580	585	583	583	571	568	569	573	580	582	582	582	577	572	580	579	579	577	583	586	587	587	590	589	589	589	591	591	590	587	587	580	0	0	0	0
498	494	492	493	497	497	498	495	496	495	495	502	505	506	507	507	503	500	503	504	504	507	505	506	505	505	508	501	504	503	500	500	502	501	499	504	507	505	505	503	500	504	509	514	512	512	511	505	506	507	504	509	510	510	511	513	514	513	515	513	511	512	512	511	511	510	508	505	505	509	511	515	515	515	514	514	520	522	522	524	514	514	513	505	506	508	508	508	508	508	509	510	513	517	520	515	511	512	520	523	523	522	520	519	506	507	510	507	507	509	511	511	512	514	515	518	518	516	519	519	519	519	516	513	508	506	508	518	516	520	521	525	522	516	517	518	521	525	520	524	519	524	524	521	512	514	511	512	513	511	514	514	516	526	525	520	520	523	521	511	516	514	512	510	510	508	508	511	510	508	511	517	517	518	519	520	519	520	521	515	516	514	515	518	516	520	520	519	519	518	520	521	521	520	518	514	520	520	521	516	515	515	513	509	513	511	516	518	514	517	520	518	509	512	521	522	523	527	531	534	529	521	528	526	524	526	521	522	527	531	532	528	526	525	525	525	524	527	527	523	519	520	521	522	526	526	525	524	519	519	523	534	527	523	522	519	521	525	532	528	526	523	521	522	522	518	530	528	522	518	523	523	523	526	529	528	528	526	520	527	531	545	545	532	531	531	531	528	525	527	531	533	538	534	532	528	533	537	538	538	539	540	536	534	534	539	539	536	531	533	532	530	529	532	532	537	534	531	528	533	535	539	539	540	541	539	540	539	541	540	541	545	542	548	545	542	542	541	541	540	542	540	539	542	539	540	536	534	535	534	534	534	540	544	544	548	548	548	549	543	545	551	554	549	543	542	544	551	547	547	546	543	540	541	546	545	544	545	549	555	558	559	556	552	543	542	542	543	538	542	539	540	543	544	542	541	543	539	537	544	546	550	546	545	538	545	548	549	545	541	545	545	550	551	546	549	545	543	545	548	548	550	547	544	536	538	538	538	538	535	537	548	550	546	551	556	554	554	550	546	543	542	548	548	544	545	546	549	557	557	550	552	549	555	560	558	546	548	555	558	557	548	550	552	551	547	541	541	550	553	549	549	547	547	541	553	548	556	563	565	558	555	562	548	556	553	552	550	554	557	554	567	567	568	568	567	568	566	564	566	556	557	558	558	551	557	558	560	550	550	553	558	562	566	556	555	549	548	551	552	559	564	563	557	556	562	569	562	552	558	556	549	556	559	563	570	570	564	560	559	560	564	568	563	559	564	567	566	561	559	567	568	566	565	564	561	554	557	560	567	564	562	563	569	569	565	560	562	557	559	559	565	570	571	568	564	553	555	558	574	579	576	571	574	573	575	572	563	569	567	568	573	582	587	590	588	585	576	569	569	569	571	574	575	570	568	570	573	570	566	566	568	576	576	582	580	574	570	570	574	573	574	579	582	582	586	584	574	584	581	580	583	596	589	589	587	0	0	0	0
494	494	493	496	496	496	492	486	493	500	500	497	496	495	497	497	500	498	498	500	500	499	501	506	507	504	504	497	497	498	502	502	502	498	497	498	501	502	502	503	501	506	514	516	514	514	509	502	503	504	501	506	509	509	509	510	505	504	501	512	511	509	509	507	508	509	505	503	504	505	508	509	511	511	513	519	521	521	522	519	517	511	509	508	506	504	500	500	499	504	506	509	510	518	518	515	513	513	518	521	520	518	518	509	511	511	510	506	506	508	508	510	509	508	512	514	514	512	513	516	518	516	512	508	504	505	514	517	518	519	520	517	518	518	514	513	519	524	519	519	520	514	512	504	505	504	504	505	507	506	505	505	505	516	520	521	520	520	520	510	508	513	513	509	511	507	505	512	501	501	505	510	512	512	510	513	509	508	505	503	508	510	513	517	513	517	519	519	514	513	518	518	519	518	517	513	508	514	514	515	519	522	518	514	514	514	514	514	516	517	522	518	513	513	513	518	518	517	511	525	520	519	522	523	523	527	525	524	527	532	529	526	524	528	528	525	522	518	515	514	517	519	521	519	520	524	522	521	516	518	519	524	528	518	514	517	516	519	523	526	520	517	516	522	522	520	522	528	526	521	518	520	523	528	526	522	525	526	519	537	534	533	542	531	523	521	520	519	518	526	531	532	532	529	529	528	533	536	539	538	535	533	536	533	534	535	534	535	531	532	531	529	533	532	538	534	533	530	530	529	530	532	531	533	537	527	530	530	534	541	545	543	542	541	546	543	541	538	539	537	538	535	540	540	539	535	534	535	530	541	533	527	533	534	539	540	542	547	547	542	541	541	542	538	537	539	543	545	545	545	545	539	540	538	538	540	545	547	547	556	557	556	540	548	542	539	539	536	533	537	536	537	536	539	544	548	550	550	543	547	539	538	532	532	535	538	546	548	543	537	542	538	536	541	545	552	545	544	538	543	545	545	543	539	536	531	534	536	535	533	537	538	544	544	541	543	557	547	547	545	541	539	533	533	540	548	545	544	542	543	548	549	550	550	552	553	551	547	543	546	549	557	557	552	551	553	552	550	539	548	548	545	543	541	542	543	538	543	555	556	553	550	549	545	552	547	545	547	547	545	546	549	555	563	563	557	558	559	562	559	550	554	554	553	548	547	555	550	548	549	552	562	567	561	558	552	548	548	549	551	554	565	562	554	552	556	562	562	553	549	552	550	553	557	557	554	550	552	557	555	553	558	563	567	567	566	560	552	557	556	563	563	561	564	565	563	558	555	556	562	559	562	563	563	557	552	550	558	558	562	566	570	577	575	562	557	554	555	570	571	574	573	568	569	569	566	562	557	563	565	565	572	576	568	578	582	577	570	570	568	567	568	568	562	561	561	562	565	567	566	567	565	572	572	580	574	569	567	568	571	572	575	575	575	575	577	573	566	568	572	572	578	577	577	575	574	0	0	0	0
494	494	496	497	496	490	490	486	494	497	497	493	493	493	497	497	498	498	498	500	497	497	496	499	487	490	490	492	488	494	499	499	499	498	496	497	499	502	502	502	500	506	515	509	508	502	502	499	499	502	503	503	505	506	506	503	498	494	508	510	508	507	507	504	505	507	506	500	501	505	505	508	509	511	511	516	519	520	518	513	512	507	508	504	504	502	499	499	498	500	506	509	512	514	511	509	512	516	518	517	515	515	515	510	509	504	506	507	506	508	507	507	507	506	505	510	511	510	509	512	514	514	512	505	505	507	510	514	515	516	517	515	515	513	513	513	514	517	517	518	511	507	505	504	504	504	503	503	504	504	501	499	502	501	519	520	517	517	507	507	507	507	510	509	510	509	518	504	500	500	505	507	507	506	513	507	505	513	516	513	506	510	511	513	513	511	516	511	511	508	506	510	515	513	514	513	508	509	510	523	518	516	516	513	514	514	513	517	516	520	513	514	513	513	512	511	512	503	503	505	502	500	510	521	523	527	520	519	516	516	506	512	515	523	527	525	523	515	513	510	512	515	519	520	518	520	523	521	516	517	513	511	518	515	513	515	512	508	511	513	517	515	515	522	525	523	523	522	524	521	518	518	518	524	522	519	518	517	527	530	527	524	526	526	518	519	518	516	515	510	521	524	520	519	519	520	532	528	530	532	534	528	532	538	537	533	533	534	534	529	531	529	529	533	537	533	528	526	524	523	521	534	534	536	533	531	521	525	526	527	530	527	526	530	532	533	532	527	533	533	533	538	539	539	538	536	536	532	536	536	534	527	526	526	531	536	541	538	544	540	540	538	539	537	531	535	537	541	544	544	543	541	533	537	540	540	544	547	558	551	544	528	531	534	519	527	525	532	528	528	527	530	532	535	530	527	544	548	551	548	539	536	534	533	532	533	533	535	523	522	522	527	539	539	550	554	545	531	538	535	535	538	538	539	533	536	536	529	533	537	539	544	544	539	535	534	536	539	542	542	539	535	530	531	541	543	542	540	530	529	542	550	550	551	547	552	551	550	550	547	550	554	554	555	553	552	547	538	536	540	543	541	538	541	542	543	542	541	550	551	550	549	548	552	552	549	546	547	548	544	542	544	549	553	554	553	555	554	547	543	544	543	546	550	547	547	548	547	545	549	554	562	556	553	550	558	556	550	550	551	551	552	559	554	553	562	561	560	558	554	553	548	548	556	559	554	548	548	542	544	547	553	558	563	563	562	564	553	553	557	559	555	553	558	559	560	552	546	550	554	560	562	563	560	555	547	547	551	553	561	560	565	566	566	563	561	555	555	562	567	565	563	558	562	563	560	553	553	560	563	564	566	565	562	559	561	565	565	565	561	561	560	558	555	554	554	555	557	560	563	565	564	564	567	573	569	562	562	563	568	570	570	570	570	570	569	568	566	566	568	569	576	574	574	572	569	0	0	0	0
491	495	495	497	495	494	494	488	495	487	485	485	492	497	498	498	498	499	500	498	492	492	491	482	478	479	482	482	488	492	496	497	498	498	497	498	499	503	501	501	500	508	504	504	502	499	499	493	497	500	502	496	500	500	500	501	496	491	504	503	503	503	504	504	506	506	505	504	502	504	505	506	510	511	511	514	512	506	504	506	506	493	496	496	497	496	495	497	497	499	505	506	508	506	509	509	509	513	513	511	512	510	510	509	502	500	499	498	493	492	492	496	496	499	502	509	510	506	506	504	503	507	511	503	493	493	498	511	512	509	509	508	508	509	510	510	513	514	514	503	502	502	500	504	506	503	503	498	498	498	497	500	500	502	504	508	515	510	509	505	502	505	504	505	505	505	505	502	500	502	505	507	505	509	510	512	508	510	516	516	514	512	509	501	504	508	510	508	505	492	494	501	505	508	503	499	498	494	506	511	513	516	515	510	507	508	506	512	507	505	510	512	510	508	509	503	500	500	499	498	501	507	508	510	510	516	519	518	511	505	506	513	515	519	519	513	514	514	513	512	511	512	515	515	516	523	521	515	518	516	514	511	513	514	514	511	503	506	508	509	510	513	516	520	524	523	522	517	515	520	516	516	517	519	519	517	514	515	521	524	513	511	513	510	508	510	513	511	510	509	515	523	520	519	519	519	522	527	528	532	534	533	533	523	533	531	528	527	533	533	529	528	528	531	528	530	523	523	522	522	530	532	523	533	532	527	532	526	527	527	527	528	526	525	522	525	523	515	524	529	530	537	534	535	536	535	530	526	529	533	533	521	522	525	528	537	541	540	537	535	534	536	536	534	529	533	534	539	540	542	540	532	534	518	517	527	533	532	528	526	527	527	530	533	516	514	521	527	527	528	527	528	528	524	520	520	525	540	539	545	533	536	536	535	531	534	534	532	543	534	529	530	537	543	544	552	538	530	533	532	528	530	532	529	528	527	528	531	533	534	540	545	545	542	534	523	528	536	540	540	539	535	535	535	535	536	534	531	524	532	536	543	547	546	549	539	544	545	542	546	544	548	548	548	548	548	538	537	537	540	543	540	539	538	547	551	549	543	549	549	548	547	546	548	550	549	550	548	553	543	542	542	546	545	541	547	548	547	547	550	549	548	545	547	546	542	543	543	549	550	551	556	551	548	550	559	554	553	550	550	548	549	550	548	552	557	560	556	556	553	549	550	549	556	559	558	544	539	538	541	546	548	550	557	556	554	552	550	549	546	546	544	541	546	545	547	545	544	545	550	556	556	556	557	558	554	546	551	553	551	550	549	558	559	557	556	555	554	555	559	561	555	550	550	555	558	558	553	556	564	563	560	561	559	555	556	556	556	558	560	558	558	552	551	555	554	554	555	560	564	564	564	561	563	567	563	558	557	556	563	565	566	565	565	565	567	566	566	563	563	567	567	567	565	563	557	0	0	0	0
489	494	494	496	496	496	497	497	495	483	479	479	491	494	495	496	496	497	500	497	492	486	486	481	488	489	488	488	488	490	492	496	498	498	496	497	496	490	494	501	501	503	499	500	497	497	493	493	498	501	499	496	496	496	497	497	493	486	497	503	504	503	504	501	501	501	495	498	504	504	506	503	495	496	498	498	500	495	496	497	496	493	494	494	494	494	494	495	499	499	500	498	498	499	499	502	505	503	499	499	499	499	499	499	496	495	495	498	496	495	493	493	488	489	489	489	489	498	497	495	494	508	499	499	497	497	497	497	503	502	505	504	503	506	508	507	506	501	499	502	496	496	496	496	502	499	502	499	498	498	497	498	499	500	500	510	507	511	506	502	498	502	500	507	506	504	499	498	499	502	502	503	503	509	509	504	506	509	515	516	514	512	510	508	499	491	491	495	494	495	498	502	504	504	497	495	493	495	498	499	509	509	508	506	506	504	504	507	499	501	505	511	511	510	506	507	495	492	496	499	503	508	507	511	514	514	515	515	510	505	506	506	507	518	515	514	515	518	515	509	508	509	509	512	517	517	514	518	517	513	511	510	512	509	509	504	501	502	506	506	509	510	515	520	517	523	509	509	510	509	513	513	517	518	517	519	514	508	509	518	515	512	512	513	512	513	507	501	501	507	509	516	518	511	512	512	512	515	515	511	513	512	515	514	513	519	519	519	522	523	533	522	517	514	523	521	518	518	517	522	519	520	522	532	527	532	528	526	527	535	528	528	525	525	521	523	525	520	516	525	529	528	530	525	530	530	522	526	523	529	528	523	522	520	527	535	536	536	528	528	531	527	527	518	516	517	521	516	522	521	528	523	519	518	514	530	534	531	530	527	527	527	525	522	517	515	521	523	527	527	527	529	525	522	513	520	535	536	536	536	534	535	533	536	532	537	535	533	543	535	532	530	535	542	546	537	532	531	527	522	521	521	524	526	526	529	528	531	535	536	540	543	543	540	536	524	531	533	537	537	535	530	525	525	524	529	530	528	527	529	538	542	544	542	535	537	537	538	539	537	537	542	542	532	543	543	541	536	539	543	543	539	536	538	543	550	547	544	547	546	546	545	540	544	552	559	558	550	550	545	544	545	541	537	536	535	535	535	537	540	545	547	546	545	545	545	539	538	541	542	547	544	546	542	540	538	533	543	547	547	543	541	543	543	545	547	548	554	557	557	556	551	546	542	538	539	545	543	537	536	536	546	548	554	552	552	550	547	545	546	545	543	542	543	544	546	546	545	542	542	548	548	550	545	551	547	543	543	545	545	542	543	554	554	553	553	554	550	552	552	550	544	546	549	553	560	558	558	556	559	560	558	555	551	552	555	555	556	559	560	559	555	549	550	555	555	555	555	557	559	560	560	558	554	554	549	547	550	550	560	567	566	566	564	567	568	565	558	555	557	561	561	565	564	561	559	0	0	0	0
489	490	490	491	495	493	495	495	491	484	480	477	477	487	487	492	497	497	493	497	492	484	484	483	486	487	488	487	487	485	487	491	493	496	492	491	488	488	493	497	497	499	501	500	495	491	493	493	493	499	505	500	494	494	493	493	488	486	492	497	501	499	501	501	494	494	494	493	496	502	501	497	497	496	496	496	494	492	491	490	489	486	492	491	493	492	494	496	498	499	499	496	495	497	497	500	502	502	495	496	494	494	494	491	493	497	499	498	497	492	489	494	490	485	487	487	486	488	483	495	499	497	494	496	495	496	494	487	492	492	493	497	501	502	505	503	497	498	499	499	491	486	490	493	498	501	501	498	493	495	498	498	497	499	498	507	507	507	505	497	494	496	507	507	505	503	499	495	498	498	500	501	503	507	507	506	506	508	512	516	513	513	508	504	500	488	491	496	502	504	500	506	508	498	497	493	492	492	490	490	507	505	507	505	504	502	502	497	496	499	500	503	503	502	499	500	498	490	494	498	505	507	511	510	510	505	505	506	505	503	500	498	498	503	506	512	513	512	513	512	509	510	510	512	515	515	512	514	513	511	507	508	508	505	503	501	501	499	503	505	507	509	517	514	510	509	508	507	506	504	507	511	514	515	517	519	518	513	512	505	515	515	517	517	515	512	511	504	502	501	506	507	509	510	508	505	504	500	505	511	512	511	509	509	510	518	518	518	519	521	516	513	510	509	510	509	515	515	516	518	507	516	515	518	520	518	518	522	522	522	518	516	517	517	523	522	520	517	516	521	525	526	521	519	519	520	515	519	521	523	523	522	523	518	518	522	526	529	527	521	521	521	518	519	518	510	503	503	509	511	515	518	519	519	516	530	532	529	525	522	523	523	522	521	517	516	516	522	525	527	530	531	524	517	515	530	532	536	535	534	533	532	529	535	538	540	541	540	540	538	539	532	535	536	534	530	525	521	515	519	515	517	521	524	527	527	528	531	538	538	537	539	537	537	535	537	534	531	531	535	535	529	525	524	521	530	529	528	527	531	536	542	537	533	532	534	534	533	529	527	528	528	527	529	534	539	539	537	539	542	539	540	536	533	536	540	542	540	542	541	540	535	536	541	543	549	548	539	542	546	544	539	536	536	536	534	534	534	536	539	544	546	544	543	542	540	540	538	535	532	535	543	528	537	535	529	538	542	545	548	536	536	538	540	542	544	546	552	553	557	554	555	545	539	539	536	544	543	538	534	538	542	543	544	552	546	544	545	544	545	545	543	542	542	543	544	542	544	543	545	545	547	544	538	538	542	543	543	542	540	534	538	549	550	551	551	553	549	548	546	544	542	539	541	546	553	555	554	553	557	558	556	547	547	552	552	555	558	556	555	550	548	547	547	553	553	556	555	555	548	559	553	550	552	551	548	547	549	548	550	565	565	570	568	568	563	561	558	559	559	563	563	555	562	559	556	0	0	0	0
486	481	482	482	486	487	491	491	487	484	476	476	476	488	487	484	487	487	491	491	488	484	474	481	482	485	485	483	483	483	484	486	490	492	492	491	487	491	489	490	490	490	488	486	485	485	489	493	479	492	494	490	487	486	487	488	488	483	488	492	494	497	498	498	492	492	491	492	496	497	498	494	495	493	493	493	493	491	489	487	487	486	491	488	489	489	494	497	497	498	499	499	497	495	489	484	485	487	488	487	489	490	492	488	493	501	502	497	494	488	486	485	492	487	486	491	484	484	489	489	488	489	490	492	493	493	491	488	482	484	485	492	493	497	500	496	493	495	496	493	490	486	483	486	497	499	499	494	491	490	490	492	495	497	501	508	509	507	501	495	492	496	500	506	505	496	494	494	495	497	500	502	503	503	507	506	503	504	509	508	508	511	506	500	495	491	491	495	502	507	506	509	504	504	498	494	491	489	487	490	494	501	506	506	502	501	499	495	496	497	499	498	501	499	498	499	500	490	496	502	504	505	504	497	498	500	500	501	498	499	497	498	496	495	490	494	494	493	491	497	496	499	505	508	507	509	509	506	505	504	504	504	502	504	500	502	504	504	498	497	510	512	513	513	511	513	507	502	501	503	506	507	512	516	521	520	518	515	508	508	509	510	519	518	515	512	509	499	504	504	500	505	508	509	505	499	498	491	508	513	509	507	508	506	508	518	516	516	516	511	508	506	515	513	511	508	515	515	514	504	520	516	519	518	518	515	517	516	520	514	512	511	513	509	512	514	515	511	511	511	510	514	512	509	506	506	516	520	519	520	517	515	507	517	520	521	521	523	523	518	521	521	517	520	517	508	501	501	504	507	514	517	520	517	515	516	532	531	525	522	520	519	519	521	516	517	520	523	526	521	524	525	527	517	520	513	531	531	523	522	523	523	531	533	534	537	537	533	537	535	538	533	535	536	535	529	527	522	513	519	512	514	520	523	525	519	520	524	527	522	525	520	522	524	530	534	530	530	530	533	533	534	533	524	524	521	525	534	526	526	535	530	532	531	531	530	532	530	528	529	528	528	526	525	531	537	537	536	544	536	536	539	536	534	531	534	537	537	537	537	533	535	536	534	537	535	527	534	528	533	537	537	537	536	532	531	540	540	539	539	545	545	544	539	534	536	538	534	533	530	531	535	536	535	528	529	534	539	542	533	532	532	534	536	537	541	547	550	554	552	550	556	545	539	532	535	539	538	534	534	537	540	542	541	550	545	544	544	544	544	545	543	542	541	542	540	541	542	539	542	544	545	540	537	536	542	545	544	541	533	533	535	542	549	550	550	546	546	546	545	544	543	538	539	544	546	550	549	548	554	554	544	540	546	546	550	555	555	556	552	549	545	546	546	547	549	550	547	547	555	548	546	539	544	549	549	547	547	547	539	543	543	552	552	552	557	561	559	560	563	563	565	553	551	551	555	0	0	0	0
455	460	472	472	480	484	485	483	483	480	476	472	484	484	477	474	479	482	482	483	482	474	479	479	479	481	483	482	480	480	481	485	487	489	491	485	488	486	481	484	488	488	487	485	477	471	476	479	479	485	485	485	483	485	477	478	478	482	484	488	489	490	495	496	494	492	492	491	493	496	493	491	489	490	491	492	492	492	490	486	482	481	482	487	488	486	482	486	491	499	493	493	492	491	490	483	484	486	488	486	485	487	487	489	490	489	486	485	484	484	484	484	490	490	489	489	492	490	490	489	487	486	488	490	492	490	486	483	484	484	493	494	495	505	497	489	490	490	493	491	489	485	479	481	488	490	498	493	489	487	490	493	495	493	491	495	491	489	491	491	491	494	501	501	500	497	494	494	492	489	491	497	503	501	504	502	495	497	494	494	496	498	502	497	495	492	488	490	492	499	501	507	502	503	499	495	492	491	489	491	498	500	500	500	500	495	490	495	495	497	499	497	498	493	497	498	503	504	504	503	502	495	485	488	492	498	498	495	493	494	494	492	493	491	490	493	494	495	491	496	497	495	496	499	500	499	499	506	506	504	502	501	497	498	505	504	498	501	504	507	508	511	509	510	509	508	498	496	500	499	500	506	509	512	511	522	512	509	505	505	502	509	517	506	510	510	502	502	505	504	505	508	510	509	506	500	497	500	504	506	508	506	503	504	506	514	514	510	510	515	503	503	515	515	514	511	508	510	502	501	502	514	519	516	514	510	514	513	509	510	508	509	510	509	510	506	506	509	510	506	509	513	512	505	504	502	510	514	516	511	510	504	514	516	516	515	518	518	519	511	506	519	518	520	518	510	504	507	510	514	515	517	519	515	514	519	523	522	520	519	517	516	514	513	513	513	516	517	518	516	516	517	518	516	507	514	521	524	518	518	518	520	524	529	530	515	528	530	529	531	530	528	529	533	535	532	520	517	520	523	522	521	517	513	512	515	515	519	519	521	518	516	511	512	521	527	529	528	528	529	530	532	531	528	527	535	539	541	519	519	522	530	528	522	524	524	525	528	529	533	530	528	527	523	531	536	538	541	546	534	528	533	533	532	530	530	532	534	532	531	530	533	533	532	530	528	525	532	528	528	526	526	526	526	529	530	540	538	542	540	545	543	543	541	530	532	533	531	530	531	527	530	530	534	530	532	532	534	532	531	530	530	530	536	541	544	548	548	546	541	545	540	534	534	533	535	540	536	534	533	536	541	535	525	530	531	533	534	547	548	546	538	536	536	536	540	543	541	541	541	540	537	538	534	535	530	549	548	545	540	530	532	535	540	549	544	546	545	546	546	545	545	542	531	534	543	545	541	536	545	536	540	541	541	542	545	555	550	552	551	545	543	543	545	546	546	544	544	544	547	542	530	530	533	547	546	545	544	544	536	536	538	543	543	543	545	557	555	557	561	561	559	552	543	549	555	0	0	0	0
456	458	472	477	477	482	482	481	481	473	471	472	463	463	472	471	477	479	479	480	473	474	479	479	479	481	482	479	475	475	476	482	484	485	485	483	483	481	473	479	483	487	487	479	475	475	475	480	485	485	484	482	482	481	481	478	482	482	485	486	487	487	489	494	484	484	484	482	484	484	481	481	488	490	494	494	489	484	484	479	481	480	482	478	486	484	481	486	480	487	486	490	490	491	491	479	478	484	485	486	484	486	489	479	475	479	480	479	476	481	483	483	490	489	490	489	490	488	486	484	484	484	485	485	485	484	482	482	485	489	490	493	496	496	491	484	484	484	488	488	486	481	480	485	488	488	493	493	489	485	489	491	491	489	485	487	488	485	487	489	490	492	497	499	497	496	495	493	487	486	488	494	498	501	498	491	492	488	488	491	496	497	497	497	496	493	487	489	491	493	498	501	501	501	499	495	499	497	497	494	497	498	498	495	493	489	487	495	494	489	486	485	486	491	494	496	498	506	505	500	496	488	487	488	492	496	488	488	487	490	491	487	487	488	491	494	495	495	495	495	495	494	494	492	493	485	489	493	495	495	497	495	491	492	498	494	499	504	506	505	505	503	503	500	494	491	491	494	494	496	495	506	506	512	510	508	505	504	499	501	503	504	506	504	506	508	505	503	503	502	506	509	506	509	503	500	496	500	504	505	504	504	502	502	504	507	507	515	511	510	504	503	501	501	500	504	506	497	498	498	502	504	509	512	511	499	500	508	502	503	504	506	510	510	508	504	504	508	501	503	507	510	510	505	498	501	504	508	512	503	508	504	506	514	515	512	515	516	515	510	511	503	518	519	514	502	507	510	513	513	515	515	506	507	512	523	524	524	521	516	515	512	511	512	513	511	513	518	518	516	515	517	520	518	509	507	512	513	516	518	520	519	517	516	512	511	525	525	524	524	522	518	519	519	519	519	512	516	513	523	520	513	513	513	514	514	514	513	508	508	507	505	502	505	513	517	520	525	526	527	527	527	525	525	534	539	539	531	529	520	523	525	523	522	523	522	523	524	525	524	529	530	532	526	523	533	537	547	536	532	525	526	528	527	527	528	529	531	530	529	523	525	529	530	529	526	523	521	528	525	523	522	522	521	526	529	529	537	545	544	543	538	538	536	527	528	530	527	528	528	530	528	528	527	529	525	535	532	530	530	531	530	531	527	543	549	551	533	530	529	526	519	528	529	529	532	537	534	531	531	535	539	534	522	523	524	521	523	528	528	528	534	535	536	534	539	543	542	541	539	536	533	532	532	529	542	531	533	532	533	531	532	533	535	537	539	542	545	544	543	544	544	544	539	537	538	544	540	533	532	535	537	537	537	537	540	543	545	547	546	544	540	540	544	543	544	539	536	536	544	538	532	529	532	539	543	540	538	534	532	532	535	536	533	535	541	549	548	549	549	554	554	548	541	548	540	0	0	0	0
456	467	471	474	474	479	478	474	469	469	469	472	468	468	470	469	475	477	477	478	473	480	479	477	477	477	477	474	477	477	477	479	481	481	483	483	476	473	468	471	475	482	482	479	476	477	481	483	485	485	481	480	479	479	475	475	481	485	485	485	484	483	487	485	484	482	481	481	481	480	480	485	489	489	490	490	488	482	482	479	478	482	483	480	476	474	473	474	477	478	485	489	490	490	482	472	470	475	482	487	488	485	481	478	474	474	475	475	475	474	481	483	486	489	488	487	487	486	486	486	483	483	483	488	487	487	484	480	482	487	490	491	488	481	478	481	482	480	481	486	481	482	484	486	484	483	483	487	484	484	486	496	493	486	485	483	484	484	484	485	487	488	489	491	495	495	492	489	486	485	486	491	484	487	484	490	487	486	482	486	489	486	484	483	490	489	489	487	488	489	492	493	492	490	496	498	501	499	493	493	494	494	489	488	484	484	487	494	493	488	486	484	481	484	492	493	498	501	502	499	492	491	488	495	497	490	482	486	485	486	491	483	489	493	494	493	492	493	498	495	500	492	489	491	493	494	493	495	496	495	493	499	498	498	491	491	497	507	505	498	498	500	498	494	489	485	484	486	488	494	494	495	501	503	504	503	495	497	497	497	499	502	503	501	504	504	506	503	504	502	498	510	508	494	489	491	493	498	502	500	503	502	502	501	503	503	503	508	500	508	508	507	503	497	497	502	502	496	497	501	500	502	506	508	508	498	497	494	500	501	502	503	509	504	504	503	502	501	503	503	505	508	509	505	502	498	501	506	507	499	504	502	502	514	513	511	512	515	511	512	509	504	504	502	503	500	503	505	510	511	510	511	506	506	512	516	516	520	518	511	514	511	512	513	514	514	512	519	518	519	520	517	517	500	506	501	516	511	516	517	515	515	512	510	510	508	506	512	518	518	516	516	512	510	511	511	517	514	514	515	515	505	508	508	514	517	518	514	513	513	512	506	503	509	509	506	513	515	520	520	518	520	520	522	522	538	535	527	521	526	522	525	525	522	518	519	522	513	519	525	519	523	519	528	529	529	528	531	531	526	521	516	525	525	526	528	531	530	528	524	520	517	517	519	522	522	520	523	523	523	523	523	521	521	527	530	531	539	539	535	529	528	527	524	521	523	523	525	524	523	533	529	526	526	529	528	525	527	525	524	530	529	525	534	525	529	530	521	521	523	533	532	533	529	531	529	531	528	528	527	533	538	535	528	521	522	521	521	526	527	528	533	532	532	536	542	545	545	540	530	528	529	528	531	525	530	531	532	532	531	530	528	529	535	536	537	539	539	541	539	539	538	536	524	537	536	540	540	537	530	529	529	534	535	535	528	526	525	541	543	545	542	540	541	539	536	535	535	532	539	536	533	531	530	535	538	538	539	538	538	535	535	533	533	536	541	544	543	543	543	545	544	540	537	538	549	0	0	0	0
456	466	470	473	473	472	473	475	470	470	470	466	468	471	471	468	473	477	481	481	482	480	480	477	471	470	473	475	475	473	473	473	477	479	479	476	471	469	467	465	471	473	474	474	477	479	477	478	481	481	478	477	477	477	474	470	471	482	482	485	485	484	483	484	483	478	480	480	480	482	479	486	490	489	486	488	479	480	481	481	481	482	482	484	481	483	483	481	478	474	482	485	489	473	473	470	470	475	481	482	481	478	474	471	472	472	472	473	473	473	474	481	481	487	486	481	481	483	488	486	485	484	487	485	482	482	485	486	481	483	483	482	479	479	480	477	478	477	481	485	481	480	481	481	480	480	482	480	479	475	476	481	482	483	483	485	478	480	481	484	490	489	488	487	481	483	483	486	488	487	487	483	487	479	480	481	487	479	481	482	486	484	482	482	488	483	482	483	485	488	488	483	482	483	495	496	493	490	485	489	490	490	487	481	479	478	479	488	491	489	487	478	476	480	480	483	497	501	501	495	493	493	493	493	494	487	481	478	480	483	490	490	492	488	487	491	491	491	496	497	497	494	490	493	499	496	495	493	493	494	495	499	501	502	491	490	493	497	488	484	484	483	491	492	488	482	482	484	487	488	488	487	498	500	498	493	493	494	495	495	496	498	491	490	492	498	506	507	504	498	499	494	494	488	489	493	494	498	500	499	501	502	500	492	496	503	499	506	498	506	507	499	500	495	496	492	497	500	500	500	500	498	501	498	493	491	494	492	491	499	503	503	508	502	504	500	497	503	503	502	501	505	505	505	508	509	507	506	504	498	500	493	499	506	509	509	509	510	507	508	505	506	502	504	506	500	500	504	503	509	506	507	513	514	518	518	516	512	512	505	503	511	512	512	512	511	513	516	513	516	520	516	512	498	495	499	511	514	512	513	516	514	510	508	508	505	504	503	511	513	515	514	512	509	511	512	512	513	513	511	506	503	507	509	513	518	518	518	516	515	514	509	507	509	508	507	503	512	517	515	515	517	515	515	520	521	535	520	521	522	524	524	523	522	518	515	509	511	508	513	515	511	508	507	516	526	525	526	527	524	521	516	528	528	528	529	530	527	524	521	519	518	518	521	522	523	520	522	519	517	521	522	522	525	526	529	531	529	514	516	513	516	518	519	520	524	524	522	521	520	521	525	526	525	521	522	523	526	522	523	525	524	521	524	524	528	530	519	518	520	532	531	533	532	526	522	528	526	526	526	534	533	533	533	521	518	518	519	522	525	523	527	528	525	525	530	530	535	529	525	524	526	524	521	527	519	520	521	524	520	520	521	520	524	534	534	535	535	536	534	534	534	533	528	522	527	538	537	536	530	530	527	529	529	527	526	523	523	527	542	546	541	539	536	533	531	531	530	529	527	524	523	522	531	532	536	538	539	539	538	531	536	537	541	546	541	542	544	544	535	535	533	540	534	534	534	534	0	0	0
466	466	467	471	470	470	467	466	467	467	465	466	468	468	468	469	473	479	483	483	479	479	476	471	471	471	474	473	471	470	470	471	476	480	473	471	469	467	466	463	465	472	473	473	475	476	471	472	476	478	474	474	472	475	474	475	468	478	484	484	485	483	482	482	482	486	484	480	480	479	480	482	486	481	478	476	475	474	475	480	480	481	481	484	483	483	480	481	478	476	477	487	475	468	469	469	472	476	481	481	479	476	469	468	471	471	472	472	473	473	474	477	478	475	471	472	476	479	482	472	479	483	482	481	482	484	486	486	477	476	477	478	476	479	480	479	476	474	478	483	479	477	478	474	472	477	476	477	472	470	473	479	477	477	480	481	477	479	483	486	486	487	485	485	486	487	486	488	490	491	491	490	483	479	479	475	478	478	476	479	473	477	481	484	483	479	483	480	485	483	483	481	479	479	479	480	485	487	484	485	484	473	480	481	479	477	473	479	485	486	482	477	474	476	482	486	486	486	496	496	492	492	492	488	486	479	481	478	479	480	484	490	490	487	480	480	482	487	490	495	491	492	492	496	498	496	486	483	482	489	486	492	497	495	492	492	481	491	487	482	484	483	483	484	482	475	475	479	487	488	489	488	486	486	493	490	489	488	494	494	492	494	491	490	489	488	489	485	491	485	488	491	489	489	488	493	500	505	501	495	495	495	485	489	494	496	497	496	498	499	502	497	490	490	489	490	492	495	492	495	497	498	496	496	493	492	495	488	488	496	501	503	506	504	503	500	499	502	503	503	502	502	502	503	506	508	507	505	504	502	496	494	497	498	497	495	496	499	501	500	497	498	500	507	503	501	499	504	503	501	505	505	508	509	511	511	509	501	501	503	502	507	508	504	506	504	506	507	509	514	516	515	508	497	494	497	509	510	509	514	520	525	504	503	503	501	502	506	507	510	510	512	508	508	508	509	511	514	512	509	506	503	503	500	505	510	519	514	515	518	512	514	507	496	498	500	501	501	508	518	517	504	502	507	511	518	520	521	519	523	524	523	522	518	516	513	509	508	507	511	510	512	502	501	507	509	524	524	523	522	521	516	515	530	529	526	520	513	507	506	507	510	513	520	524	526	522	520	514	512	506	503	508	511	524	530	529	518	518	516	516	517	516	517	519	523	521	525	520	517	520	521	520	524	519	520	518	517	525	522	521	520	523	522	523	523	521	519	504	505	525	531	532	520	513	508	517	526	524	526	527	530	530	528	519	518	518	522	525	525	524	522	524	525	526	528	516	522	524	523	525	524	522	518	523	520	521	523	524	524	521	520	523	526	529	534	534	534	534	533	533	532	532	530	526	529	534	535	535	536	527	529	531	530	530	529	528	527	525	531	535	534	530	526	524	525	525	526	529	527	526	521	514	518	524	521	524	538	538	540	530	532	534	536	543	546	544	544	531	529	532	534	532	533	528	532	532	0	0	0
465	465	467	465	470	470	464	464	464	463	463	467	467	467	469	469	471	476	480	474	474	474	474	469	471	474	472	473	470	467	470	470	474	477	470	467	467	466	468	468	468	469	473	475	475	475	475	473	468	469	474	466	468	469	474	471	467	468	479	479	484	483	481	482	485	482	481	474	469	469	473	474	475	476	479	479	478	474	473	475	475	479	480	479	482	480	478	478	477	476	471	468	465	466	467	471	471	475	477	476	475	469	465	468	474	472	472	471	470	470	472	474	475	472	473	474	474	475	472	467	474	478	479	480	480	483	479	469	474	477	471	471	472	473	474	478	474	470	473	474	478	475	471	471	472	468	468	464	459	462	469	477	477	478	476	479	482	481	484	484	484	484	483	485	480	483	483	489	492	494	493	490	487	481	473	474	476	475	476	483	474	477	481	478	478	479	477	483	483	482	481	479	478	477	477	469	474	480	480	475	474	481	480	480	478	479	473	479	478	480	480	479	482	484	488	483	483	484	477	477	490	492	492	488	482	479	478	478	477	478	483	485	488	487	479	479	481	484	485	484	484	489	492	497	493	478	480	480	480	481	484	488	490	490	484	481	478	476	484	481	480	482	484	482	480	485	478	481	481	492	493	494	493	500	496	488	486	489	489	492	493	490	490	492	484	485	485	485	484	485	486	488	486	481	480	478	478	479	482	488	485	484	481	483	488	496	498	497	495	490	484	487	485	484	485	487	493	496	492	496	494	498	499	503	509	502	487	486	490	494	495	498	506	506	507	504	502	504	503	505	505	503	504	505	503	504	503	499	498	498	497	496	496	489	495	496	497	500	500	498	498	498	503	506	504	501	498	498	501	499	499	497	501	503	504	497	492	504	499	501	501	503	503	503	501	499	504	501	504	510	515	514	501	500	499	500	503	504	505	513	518	521	496	494	499	501	504	501	504	503	503	503	505	507	507	509	513	514	509	508	505	500	501	497	504	508	512	511	517	518	520	506	500	496	497	497	493	497	497	497	495	494	495	496	499	502	505	514	511	512	516	518	520	518	513	511	514	512	510	513	512	510	508	500	501	506	510	518	512	518	519	519	516	519	523	523	520	514	510	506	507	508	510	514	514	516	516	512	511	509	506	503	509	509	521	520	519	518	512	517	513	514	516	516	515	516	512	508	513	514	512	513	517	517	515	514	513	518	521	516	518	521	517	513	513	515	520	519	516	508	511	507	521	513	504	505	504	517	527	527	526	522	527	525	520	529	526	525	524	524	522	521	524	525	527	523	516	513	514	520	521	524	519	516	513	521	522	529	527	524	521	522	521	517	518	523	530	528	525	530	535	534	532	529	526	529	528	528	528	535	535	531	532	531	529	532	533	529	528	528	523	521	520	520	517	517	517	523	528	530	526	523	524	516	517	519	521	521	533	534	533	530	528	530	530	541	535	535	531	530	531	533	533	532	529	529	530	0	0	0
460	460	463	467	460	461	461	461	463	463	463	465	466	467	470	470	469	469	470	470	470	468	468	470	474	473	473	472	470	468	468	468	470	472	472	466	466	468	470	472	472	471	472	474	474	475	475	469	464	464	466	464	464	466	469	463	466	467	474	475	475	480	482	482	482	482	468	464	462	465	465	465	470	475	477	477	473	473	473	474	477	477	471	475	472	476	471	469	473	473	470	468	465	464	466	473	474	474	474	472	467	464	466	468	473	472	469	469	469	469	466	470	470	471	472	475	476	476	471	467	473	474	477	478	478	475	464	465	465	466	468	468	470	468	473	468	468	468	466	475	472	464	469	471	472	469	459	457	461	467	474	478	479	477	476	474	479	484	482	480	478	476	477	483	472	475	477	482	474	492	491	488	483	481	473	471	475	475	477	483	482	478	481	475	477	478	479	482	482	480	478	476	474	474	478	478	477	477	476	474	475	477	480	477	478	477	476	476	477	478	477	478	482	485	485	487	484	468	467	468	473	480	481	475	478	478	479	478	472	475	479	475	485	483	479	479	479	480	483	481	479	479	479	480	477	477	479	478	475	468	467	471	469	471	470	469	468	469	478	486	482	483	483	481	485	483	475	474	482	490	493	492	491	489	491	483	483	483	484	488	485	484	487	491	489	486	485	487	481	482	485	488	486	481	480	478	477	479	486	491	485	482	480	482	487	494	494	493	487	483	485	478	480	480	482	484	491	493	486	493	488	497	499	503	506	502	487	486	486	484	486	488	498	499	500	497	497	500	497	501	503	501	503	504	504	502	500	499	494	492	495	494	490	481	491	497	498	502	501	501	501	500	500	501	502	501	500	501	497	499	498	497	500	502	500	495	490	498	498	499	498	503	501	502	496	496	498	496	503	513	514	510	510	503	501	501	493	493	493	491	492	496	492	489	491	501	498	498	497	498	498	497	501	506	507	511	510	507	507	503	500	497	493	497	506	505	491	494	503	501	495	496	499	501	500	497	494	487	488	491	489	485	480	490	495	499	508	509	512	512	515	512	508	506	505	506	515	516	516	512	512	513	508	505	505	503	507	508	511	513	519	516	516	518	519	519	511	504	503	503	501	503	499	508	511	508	512	511	509	508	510	511	511	509	509	505	505	508	507	518	514	514	517	517	516	510	506	506	511	513	510	507	512	509	506	508	511	516	511	511	511	516	512	511	514	515	519	519	516	507	508	506	510	508	506	506	508	506	505	513	527	522	522	525	526	524	516	518	518	518	522	520	518	523	527	525	520	518	512	516	524	522	517	515	514	513	530	523	521	522	519	522	524	518	516	518	519	517	518	524	536	535	529	529	528	525	526	526	525	528	535	527	530	526	525	528	530	532	526	521	519	518	519	519	519	514	512	518	528	532	533	525	527	516	519	522	522	527	533	533	530	528	526	524	530	529	529	530	531	533	536	537	535	532	529	529	530	0	0	0
458	463	463	467	462	461	461	463	464	463	467	467	463	465	470	461	461	461	468	467	465	465	464	466	466	473	471	470	469	465	464	464	464	465	465	466	468	470	468	469	472	474	474	474	474	474	471	467	461	459	462	465	465	468	466	462	465	465	467	473	473	473	471	470	465	464	457	463	462	459	459	463	463	467	472	469	469	467	470	472	476	471	471	462	466	468	462	466	470	474	471	467	463	465	467	468	472	470	470	455	458	463	466	463	470	468	470	471	470	465	464	465	465	470	473	471	470	470	467	467	468	471	472	469	463	464	462	462	462	458	464	464	462	464	467	468	466	464	461	458	459	463	469	471	471	466	460	463	465	471	477	478	478	477	477	473	479	473	471	471	470	474	472	469	464	462	467	476	472	489	482	480	479	471	470	469	468	475	476	477	476	472	473	470	474	473	474	472	463	466	467	473	471	477	477	473	474	474	471	473	479	474	478	477	477	475	474	476	476	477	476	477	479	481	479	474	469	466	462	463	472	476	475	473	474	476	477	475	473	476	479	474	471	482	481	476	477	478	479	479	476	477	479	477	476	477	477	475	468	469	467	471	468	468	468	468	468	467	472	474	474	482	482	477	479	476	472	476	477	488	489	490	488	488	487	480	481	482	483	480	481	484	487	488	487	492	487	482	478	480	481	486	486	480	478	477	477	481	485	489	483	481	481	483	491	493	494	488	477	474	473	474	475	477	483	485	490	489	486	492	489	498	499	496	497	489	485	486	489	483	486	494	488	487	487	489	491	489	487	485	490	492	493	504	504	500	498	495	493	489	491	492	486	483	496	499	502	504	503	501	498	486	499	496	500	498	502	502	496	497	497	496	493	491	491	489	492	494	492	496	500	501	504	502	497	491	491	492	495	497	498	502	500	495	494	488	488	490	488	484	485	491	491	486	490	494	496	490	491	490	492	494	491	496	495	497	495	490	498	497	489	487	489	491	489	497	495	495	494	494	493	494	496	500	500	498	494	494	496	492	489	488	482	480	488	496	497	506	509	512	514	509	506	504	505	507	516	513	515	509	510	510	510	504	506	503	504	507	507	508	506	501	502	499	496	499	498	501	502	501	501	498	501	504	499	509	511	506	506	507	508	509	509	512	509	506	506	506	509	509	509	509	511	511	511	519	511	509	503	511	508	506	500	500	504	513	508	504	498	496	498	507	506	511	513	518	519	518	511	506	500	497	500	506	509	508	510	507	505	502	506	508	512	522	514	514	511	510	510	517	520	523	515	511	509	518	522	518	515	519	521	519	513	510	508	511	520	520	519	518	517	519	527	529	516	516	515	515	516	516	520	519	519	524	522	515	515	510	508	524	523	524	521	520	523	525	528	527	522	516	508	512	515	515	514	513	511	512	523	524	525	528	522	518	518	522	522	528	530	530	522	519	522	522	524	526	526	527	528	519	518	521	528	526	526	528	531	0	0	0
460	464	464	463	457	456	455	455	460	463	458	458	457	458	459	454	454	460	461	463	464	464	463	465	467	471	462	462	460	459	462	464	464	465	466	465	466	468	469	468	470	472	472	470	466	466	467	467	460	459	463	465	469	469	466	464	464	463	459	461	467	467	469	467	461	462	456	458	459	457	460	460	462	460	458	457	459	466	469	471	472	464	462	456	456	458	460	467	470	472	467	465	464	465	466	466	465	465	457	457	460	463	460	463	466	468	467	469	459	467	462	461	462	459	459	467	471	467	467	463	462	462	462	458	461	461	462	462	464	464	462	462	463	467	467	467	465	457	453	453	457	460	462	469	466	465	466	468	470	473	473	473	472	470	462	464	473	476	467	466	460	459	459	468	461	460	459	463	469	472	470	467	468	469	469	470	469	463	468	463	469	472	467	465	465	466	469	469	471	471	471	469	468	469	470	474	476	479	476	476	473	473	474	477	477	474	473	476	475	475	474	473	473	477	478	475	469	466	465	463	467	473	473	474	474	473	474	475	473	476	480	474	467	469	473	473	476	476	480	477	478	477	477	473	472	474	477	471	471	466	465	471	471	472	467	474	474	482	477	473	475	474	480	476	476	474	475	476	474	477	487	486	487	486	478	477	477	480	477	480	477	481	486	482	482	479	471	469	469	470	472	477	474	475	477	477	477	479	482	485	481	476	478	476	487	481	478	477	476	476	480	482	480	476	479	485	488	488	487	485	488	487	479	493	488	483	485	485	490	489	484	492	487	485	484	484	486	485	487	485	488	490	494	499	503	491	488	485	488	487	487	487	487	493	499	499	505	505	504	499	497	492	488	496	498	500	498	499	498	504	497	498	491	491	487	486	486	490	488	489	500	501	499	489	487	484	482	480	493	493	485	484	485	490	495	491	491	487	490	485	485	487	491	489	486	490	488	485	492	490	487	486	484	486	485	484	489	490	487	487	490	489	489	490	490	500	496	494	490	491	490	490	489	500	497	495	486	494	495	490	488	485	483	483	477	490	503	498	501	507	509	509	506	504	504	504	510	507	505	502	505	504	503	495	486	487	496	502	503	502	499	494	497	500	493	497	499	501	500	504	500	500	503	503	505	506	507	503	505	506	505	503	509	509	510	506	503	502	505	504	503	502	503	504	512	514	512	507	505	502	502	501	496	497	506	507	505	502	497	495	497	500	504	508	508	509	510	511	509	504	499	496	498	505	509	510	511	509	502	498	497	505	507	505	509	507	506	509	510	513	516	521	511	507	504	504	508	511	515	515	505	511	512	513	510	509	513	514	512	513	514	518	520	529	515	511	511	512	512	512	518	518	513	510	510	510	509	507	506	505	507	507	509	511	512	521	525	523	518	505	508	509	512	512	513	509	508	509	517	517	521	522	520	516	516	516	523	527	523	514	509	505	508	516	521	521	523	523	522	518	517	518	520	519	519	520	524	0	0	0
457	461	461	461	457	456	456	456	457	456	452	451	451	451	455	454	453	458	455	458	460	460	460	468	469	470	462	460	459	457	458	465	467	467	466	461	462	465	468	467	468	470	465	463	464	465	465	465	462	455	454	459	453	453	456	458	460	451	454	455	459	467	467	461	462	453	456	455	455	454	457	457	460	456	450	452	465	465	468	468	469	465	456	459	456	457	461	466	469	469	465	457	462	464	466	466	461	455	460	460	463	463	461	461	460	461	462	465	464	458	461	458	461	460	457	464	465	463	463	463	459	458	457	456	460	461	463	464	465	465	465	461	463	465	470	467	461	457	458	459	459	471	473	469	465	465	466	468	469	472	473	472	465	464	458	461	471	474	466	465	458	458	459	464	464	467	467	465	463	465	466	465	462	467	468	469	468	460	454	458	463	468	467	461	461	460	459	461	458	458	468	468	468	468	470	473	474	478	477	477	470	473	474	480	478	476	473	475	474	478	478	465	468	470	472	473	469	467	465	467	468	470	473	474	473	470	475	473	473	472	479	472	464	464	471	474	476	480	478	477	475	473	476	476	466	469	469	468	465	460	465	466	467	466	467	471	470	472	475	483	478	479	480	478	476	475	475	475	474	471	479	480	483	477	473	475	475	472	474	476	474	470	474	481	481	480	477	467	468	470	471	473	473	475	477	473	469	472	473	477	477	474	470	469	467	472	473	477	476	482	485	486	483	481	479	478	480	483	484	482	483	485	478	478	485	485	489	489	490	486	481	484	484	483	488	487	488	487	478	477	488	492	495	501	491	490	488	482	478	479	482	482	487	498	500	503	505	501	500	496	497	491	490	492	498	498	498	499	499	503	498	491	486	484	484	486	486	483	487	487	489	493	495	493	484	482	476	488	478	486	475	472	479	486	485	485	484	488	485	484	484	483	480	483	485	484	486	486	485	485	483	484	485	487	486	484	488	490	490	491	487	487	486	491	493	489	488	488	491	491	494	494	487	491	494	491	491	490	493	490	487	485	483	490	489	494	490	492	502	501	505	501	495	501	501	502	503	500	499	499	500	497	494	495	488	492	495	497	495	499	495	492	490	493	499	497	496	497	494	492	498	499	495	493	494	506	508	491	502	508	504	497	494	506	510	505	503	497	499	498	492	495	496	502	508	511	509	502	502	500	501	500	497	494	495	504	500	497	496	496	500	502	506	508	509	509	507	508	507	504	502	499	500	503	504	511	510	507	503	499	496	501	502	500	506	504	504	510	510	512	515	508	507	504	501	503	504	506	508	502	501	505	513	507	509	502	507	507	508	508	513	515	517	517	514	508	506	509	509	510	510	505	501	506	506	506	505	503	505	506	504	498	500	504	511	513	515	515	515	511	504	502	502	510	510	507	508	511	513	517	518	519	510	511	511	515	522	524	520	512	506	503	501	507	516	517	519	517	514	515	512	512	513	513	517	518	525	0	0	0
453	456	466	466	462	456	452	452	453	446	446	448	448	449	452	453	445	445	448	449	451	454	454	456	455	458	460	459	454	457	459	461	463	463	459	454	457	462	467	468	463	460	460	459	462	461	461	464	462	458	455	454	453	456	456	456	459	450	448	452	455	459	459	460	447	453	450	449	453	454	457	461	461	447	454	450	454	460	464	465	464	463	459	457	457	457	459	464	469	467	461	457	456	460	462	463	458	453	451	461	461	459	452	454	459	459	458	461	461	457	455	458	459	460	456	459	455	458	459	458	457	456	455	455	458	465	464	457	465	466	463	461	455	458	462	466	463	457	457	460	460	468	470	469	465	464	466	467	466	467	471	465	462	462	454	457	458	458	454	452	457	457	458	463	464	465	469	468	465	461	462	460	460	463	467	465	463	454	453	456	460	464	468	464	455	452	453	459	460	460	461	461	461	461	461	458	466	469	471	466	467	465	470	471	478	475	476	474	471	479	468	462	462	464	470	471	472	473	472	472	473	471	471	473	469	473	474	469	468	470	474	469	466	466	471	472	479	474	470	470	470	470	464	461	460	462	462	463	460	461	466	467	460	461	468	467	468	469	472	482	480	481	484	480	478	477	476	475	474	476	476	476	479	474	473	473	472	468	465	466	468	469	469	486	483	469	466	466	467	466	461	465	467	468	471	472	469	471	473	477	476	474	470	465	470	470	471	473	467	464	467	478	484	476	478	478	481	482	483	483	479	476	473	474	471	483	484	482	489	486	483	479	479	488	489	491	491	484	483	483	482	481	480	481	487	485	486	483	482	482	480	481	486	497	502	503	503	501	499	494	493	489	491	490	491	492	491	488	491	491	487	486	485	482	483	485	486	486	487	487	485	485	482	484	484	474	475	473	479	485	475	472	479	488	483	478	480	485	478	481	482	481	475	476	485	484	484	484	483	486	480	483	486	487	491	492	492	489	491	486	484	486	490	491	492	491	488	490	491	490	492	490	493	493	497	495	497	489	483	484	486	484	486	492	491	492	487	486	492	496	496	494	492	486	485	489	491	495	499	500	501	500	497	494	492	496	493	492	491	493	487	487	488	485	487	486	486	486	486	485	486	494	493	489	486	486	499	491	492	491	495	478	483	490	501	498	497	494	494	492	491	492	492	501	506	505	498	498	497	498	498	499	495	489	492	494	499	495	495	501	502	505	508	510	508	502	488	489	504	503	501	499	497	493	500	500	508	505	505	506	503	496	500	501	499	506	509	510	511	511	500	505	505	502	497	501	503	506	505	504	499	501	511	509	505	495	499	503	504	507	505	505	510	510	513	508	505	507	509	510	508	499	496	496	496	501	503	502	504	504	497	497	500	504	508	512	516	514	508	504	501	501	500	502	503	501	497	503	513	514	512	507	505	504	504	514	518	508	505	501	497	500	502	507	507	511	512	510	509	507	509	511	511	513	518	518	521	0	0	0
450	465	447	447	453	447	443	443	443	443	446	449	449	450	451	449	445	440	443	446	451	452	455	455	452	456	457	454	447	452	458	460	457	457	457	457	456	456	460	463	457	459	461	460	460	458	452	452	457	454	455	452	453	455	455	455	451	450	448	448	455	456	456	456	446	441	444	450	451	451	449	450	453	453	455	454	455	456	456	454	452	451	458	456	456	456	457	457	461	462	461	456	456	460	462	460	453	447	449	455	448	448	458	461	461	459	458	458	461	457	456	457	459	457	454	449	450	451	456	452	451	448	450	453	458	461	459	455	455	450	453	454	455	457	459	460	453	453	456	456	460	467	467	464	455	458	463	463	462	457	463	462	459	459	457	458	460	459	458	455	454	454	461	466	464	459	464	461	462	461	462	461	460	460	460	463	459	457	457	458	459	462	462	462	459	453	453	458	460	462	461	461	458	458	458	455	455	460	459	459	462	463	465	466	460	468	470	468	467	462	459	460	461	462	466	470	470	472	473	473	474	469	468	469	471	469	464	459	459	457	463	465	465	466	469	474	470	468	465	467	468	468	466	460	456	456	457	458	461	467	464	467	466	460	468	468	468	467	463	463	464	471	474	484	475	475	473	475	474	479	478	480	473	473	473	473	471	465	466	467	469	472	471	470	470	467	474	469	465	458	458	465	465	465	460	464	468	472	473	471	473	474	469	464	466	466	470	468	464	466	468	473	479	477	470	473	477	489	487	480	477	472	476	471	471	472	478	474	467	466	472	477	480	486	481	478	476	478	480	480	481	479	478	469	478	480	482	485	487	490	482	480	478	482	487	487	483	488	489	488	491	489	485	488	487	486	485	483	482	482	481	480	480	482	483	485	487	488	488	482	484	483	478	477	475	475	475	478	473	481	481	481	486	485	484	482	479	481	474	476	478	480	483	484	483	484	484	483	481	483	488	483	480	482	487	490	489	485	485	484	482	479	483	484	484	486	488	489	489	490	489	493	490	491	495	496	495	482	479	480	481	484	482	484	489	492	481	472	475	481	493	483	479	480	479	482	489	493	500	505	495	491	491	492	494	488	486	489	488	486	486	485	487	486	483	484	481	480	482	484	484	485	484	479	480	476	478	491	488	493	481	484	477	479	484	491	491	490	486	476	485	488	489	497	499	495	494	494	495	495	496	495	494	488	483	487	491	503	505	503	507	501	503	506	499	498	494	488	487	488	495	499	498	494	493	488	495	498	503	506	505	501	496	502	503	503	500	510	509	500	500	502	504	501	503	503	508	502	501	498	500	510	508	506	496	492	491	496	498	502	505	507	507	508	508	503	503	503	508	509	503	497	497	494	494	496	501	501	503	503	502	495	498	503	507	511	511	504	508	503	503	487	493	497	497	495	491	503	510	512	509	503	500	500	499	500	503	504	499	501	498	500	504	502	506	507	505	504	503	501	505	510	510	513	513	517	518	0	0	0
441	442	449	449	449	444	443	443	443	444	449	449	449	449	449	447	440	440	440	442	447	448	448	448	443	441	445	447	447	460	453	449	452	452	452	454	453	454	452	457	459	449	448	447	445	445	451	454	454	453	454	452	453	451	448	448	449	449	449	448	453	456	447	443	443	442	445	450	451	448	446	447	449	449	449	450	454	456	448	448	449	451	455	456	455	455	455	448	449	451	450	456	464	465	460	449	449	449	449	450	452	458	451	452	457	444	454	462	467	459	459	460	456	456	453	452	450	449	452	448	446	444	446	455	458	458	457	451	447	449	450	450	451	450	448	449	449	449	454	457	460	465	461	459	450	453	457	459	458	455	457	459	457	456	456	456	457	460	457	454	454	458	462	466	464	457	457	459	460	458	461	462	462	462	462	462	456	456	457	456	457	458	459	459	455	453	454	453	455	456	458	458	457	455	454	454	455	458	458	460	460	458	460	461	452	458	463	462	462	460	460	455	457	460	469	463	465	465	464	459	456	461	463	465	467	469	463	458	456	456	459	466	470	465	465	466	465	463	463	465	468	469	463	461	459	456	455	460	467	469	466	468	467	463	467	468	468	463	462	461	468	469	469	470	482	471	473	471	469	473	476	475	468	472	471	471	470	470	469	470	470	468	466	466	467	469	471	466	461	459	463	465	460	457	459	464	466	468	469	467	471	471	466	460	463	464	468	469	472	467	468	477	474	475	475	470	480	488	486	477	472	470	474	470	468	468	468	468	468	469	473	476	473	474	473	471	472	473	479	480	480	482	477	473	469	471	480	487	493	491	480	476	476	476	478	481	472	475	478	484	478	478	472	483	486	482	480	479	479	477	477	478	485	482	482	484	488	485	481	479	482	483	476	474	474	475	476	478	475	481	481	481	483	484	483	481	474	468	476	473	475	475	484	481	479	480	479	475	476	486	494	483	476	471	480	485	483	482	484	484	482	481	475	475	480	486	485	486	487	485	485	488	480	492	488	500	488	484	483	478	483	484	485	479	479	473	468	466	472	477	478	479	478	476	477	482	485	487	488	482	480	484	486	487	492	485	486	483	486	488	491	490	487	483	481	482	485	481	482	486	483	486	480	479	474	474	478	488	489	486	479	484	477	482	486	487	488	488	486	485	492	490	487	489	495	495	493	493	494	495	495	493	493	480	481	483	489	493	498	497	496	491	490	492	495	496	494	490	481	484	488	495	496	493	489	488	490	497	502	506	505	502	495	489	488	487	489	494	493	489	494	499	502	502	503	503	503	499	501	500	505	505	505	498	494	489	488	492	494	499	502	505	505	509	506	503	502	502	504	504	497	497	498	497	494	494	498	499	503	503	502	495	497	501	504	508	506	501	494	494	490	482	491	490	495	493	487	490	498	499	509	501	501	498	498	501	504	504	501	500	498	495	495	504	504	504	499	498	497	496	497	497	497	497	499	500	518	0	0	0
439	443	444	447	447	442	441	443	441	441	444	446	445	445	445	439	437	440	438	440	443	446	441	441	437	436	444	445	460	445	446	445	446	448	451	451	452	454	444	447	449	433	434	437	445	447	452	449	449	452	448	444	445	451	449	450	450	450	448	445	451	457	455	445	445	440	443	450	451	451	449	446	448	449	449	452	452	453	455	454	447	452	456	455	443	444	444	445	444	443	442	442	442	445	448	447	449	449	448	449	451	451	454	454	453	450	444	450	457	457	460	461	457	456	454	455	453	452	450	449	444	441	447	452	458	458	454	450	447	445	446	449	448	444	443	448	449	454	450	454	463	463	458	453	450	452	455	457	461	457	455	454	456	456	455	457	458	451	449	454	455	458	464	464	454	454	456	447	456	457	449	456	457	455	454	452	456	456	456	454	454	449	453	455	453	450	450	449	449	453	456	456	452	452	454	455	457	456	457	457	452	453	452	452	452	451	455	454	455	460	456	458	456	459	464	461	458	464	454	448	449	455	462	466	465	464	465	467	463	459	459	463	469	462	459	459	460	461	462	464	468	464	462	460	459	455	457	456	464	466	466	464	463	461	460	467	468	462	460	462	466	466	467	465	467	468	466	465	464	461	462	463	467	468	468	464	467	475	475	473	470	465	463	463	472	461	464	459	458	459	458	459	458	460	465	465	467	469	466	466	466	467	463	459	457	464	468	470	468	465	462	464	467	471	467	465	467	460	461	461	459	464	466	466	461	461	465	469	468	468	473	472	474	471	469	468	471	475	479	479	475	480	471	471	470	470	475	482	484	479	466	465	465	472	473	478	468	472	468	471	473	472	470	477	483	483	480	478	473	470	466	461	475	478	479	479	478	479	474	478	479	481	475	474	474	481	480	469	473	476	477	478	477	476	475	479	479	466	465	471	473	474	481	479	473	473	472	471	475	484	487	486	480	474	472	476	476	478	477	480	483	479	475	474	474	478	485	485	484	484	482	484	478	492	485	477	479	470	467	464	464	473	473	477	481	474	470	471	472	476	474	476	479	479	477	478	480	482	482	481	482	483	478	476	482	482	479	479	486	490	485	482	479	480	482	485	482	480	481	487	487	484	481	479	479	480	486	487	486	486	477	479	478	485	487	489	487	487	486	487	492	493	492	487	486	493	495	494	495	494	490	493	489	479	481	483	487	488	493	493	487	487	487	487	491	485	487	487	482	481	488	494	498	492	488	487	490	495	501	505	506	501	497	486	485	485	482	485	484	487	492	498	499	504	498	494	494	496	499	498	501	504	503	502	497	491	487	492	493	495	494	495	498	497	495	502	501	498	501	501	493	498	498	492	494	492	493	496	495	504	498	496	495	494	502	506	503	499	499	491	488	487	497	487	490	484	484	487	489	497	495	495	499	494	496	498	500	501	502	498	496	495	495	496	503	500	497	494	497	495	493	493	495	495	496	493	511	0	0	0
433	435	444	444	441	441	440	440	438	438	438	438	441	444	444	437	437	438	440	434	436	435	433	434	434	436	437	441	445	445	440	441	444	445	448	448	448	442	435	432	433	434	437	441	445	450	451	452	451	451	445	444	445	446	449	450	450	448	445	449	452	455	457	451	441	441	442	443	444	450	449	447	447	447	448	448	450	451	447	451	445	452	455	455	442	443	442	442	440	440	441	441	439	443	445	446	448	448	448	448	448	446	445	446	446	446	442	443	446	448	452	451	452	453	451	454	452	451	449	450	449	449	450	455	457	463	453	449	445	444	445	445	441	440	441	447	449	447	444	447	448	450	451	454	451	451	454	450	447	450	449	451	454	454	452	454	451	450	448	448	455	459	464	460	452	451	451	443	438	441	450	454	452	455	454	452	452	452	452	451	447	448	452	454	451	450	446	443	444	449	454	454	454	452	450	450	455	456	454	451	448	449	452	458	455	452	452	453	454	457	461	458	454	455	455	457	455	456	448	448	449	452	457	463	458	459	461	462	463	460	458	461	461	458	456	451	449	447	451	463	465	463	460	461	462	460	458	464	462	462	466	463	462	461	458	458	463	460	459	457	458	460	462	463	468	467	465	463	461	462	463	462	463	461	461	461	464	473	475	474	471	466	464	460	462	459	458	456	456	455	457	460	458	459	465	466	468	463	459	460	460	461	460	459	459	464	469	468	459	458	456	458	469	475	470	464	464	463	459	457	454	454	459	462	463	463	466	464	468	469	469	473	468	470	468	468	471	474	475	475	479	459	453	467	470	472	474	474	472	470	467	462	461	470	470	474	472	470	470	471	471	469	469	469	471	476	479	478	481	472	470	470	469	472	470	476	474	474	472	476	476	472	469	471	471	473	472	471	469	471	479	479	473	472	476	473	474	469	467	469	470	475	475	469	465	463	464	465	467	474	487	483	479	474	472	465	467	469	467	478	480	479	474	473	474	474	481	474	474	480	477	477	485	480	478	477	475	468	466	464	465	473	473	476	482	473	475	475	475	476	476	478	475	478	476	474	474	479	479	479	478	486	486	483	478	478	477	483	486	486	483	480	477	470	470	480	481	481	486	486	480	478	478	479	479	479	484	491	486	484	483	478	481	485	489	488	487	485	488	492	492	493	492	484	479	483	486	493	492	493	492	490	484	475	479	483	481	482	484	483	482	483	485	485	480	480	479	478	481	480	489	494	497	495	491	490	495	495	495	505	505	501	495	490	497	485	482	483	487	486	489	496	499	500	495	494	499	503	500	496	498	499	499	499	494	490	490	491	493	493	495	492	491	493	491	493	494	496	496	486	496	498	497	494	491	491	493	492	490	489	488	487	490	488	491	500	499	494	494	491	490	490	490	498	498	494	491	486	493	494	491	491	495	495	499	499	498	500	493	490	488	488	495	493	498	498	498	500	502	500	500	497	495	494	492	493	498	0	0	0
427	427	438	438	437	437	438	439	438	431	431	435	437	440	440	438	438	438	434	435	434	434	434	436	436	437	441	439	438	440	436	438	441	443	444	443	443	435	433	430	433	437	442	442	441	441	447	448	446	446	446	444	444	447	449	444	445	445	449	449	452	455	455	447	440	440	440	441	444	443	448	446	446	443	443	443	443	445	446	447	443	444	443	442	441	440	439	439	439	438	437	437	439	444	447	447	446	445	445	446	443	444	445	444	440	439	439	439	443	442	447	448	447	446	444	450	449	448	448	449	449	447	446	454	456	454	454	448	445	443	444	444	440	438	439	441	445	443	443	443	442	443	444	445	443	441	438	439	443	445	445	446	449	451	448	451	451	448	449	451	455	462	457	455	449	446	445	444	440	441	445	448	449	451	452	451	450	447	449	448	444	446	448	449	449	450	448	446	446	449	452	453	454	451	452	452	453	451	446	440	441	445	450	459	451	452	452	453	453	454	459	461	456	454	453	454	453	449	448	448	450	454	457	456	456	455	456	454	455	456	453	457	456	452	450	448	451	446	448	458	452	454	457	454	457	459	459	456	455	464	461	461	460	460	456	458	455	454	455	453	454	456	458	457	463	463	462	458	459	459	459	462	458	460	461	458	462	470	471	472	469	466	464	460	457	458	457	448	454	454	454	457	456	457	464	464	461	460	463	459	457	459	457	459	457	458	463	460	452	451	454	465	467	469	464	462	461	457	454	453	452	452	455	461	463	463	463	463	458	460	461	463	463	466	460	462	470	473	469	467	463	451	453	452	458	459	464	468	470	470	469	465	464	470	472	472	468	470	471	472	472	468	468	467	471	472	472	477	471	470	468	468	470	471	468	472	470	470	471	477	464	471	464	465	466	469	472	467	468	469	472	471	474	469	469	472	470	470	470	465	470	469	463	464	460	457	462	461	464	464	470	471	476	473	470	466	466	465	464	464	466	475	475	476	477	472	463	469	466	466	470	477	479	476	477	477	475	465	462	467	469	473	473	473	474	476	482	482	475	477	477	478	477	476	476	473	473	472	472	481	484	485	481	479	474	474	476	477	478	481	480	477	476	471	470	478	481	483	485	487	484	484	480	476	477	476	478	487	493	495	485	485	474	474	485	487	487	487	488	490	491	489	480	476	474	475	485	490	490	491	490	488	485	477	471	481	481	481	476	475	477	480	483	484	480	478	477	477	476	482	484	493	492	490	487	489	492	496	496	495	495	493	491	489	495	494	486	492	486	482	486	489	494	494	493	495	499	501	500	496	490	493	497	497	488	491	490	489	491	490	489	491	491	490	490	491	492	492	488	493	494	496	496	494	491	489	490	490	491	489	488	483	483	484	487	490	492	492	495	492	495	492	496	500	497	491	491	494	494	493	493	494	494	502	502	499	496	492	488	484	484	488	491	487	488	487	490	496	497	497	497	496	494	493	490	490	488	488	0	0
426	426	425	427	436	436	436	437	434	432	432	434	437	438	437	437	436	432	435	434	432	431	435	434	439	439	440	439	436	436	436	436	438	440	439	428	428	431	433	432	436	442	442	440	439	439	440	447	447	445	445	448	442	443	442	439	440	443	443	449	450	448	443	437	437	439	439	439	439	438	438	439	441	442	441	441	441	441	442	442	437	433	431	439	441	440	439	439	438	438	437	438	438	442	446	448	445	443	443	450	444	444	444	441	437	433	436	436	438	442	443	445	445	442	441	444	442	446	447	443	441	444	444	447	453	454	446	443	444	444	444	443	441	439	438	440	444	443	443	443	436	437	438	441	442	441	439	439	440	441	444	442	445	446	446	447	447	449	449	448	449	452	453	447	448	446	444	443	442	441	440	444	449	451	451	450	449	449	450	443	446	443	447	447	447	447	445	448	453	449	449	450	451	451	450	449	447	449	438	436	436	443	443	444	446	445	446	451	452	452	458	457	454	457	457	452	452	450	446	446	449	453	456	454	452	451	452	452	451	454	452	453	448	446	445	448	452	444	445	448	450	452	454	454	457	458	456	457	454	455	457	459	453	456	446	448	451	454	455	458	453	459	457	453	455	455	458	457	456	456	456	460	458	457	457	455	462	467	468	463	466	467	463	463	461	457	452	448	454	453	458	457	451	455	465	459	463	463	460	457	458	456	460	460	462	461	459	457	452	449	448	450	469	470	466	465	462	452	450	455	458	457	458	463	449	453	449	454	458	457	459	460	461	463	459	461	466	470	471	462	456	454	450	451	455	458	463	465	468	466	462	459	465	468	469	466	464	467	469	464	472	473	473	460	463	464	467	469	470	468	467	460	463	469	470	466	469	469	477	468	464	463	463	468	468	470	468	473	471	468	461	460	462	463	466	466	463	463	463	462	464	464	464	461	457	453	456	462	462	465	464	466	466	466	467	467	465	463	463	465	460	462	468	475	471	465	459	457	463	462	464	466	472	475	473	470	467	465	464	462	464	467	472	473	467	477	485	476	477	477	473	467	468	472	473	477	471	470	479	482	484	481	480	475	472	470	470	470	471	475	477	474	471	469	469	476	479	482	483	487	489	485	481	476	475	474	478	479	477	475	475	477	481	477	474	485	484	487	486	486	487	480	476	467	473	478	483	485	485	488	487	481	475	473	472	476	480	476	471	469	469	478	481	484	474	479	478	476	479	479	482	482	482	478	478	481	494	493	493	492	492	493	489	488	489	492	492	489	480	479	481	482	485	489	490	493	496	496	497	483	483	486	491	492	485	484	485	490	486	484	482	485	486	490	489	490	490	486	486	488	491	491	495	492	489	488	489	491	493	494	490	481	480	476	483	486	486	489	489	491	495	491	491	491	485	490	490	489	494	494	494	494	495	495	495	493	489	490	484	485	485	486	488	490	486	483	484	484	487	487	487	490	488	485	483	490	490	490	0	0
