554	551	549	548	548	546	550	550	556	556	555	556	557	557	557	548	552	555	556	556	557	557	559	564	562	562	562	559	558	555	556	556	558	558	557	558	560	562	562	565	564	561	555	557	559	559	560	559	558	560	562	565	565	568	568	563	562	561	565	570	572	574	568	563	563	561	570	574	572	568	561	553	551	571	584	588	588	577	575	582	566	563	562	560	560	563	557	558	560	559	557	561	551	551	555	557	558	559	565	567	571	578	563	557	554	556	555	557	575	580	579	578	568	565	557	553	567	568	568	569	572	574	576	574	571	569	568	564	568	567	560	554	556	569	580	584	591	586	584	579	571	569	569	575	576	576	577	575	574	574	574	576	574	570	569	569	571	575	582	584	580	579	577	574	572	576	577	579	576	576	574	567	569	572	575	584	579	582	581	578	570	579	580	591	590	576	579	572	576	578	573	568	567	567	576	578	574	576	576	576	571	571	570	574	577	580	579	578	583	586	586	572	571	569	568	570	571	574	581	583	584	585	584	590	589	591	592	590	594	599	586	583	575	582	595	597	597	595	583	578	574	576	579	585	583	581	580	584	583	582	580	582	588	589	587	585	586	584	583	582	581	583	583	584	585	592	594	593	594	589	586	585	588	591	591	590	589	583	579	588	594	596	596	596	602	602	601	591	592	592	588	587	589	591	592	588	599	596	591	592	593	599	605	601	581	586	583	594	584	587	585	582	582	585	591	592	595	595	594	596	597	600	603	603	603	604	591	590	587	597	598	594	594	594	596	597	594	596	607	604	601	591	610	610	603	599	600	600	594	596	604	611	602	600	597	594	597	599	597	596	595	595	601	604	606	606	593	599	599	599	601	600	597	595	595	597	606	611	619	610	602	600	605	609	607	614	614	609	612	618	616	608	608	609	613	623	624	622	618	611	609	604	608	612	615	610	605	602	603	602	595	600	612	613	605	609	612	621	623	620	621	617	619	618	613	608	603	601	599	608	608	605	609	612	615	618	624	621	619	626	620	617	616	613	613	616	617	613	609	605	605	608	614	611	618	611	609	611	623	622	619	625	621	620	621	622	631	622	616	615	607	609	610	609	620	618	614	615	616	614	610	608	619	622	616	618	615	613	611	615	616	618	631	631	632	628	627	629	631	630	626	625	625	621	618	609	616	618	620	626	623	619	610	612	620	625	628	632	630	627	621	623	626	631	629	625	625	625	624	631	632	631	628	628	628	629	634	625	620	621	625	617	621	623	624	621	621	619	625	646	644	634	635	636	632	626	627	629	628	625	626	628	629	629	632	634	637	641	639	632	629	629	629	629	627	629	627	627	628	628	626	638	634	634	637	636	638	642	642	638	638	636	636	635	638	639	640	642	636	638	640	637	637	637	637	644	649	648	645	650	650	656	659	661	654	644	643	641	642	645	640	640	640	639	635	636	640	642	643	644	655	652	647	647	648	0	0	0	0	0
553	548	547	546	546	544	547	549	554	554	555	557	543	541	541	545	549	554	550	557	557	554	555	560	561	561	561	548	550	552	553	553	553	548	550	552	557	563	563	566	567	567	567	569	569	564	564	558	558	558	560	563	566	565	565	560	558	561	559	558	574	559	544	537	537	543	554	566	566	561	558	553	551	551	560	567	567	558	566	569	564	561	556	552	556	561	553	552	552	554	555	551	551	554	554	555	556	552	553	555	565	571	563	557	554	552	552	561	561	568	572	569	569	553	551	554	560	569	569	566	569	572	573	574	570	563	560	559	566	577	574	571	566	569	568	570	572	568	568	569	573	576	578	566	566	570	576	573	572	571	571	569	568	564	564	565	566	571	579	579	577	573	570	568	571	571	571	575	573	575	567	561	565	576	578	576	576	579	581	579	581	583	584	573	572	572	568	572	571	576	573	572	568	566	563	567	567	572	572	571	568	567	568	572	573	575	573	574	580	586	585	568	562	556	556	565	568	580	581	580	582	579	578	587	581	586	579	579	581	589	589	583	576	588	591	591	592	589	581	577	573	570	571	581	583	579	578	579	580	578	581	586	587	588	581	580	579	584	583	582	581	582	583	583	586	588	591	596	596	586	585	585	585	586	583	582	580	576	575	579	579	585	586	587	600	599	593	593	593	590	581	582	588	590	588	582	580	586	590	598	597	592	593	594	587	586	584	584	583	586	581	581	578	577	573	576	593	591	590	590	594	598	594	582	591	591	584	585	573	582	587	588	590	591	591	595	584	584	594	596	596	592	588	592	593	596	593	595	594	592	591	595	596	590	595	597	597	592	595	594	592	585	594	602	602	591	590	595	596	596	598	597	593	590	595	597	606	614	606	606	597	596	596	601	608	607	608	610	607	612	608	602	604	610	605	604	611	616	615	613	610	610	613	615	616	607	601	598	598	599	599	606	611	610	607	609	612	615	615	603	604	605	613	619	618	613	607	601	599	608	606	608	606	607	609	614	616	613	617	620	619	617	612	608	609	609	609	605	601	604	599	603	606	608	610	603	599	603	611	616	615	615	620	620	617	624	613	621	616	613	614	617	607	607	607	599	607	603	607	609	609	605	614	617	614	607	607	607	607	609	610	610	608	623	625	627	627	628	630	631	630	627	625	616	601	607	611	616	618	615	618	614	613	621	622	625	628	631	630	620	612	616	624	628	628	625	625	627	628	631	630	626	619	622	628	629	624	631	613	615	618	623	617	619	612	614	618	617	616	625	631	628	633	632	632	629	627	626	621	623	629	631	626	626	624	630	630	634	628	626	626	627	628	627	628	630	627	619	619	619	621	621	630	636	638	640	648	644	639	639	637	636	637	633	629	629	629	626	634	636	633	630	629	631	631	622	621	632	631	645	645	651	654	652	644	638	636	635	635	638	633	635	635	632	631	632	634	634	636	634	649	648	648	644	644	0	0	0	0	0
545	543	541	546	544	544	543	549	550	549	549	549	543	539	539	539	547	543	549	549	549	549	549	553	555	556	556	545	548	551	553	552	552	548	547	551	554	560	565	565	568	567	569	561	560	555	555	556	559	563	567	566	564	561	560	560	560	560	553	569	553	558	543	536	537	537	550	563	558	563	560	556	555	552	559	560	556	556	566	570	565	562	555	553	550	555	549	538	542	547	551	554	552	554	563	563	562	553	550	551	554	562	566	562	557	553	555	560	562	565	568	560	553	552	550	552	561	569	565	565	566	569	573	572	562	557	558	563	567	576	575	571	565	563	562	562	561	558	558	559	561	580	585	584	575	572	567	561	556	558	563	567	566	564	562	560	561	560	572	575	573	567	567	567	567	570	568	567	562	563	562	555	560	563	568	572	571	571	570	564	581	583	582	566	565	564	566	567	570	577	574	574	568	568	561	560	563	566	568	564	564	567	569	571	571	571	569	572	577	579	567	564	560	555	557	561	566	565	580	578	574	569	572	573	575	573	567	568	570	580	585	580	574	589	585	586	587	586	580	576	573	570	569	570	579	580	577	576	571	575	574	578	581	582	579	571	574	571	580	581	579	579	579	578	585	584	592	595	588	573	567	567	576	578	581	581	578	576	577	580	579	583	585	584	578	581	588	587	581	587	575	578	586	589	587	580	588	585	586	586	591	589	591	588	578	579	578	582	584	586	583	585	579	573	577	581	582	592	584	583	589	586	584	584	580	580	583	573	570	580	581	584	581	585	589	592	582	585	589	590	594	590	582	589	590	590	591	592	594	594	591	587	593	591	597	598	599	589	586	585	584	582	587	590	591	595	586	589	591	595	597	595	595	601	601	601	607	607	605	596	591	593	592	593	599	596	599	604	601	594	594	594	598	598	596	595	592	595	597	605	607	607	608	612	611	605	600	598	598	599	601	605	604	601	596	599	604	607	606	602	601	597	602	607	607	604	601	596	600	604	608	607	605	604	603	609	610	610	612	612	614	605	605	603	604	605	604	601	599	599	598	597	599	603	605	604	596	600	602	603	609	608	611	613	602	617	609	606	609	612	615	605	603	607	609	608	601	603	604	607	607	601	601	605	611	602	604	604	606	607	609	607	604	608	624	627	629	627	631	628	625	624	625	615	611	606	614	616	615	617	618	615	626	624	623	625	629	632	629	622	614	615	621	628	629	628	625	622	621	626	627	622	617	618	618	620	626	616	612	609	607	611	613	611	612	611	613	617	617	609	608	616	624	626	613	607	607	614	619	621	622	628	631	630	623	623	624	617	625	633	634	630	623	623	624	622	616	616	619	618	618	620	633	634	637	639	644	641	641	633	633	634	635	638	628	625	621	625	635	638	637	631	629	627	625	615	613	612	612	631	639	644	647	644	637	632	630	630	624	629	631	631	631	629	629	627	628	629	632	632	640	642	642	639	639	0	0	0	0	0
536	536	539	543	544	544	544	547	542	545	545	542	540	542	542	542	537	535	543	544	544	540	541	547	552	549	549	545	547	551	553	552	552	549	549	550	555	562	566	566	563	562	564	547	548	546	545	545	555	561	561	558	558	558	565	565	563	559	551	554	551	541	528	527	536	536	543	552	556	560	552	552	553	550	547	555	559	561	561	556	556	557	549	556	559	549	536	543	547	549	551	555	556	552	556	559	559	553	551	550	551	553	558	556	552	549	551	557	561	562	559	555	553	554	549	549	552	556	562	563	562	561	564	565	562	550	547	547	552	559	563	566	560	561	562	560	554	553	560	566	567	565	563	559	558	560	554	554	556	561	574	574	571	571	568	560	555	554	556	562	567	561	561	566	568	570	569	565	559	561	558	561	566	567	571	567	566	568	565	563	560	562	561	563	562	561	567	570	573	574	573	569	568	568	568	555	558	563	569	564	565	568	567	569	565	563	562	564	570	568	560	563	563	559	561	565	569	571	568	572	566	561	565	567	566	570	564	564	567	565	567	580	573	583	581	581	580	578	575	572	571	570	569	565	575	577	576	571	570	568	570	571	576	572	570	558	562	567	565	577	574	571	571	571	579	579	586	586	585	583	569	573	575	579	577	579	571	575	580	581	581	578	576	582	575	581	572	579	578	576	576	578	579	578	580	587	585	581	581	578	578	578	580	573	577	579	578	577	580	579	579	582	580	576	577	580	584	592	589	586	579	580	581	584	582	574	572	578	579	580	576	576	577	582	586	589	581	578	579	584	594	588	590	588	582	580	584	589	594	590	589	581	578	591	597	599	595	585	586	587	586	577	578	585	585	584	584	587	590	593	583	591	594	599	600	600	601	602	602	593	584	584	588	590	577	576	579	590	597	592	587	592	592	588	586	585	585	587	588	586	588	591	603	607	607	602	600	598	599	599	599	597	594	585	587	594	596	605	604	599	596	596	595	603	607	611	610	604	599	591	601	603	603	603	599	600	608	609	607	590	589	593	594	588	589	589	586	597	599	599	596	598	604	600	605	592	593	597	598	598	595	594	590	589	596	599	602	603	604	607	610	611	602	605	611	612	609	604	603	604	601	597	595	596	599	604	606	607	607	608	610	601	600	602	608	623	628	629	626	623	620	615	609	609	607	605	613	618	612	615	611	620	625	625	623	624	627	628	627	623	622	613	611	613	622	623	618	606	612	619	624	619	615	616	615	615	608	602	603	605	605	608	612	610	608	609	610	614	616	614	614	613	613	617	603	599	596	601	607	611	621	625	624	620	622	616	619	616	619	623	625	623	619	627	629	621	620	620	621	621	618	618	623	626	632	632	633	633	626	624	625	630	635	638	638	625	625	632	632	634	634	633	628	625	621	618	610	615	615	618	619	621	623	626	624	628	625	625	618	617	626	626	629	629	626	626	625	624	628	629	630	630	633	632	633	0	0	0	0	0
536	536	538	542	544	544	542	538	535	542	542	542	546	542	533	533	535	534	532	529	536	536	542	547	551	543	542	542	547	544	542	542	543	543	546	549	540	544	547	543	543	546	547	547	541	544	544	544	547	549	539	538	544	550	553	555	555	560	555	550	544	534	526	540	550	558	558	560	557	552	545	547	548	551	554	555	557	555	555	552	551	551	555	538	542	546	541	546	548	549	547	549	555	557	554	556	555	555	552	550	550	551	551	551	548	543	548	553	558	563	556	555	559	554	546	545	546	554	546	543	545	549	551	552	550	548	544	544	551	558	561	565	559	559	556	554	552	552	558	563	563	562	559	555	556	555	546	555	555	558	564	575	568	570	567	559	555	555	557	564	564	560	560	557	558	557	554	562	563	556	557	561	566	572	573	567	565	565	565	564	562	562	558	561	561	565	566	567	566	567	568	567	566	563	566	552	552	548	548	552	555	555	556	557	560	560	561	561	558	556	565	572	568	562	564	570	574	573	569	554	556	547	552	559	564	566	561	559	562	563	562	567	570	572	572	569	568	573	570	569	569	569	567	563	571	574	575	570	569	566	565	568	573	571	569	563	551	558	561	569	565	569	571	577	577	577	576	568	569	569	572	572	573	576	576	576	575	571	574	574	570	569	571	573	578	574	571	575	575	574	574	574	575	572	571	578	575	572	569	577	572	579	578	573	575	579	579	576	584	582	582	582	582	577	574	573	574	582	584	587	583	577	572	578	583	579	573	579	583	588	581	574	572	573	578	579	580	583	584	589	590	590	585	585	581	576	576	575	579	594	586	578	576	581	591	592	593	585	587	588	585	585	584	580	582	583	584	589	590	583	578	582	590	597	594	595	590	596	598	594	591	583	573	572	575	572	574	583	589	589	587	586	586	582	579	577	578	587	586	588	588	590	590	591	595	591	591	598	597	594	592	592	589	583	593	592	593	595	590	590	595	594	591	589	604	608	606	601	594	589	588	601	602	595	589	586	596	596	593	584	594	588	589	588	593	593	591	588	598	601	601	601	602	600	588	591	591	591	591	595	591	588	586	587	589	594	600	600	601	602	605	609	605	606	610	611	612	608	604	592	588	591	593	594	597	602	611	613	614	613	608	595	593	596	608	606	608	609	608	609	614	609	605	601	599	600	599	605	592	595	597	599	612	608	603	602	601	601	599	598	601	597	596	599	603	610	610	603	606	607	614	613	612	612	614	604	603	601	611	607	608	610	614	609	606	606	611	615	618	616	613	613	611	615	605	599	597	599	602	605	619	620	618	614	612	614	609	610	613	618	619	613	614	617	625	621	613	616	622	618	617	616	614	613	618	619	619	615	619	623	621	626	623	624	638	635	624	612	611	613	615	617	620	619	617	618	609	609	609	615	616	613	618	613	621	624	623	621	618	616	616	618	620	625	627	622	624	624	625	629	627	627	628	627	624	0	0	0	0	0
536	528	529	541	542	531	531	524	538	541	539	539	531	530	531	533	533	536	544	545	544	544	546	555	550	545	542	542	539	540	535	529	533	533	535	541	541	537	538	539	539	543	544	544	541	543	538	537	537	533	532	534	538	544	544	544	544	549	544	540	537	527	533	549	551	551	551	542	546	544	542	542	547	549	551	555	550	549	549	549	549	548	534	536	542	543	543	543	552	554	549	553	543	555	555	555	556	552	552	548	547	547	547	539	538	539	546	553	554	554	551	550	552	556	547	541	541	544	547	541	539	541	546	548	549	549	546	546	550	546	544	543	547	550	551	550	550	548	544	542	541	541	542	547	549	548	542	553	553	553	564	566	559	551	548	556	557	557	559	558	556	555	555	555	557	558	558	559	566	558	560	561	565	570	572	566	560	560	564	564	566	559	560	559	563	561	559	557	558	559	565	562	562	561	560	557	550	545	548	544	545	554	552	552	557	559	559	554	553	561	568	568	563	567	564	559	565	566	558	558	547	546	547	551	559	561	561	557	560	561	564	566	567	568	565	559	553	550	553	554	548	548	551	556	556	572	574	570	563	563	563	565	569	568	563	557	549	553	557	563	563	560	567	562	564	564	568	565	568	571	571	571	569	572	573	572	572	572	567	568	560	563	563	564	559	553	551	554	558	564	570	570	570	568	563	558	564	568	569	575	571	570	574	571	570	575	572	579	583	579	582	581	579	567	569	567	567	573	580	578	579	579	575	573	570	569	569	575	580	580	578	574	572	569	577	582	578	584	583	584	584	585	582	581	583	577	577	575	575	580	584	581	577	587	583	585	589	584	586	579	583	584	584	587	585	591	592	590	582	576	575	575	578	577	575	575	576	586	596	593	590	588	572	572	573	575	581	586	587	585	584	581	581	579	578	577	577	579	594	596	594	592	596	596	593	593	595	593	593	590	586	588	585	584	587	592	592	591	591	590	590	587	589	587	588	607	606	596	588	581	589	598	596	591	587	587	586	590	601	601	594	587	586	591	593	593	593	593	591	595	596	598	596	593	588	588	589	590	590	589	588	584	579	580	586	589	598	598	598	599	601	610	607	607	606	606	605	602	600	595	594	587	586	587	593	596	603	618	614	612	609	596	592	592	604	608	602	607	606	606	603	600	600	596	594	596	595	596	593	591	592	586	587	587	594	595	595	592	600	596	593	592	589	595	596	596	595	601	608	607	611	613	610	610	606	602	603	600	601	607	610	613	615	605	603	604	609	612	614	611	606	604	602	600	597	594	590	591	601	601	611	614	615	611	610	613	612	609	608	614	612	613	611	614	617	617	612	605	612	616	611	610	612	614	613	613	612	612	614	624	622	621	619	619	617	616	612	609	607	608	613	617	618	617	616	615	615	618	604	603	612	603	606	609	612	621	624	624	621	618	618	620	617	617	617	620	620	619	618	623	623	623	623	622	617	0	0	0	0	0
528	529	526	524	525	524	524	522	530	531	525	525	530	528	531	532	532	541	543	545	546	550	550	547	541	544	541	541	539	532	526	521	530	538	538	539	538	538	538	539	539	539	540	537	538	539	538	534	534	534	532	531	534	536	536	535	535	535	532	531	529	529	543	542	546	548	542	542	540	538	538	542	543	546	546	547	548	548	541	539	539	536	534	536	539	543	543	549	552	551	552	549	553	544	553	555	554	548	548	548	546	544	543	539	539	543	547	552	553	548	545	549	550	552	544	540	537	538	540	540	538	534	543	546	547	544	545	545	545	542	540	540	541	542	545	542	540	540	538	538	541	540	542	543	544	541	541	541	544	551	556	554	555	546	546	553	555	554	549	553	554	554	554	554	555	554	559	559	560	558	550	550	554	565	567	565	550	561	562	564	561	556	556	557	546	548	546	549	550	553	550	550	556	557	556	557	550	545	539	539	544	550	547	546	547	555	553	551	557	562	561	560	558	552	547	548	548	548	554	544	545	546	546	546	554	562	557	553	558	561	561	564	565	565	562	560	557	554	556	559	558	563	555	552	547	555	555	554	555	555	560	554	564	564	564	562	557	553	551	547	551	557	564	563	562	561	557	561	566	568	567	562	562	564	566	567	568	569	567	566	561	561	567	568	565	560	562	563	560	559	563	567	565	563	561	559	563	568	570	570	570	570	572	567	564	566	573	576	576	579	579	573	569	570	569	569	566	569	581	580	580	578	578	573	563	564	564	570	571	572	574	580	571	572	575	579	577	582	583	581	581	580	580	580	582	579	579	578	572	568	574	575	576	577	579	581	570	583	585	583	565	563	575	582	585	585	585	585	574	567	570	568	567	571	570	566	576	572	583	591	588	582	575	574	574	576	582	582	581	579	579	580	576	578	577	579	576	575	580	588	594	591	594	595	594	594	591	593	588	585	584	586	583	581	582	588	590	589	588	587	584	587	583	581	576	580	586	586	582	582	583	586	585	579	584	584	584	592	598	597	597	588	584	585	590	591	593	588	584	592	592	594	595	593	587	587	589	590	589	584	587	584	580	577	578	584	585	580	582	584	592	598	597	594	590	599	594	594	594	598	602	601	600	597	596	593	592	596	617	614	612	598	594	592	599	606	598	600	602	585	588	596	598	600	596	592	597	593	595	594	594	594	592	590	589	592	592	589	591	595	601	600	599	596	594	594	601	606	606	605	607	607	607	606	599	594	589	598	593	598	605	612	607	603	601	601	604	601	606	605	601	600	599	599	597	592	588	590	600	604	606	610	609	609	607	606	598	601	606	606	607	607	610	613	615	612	606	604	603	613	611	611	614	614	614	613	613	609	610	614	622	621	618	616	616	615	612	609	603	603	606	611	614	617	615	615	615	613	608	603	595	597	604	606	611	616	620	623	623	623	623	621	619	614	609	614	614	610	614	619	619	618	617	614	612	0	0	0	0	0
521	526	518	520	516	517	520	520	524	523	521	521	527	527	529	531	536	536	540	544	547	539	539	536	538	540	537	538	538	529	522	525	534	538	538	539	537	537	537	537	536	536	534	532	532	539	536	534	533	533	529	530	528	530	536	534	533	533	532	526	526	529	541	542	539	541	540	540	536	536	537	540	540	539	542	542	542	540	536	533	533	534	534	536	539	539	546	548	549	547	538	543	550	546	547	551	549	546	544	542	542	539	539	542	545	547	547	546	544	542	541	541	543	543	536	534	535	534	536	535	536	535	540	541	540	537	538	539	543	542	536	536	540	542	541	540	536	536	540	543	544	542	541	542	544	540	540	541	548	548	552	547	546	546	539	539	540	544	548	550	549	546	549	551	552	550	545	544	546	541	537	542	547	548	548	548	554	558	562	562	558	553	551	549	543	546	544	543	543	545	549	550	550	552	553	553	549	545	542	542	539	547	547	546	545	552	552	555	555	555	554	552	551	550	548	543	541	545	548	550	553	551	547	547	553	560	555	553	551	556	560	562	559	563	559	557	557	559	560	562	559	556	551	553	551	553	552	552	552	553	555	556	561	564	566	567	563	557	551	552	548	549	555	560	560	554	554	555	561	557	557	552	555	557	556	556	556	564	562	557	560	564	570	569	565	564	562	559	559	558	562	559	559	561	560	559	568	570	574	566	563	560	556	556	560	566	570	570	571	576	571	564	562	567	566	567	565	565	569	574	571	569	573	564	563	560	557	559	561	564	572	575	575	569	567	567	565	565	571	571	563	566	576	575	575	573	570	561	567	571	571	577	576	571	562	563	562	561	571	571	562	563	562	562	561	584	587	581	573	570	561	561	562	569	570	566	572	570	570	579	579	570	569	568	572	575	580	579	580	578	577	578	576	576	573	574	573	563	566	567	568	569	580	596	593	591	590	590	583	580	576	585	585	581	581	582	587	582	582	577	579	581	581	576	575	576	578	577	580	576	577	577	577	581	582	582	581	589	593	595	594	588	583	582	585	590	586	580	580	589	589	592	593	581	579	582	581	582	583	582	584	584	583	580	577	577	578	576	577	582	584	577	589	589	587	586	590	592	593	593	594	594	589	593	593	592	592	591	592	602	609	600	601	601	605	593	582	589	587	582	588	591	595	595	595	593	588	592	596	596	595	597	593	588	587	589	592	590	587	595	597	600	597	594	590	597	602	604	601	601	599	604	606	604	596	591	590	590	588	590	600	611	604	602	600	598	599	596	600	600	599	605	607	609	599	597	595	598	598	604	606	603	603	600	601	593	593	599	604	608	606	607	610	617	616	611	605	602	600	602	602	606	606	609	610	610	608	606	607	611	612	612	613	618	621	620	615	607	598	597	599	605	611	611	607	607	603	606	611	616	614	613	612	606	608	614	618	620	620	620	617	619	620	616	612	608	598	599	603	614	614	616	613	611	608	0	0	0	0	0
521	518	518	515	515	516	520	520	524	525	527	527	527	525	529	531	521	521	517	523	530	525	525	528	531	535	534	530	530	526	526	529	533	536	536	536	535	534	533	534	536	536	532	531	532	539	534	532	532	532	529	528	521	521	522	534	531	524	524	521	528	529	535	531	536	538	534	530	530	534	535	534	536	540	541	542	542	538	533	531	530	530	540	539	539	540	541	543	545	545	535	535	534	542	538	538	545	540	538	537	538	538	542	542	545	546	544	545	536	535	535	536	535	533	531	529	533	534	532	534	536	535	533	535	537	537	537	537	538	537	535	538	540	540	538	536	534	535	541	545	545	541	541	538	540	542	543	543	548	548	548	543	544	538	537	532	537	543	546	550	546	541	540	550	551	545	542	542	542	546	542	539	543	546	539	538	541	557	561	561	556	550	547	545	543	541	538	545	546	544	543	549	545	548	553	544	542	541	542	542	540	542	544	545	545	554	551	551	552	550	550	546	548	546	545	541	539	540	538	540	546	551	553	556	555	555	554	555	548	544	551	558	558	554	549	546	537	543	545	545	545	547	546	545	553	553	547	545	546	546	546	553	554	555	559	564	563	553	549	548	544	549	555	557	559	555	552	551	538	551	543	549	551	553	553	553	554	555	556	556	556	554	552	557	563	563	558	552	554	557	563	558	556	551	553	553	548	560	563	565	565	562	556	553	548	549	568	568	567	566	563	557	556	561	564	565	565	559	560	568	567	564	562	562	555	555	557	560	558	560	569	571	570	567	565	563	562	563	565	559	564	566	554	569	566	572	569	561	562	566	572	575	573	569	562	559	559	559	560	560	562	564	566	563	561	562	582	578	572	566	561	559	559	560	564	567	562	563	565	570	566	566	570	570	568	565	575	576	569	572	574	574	574	574	573	574	574	575	577	578	564	567	571	579	583	583	581	585	581	572	566	568	569	572	577	586	578	576	576	577	579	580	580	576	574	573	572	576	576	576	572	575	578	570	572	575	576	576	586	592	591	588	586	577	582	585	582	579	574	575	583	589	578	578	575	578	580	580	579	580	583	583	578	576	576	575	576	575	582	583	585	577	585	585	583	581	585	593	592	592	582	582	585	587	588	587	590	585	584	585	589	590	586	590	592	588	577	573	576	585	586	588	591	593	594	593	590	591	592	592	591	597	592	587	584	587	587	591	594	595	596	598	598	593	591	592	601	601	597	596	596	599	596	591	590	592	594	584	589	588	590	594	598	589	594	594	590	593	592	596	596	597	605	601	600	600	596	595	599	604	606	603	596	594	594	593	594	595	602	602	602	604	604	605	614	611	605	601	598	598	597	597	603	606	603	598	601	601	601	607	605	605	602	601	610	609	606	598	592	595	597	600	602	599	599	601	602	604	608	610	613	612	611	608	605	610	609	611	611	614	613	614	616	616	611	606	605	606	606	603	616	617	614	609	604	0	0	0	0	0
524	517	515	511	514	518	520	520	524	527	530	533	533	531	526	526	505	505	508	514	519	521	523	523	524	521	528	531	526	526	523	523	526	528	529	529	530	526	526	526	530	530	530	530	534	526	526	529	529	528	528	522	520	519	520	521	521	520	520	528	534	536	516	516	524	522	524	524	525	525	524	514	520	535	538	538	536	532	529	528	530	527	527	530	530	531	532	528	531	533	535	531	525	528	532	529	533	532	537	535	536	539	539	539	542	540	540	531	531	530	530	529	528	523	523	530	538	539	533	537	536	534	533	535	541	541	539	540	536	528	524	530	537	538	537	532	531	535	543	543	541	540	537	535	539	544	547	546	545	534	534	537	539	540	543	535	539	542	547	550	547	540	539	540	540	543	543	542	542	543	544	548	546	545	542	538	539	544	546	546	544	541	545	544	542	541	544	544	544	542	539	538	539	543	544	542	539	537	535	536	541	541	538	542	545	547	546	542	547	547	550	542	544	537	543	546	546	547	550	543	543	551	551	547	546	551	551	551	544	540	541	550	548	546	545	535	535	539	545	545	544	541	541	540	539	542	540	541	542	542	541	545	546	545	544	556	554	549	549	548	550	555	546	546	549	547	549	544	543	536	542	549	546	549	550	551	553	551	546	547	547	546	546	548	552	561	555	548	545	547	563	557	554	545	545	548	556	560	562	564	566	564	558	553	556	551	555	555	556	558	555	554	553	556	564	565	564	560	557	561	563	562	561	560	556	555	555	555	553	554	569	570	567	561	560	560	556	562	561	560	560	552	552	554	559	564	565	563	562	565	569	568	569	566	561	556	559	554	559	560	560	563	563	565	567	579	574	572	567	562	560	554	555	557	561	568	566	562	569	567	566	568	562	566	566	563	563	562	564	564	569	572	562	561	564	568	573	576	574	570	564	569	570	576	577	573	561	564	564	564	565	562	566	572	577	579	577	575	575	575	570	563	565	564	570	571	572	568	574	570	569	569	578	576	569	571	572	572	570	574	585	584	580	577	579	580	579	576	578	578	580	581	573	571	571	570	575	578	582	580	579	580	574	575	576	572	569	570	585	587	586	578	579	583	582	578	584	593	593	588	581	579	573	573	572	572	575	581	581	583	577	580	585	590	591	586	577	575	575	582	582	580	578	574	573	593	591	588	587	586	586	582	577	579	581	582	587	591	593	595	595	598	597	594	590	589	590	585	597	592	591	596	589	589	589	588	584	587	587	581	586	586	585	583	584	584	587	587	589	594	592	592	593	596	597	598	597	595	599	601	604	602	592	592	593	591	593	594	597	594	593	598	600	604	608	605	594	593	592	594	594	596	601	597	589	593	600	601	600	604	598	598	598	595	608	608	605	598	591	594	595	596	597	597	596	599	601	603	606	606	609	607	607	604	603	600	605	605	605	608	609	608	608	607	603	604	605	606	606	606	617	618	613	610	603	0	0	0	0	0
524	517	511	511	517	517	519	520	520	526	533	535	528	528	521	509	505	506	506	515	523	523	521	521	519	519	529	532	522	522	520	520	518	519	522	522	520	520	524	528	528	527	527	526	528	526	523	520	525	523	523	522	521	518	516	518	515	521	524	524	530	523	518	522	521	521	521	522	524	524	523	522	517	520	523	532	534	531	529	529	529	518	518	524	527	528	529	527	526	530	532	533	529	523	523	524	525	528	527	528	520	521	530	530	535	533	534	526	523	524	526	530	529	527	528	533	536	535	530	533	535	533	534	534	539	543	544	539	527	520	523	529	532	531	534	532	532	532	532	532	533	534	534	535	538	538	544	547	538	532	530	532	535	540	544	535	533	543	547	549	548	547	541	536	536	537	536	537	536	534	536	536	533	533	534	532	525	523	524	526	530	540	542	543	547	546	545	544	540	536	537	535	535	531	530	528	530	529	529	533	539	542	542	542	548	541	537	535	540	542	537	534	534	535	536	541	544	546	548	540	549	548	542	541	544	541	539	546	543	539	539	542	542	543	538	530	540	541	545	541	539	537	533	534	535	537	531	531	536	538	538	535	544	544	540	536	537	546	549	549	558	555	541	542	543	543	542	544	541	541	543	550	554	539	543	546	545	543	543	542	543	540	538	540	554	547	549	549	545	543	550	556	549	547	543	549	553	557	558	560	563	563	561	556	555	550	548	550	555	553	551	550	546	555	557	563	561	559	560	561	562	563	566	566	558	556	557	554	549	547	547	548	553	556	555	556	555	561	560	559	554	548	549	554	554	561	559	554	553	552	558	564	559	556	552	553	556	559	547	553	555	558	560	566	565	578	573	567	562	558	552	549	549	554	566	559	564	567	571	568	570	567	562	558	564	564	558	559	559	563	563	562	557	556	561	565	568	569	570	563	570	569	564	569	569	566	558	562	561	563	569	577	575	567	570	570	570	566	563	566	569	561	562	563	567	568	569	568	567	567	566	569	579	585	573	567	569	569	566	570	573	576	577	575	573	579	579	577	579	580	579	576	565	569	568	564	571	576	581	579	579	579	580	574	574	570	565	564	581	584	583	576	577	574	575	578	585	582	583	579	575	576	573	570	567	569	570	575	575	575	576	580	586	589	590	583	579	577	577	577	577	576	575	571	567	580	586	588	587	585	581	571	575	585	581	580	587	590	592	593	594	595	596	594	575	574	571	579	578	584	583	574	590	584	586	583	582	580	578	577	577	577	575	574	581	581	578	578	588	590	590	590	590	590	595	594	588	594	597	599	599	596	588	590	591	590	591	593	591	586	584	587	588	593	602	597	590	585	584	584	588	593	598	592	583	584	588	599	592	587	586	587	588	593	600	604	603	598	596	594	596	597	594	594	596	597	598	603	596	600	606	601	598	600	600	598	596	596	594	595	602	602	599	596	596	597	599	599	599	606	614	618	613	608	600	0	0	0	0	0
519	515	512	512	511	510	514	516	516	522	526	522	519	519	516	510	505	517	517	522	525	524	518	518	518	519	516	515	517	520	520	516	515	512	514	517	517	520	527	529	529	524	527	527	528	521	518	516	517	523	523	523	515	514	515	521	525	525	526	526	523	514	511	515	522	521	520	521	522	522	522	521	517	520	524	530	534	533	529	523	519	517	519	519	524	524	524	525	525	526	529	528	529	523	523	524	523	521	524	526	518	524	524	523	523	524	525	526	519	519	521	529	528	531	532	533	530	526	523	528	528	531	528	529	535	542	542	527	520	517	524	527	523	526	526	524	519	521	523	527	529	530	532	532	534	534	533	541	535	528	527	528	533	546	543	541	533	540	543	546	538	536	534	531	532	533	533	534	534	534	534	532	532	534	534	529	519	521	522	521	522	529	539	542	542	531	528	527	526	527	530	534	535	532	530	527	528	529	533	536	542	544	541	542	544	537	526	529	529	530	533	534	533	534	536	540	542	539	541	539	543	536	538	538	538	537	537	538	532	526	527	527	527	525	528	537	540	540	542	538	535	533	532	530	533	538	532	528	533	532	532	530	534	543	540	537	536	545	555	550	546	542	538	534	539	542	542	537	530	541	543	543	542	541	542	547	546	544	542	533	534	532	532	535	541	545	548	550	547	542	545	547	547	547	543	544	552	557	552	552	554	559	562	557	553	551	548	547	548	550	545	543	546	552	554	556	555	554	555	555	555	557	559	561	559	559	555	552	535	540	540	553	558	548	550	550	547	549	558	557	547	544	543	553	554	554	557	554	554	559	562	560	563	558	551	547	555	557	560	549	548	552	559	565	577	567	572	568	560	552	548	547	546	549	552	557	566	569	570	566	568	564	559	558	561	557	557	557	559	559	560	560	558	557	557	560	559	558	558	564	574	569	562	559	564	565	568	563	561	562	567	578	574	570	567	565	564	562	559	562	563	564	564	563	565	567	568	565	564	561	559	559	581	566	566	569	564	562	565	567	571	572	569	566	569	574	575	576	578	575	573	566	563	564	568	566	570	571	574	573	576	578	577	575	565	561	562	564	566	578	576	572	572	568	572	573	578	573	571	569	573	569	569	567	567	567	569	574	573	572	573	579	584	586	587	576	576	581	578	579	578	576	576	572	569	567	579	582	581	577	566	570	579	578	579	575	579	589	588	588	590	592	590	573	570	570	567	570	569	571	572	569	574	586	581	581	579	577	578	575	573	584	576	569	567	568	577	578	574	567	575	567	581	584	584	580	588	582	571	568	567	578	581	588	587	586	586	587	584	580	577	580	581	589	583	584	586	586	580	582	590	592	589	589	585	578	581	585	582	584	582	584	588	593	600	607	599	592	587	592	597	597	597	594	591	596	595	593	593	593	600	598	595	597	597	597	597	594	592	591	591	591	586	591	588	591	594	594	595	608	610	616	605	594	589	0	0	0	0	0
508	505	511	511	511	505	506	508	508	507	512	508	510	510	506	509	514	520	524	524	524	516	513	512	512	509	505	511	514	517	517	517	515	509	512	513	513	518	528	529	521	520	521	521	522	521	511	515	519	521	518	518	514	511	516	519	523	524	525	522	522	514	512	514	513	519	519	519	521	520	520	519	517	517	515	526	532	524	521	510	515	518	522	523	523	523	523	522	522	523	524	524	523	522	521	521	521	523	525	519	519	529	528	523	523	523	524	526	519	519	523	525	529	532	527	527	525	525	518	525	528	529	523	524	523	524	530	526	520	521	522	524	523	522	523	526	523	522	522	526	522	526	531	530	528	527	527	532	534	531	527	534	529	531	519	527	524	527	525	528	532	533	531	528	529	531	531	529	533	536	538	536	533	530	529	519	519	522	522	522	522	519	519	511	526	525	528	527	528	523	525	525	527	529	521	522	523	526	529	529	529	531	536	537	539	540	531	531	533	535	538	537	534	534	534	538	538	535	532	532	533	533	537	538	538	538	537	537	530	524	526	526	526	518	517	523	524	531	536	539	534	531	524	522	522	522	519	531	531	529	525	530	532	534	534	533	537	543	547	544	543	539	534	530	529	531	534	535	536	534	537	537	537	542	543	547	547	547	534	533	530	534	533	533	537	542	545	548	546	547	544	544	547	545	542	540	542	546	551	552	554	554	560	554	552	545	544	547	548	545	543	541	541	551	550	553	550	549	551	551	549	553	555	558	558	560	554	549	546	541	541	545	544	547	547	547	547	548	549	546	544	543	544	548	553	553	553	551	555	558	557	557	560	556	553	548	554	557	557	553	546	554	547	554	565	567	555	554	559	555	553	547	547	546	547	552	552	555	556	556	558	558	556	555	558	555	547	554	557	560	560	560	556	555	555	554	555	555	556	561	565	563	561	557	561	563	565	563	556	557	560	560	569	569	560	562	560	558	556	561	558	559	560	561	560	559	553	552	562	556	556	553	562	561	559	558	555	561	556	559	562	573	567	560	563	567	568	568	565	571	564	561	562	563	564	569	568	569	569	573	573	573	572	570	560	562	562	564	566	563	567	568	566	564	571	571	572	567	567	566	563	563	567	565	566	563	567	570	571	573	572	577	579	579	573	568	570	574	575	576	575	572	571	568	562	564	570	573	571	569	567	571	573	574	575	574	572	574	569	566	566	571	561	566	567	562	561	563	566	564	563	567	572	588	579	576	571	569	570	572	576	572	574	565	565	567	576	576	573	567	565	564	565	571	575	575	571	567	568	571	575	580	582	582	582	582	576	579	578	575	573	569	567	575	577	577	577	577	581	589	589	586	588	586	582	578	573	579	580	583	584	584	588	593	598	596	594	586	582	583	585	585	590	590	591	585	588	587	590	592	596	598	594	592	595	595	594	592	593	593	588	584	582	577	579	581	581	580	595	595	604	601	594	583	587	587	0	0	0	0
492	499	510	506	506	505	489	492	494	494	502	503	503	501	501	509	513	520	522	522	523	517	512	507	504	504	506	511	513	516	516	508	507	507	508	511	525	525	527	526	519	518	517	516	516	514	514	518	516	519	517	515	515	513	510	517	519	523	521	519	514	514	510	510	512	517	518	514	509	507	513	513	513	514	520	522	523	522	519	512	516	519	518	523	523	524	523	520	519	520	520	518	519	520	519	520	518	522	524	514	516	528	528	527	521	516	516	516	515	518	510	517	518	517	519	522	521	520	520	521	526	528	529	527	524	521	524	523	521	519	520	520	521	522	527	528	527	521	522	522	530	528	530	530	527	522	522	526	522	526	526	524	523	518	518	522	526	528	528	527	527	527	527	526	526	526	522	525	527	531	526	525	521	519	519	521	522	523	532	535	530	521	516	516	521	521	530	529	530	527	522	525	526	527	524	521	524	525	525	522	518	521	524	534	537	538	535	530	531	540	540	535	531	532	531	532	521	528	527	529	531	531	534	536	537	535	530	522	519	518	520	523	524	516	517	523	526	525	523	527	527	524	524	524	527	523	526	526	527	527	523	530	528	529	530	533	534	536	537	537	536	532	533	533	528	530	533	534	535	529	531	530	530	536	541	534	539	539	536	533	529	528	528	528	533	539	531	546	544	545	542	543	545	532	534	540	541	544	551	552	548	540	551	554	551	548	546	540	552	548	538	539	540	550	551	550	547	547	545	541	540	547	548	552	553	561	556	548	537	538	543	546	546	548	544	542	549	549	546	545	544	548	547	547	547	549	547	547	554	553	551	548	545	545	545	551	551	554	557	554	550	548	547	545	549	559	558	554	547	549	552	549	546	544	541	540	537	539	540	551	551	548	550	550	550	545	542	551	557	560	560	561	559	551	551	549	546	545	551	553	551	556	552	556	552	549	552	557	558	556	558	560	566	558	554	556	554	556	552	551	553	554	556	558	557	551	551	550	549	547	553	551	557	558	554	558	560	560	551	558	560	560	557	550	544	547	558	562	565	564	563	558	562	562	563	567	567	565	565	565	565	565	565	559	559	558	559	560	559	562	569	567	566	563	565	564	560	561	563	565	558	563	564	563	562	561	565	566	570	572	571	568	569	564	555	557	564	566	575	572	571	571	562	558	555	558	567	567	567	567	570	570	570	571	573	574	574	573	572	571	570	566	558	556	559	556	556	555	562	557	553	552	555	561	574	572	559	561	563	567	570	579	581	576	567	569	573	573	571	570	569	567	568	570	574	575	574	567	568	571	574	576	579	579	578	572	568	575	577	575	568	563	562	569	569	570	571	574	582	585	586	585	583	587	587	584	574	572	572	575	580	580	580	571	576	582	590	583	578	577	577	581	583	585	583	585	581	579	593	593	592	592	589	587	589	589	589	585	591	592	587	581	578	572	571	570	570	567	580	588	589	587	583	581	585	585	0	0	0	0
492	497	497	486	487	487	487	489	494	494	499	501	498	504	504	508	512	518	519	519	519	518	514	505	501	501	510	512	512	511	508	508	502	501	504	515	518	518	522	516	514	512	509	510	510	511	515	512	513	515	516	515	515	511	514	515	514	518	518	517	512	512	495	498	508	512	512	503	501	504	507	512	512	512	519	520	521	520	520	519	516	517	518	520	520	520	514	519	519	516	510	512	511	513	519	521	518	520	521	523	516	521	523	526	518	514	514	514	511	507	508	516	514	514	515	516	518	520	517	517	522	527	527	525	521	521	519	523	516	516	514	513	514	523	527	527	524	520	518	519	519	522	525	528	527	523	518	518	530	537	534	515	513	513	514	522	526	528	528	527	527	524	525	525	521	518	518	519	527	517	519	521	519	518	518	520	521	530	534	532	522	520	519	520	516	518	518	518	524	525	524	524	521	518	518	523	523	523	524	523	519	521	519	514	518	519	522	523	533	541	537	534	529	527	531	531	516	523	531	530	521	516	523	534	534	534	530	517	515	516	516	516	523	525	526	524	527	525	525	521	527	527	526	528	527	524	523	524	526	526	528	526	524	526	527	528	528	529	532	531	525	527	530	533	534	530	531	531	531	526	526	528	530	529	526	531	536	538	538	539	524	521	521	524	524	527	542	544	547	543	543	543	531	529	531	533	545	548	542	538	538	547	543	544	543	540	540	542	552	535	538	536	538	544	541	540	539	538	539	538	538	536	540	543	548	551	543	540	538	537	538	545	547	548	542	543	545	544	547	542	544	554	558	545	543	540	541	539	540	541	546	544	540	542	546	547	548	550	551	549	548	544	544	547	554	558	558	550	542	542	547	545	543	541	540	539	535	537	537	539	545	545	548	549	544	545	541	549	556	559	559	557	552	552	549	546	544	544	544	543	542	540	541	539	534	539	550	555	555	549	549	550	551	551	551	553	551	548	546	545	547	548	551	553	548	556	556	546	546	544	543	551	550	546	552	555	558	556	548	555	558	559	557	550	548	548	548	549	557	555	558	566	557	557	563	566	564	563	562	566	562	560	560	557	556	557	558	557	556	553	550	551	564	560	562	561	558	559	560	563	558	561	565	558	563	563	563	565	568	570	562	560	553	552	552	553	557	567	572	572	567	562	556	554	555	555	558	562	562	565	567	567	567	570	572	573	574	572	570	566	567	565	563	550	554	556	560	558	561	557	553	552	559	568	571	561	555	558	559	561	568	571	577	577	574	569	569	568	573	570	568	566	564	563	559	574	575	572	569	570	573	574	572	575	574	566	563	565	568	572	570	567	567	563	565	565	568	566	566	570	572	572	576	583	581	577	568	563	567	569	574	573	564	559	560	574	581	579	571	577	577	580	579	580	577	580	578	579	577	591	590	580	583	580	580	580	580	578	581	586	583	578	573	571	569	569	567	565	569	573	582	585	585	584	584	582	0	0	0	0
494	494	487	485	484	484	487	489	495	500	500	502	499	498	507	507	507	513	519	514	514	514	514	509	509	509	506	508	511	509	504	504	499	498	500	507	511	511	511	509	508	507	506	504	508	508	515	507	507	509	512	510	509	509	510	512	512	515	515	508	496	495	495	496	497	498	501	499	498	505	507	511	511	511	514	518	517	517	518	520	518	512	518	520	513	514	514	508	507	505	507	508	508	508	511	516	516	518	515	518	520	520	519	519	515	509	509	502	502	503	505	511	510	509	511	510	511	516	516	515	518	522	523	522	518	516	517	516	516	516	518	519	516	520	525	524	518	518	515	515	513	516	521	526	517	517	522	526	529	527	525	519	511	507	507	514	511	510	509	513	522	522	522	522	520	515	516	516	515	512	514	517	515	515	515	519	526	527	530	524	522	515	515	516	512	514	515	516	517	518	519	518	514	514	515	514	511	512	515	519	521	513	509	509	514	518	517	514	514	518	521	511	514	502	531	529	525	530	533	532	519	512	515	529	531	523	521	511	513	514	516	514	521	525	526	528	529	527	523	521	523	525	529	530	519	520	522	520	524	524	525	519	526	524	524	520	521	515	524	519	518	514	514	521	530	528	528	529	530	530	528	528	520	521	520	518	531	533	533	523	521	523	527	528	530	535	539	540	542	542	539	537	532	527	529	531	534	537	537	538	535	534	546	539	537	542	542	538	523	527	538	536	539	541	540	539	540	538	537	534	531	529	530	535	536	544	542	541	540	537	539	546	547	543	539	542	544	543	545	542	547	550	542	556	540	539	535	535	535	536	535	537	537	538	547	547	546	547	547	545	545	542	543	540	547	555	546	539	537	540	543	543	540	539	543	548	548	545	535	537	539	542	543	544	546	547	547	548	548	545	550	555	555	551	541	542	542	539	541	542	543	539	543	537	532	537	551	553	548	549	549	545	539	537	549	549	545	540	539	542	546	547	546	546	544	551	549	547	538	536	540	545	548	545	546	554	555	554	552	549	542	537	543	548	547	547	547	552	556	556	559	556	554	555	546	545	546	549	560	560	560	553	553	554	554	557	557	558	555	548	545	543	543	546	547	561	562	560	562	563	564	567	559	558	555	561	556	559	562	560	559	558	552	552	551	552	562	568	569	569	559	554	550	547	546	552	552	553	556	556	560	566	565	568	569	569	568	570	566	561	563	563	560	548	547	550	559	559	555	555	552	549	559	566	570	570	566	560	560	561	563	568	572	574	574	565	568	569	569	566	569	567	566	561	566	563	569	572	568	567	572	572	566	567	568	566	560	557	559	560	560	561	562	567	567	568	568	567	556	557	561	569	568	574	573	572	567	558	563	569	568	563	562	559	560	563	565	568	571	571	573	574	576	575	575	576	575	576	575	572	587	572	570	570	572	573	574	574	573	575	574	575	573	570	570	568	561	555	560	569	571	578	588	589	589	588	0	0	0	0
494	494	490	486	484	484	481	486	495	505	505	506	499	492	493	493	500	507	512	510	510	512	514	508	509	502	502	504	505	502	504	499	499	497	499	503	505	506	506	505	506	505	504	509	515	515	509	503	505	507	507	507	509	509	509	510	503	504	506	500	497	494	494	495	495	497	502	500	504	505	507	509	510	510	510	509	512	513	513	512	510	514	517	519	518	508	505	505	506	505	504	504	502	503	509	511	514	517	515	520	517	518	518	517	512	506	505	502	502	502	502	505	505	506	508	508	508	510	512	521	524	523	520	516	513	514	516	516	515	516	519	517	514	511	517	520	518	515	512	514	513	515	510	505	511	515	520	520	517	513	503	501	500	504	507	510	510	508	507	512	514	519	520	509	505	513	513	507	510	512	512	513	514	513	519	515	506	515	516	515	511	513	513	514	515	507	511	508	506	506	511	513	510	509	512	513	513	513	511	510	513	512	511	507	509	511	517	518	513	509	511	518	509	507	508	509	515	520	524	524	517	513	513	517	525	523	516	514	513	515	516	523	522	528	529	529	528	525	523	521	522	526	527	517	521	523	522	522	523	524	524	518	512	521	518	516	513	510	511	515	513	511	512	520	529	526	528	528	528	527	527	521	517	515	516	513	528	531	522	523	524	525	527	530	530	528	532	532	530	540	536	533	529	526	525	529	531	534	537	538	533	534	537	535	536	536	540	533	520	528	529	539	538	538	538	538	539	533	537	535	530	527	523	525	522	534	540	540	538	538	544	545	546	544	541	537	538	546	550	543	545	536	550	539	548	536	534	528	533	533	534	534	537	538	542	540	543	542	537	535	536	538	539	541	538	539	533	533	536	539	541	541	537	536	535	534	532	535	540	537	539	541	537	544	543	547	546	544	544	541	541	550	541	542	547	549	554	548	542	541	531	533	546	562	558	549	550	551	543	543	540	536	534	531	529	532	536	538	538	540	546	547	545	543	542	545	545	542	536	536	538	538	546	542	545	549	549	549	551	548	542	538	535	540	544	545	546	551	556	555	550	549	545	545	550	548	551	549	552	546	546	554	553	547	550	546	547	550	552	549	543	543	544	548	546	553	552	553	563	563	569	558	558	553	549	543	547	554	556	558	558	558	557	553	551	552	552	554	555	561	554	552	550	546	544	546	551	551	551	553	554	559	563	552	555	559	565	565	564	561	560	561	560	548	548	552	561	561	553	552	555	546	553	560	563	548	550	553	561	561	554	556	562	565	566	563	558	553	556	565	567	563	563	562	564	563	564	570	563	569	563	563	562	564	565	565	554	552	552	557	557	566	574	575	574	573	570	568	555	557	563	559	559	568	569	565	554	554	559	560	563	562	559	558	560	564	565	566	566	570	573	573	571	575	574	570	571	573	572	570	569	563	561	561	565	567	568	570	570	570	572	573	572	567	567	559	552	552	558	565	569	563	565	565	570	576	0	0	0	0
495	495	494	494	491	487	487	486	492	499	499	502	496	493	494	494	499	502	507	510	498	498	501	502	500	502	502	502	501	503	500	497	497	497	498	500	501	502	500	500	503	506	512	514	512	504	504	499	502	506	509	507	507	507	507	504	505	507	505	501	495	494	495	499	497	499	501	503	504	505	499	498	501	502	502	505	508	510	509	510	511	513	518	513	506	506	505	505	504	505	502	501	499	503	503	504	505	509	507	512	511	512	519	514	504	501	497	503	500	501	500	500	501	503	503	506	507	508	508	521	524	520	514	498	500	503	505	510	509	515	517	516	513	508	505	513	514	512	510	509	503	501	498	501	505	511	515	517	514	509	498	499	505	510	514	510	508	506	508	510	513	514	517	507	504	510	505	503	506	508	510	511	513	508	506	499	507	510	513	513	514	511	510	512	511	511	502	501	505	505	502	503	505	506	510	515	516	515	512	514	509	517	509	508	508	510	513	515	510	509	515	511	506	503	503	506	509	503	512	517	520	520	509	515	522	523	517	516	514	516	516	514	518	518	520	520	521	524	521	518	516	523	526	524	521	521	523	522	519	516	518	517	507	510	513	513	508	505	505	513	513	514	516	519	520	524	524	524	525	526	527	520	515	515	513	513	514	519	522	521	521	522	527	532	529	527	529	527	526	526	530	527	523	525	531	528	525	523	536	539	533	526	530	537	532	533	533	526	520	518	532	535	529	527	533	534	533	530	528	526	529	530	528	526	523	523	534	531	531	529	525	525	526	531	531	529	529	536	550	547	538	534	530	531	532	539	528	526	522	524	536	536	532	531	525	532	532	536	533	525	531	528	535	541	543	532	527	529	536	538	539	538	535	536	535	534	531	532	538	535	543	528	531	540	533	536	542	537	534	533	532	536	534	537	541	542	548	547	538	540	532	533	534	534	544	540	536	533	530	530	530	529	528	527	529	530	531	530	537	538	544	545	543	539	536	539	542	536	538	537	538	540	539	547	539	541	545	546	546	547	545	541	536	538	543	541	542	549	550	544	538	542	542	544	548	550	551	552	550	547	547	554	559	549	544	545	548	548	548	547	545	544	546	545	544	541	538	539	545	549	553	557	557	549	542	541	539	543	548	553	550	552	553	553	555	553	555	552	550	549	554	554	554	553	555	556	548	548	548	553	551	551	550	542	544	547	555	559	560	560	561	560	556	552	552	559	558	556	555	553	552	547	546	554	547	546	550	548	547	549	547	556	560	563	561	560	557	553	548	549	552	556	560	560	558	563	555	555	553	553	565	563	566	555	550	548	548	555	544	550	553	563	568	572	575	574	572	561	557	560	561	557	552	550	550	549	550	552	557	557	558	557	557	558	558	560	563	563	565	570	573	572	573	568	563	560	555	554	553	554	567	565	565	556	559	558	560	564	566	568	572	570	562	562	558	552	552	552	556	563	568	562	564	564	569	576	0	0	0	0
495	498	498	498	495	493	493	490	495	489	491	491	488	492	495	498	498	499	494	492	498	498	498	498	499	500	500	500	501	504	498	496	497	497	496	499	499	499	503	503	508	511	510	513	513	507	507	492	498	504	507	506	504	502	502	503	506	505	503	501	499	498	499	498	499	499	500	504	503	500	497	497	500	502	502	504	505	499	499	504	510	502	504	500	500	501	503	503	503	502	499	499	499	501	503	502	498	501	500	507	508	509	509	504	503	502	498	498	493	497	497	499	499	500	501	505	506	505	505	505	506	504	499	496	493	494	496	504	502	511	505	505	509	505	504	501	512	515	509	500	497	495	495	497	500	503	514	511	508	504	498	495	502	507	509	509	507	508	501	507	510	515	514	509	504	500	500	503	503	502	505	507	509	507	505	505	500	503	504	510	510	509	506	503	506	508	511	500	501	499	491	494	496	500	503	503	504	504	506	508	513	515	515	502	500	500	502	508	507	508	509	504	504	499	496	494	495	500	507	508	514	508	506	507	512	513	513	513	510	512	512	514	515	519	523	510	510	508	510	511	512	512	514	513	511	517	519	515	511	513	516	515	511	506	509	507	502	502	509	510	512	515	516	518	519	517	519	519	514	522	525	522	516	510	507	510	511	514	516	518	518	516	517	515	513	512	512	513	515	516	521	526	523	525	533	529	523	526	528	532	527	523	521	517	528	518	528	524	525	518	514	514	518	521	527	527	527	528	524	523	527	528	522	532	525	524	526	529	528	527	523	525	526	527	526	530	533	528	535	542	533	539	534	529	531	531	523	520	516	524	526	534	535	533	524	531	531	526	530	521	526	531	534	537	542	531	527	525	532	533	533	527	530	513	510	525	528	526	523	524	527	527	528	539	531	533	534	533	533	533	530	527	527	529	535	535	537	545	536	531	535	541	538	534	540	538	532	531	530	522	519	523	526	529	530	529	528	527	533	537	539	541	538	533	527	531	532	538	537	538	549	555	551	546	528	532	537	541	541	540	539	538	538	537	534	544	549	549	543	533	536	542	540	540	545	546	550	549	547	541	543	543	543	558	539	541	547	547	543	541	543	541	545	542	540	538	537	535	541	548	552	554	546	540	538	538	539	536	540	544	541	542	544	549	551	552	552	549	545	548	551	554	557	552	562	551	553	552	548	547	547	546	546	537	545	544	550	554	558	557	558	557	554	548	547	553	551	546	548	552	549	549	546	550	551	543	547	547	547	548	549	556	556	556	554	554	552	550	547	546	548	546	548	547	544	549	551	553	552	552	556	558	558	557	556	545	543	540	540	541	547	553	565	567	564	561	561	556	557	558	556	552	547	549	549	553	552	552	552	557	554	554	555	557	556	557	557	558	561	568	572	575	569	570	564	558	556	553	548	549	562	562	563	561	558	556	558	561	562	564	567	561	559	559	552	550	555	552	557	562	563	562	562	563	570	577	0	0	0	0
492	497	497	499	499	496	497	497	495	482	477	477	482	485	487	489	489	490	487	491	498	495	495	493	492	498	499	499	501	499	496	496	497	497	491	492	492	493	499	506	506	509	508	510	509	496	492	492	497	495	495	500	502	502	502	502	504	497	501	499	498	498	498	492	492	492	492	498	501	500	497	497	498	486	488	488	496	494	500	501	501	497	494	494	498	499	500	502	499	499	495	494	495	498	500	498	495	493	500	502	504	503	502	502	497	495	492	493	492	492	494	494	496	498	498	500	503	506	503	499	498	494	484	486	492	493	492	495	492	493	501	503	505	502	501	498	497	498	499	496	493	493	491	489	492	492	511	513	509	504	498	500	503	505	507	509	514	503	501	503	510	511	504	505	504	501	498	498	497	499	500	501	502	504	502	500	504	504	496	501	503	503	504	500	500	506	508	505	501	495	494	495	497	498	497	498	500	503	504	504	505	509	508	508	507	501	496	507	505	505	505	505	505	500	495	493	490	489	495	504	505	497	496	503	508	509	510	509	504	509	506	506	506	517	511	506	506	508	507	499	508	508	508	509	506	509	510	510	512	510	513	515	515	510	509	506	508	508	510	510	511	512	515	517	515	514	512	511	510	509	519	518	514	512	512	508	510	510	511	516	514	515	516	513	511	510	507	504	506	513	516	515	518	515	516	514	517	528	521	510	507	509	512	514	514	510	514	511	511	518	510	507	510	513	521	523	518	517	519	518	525	521	522	531	533	525	529	528	526	522	523	525	525	527	527	533	530	528	525	530	529	537	535	530	527	526	521	526	522	520	527	527	533	538	534	530	526	525	524	526	523	526	530	522	531	532	523	522	526	525	523	518	514	513	503	525	528	526	524	524	526	526	529	535	533	531	532	531	533	531	530	529	523	521	524	530	542	525	524	529	532	536	530	531	528	528	531	531	530	521	519	521	524	526	528	530	528	531	532	530	533	537	538	532	528	534	531	531	537	538	546	551	543	533	529	531	532	535	536	532	530	530	529	531	530	532	533	539	536	528	536	538	538	541	539	544	547	547	546	545	537	539	540	539	538	539	541	544	543	543	539	534	536	537	537	537	534	532	538	542	548	550	548	537	532	535	535	531	540	538	538	539	543	542	542	543	543	543	546	543	541	547	551	551	549	551	547	545	548	544	541	543	548	541	529	528	531	546	550	549	551	549	546	543	542	541	542	543	549	553	557	557	553	543	541	541	548	550	546	543	539	547	549	547	545	544	543	540	540	544	546	548	547	547	545	546	546	548	547	550	549	558	553	555	547	542	542	543	534	539	543	553	558	560	558	550	553	555	556	555	551	543	545	547	549	555	552	551	543	552	554	554	557	553	555	556	556	555	559	561	570	575	562	564	559	555	557	553	547	548	554	554	559	563	560	557	556	559	560	561	558	558	558	555	553	553	552	554	555	556	562	562	556	561	563	565	0	0	0	0
487	492	492	495	498	497	494	494	489	482	481	475	475	477	478	486	485	485	488	493	498	485	485	486	490	493	494	494	494	492	490	490	491	491	491	491	487	485	493	501	501	501	500	497	492	484	490	490	493	496	491	489	496	502	503	503	496	495	496	496	494	493	492	492	488	488	491	492	494	495	497	499	487	493	493	493	494	495	492	492	493	491	493	488	493	498	502	502	498	493	493	491	493	498	497	496	494	492	497	501	501	501	500	495	494	494	492	491	492	491	492	491	491	490	494	494	496	497	498	494	489	482	490	494	494	492	491	492	488	486	493	502	502	501	500	497	497	497	501	501	501	497	483	483	487	490	494	498	505	504	500	498	500	503	505	514	509	506	504	502	498	500	501	501	501	499	495	497	495	495	496	497	498	502	503	502	503	503	502	498	493	495	497	498	499	502	501	502	501	497	499	498	501	497	496	497	497	500	503	504	503	505	506	504	503	501	499	496	500	500	490	492	504	505	503	504	499	500	503	505	501	497	498	502	504	503	506	515	515	509	500	499	504	500	500	501	502	495	506	497	503	503	505	507	505	506	508	509	507	508	511	511	512	511	514	511	511	510	511	512	510	511	513	514	514	514	509	507	507	505	503	510	511	511	512	509	508	508	512	503	511	514	515	511	507	505	504	504	502	506	514	510	511	514	515	514	517	520	513	509	505	506	509	510	513	510	509	509	510	512	510	509	510	510	504	505	506	505	507	509	511	520	519	516	516	523	521	519	516	517	518	528	525	527	527	528	526	523	520	519	529	536	531	522	517	515	510	519	520	521	522	524	527	521	522	524	524	525	526	527	521	518	516	518	518	523	519	520	521	522	521	517	513	513	506	523	527	527	523	522	525	526	533	533	529	528	528	529	525	525	524	525	524	525	528	520	514	519	521	525	530	534	528	528	530	531	530	522	522	522	529	530	526	526	527	527	529	528	523	524	528	536	535	532	535	535	533	533	532	536	529	532	530	530	529	515	520	531	530	531	530	529	529	529	529	530	534	535	533	531	531	539	536	529	528	531	543	543	542	540	535	534	537	537	533	537	537	536	538	538	538	530	535	534	537	536	535	532	537	538	542	534	533	531	531	531	528	524	542	541	539	539	540	541	542	543	543	543	546	542	537	537	543	547	547	545	544	541	539	548	542	544	547	539	534	530	544	550	548	544	543	542	543	540	538	538	540	543	548	554	556	547	552	539	539	541	550	552	549	543	540	537	537	539	537	541	542	541	542	543	546	547	547	544	546	547	543	543	545	551	553	554	549	543	542	538	541	545	547	547	540	550	556	556	545	545	550	554	552	547	544	541	542	544	549	551	553	550	549	547	554	558	554	551	550	550	552	556	556	557	555	556	555	553	554	553	549	546	547	552	548	555	560	563	562	559	556	553	557	555	556	556	549	547	550	551	553	558	558	556	555	555	552	556	559	556	0	0	0	0
481	485	489	489	496	496	494	494	486	482	478	475	475	476	477	475	484	484	486	492	491	485	483	486	486	492	494	494	494	488	479	482	487	491	491	479	480	486	485	498	497	497	493	491	490	489	490	493	475	483	485	483	484	494	493	492	492	490	492	492	488	488	489	490	490	490	491	491	487	490	494	487	490	491	491	493	493	495	494	491	491	491	490	486	491	496	503	503	494	492	492	492	490	487	484	482	485	489	490	490	491	499	498	492	487	484	484	486	491	492	495	493	487	489	486	486	486	486	487	488	489	489	493	495	495	491	490	490	490	492	494	501	500	501	500	499	497	497	500	502	501	497	492	485	483	487	491	498	500	498	492	496	499	500	504	514	515	510	498	495	495	498	500	500	500	496	493	492	493	494	495	498	498	497	502	502	501	500	501	498	494	493	495	497	497	500	499	501	501	500	501	501	500	500	499	494	497	498	499	501	503	501	500	500	495	498	494	494	494	493	491	493	499	504	503	505	499	500	504	505	499	501	501	500	494	494	501	505	504	501	492	493	494	494	497	496	497	500	498	498	494	496	498	506	502	504	509	506	502	498	503	503	510	509	514	512	509	507	506	505	505	509	511	514	514	512	507	507	509	503	503	506	510	510	511	509	507	507	502	502	504	505	505	506	503	501	502	500	506	507	507	506	509	511	511	510	509	513	515	510	503	503	508	509	512	510	510	510	512	514	515	508	510	506	504	504	505	502	503	508	515	520	520	518	518	517	516	516	513	512	520	517	516	521	512	512	517	515	513	513	519	521	508	506	503	506	514	519	519	518	521	521	517	516	516	518	520	524	524	519	519	516	514	515	516	518	516	517	519	520	518	516	513	511	507	509	526	528	525	523	523	526	530	532	524	522	515	515	515	514	517	518	518	513	518	525	518	517	525	527	527	526	526	528	528	530	524	521	524	524	527	529	525	525	526	525	528	527	523	520	521	527	535	535	538	534	533	520	526	522	525	522	524	528	522	514	518	530	530	530	530	533	529	528	528	525	528	526	526	528	530	535	532	530	526	525	533	537	541	542	536	535	534	533	530	533	533	532	531	532	530	528	533	533	533	535	536	534	542	539	533	526	528	528	530	528	528	526	528	529	532	538	542	538	539	539	544	545	547	539	545	539	539	542	543	544	542	537	536	538	547	538	539	535	529	530	543	545	542	536	536	536	537	536	536	537	539	541	543	544	553	544	545	532	532	538	541	542	542	542	539	536	535	531	534	540	539	539	539	541	547	547	547	547	549	548	543	536	541	544	545	550	542	537	534	538	542	545	549	550	549	547	547	545	542	543	545	546	543	541	542	542	542	543	549	548	550	548	547	546	557	553	550	547	547	546	549	552	553	552	545	544	546	545	545	546	545	544	546	547	552	556	558	562	563	559	552	546	548	548	551	551	552	545	546	550	553	559	558	555	555	553	547	548	550	546	0	0	0	0
470	478	485	485	491	493	493	481	481	480	478	473	471	471	469	477	484	482	482	486	482	483	478	478	483	488	490	489	479	479	476	476	479	479	479	477	479	480	478	485	485	485	485	485	485	485	486	475	475	484	484	484	479	480	490	488	488	488	488	488	485	485	489	490	500	498	498	487	483	483	483	486	485	487	490	493	495	495	495	492	488	489	483	485	492	493	490	493	493	493	488	488	482	483	481	485	486	488	489	488	490	497	495	480	480	483	481	480	479	488	490	492	483	484	480	478	481	483	483	485	488	490	493	492	493	491	491	491	490	487	490	492	492	500	497	497	499	495	499	502	502	500	489	487	490	490	497	492	488	486	490	495	496	497	491	501	498	495	494	492	493	495	498	499	500	496	490	489	492	496	495	495	496	493	498	499	498	499	500	499	494	490	493	493	493	494	493	495	497	501	501	497	499	494	499	494	497	496	498	499	498	494	496	494	494	489	491	495	495	494	492	494	498	499	499	500	500	499	499	496	496	499	492	489	490	492	494	501	500	495	493	494	495	496	496	496	497	501	501	500	496	495	493	497	501	500	503	505	503	498	496	497	506	507	509	498	496	493	493	484	487	497	504	507	512	511	504	496	506	502	503	506	511	509	508	508	505	504	502	503	500	505	503	501	499	500	502	502	508	509	508	507	510	510	512	511	508	508	508	506	503	503	505	510	514	511	510	510	513	513	503	506	510	506	507	505	498	498	505	507	509	517	522	516	516	515	514	513	512	513	514	514	512	509	510	511	510	513	511	509	506	510	509	502	503	506	512	516	518	519	511	510	512	510	510	513	519	519	522	516	506	514	515	516	516	516	509	510	518	520	520	517	515	512	510	510	516	521	521	516	521	524	524	519	518	516	513	517	514	515	519	521	518	516	508	519	518	519	524	522	518	516	520	525	521	519	522	522	521	524	524	523	519	518	524	526	528	522	512	509	508	531	529	527	523	532	520	522	524	520	519	516	515	514	518	529	522	518	529	530	530	532	531	529	526	529	527	525	519	525	528	528	525	521	521	519	523	535	539	534	533	530	528	529	525	526	526	530	528	529	527	525	526	530	532	533	538	537	540	540	526	528	528	527	526	525	526	526	532	532	529	529	536	537	537	538	543	546	540	540	539	538	538	538	536	528	528	534	532	533	535	532	536	536	537	532	531	534	539	537	530	531	532	533	537	538	536	539	537	533	527	521	519	536	535	535	539	540	542	541	537	537	533	535	538	544	540	535	541	544	547	545	537	543	550	545	538	533	538	541	540	539	539	534	533	535	537	537	546	549	543	535	535	538	539	531	533	535	538	540	539	540	539	537	541	549	549	536	531	547	550	550	549	549	544	542	545	548	542	542	542	537	538	540	541	540	539	543	541	546	551	548	551	553	553	550	548	548	543	545	545	550	551	547	552	547	550	550	553	554	554	553	552	548	548	545	0	0	0	0
468	472	482	484	484	487	478	478	478	476	474	469	466	466	470	479	481	488	488	485	479	480	478	471	474	481	484	479	476	476	475	477	476	476	477	481	474	469	479	479	481	483	483	481	480	481	485	477	484	486	486	481	479	477	480	488	488	488	489	486	488	488	490	499	496	492	492	476	476	477	479	481	481	484	489	491	493	494	494	493	491	489	484	484	492	493	488	492	486	487	480	481	481	481	481	480	479	479	481	478	478	483	485	482	480	483	483	484	486	479	490	488	480	479	480	477	477	478	479	480	480	489	490	490	490	489	490	492	490	490	489	490	492	491	494	492	492	487	488	498	502	501	493	493	493	491	497	491	488	485	486	495	496	491	489	481	483	488	492	493	499	500	499	499	492	491	488	488	490	495	492	494	493	492	497	496	503	498	500	497	491	488	487	490	493	493	491	493	495	497	496	496	496	496	492	492	493	494	496	495	494	492	490	489	487	488	486	499	496	496	490	491	492	495	496	498	498	498	498	492	497	492	489	488	491	492	497	496	496	492	493	495	498	499	496	493	492	490	490	493	494	495	495	494	494	487	487	491	497	498	498	479	481	483	503	497	491	484	488	485	487	492	504	506	506	505	505	495	501	496	504	506	509	511	505	502	501	503	495	496	498	507	506	500	499	500	503	505	508	509	505	507	502	510	506	508	507	509	507	505	503	500	503	510	513	513	507	509	507	507	501	504	506	503	506	495	496	497	498	499	502	509	517	515	515	508	509	511	508	509	509	510	510	510	513	513	510	504	507	506	505	504	502	503	505	506	512	515	517	513	509	506	504	508	502	504	510	516	517	510	513	504	513	515	515	505	505	508	513	521	523	520	514	515	513	516	519	526	521	520	518	521	520	518	516	511	509	517	512	512	518	522	523	517	507	511	514	518	516	517	513	516	524	522	519	518	522	522	523	522	523	526	519	518	517	517	518	517	516	515	518	521	518	513	509	509	513	510	510	507	505	505	517	515	511	511	524	523	520	529	528	528	529	523	527	529	533	530	524	524	524	523	521	522	519	517	519	523	525	519	522	526	527	524	523	523	526	532	532	530	525	519	519	523	528	533	537	534	536	536	525	516	526	526	524	521	520	522	532	532	527	527	535	530	527	526	533	542	546	538	545	540	539	537	528	525	525	527	523	524	526	531	535	537	535	535	534	536	534	531	528	529	531	536	534	530	528	527	528	530	525	518	522	529	534	532	535	535	539	539	538	536	538	538	536	538	536	536	541	544	539	537	521	528	531	553	536	532	535	536	533	531	520	529	532	537	535	536	537	543	540	537	534	529	529	532	530	532	534	536	538	539	538	539	532	530	527	526	527	531	534	536	536	535	535	540	540	539	538	536	533	531	534	538	536	538	539	540	540	541	541	541	548	548	548	546	535	534	538	543	543	546	549	549	552	544	549	546	544	544	547	550	548	550	548	550	0	0	0	0
468	469	472	477	477	476	477	477	476	476	474	469	468	468	468	476	481	488	488	488	478	472	471	472	472	476	474	472	475	475	477	478	479	479	481	474	468	469	475	473	474	479	479	478	476	474	478	482	486	486	484	479	478	476	476	483	488	489	489	488	487	488	495	500	496	491	476	476	476	478	481	481	484	486	488	491	493	493	493	493	485	484	482	485	483	483	479	478	479	480	472	479	480	480	481	478	478	479	477	473	472	482	485	480	479	478	476	479	482	485	485	483	481	480	479	479	475	477	478	480	488	483	483	479	481	485	488	491	486	487	487	486	482	485	486	490	487	481	479	486	499	497	499	497	491	489	484	483	481	481	482	485	488	484	483	478	478	486	489	492	497	497	489	490	489	489	487	488	488	489	489	491	485	496	494	501	496	493	483	473	475	477	479	490	497	488	487	486	487	490	493	493	493	492	488	485	492	493	487	484	483	488	484	483	481	481	485	498	496	489	488	488	486	488	492	492	493	498	496	493	492	491	490	489	483	481	486	491	491	488	487	493	494	496	493	492	488	489	492	490	490	486	484	486	486	484	489	493	493	499	501	488	496	496	487	486	488	488	489	488	489	492	499	502	504	504	502	498	492	493	500	506	513	514	505	503	498	497	499	497	496	497	497	502	503	502	504	505	508	511	509	509	510	498	497	496	493	494	499	500	503	502	500	506	512	506	504	503	502	505	504	503	502	501	501	494	494	493	498	498	500	502	504	504	503	503	509	503	501	506	506	507	507	510	510	507	507	503	503	503	501	501	500	500	508	510	507	509	515	513	504	503	501	498	499	501	504	513	513	512	511	510	508	510	510	505	503	513	522	519	523	521	513	514	513	510	509	524	523	515	519	517	518	518	517	514	506	515	507	511	510	513	518	509	503	501	512	515	513	516	518	515	510	507	506	512	512	513	519	521	517	519	510	508	510	507	505	503	506	508	508	504	508	508	510	509	508	510	508	508	506	511	515	512	510	499	498	517	522	524	524	524	520	520	520	531	531	525	522	520	526	523	520	517	517	517	517	512	515	517	513	512	513	511	517	519	518	530	530	522	519	513	520	522	522	526	525	525	528	533	522	517	512	512	519	520	516	523	526	527	527	537	537	527	526	525	523	525	523	520	521	525	528	526	525	524	523	520	510	508	514	525	529	532	531	529	524	526	521	522	527	528	532	531	523	522	524	525	524	529	533	533	530	526	535	525	532	532	532	535	537	536	538	537	538	538	537	534	537	537	538	517	518	521	525	525	524	524	527	526	525	524	526	518	529	536	535	534	538	540	540	534	527	529	530	528	528	529	533	535	536	536	534	529	530	528	526	524	527	530	532	532	536	535	536	535	540	537	533	533	528	530	533	533	533	534	539	539	539	539	536	533	536	540	535	533	533	533	534	534	534	541	539	539	537	534	543	543	543	543	541	543	549	543	547	544	0	0	0	0
466	468	469	469	469	471	478	478	477	477	471	468	467	469	469	469	474	485	490	490	476	470	472	472	466	467	468	470	474	476	476	477	481	478	473	468	468	469	473	472	474	472	473	473	472	473	473	482	484	484	482	477	475	475	475	480	483	487	487	488	487	488	493	497	498	479	477	474	474	478	481	483	486	488	487	491	489	484	484	484	482	482	479	481	483	488	489	489	486	480	471	479	477	483	483	478	475	477	479	479	479	482	478	476	478	474	472	474	476	478	483	484	479	481	480	473	472	476	482	484	482	478	479	478	478	478	480	481	479	482	482	479	481	483	486	486	483	474	476	481	486	495	495	494	488	485	481	479	478	479	479	483	484	484	479	478	479	480	485	490	499	497	487	483	478	481	481	482	486	487	486	483	490	482	485	486	487	482	474	471	474	477	481	491	499	491	485	482	482	483	495	491	489	485	486	484	484	487	483	483	481	479	482	481	481	481	482	483	491	489	487	484	485	484	482	484	487	493	495	489	489	491	488	488	484	480	480	478	479	480	486	485	492	493	493	492	491	488	494	492	490	484	482	481	482	486	489	491	496	497	499	490	483	483	479	486	490	490	489	491	494	493	494	495	497	501	500	498	488	488	490	498	509	509	505	498	493	492	494	494	495	495	494	494	495	487	491	497	502	496	497	496	497	489	484	483	488	492	498	501	498	499	496	502	506	508	504	508	502	504	504	494	500	495	495	491	492	496	498	498	497	498	498	510	510	510	497	495	495	499	503	501	504	506	504	501	497	498	499	500	499	500	498	499	503	502	496	493	496	498	500	497	494	495	498	499	503	511	512	513	509	508	503	507	508	503	501	510	514	515	527	520	518	516	510	509	510	509	509	506	516	516	518	519	516	507	502	503	507	509	510	511	512	506	499	501	510	512	515	515	512	512	507	504	502	507	508	505	508	514	514	509	510	506	507	506	502	503	506	505	504	503	509	510	509	509	508	512	509	509	504	511	512	510	511	503	495	497	515	520	519	522	517	515	516	515	527	521	520	520	513	519	514	513	512	511	509	512	509	508	509	511	508	505	507	513	516	516	525	521	515	514	522	523	523	520	519	518	521	527	523	519	517	519	521	521	517	525	524	525	528	536	540	528	526	521	524	520	507	514	517	519	517	517	515	518	520	517	510	509	513	521	523	521	526	529	524	516	515	514	519	520	521	536	521	521	524	524	522	527	530	531	529	527	532	524	531	529	529	530	530	532	537	537	537	534	533	530	532	531	530	510	511	513	517	520	516	522	524	524	522	523	523	523	526	530	532	532	534	532	531	528	528	529	528	527	526	528	530	532	534	534	531	529	528	528	529	528	528	528	528	533	533	529	528	530	536	536	536	529	528	529	531	531	531	530	530	529	537	537	526	526	531	529	529	531	533	534	534	534	531	530	530	533	532	534	534	535	535	531	534	537	541	542	542	532	532	0	0	0
468	468	462	465	471	471	475	476	474	474	469	470	467	471	471	473	473	482	476	476	468	471	463	466	465	465	466	468	471	474	474	475	476	476	472	468	469	471	472	472	471	472	472	472	472	470	471	477	482	482	472	472	471	473	474	476	481	480	483	483	482	484	482	486	483	475	474	467	467	466	467	480	480	484	483	480	476	474	475	479	479	477	473	476	480	487	489	489	476	471	469	472	480	468	474	474	474	478	478	477	473	471	466	468	471	469	469	470	473	474	475	478	479	478	473	472	473	474	479	482	480	479	476	476	475	475	472	472	470	474	476	478	481	483	483	481	473	470	476	477	479	483	483	485	479	479	477	474	472	476	478	482	481	479	479	476	477	480	479	485	487	487	481	482	478	474	473	476	483	483	481	477	476	481	482	475	476	471	470	472	477	482	481	487	489	490	483	479	482	482	485	487	485	486	484	483	484	487	485	480	477	477	478	481	483	482	470	480	480	486	484	482	481	481	482	480	480	481	478	481	485	482	486	480	480	478	480	478	478	476	476	487	486	495	494	494	493	490	490	491	486	479	478	481	485	485	486	490	492	495	489	488	481	479	481	481	485	491	487	489	494	493	491	488	488	492	496	492	494	490	493	495	494	496	505	498	492	492	492	493	493	495	492	492	485	481	480	475	485	480	493	497	491	489	483	482	483	485	490	493	493	493	491	492	503	504	503	499	496	502	502	492	495	489	489	489	489	490	492	495	496	494	500	500	499	501	489	485	485	494	497	497	497	497	498	499	497	497	494	495	494	495	497	499	505	504	498	491	492	494	497	497	494	498	504	504	501	504	503	500	496	497	504	504	505	504	500	504	510	514	510	508	507	511	511	504	502	501	506	508	509	518	515	503	505	499	499	504	502	507	510	511	509	503	499	499	505	499	496	508	507	503	495	494	494	504	507	492	494	501	505	507	509	508	500	498	499	503	504	503	501	501	504	509	509	510	511	508	511	512	507	511	508	505	507	509	496	494	501	511	511	511	510	499	507	513	513	515	514	509	508	513	511	509	508	509	509	508	511	509	508	508	505	501	503	506	514	515	516	519	516	516	515	523	522	513	514	517	521	522	523	522	520	525	528	524	521	520	516	514	514	518	521	525	523	522	514	507	503	506	516	515	516	513	517	514	519	523	515	510	511	520	521	522	525	526	521	518	517	513	516	516	521	520	525	528	530	519	513	509	514	519	526	523	513	522	521	526	525	527	525	525	529	532	533	532	529	527	527	526	523	510	508	511	513	520	519	514	519	521	520	521	524	521	523	522	525	525	528	528	528	525	527	526	529	528	527	527	531	531	531	529	525	528	531	533	529	528	528	528	530	531	532	526	527	528	533	536	535	534	531	531	525	520	521	526	526	525	522	521	526	527	528	519	526	529	545	544	544	541	534	536	536	536	526	531	531	531	526	525	532	539	541	542	539	535	535	0	0	0
465	465	462	461	473	473	474	471	469	468	468	473	469	471	471	471	473	478	471	464	464	462	462	464	465	462	465	468	470	473	475	475	475	476	475	472	471	471	471	472	473	471	469	466	466	469	476	473	479	475	472	466	466	468	472	476	478	477	473	473	473	473	477	475	476	467	468	465	466	466	470	471	475	478	477	475	473	472	474	473	473	471	467	469	472	476	476	475	471	468	462	460	460	462	468	473	473	475	476	473	468	465	463	465	468	466	465	467	470	473	474	475	475	477	476	474	471	475	476	478	480	472	474	473	471	468	468	466	466	474	476	476	468	467	474	476	470	469	471	477	479	479	479	477	475	472	475	477	476	478	474	477	477	478	474	474	474	474	484	482	484	481	480	480	474	478	467	470	483	482	481	476	477	478	477	477	471	470	472	477	476	482	479	484	484	477	476	479	481	484	485	485	484	482	481	479	483	483	482	479	478	481	482	482	483	482	468	475	472	480	480	478	481	482	479	475	477	479	473	474	482	479	481	487	481	477	481	479	476	476	476	481	487	495	492	494	489	489	489	487	479	480	482	482	484	486	484	488	491	489	488	479	478	479	482	482	481	486	487	488	488	492	491	487	481	481	483	485	487	488	492	490	488	500	496	498	490	489	492	489	491	490	489	488	484	481	477	476	473	486	490	497	491	489	486	479	486	490	492	496	494	489	487	486	492	504	500	497	493	487	489	492	491	485	485	485	488	490	488	488	490	496	494	493	496	486	482	491	491	491	494	496	496	495	498	497	494	491	492	495	496	497	496	498	502	505	503	498	499	499	496	497	503	501	498	506	507	506	503	498	496	497	501	504	506	504	500	501	504	502	501	498	495	498	504	492	489	493	500	506	509	516	508	506	497	495	499	501	504	507	511	512	508	507	504	506	500	500	493	507	505	503	496	494	491	490	492	491	493	501	504	505	504	503	501	499	500	504	504	501	497	495	499	507	509	509	510	506	511	490	494	498	498	499	506	508	502	492	490	500	500	501	499	502	501	502	505	503	500	502	509	509	505	505	505	509	510	511	512	511	512	510	505	500	499	505	508	513	506	511	511	511	511	511	508	505	505	515	518	519	521	518	516	512	508	506	506	508	508	509	509	515	516	512	510	509	507	504	509	515	511	510	510	510	506	510	512	513	510	505	506	508	519	521	522	516	516	516	517	513	517	520	516	513	524	525	520	528	524	513	511	510	519	516	514	514	514	516	521	524	522	523	524	527	530	526	525	525	524	518	524	519	510	513	516	523	523	521	512	515	517	515	524	521	516	520	521	524	524	523	521	518	514	513	515	534	534	533	530	530	528	526	524	527	532	533	529	529	529	528	530	530	533	527	528	525	528	529	531	530	528	524	522	521	517	517	517	520	523	519	527	531	527	527	526	526	533	533	539	538	538	536	534	530	526	522	520	520	521	523	527	533	540	541	536	536	535	0	0	0
458	458	457	466	461	464	464	466	465	463	463	468	477	471	474	474	470	471	467	462	462	461	457	460	462	456	456	459	460	462	466	466	472	477	474	472	471	471	468	470	464	463	464	468	468	473	477	478	476	467	466	462	462	463	469	472	476	474	464	463	463	470	467	465	465	467	466	468	470	470	470	470	473	475	476	474	473	473	470	472	467	467	466	466	470	474	474	466	466	465	460	459	457	458	457	465	468	468	470	469	463	463	462	465	467	463	463	466	468	471	474	469	474	471	473	473	471	473	474	470	472	473	473	473	470	469	465	466	467	471	474	465	464	467	469	468	468	473	474	481	482	479	477	474	471	470	469	472	476	477	477	473	471	469	467	470	475	481	482	480	479	479	473	477	470	467	461	478	475	475	478	476	473	469	473	476	469	469	470	479	478	477	477	476	480	477	479	479	482	483	482	481	480	478	479	479	480	478	477	476	476	474	480	483	482	480	470	470	471	476	476	478	479	479	479	475	474	471	470	467	472	477	477	483	486	476	476	479	474	470	471	474	477	479	492	482	479	480	487	484	482	484	486	485	478	479	482	484	479	485	483	480	477	478	478	479	480	482	482	476	476	483	485	484	480	479	480	480	484	488	487	485	483	482	484	482	482	482	482	490	483	482	484	482	485	485	484	473	479	484	490	498	491	490	487	478	483	484	486	490	491	486	483	484	487	493	493	491	486	481	483	487	488	483	483	482	481	483	484	485	487	492	491	493	494	485	481	491	492	494	496	498	496	496	495	495	496	491	490	494	496	497	496	496	498	503	501	498	498	498	502	503	503	496	498	506	509	506	500	496	496	495	498	502	503	503	501	499	497	499	501	498	495	498	501	501	503	498	496	502	503	495	500	500	494	494	496	500	506	510	510	503	510	508	505	503	492	492	497	490	493	490	491	492	490	494	493	492	499	501	503	502	501	501	498	500	501	504	501	497	494	494	492	493	501	505	501	497	484	485	494	485	485	491	495	495	497	492	491	491	498	498	496	496	497	498	503	502	499	499	506	508	507	506	500	499	507	507	511	508	510	510	507	503	503	507	508	506	509	508	504	506	508	508	502	502	501	502	507	511	512	511	511	512	506	506	501	507	509	508	507	507	510	513	510	507	506	507	507	516	509	507	506	505	505	508	509	511	512	504	506	509	518	518	514	516	518	518	516	519	517	514	510	508	522	524	515	521	518	513	509	509	519	521	513	512	514	514	514	522	522	522	516	516	520	514	514	518	519	513	511	523	518	517	518	519	520	516	511	513	512	518	517	515	514	519	518	523	520	518	516	513	511	510	516	522	526	527	526	525	529	528	524	524	528	531	530	530	529	529	529	530	533	528	525	521	523	524	527	528	528	526	524	520	520	518	517	521	523	532	519	523	525	524	523	522	522	522	520	518	518	523	528	527	526	524	524	524	521	523	531	536	537	537	537	537	535	0	0	0
458	458	458	466	453	457	457	458	460	458	463	463	464	470	474	464	464	461	465	465	461	461	458	454	455	456	456	456	459	461	461	464	464	468	469	469	469	468	468	470	468	467	467	468	470	470	471	470	469	464	462	462	462	463	467	471	470	471	471	464	463	463	463	464	461	465	468	464	462	460	460	462	469	472	477	478	472	469	467	467	467	466	466	467	467	471	467	460	466	465	461	458	455	457	457	458	462	465	465	457	460	462	461	459	466	463	463	463	465	468	473	466	471	471	473	468	465	466	471	472	467	467	469	462	464	466	467	467	467	468	470	468	464	465	466	468	467	470	472	474	475	477	477	474	471	471	473	468	468	480	483	475	469	467	467	469	476	473	468	466	463	463	467	470	465	463	458	469	472	472	477	469	465	470	471	471	469	470	471	476	475	472	471	471	476	478	480	482	479	477	471	479	477	478	478	475	477	469	471	470	474	474	480	481	481	476	474	473	475	475	473	470	472	473	472	470	472	471	470	466	469	474	476	478	469	472	473	475	476	480	479	474	474	472	472	473	477	479	480	482	480	479	475	472	476	477	480	473	481	484	482	480	476	476	477	479	480	481	478	477	478	479	482	478	478	479	479	481	483	486	484	483	480	478	480	476	481	481	480	477	477	477	481	481	476	474	482	478	488	483	486	501	489	490	484	479	479	477	479	482	487	481	481	482	488	491	490	482	477	477	477	488	481	482	481	473	480	484	483	485	487	491	490	492	497	492	477	476	489	494	484	495	496	491	494	494	491	486	489	488	491	489	490	499	498	503	503	501	498	497	496	495	488	496	498	504	506	496	487	488	490	501	494	494	492	494	499	505	494	487	487	491	494	501	502	500	495	493	502	501	496	491	494	496	491	491	490	489	506	502	491	493	490	493	492	492	491	486	487	497	498	497	492	488	492	494	495	497	499	497	500	498	495	497	495	492	494	501	490	490	487	487	483	490	490	499	488	483	484	485	490	481	481	488	493	495	495	495	492	487	482	481	484	490	492	494	493	497	497	494	496	503	498	498	500	499	506	501	502	504	502	502	502	503	502	506	505	507	510	499	501	498	497	493	492	499	497	499	503	507	509	502	500	501	506	502	501	500	504	510	508	506	506	505	505	505	504	504	505	508	508	508	505	503	504	509	506	511	507	514	507	510	509	511	514	511	514	517	517	513	511	509	504	504	506	511	517	520	522	516	514	514	515	519	514	512	514	514	514	514	522	520	519	514	516	511	511	510	510	510	510	509	516	519	519	519	518	517	520	520	518	513	511	509	507	512	516	524	518	515	512	511	510	512	512	519	523	522	526	525	525	528	528	527	528	522	522	521	517	529	528	528	529	520	519	518	518	519	524	526	521	522	522	522	518	518	518	523	530	522	516	514	511	513	516	519	519	512	505	507	514	519	521	525	526	525	525	525	526	524	517	524	531	530	530	523	533	0	0	0
457	461	461	459	447	445	444	444	449	451	450	450	447	455	463	454	454	460	459	460	459	459	456	453	453	456	452	452	453	455	460	460	460	462	467	466	466	468	470	467	468	466	467	466	465	465	464	465	466	464	463	462	461	461	460	463	468	469	469	468	461	461	461	460	461	462	464	462	460	459	461	461	466	469	471	468	464	468	467	466	465	464	467	465	465	468	459	460	461	466	460	459	458	457	456	456	461	458	457	457	457	458	454	460	465	467	465	464	464	460	463	460	466	468	464	463	464	466	467	467	462	458	458	456	460	461	461	462	462	464	467	468	467	467	467	467	467	466	470	470	470	469	465	461	459	462	466	466	466	465	465	474	466	463	466	468	472	473	464	460	458	457	458	468	463	462	461	460	461	461	457	465	467	469	467	466	465	463	469	465	466	469	468	472	471	475	478	480	477	475	472	469	467	465	469	473	475	471	467	467	468	470	474	476	478	479	476	477	475	472	467	467	470	470	471	472	472	472	472	471	467	469	469	467	467	469	470	475	475	478	481	481	475	472	470	472	486	487	479	479	476	473	470	468	471	475	477	469	472	481	481	480	477	470	466	476	477	478	472	475	476	481	482	475	476	479	479	480	482	485	483	482	480	479	475	470	476	471	470	475	475	475	482	479	474	471	470	474	477	480	482	487	483	484	486	482	479	475	476	480	482	480	478	478	486	482	476	477	477	476	477	477	474	470	473	478	481	485	487	488	489	489	489	496	481	477	475	476	475	479	483	493	495	486	489	488	480	483	489	489	488	487	488	488	500	501	500	497	499	497	493	484	485	483	490	496	497	495	487	485	491	495	499	493	493	492	491	492	496	494	493	489	492	493	495	484	489	490	501	499	490	489	487	487	487	490	489	485	488	490	494	494	495	490	490	492	487	479	486	488	493	497	498	489	490	495	498	493	490	484	484	486	487	492	490	484	476	485	494	495	491	492	491	491	492	494	489	483	481	486	489	490	482	470	482	484	492	494	493	487	488	487	492	487	485	486	492	495	495	495	496	494	495	496	497	501	502	493	494	497	500	501	500	497	496	493	491	494	494	496	497	494	492	492	490	497	495	500	501	504	508	500	500	500	500	498	498	498	505	508	507	505	504	504	503	502	500	500	504	506	505	505	505	498	503	506	507	508	501	507	503	502	505	505	505	509	512	514	515	512	508	504	505	503	504	504	504	504	510	511	514	515	518	520	514	511	511	513	509	511	515	521	520	516	511	509	506	505	504	507	508	509	512	513	514	515	514	515	517	515	510	511	508	506	509	509	514	515	513	513	513	516	510	514	514	514	518	521	522	523	524	527	524	520	517	517	514	509	502	513	515	512	513	511	510	514	516	517	513	513	520	518	515	515	516	513	514	517	522	512	512	512	510	511	512	512	511	510	510	506	505	509	516	514	524	524	527	524	521	523	514	517	519	515	515	526	529	0	0	0
454	458	454	454	447	452	440	440	441	446	450	446	446	447	451	454	455	460	455	455	454	447	447	452	454	454	452	458	452	456	455	457	460	460	463	462	459	464	467	459	463	462	459	459	461	462	462	461	462	459	459	461	456	456	450	456	457	453	463	463	463	461	461	460	459	467	464	459	458	457	460	460	462	466	461	459	464	464	466	464	464	463	465	464	464	465	459	459	466	467	465	453	455	458	458	461	458	457	458	458	458	455	452	460	461	467	467	460	460	458	462	461	459	454	449	458	462	462	465	466	464	458	458	464	466	464	461	460	460	464	469	468	467	464	466	466	464	465	464	465	468	466	463	461	460	464	465	467	466	468	468	468	468	459	462	467	471	472	464	461	458	457	458	466	463	467	467	465	463	463	464	465	463	465	465	466	463	458	458	458	460	465	464	466	469	468	473	478	473	472	471	466	468	464	467	471	472	472	471	468	463	467	469	473	477	477	479	481	475	472	468	466	467	470	468	471	473	472	472	467	470	469	470	470	467	465	471	472	472	468	475	482	477	472	470	471	487	487	478	476	473	471	466	466	465	470	470	474	471	471	476	476	474	467	464	476	470	473	477	478	478	481	481	472	475	480	480	479	481	487	478	477	477	476	474	470	467	472	474	475	480	479	470	475	474	474	472	473	476	479	481	481	473	477	480	478	474	478	479	484	480	484	479	474	475	478	476	478	473	475	477	477	473	471	471	473	479	485	484	475	487	488	486	487	479	478	479	475	482	485	484	484	486	488	485	479	479	478	480	480	479	486	486	498	496	494	493	490	488	485	480	480	482	485	487	492	495	489	488	489	491	493	496	494	494	496	498	500	498	493	493	491	491	492	482	482	481	478	477	477	476	480	486	487	485	484	487	482	486	485	480	482	483	479	483	483	475	485	475	485	489	498	501	491	489	486	495	491	488	487	489	489	488	489	487	484	475	482	483	487	493	492	489	497	497	489	484	480	486	487	484	474	472	488	489	502	501	501	499	498	485	486	492	489	487	489	496	502	498	498	495	492	485	494	495	499	495	490	491	493	496	498	498	497	493	488	495	498	488	495	496	496	494	496	496	491	493	496	498	502	502	504	504	504	501	499	499	493	494	504	505	493	493	501	501	500	499	497	503	505	504	502	498	496	497	505	504	501	500	497	497	494	498	502	503	506	507	509	511	508	504	506	506	504	500	498	500	501	505	505	507	512	514	512	510	511	506	508	509	509	509	518	517	511	510	505	504	503	503	509	509	505	507	510	511	512	510	512	509	503	504	506	506	506	507	504	510	508	509	508	512	515	516	516	516	512	508	513	513	513	513	517	520	513	513	513	504	503	501	499	503	512	515	517	516	508	509	511	511	509	506	506	506	508	508	508	508	509	511	511	510	511	509	509	509	511	509	509	508	505	504	504	506	507	514	516	519	518	517	513	511	508	508	508	508	520	524	0	0	0
452	459	459	459	456	452	447	447	449	452	451	450	450	450	452	455	449	449	450	445	438	442	442	451	459	458	458	452	456	455	455	452	459	459	458	459	458	455	459	463	454	455	455	454	456	455	455	459	458	457	464	463	456	449	449	456	455	451	448	457	458	459	459	458	458	460	459	450	459	457	461	463	463	464	461	458	458	462	464	461	463	461	464	463	463	457	457	459	465	466	463	460	452	453	455	458	457	456	454	454	454	451	452	454	466	467	466	461	459	458	457	458	455	455	451	450	455	459	462	463	458	458	457	462	464	464	456	448	452	453	456	458	460	463	463	466	466	461	457	458	463	461	456	454	455	459	468	469	468	467	466	462	462	463	457	459	462	462	459	458	464	465	467	464	464	464	463	463	465	465	465	465	463	463	462	461	458	456	456	456	458	460	460	464	461	469	469	471	470	467	466	464	461	461	463	470	465	467	467	457	457	456	458	459	466	468	473	477	480	474	467	466	465	463	465	463	460	462	466	468	472	469	470	469	467	469	471	469	471	466	472	481	479	472	472	471	477	477	477	472	470	469	464	458	466	468	468	471	473	472	477	463	467	467	462	466	471	474	478	477	478	477	480	474	467	472	480	482	485	474	474	475	475	472	470	470	471	474	474	475	475	476	477	476	472	475	465	463	463	464	468	474	476	478	478	476	473	478	479	483	485	485	482	468	477	480	477	478	473	477	478	469	459	457	460	473	482	480	482	475	482	473	473	474	477	477	478	479	479	486	485	484	485	485	480	480	479	483	483	477	478	478	480	483	486	489	489	488	481	480	479	480	485	492	493	494	486	486	488	487	488	490	497	500	493	497	496	492	496	485	485	492	494	491	483	481	481	480	480	476	481	482	489	484	486	490	487	483	484	485	480	482	485	480	483	479	472	472	473	475	493	487	492	494	490	490	490	490	490	490	489	490	486	484	488	484	482	480	481	484	476	493	492	499	497	497	493	490	491	479	478	471	488	493	495	493	494	483	479	484	485	490	490	484	486	487	489	495	499	497	495	491	489	482	481	481	492	493	491	495	497	498	498	494	489	492	496	495	491	492	493	493	490	492	489	486	490	494	496	498	499	502	501	499	492	486	496	492	495	500	498	496	490	489	482	493	494	493	500	503	502	501	497	495	496	499	498	499	497	495	499	505	503	497	494	492	494	503	502	499	500	500	502	502	498	495	491	490	499	499	500	509	507	500	505	502	503	504	498	498	502	511	511	508	506	505	497	497	505	509	500	503	504	507	506	510	511	509	508	504	502	503	501	502	500	499	507	508	507	507	507	508	514	515	515	507	505	507	508	510	510	512	514	514	510	507	503	503	502	494	497	504	512	515	516	513	506	506	506	506	504	504	505	507	503	507	508	508	510	511	511	509	506	505	505	509	509	500	498	495	496	500	502	507	507	509	512	514	514	512	509	507	507	506	506	516	514	0	0	0
449	456	443	443	445	445	445	445	445	447	451	452	452	452	452	453	449	448	444	441	439	442	450	450	457	456	455	456	457	458	449	443	451	453	453	453	450	449	452	454	449	450	453	454	455	454	453	453	453	450	457	452	445	450	450	450	449	449	450	450	455	456	456	456	453	447	449	449	451	452	454	450	452	452	452	450	452	452	455	455	457	458	456	450	451	451	449	450	459	462	461	452	451	452	454	459	457	455	455	455	455	455	453	466	467	467	463	461	458	457	457	454	454	451	448	445	453	454	461	457	454	455	455	458	461	454	450	447	446	447	457	455	459	464	465	462	460	455	454	454	456	454	456	454	451	459	465	465	467	466	466	461	462	462	463	462	462	459	459	459	459	461	464	466	462	457	458	460	459	457	454	454	454	454	456	454	455	456	456	454	452	454	455	459	463	470	469	469	464	465	467	461	463	465	463	456	457	451	453	454	458	457	454	453	458	461	465	468	470	460	456	457	459	458	459	457	456	460	463	466	470	468	467	468	470	467	468	469	468	468	470	471	471	470	471	474	470	469	470	470	475	470	466	460	461	462	469	473	468	471	467	469	466	468	462	466	470	472	473	472	468	471	475	477	473	463	467	469	485	475	472	471	471	471	470	470	470	471	472	471	465	471	474	473	471	470	473	465	465	456	457	472	475	476	474	466	464	464	464	472	468	482	472	470	474	475	477	477	471	477	476	464	458	461	459	471	471	471	472	473	470	467	471	471	473	473	477	475	467	468	475	474	482	484	482	481	485	483	482	474	474	475	475	474	481	480	482	484	487	482	482	481	481	488	489	486	485	489	484	483	487	489	495	498	496	489	488	487	486	482	483	491	494	493	482	482	481	482	478	480	481	479	484	488	490	487	486	471	478	478	481	483	493	487	486	481	474	473	472	477	487	486	486	485	486	488	489	489	489	482	490	488	488	488	487	487	485	481	480	476	478	484	494	491	493	495	493	490	490	490	488	490	492	490	490	493	484	478	478	483	483	486	491	487	483	484	476	478	483	477	488	490	485	481	480	481	484	484	494	501	496	493	491	491	489	489	492	494	489	490	488	487	486	486	486	484	489	491	494	497	499	501	493	486	484	478	478	490	492	498	494	495	495	484	489	493	494	492	489	487	493	494	478	486	491	498	497	494	494	494	491	504	503	498	495	494	492	488	495	494	499	500	501	501	496	490	487	489	488	493	500	495	495	495	495	498	499	498	496	493	493	497	506	505	499	494	485	493	494	500	499	502	504	502	501	501	505	520	501	502	501	501	496	499	496	497	500	505	505	501	493	493	492	494	498	499	503	504	505	507	508	510	510	510	506	499	503	504	503	499	496	500	505	513	513	513	511	505	504	504	504	500	498	497	500	501	508	508	510	508	509	507	504	504	501	504	502	497	498	504	500	497	499	502	502	509	510	511	511	508	507	502	502	505	508	507	513	0	0	0
440	437	439	445	445	444	445	442	442	446	449	450	450	450	451	451	448	447	447	443	440	439	444	444	451	455	460	457	457	452	443	445	446	447	447	447	445	446	444	449	450	443	444	446	447	450	448	448	448	449	454	451	448	448	450	450	451	450	449	447	451	452	448	450	450	446	446	449	450	446	446	451	450	449	449	447	450	451	444	449	451	453	449	450	448	446	446	444	449	452	455	453	450	450	445	451	452	452	455	456	453	453	453	457	462	461	462	456	457	454	453	451	448	450	448	447	450	451	452	450	450	449	451	455	457	454	448	447	452	453	460	464	451	449	451	458	457	454	453	455	456	453	456	451	448	451	454	459	465	462	457	459	459	461	461	462	460	458	459	459	459	463	464	464	460	457	452	456	456	457	454	453	455	457	455	453	455	456	452	452	450	451	454	455	459	459	467	465	464	460	459	460	461	462	467	450	450	452	453	457	458	456	454	452	457	458	462	464	461	461	454	452	448	452	457	459	459	455	452	453	455	457	457	457	459	465	469	468	468	468	465	470	469	469	466	470	467	468	469	469	471	471	467	466	458	463	471	472	461	472	470	467	463	460	462	467	469	471	470	464	466	468	470	473	473	472	466	463	461	472	465	464	463	473	471	470	469	466	466	466	461	464	466	470	467	469	468	464	460	456	458	465	466	467	465	471	470	464	469	466	471	468	468	469	469	470	473	475	473	459	461	461	459	464	466	470	470	469	469	473	469	467	471	466	470	468	467	469	472	471	469	472	474	483	481	477	480	481	475	474	474	474	469	470	470	473	479	485	485	482	479	475	478	481	484	480	480	479	481	480	476	481	477	481	490	483	482	483	483	482	484	491	493	487	485	481	481	480	478	472	475	477	483	482	482	480	472	471	476	477	481	482	491	485	487	481	475	473	471	473	479	481	479	480	483	484	486	474	476	483	485	482	481	483	489	488	484	482	480	478	480	478	485	485	485	490	486	489	490	488	488	489	492	479	487	487	488	486	485	483	486	488	486	478	475	481	480	481	481	478	472	483	486	480	481	484	486	486	486	486	488	485	484	484	492	489	489	488	488	486	482	482	481	481	481	482	483	486	489	497	497	493	484	482	482	478	484	488	490	491	485	490	488	489	491	492	486	484	483	487	495	495	489	474	484	490	493	493	492	491	492	490	489	492	492	492	491	489	490	489	488	488	490	492	491	489	488	485	481	484	484	490	489	490	494	496	499	497	495	495	493	494	493	498	496	494	487	487	492	498	499	503	503	503	499	501	504	516	499	504	497	499	498	494	493	494	496	503	502	501	493	493	491	494	494	499	503	503	503	502	505	505	505	500	498	498	504	503	503	499	496	498	501	502	506	509	510	506	501	501	499	494	497	498	501	502	506	502	503	506	507	505	505	504	501	501	499	497	498	504	506	505	505	499	507	510	508	507	505	501	495	495	495	500	505	500	513	0	0	0
441	434	436	438	438	443	441	442	437	437	445	445	445	445	445	443	447	447	445	442	439	439	444	444	449	454	462	463	452	449	443	441	442	445	444	444	444	447	444	440	443	440	441	439	441	443	447	445	445	448	448	448	453	448	451	451	451	451	450	445	443	448	448	444	444	444	448	449	447	444	444	446	448	449	449	449	450	450	446	444	447	452	446	446	444	444	444	442	443	448	451	450	447	444	445	447	449	448	451	441	449	453	459	459	459	458	456	454	451	451	450	448	447	447	444	445	447	450	447	445	446	445	449	452	454	453	455	454	452	454	457	460	446	446	447	453	457	455	455	455	458	457	451	442	445	448	451	453	454	454	454	454	455	456	458	460	458	461	457	453	453	453	454	459	451	453	451	455	453	455	453	450	452	452	452	450	453	453	453	453	450	446	449	449	457	457	456	458	459	458	459	459	459	461	452	447	445	448	451	455	453	451	456	457	456	455	452	455	457	461	456	456	453	455	459	455	457	457	454	453	453	449	456	457	457	458	462	460	456	453	453	458	465	462	464	464	464	465	467	465	465	467	468	467	465	457	456	459	459	461	463	461	460	460	454	465	463	468	465	465	466	465	469	468	470	470	466	468	460	463	456	454	467	468	468	465	467	463	459	458	457	463	460	463	464	464	466	459	458	457	457	456	459	463	467	470	471	470	465	462	465	468	472	467	464	467	471	473	474	467	463	463	464	464	464	467	468	470	473	474	473	464	460	466	464	463	464	471	470	470	470	472	474	474	475	477	477	476	475	474	471	467	466	470	468	470	471	476	479	475	475	473	471	474	473	476	477	475	471	470	473	475	475	477	477	477	479	479	476	473	470	471	480	478	477	477	478	474	470	473	473	473	480	481	477	474	472	470	475	475	474	477	480	482	476	475	477	474	468	471	475	476	475	474	473	474	479	474	479	481	494	478	479	480	481	483	481	480	472	475	479	479	477	481	480	484	484	486	486	487	487	484	492	479	484	478	474	476	478	479	478	476	475	476	474	481	482	485	486	485	487	484	478	472	474	477	487	485	483	482	484	481	480	477	484	483	483	481	486	488	488	487	483	476	476	482	484	487	489	499	493	490	484	480	481	481	485	487	485	483	477	486	489	488	486	482	482	481	482	488	496	496	494	491	485	482	491	490	491	490	496	496	491	481	491	492	489	488	491	491	490	490	487	488	489	485	486	483	480	479	483	483	485	488	491	495	496	496	494	495	500	495	491	489	490	481	481	484	492	494	498	504	503	503	500	498	499	500	497	489	492	494	494	494	492	496	495	497	499	502	500	501	501	495	493	498	502	503	501	501	499	497	502	500	496	495	495	503	491	500	489	489	498	499	502	508	504	502	502	499	496	495	495	498	500	501	498	500	496	499	504	504	504	503	502	499	497	496	498	504	505	507	505	506	509	509	507	504	498	490	491	491	495	503	504	499	503	0	0	0
441	440	434	434	432	432	432	433	433	433	436	440	441	442	442	443	445	445	442	438	435	431	433	437	437	440	451	450	449	449	438	440	441	445	447	447	446	449	442	443	440	441	443	442	443	445	446	447	443	443	442	443	447	450	449	450	450	448	447	442	444	444	445	443	441	441	447	446	442	442	442	444	448	449	450	450	449	449	444	445	447	451	450	448	444	444	442	442	443	446	447	447	444	441	441	445	445	444	445	438	443	452	450	451	452	452	449	451	451	452	448	449	448	446	444	443	443	443	441	441	443	444	449	449	455	456	449	451	453	454	455	446	441	443	444	450	450	449	447	449	450	447	447	446	446	448	450	455	454	455	453	453	450	450	452	453	457	459	454	451	452	450	453	453	450	449	450	449	445	446	445	444	447	452	452	451	451	451	452	452	450	446	448	450	451	451	452	454	454	452	458	458	460	460	451	447	445	445	450	450	451	450	456	457	455	450	452	452	454	457	463	458	457	457	455	455	454	451	453	452	453	454	452	456	456	456	459	458	457	454	456	457	451	452	457	453	454	459	461	461	462	467	466	465	464	465	460	459	460	460	462	457	460	460	457	452	457	464	462	464	466	467	469	464	467	465	464	463	462	463	454	454	456	458	458	461	464	461	458	458	456	454	458	460	462	460	461	456	456	455	454	453	455	459	464	466	468	465	463	456	456	466	465	467	465	464	462	463	468	462	462	462	462	467	464	460	462	464	464	463	459	460	461	465	464	463	465	468	469	468	472	473	476	474	474	472	471	469	472	473	465	461	460	467	467	469	472	472	471	464	465	465	469	469	471	475	473	473	466	470	474	474	474	473	472	473	474	473	471	474	476	477	477	479	476	472	474	474	469	470	475	475	475	476	475	472	473	470	473	472	471	470	469	467	469	467	465	464	463	463	472	475	473	466	463	465	468	470	471	489	486	492	479	480	480	477	480	476	471	475	472	472	477	474	477	480	476	471	473	478	475	475	472	472	474	471	475	476	479	479	478	476	474	476	477	477	479	481	489	486	487	482	472	473	472	474	478	483	481	481	478	479	481	481	479	475	473	479	486	486	487	485	483	475	475	478	483	484	486	492	482	483	481	483	482	480	481	488	486	481	479	479	483	485	481	478	480	478	482	488	489	492	494	491	484	483	484	486	486	491	495	495	485	478	483	493	488	488	490	490	490	490	487	487	484	481	481	480	480	480	482	483	483	482	489	490	490	490	484	493	501	494	484	486	477	476	476	483	490	488	491	501	503	503	501	499	497	496	493	489	489	489	488	488	496	496	495	496	495	495	500	496	496	494	491	496	499	504	504	493	494	493	495	495	495	494	490	489	488	489	487	495	498	497	497	499	499	496	496	494	487	486	494	496	498	494	489	495	491	489	491	491	495	501	499	500	496	492	495	494	496	496	507	505	504	506	504	499	496	492	492	493	498	498	498	499	497	0	0	0
