1373	1367	1357	1345	1345	1344	1348	1344	1331	1326	1326	1344	1355	1361	1362	1362	1369	1380	1374	1390	1404	1407	1407	1402	1390	1368	1351	1338	1340	1340	1340	1344	1344	1352	1366	1381	1391	1391	1397	1394	1397	1398	1403	1407	1403	1395	1395	1394	1406	1421	1423	1416	1404	1397	1387	1396	1400	1401	1401	1403	1414	1403	1396	1390	1406	1416	1429	1432	1430	1426	1431	1436	1430	1421	1407	1407	1405	1419	1433	1433	1428	1428	1441	1435	1400	1406	1416	1427	1428	1428	1425	1422	1418	1422	1427	1432	1440	1442	1442	1432	1416	1411	1417	1428	1439	1445	1444	1433	1432	1421	1420	1406	1399	1407	1423	1434	1434	1437	1443	1443	1442	1434	1426	1439	1454	1455	1442	1433	1436	1437	1442	1436	1430	1424	1427	1434	1436	1430	1434	1443	1451	1443	1445	1443	1442	1445	1491	1502	1502	1477	1477	1474	1473	1470	1467	1466	1467	1466	1454	1462	1458	1452	1449	1444	1450	1460	1484	1493	1498	1508	1515	1516	1508	1498	1484	1479	1486	1480	1472	1472	1466	1457	1442	1434	1442	1455	1455	1467	1476	1492	1503	1505	1499	1475	1451	1439	1445	1467	1474	1469	1458	1460	1469	1470	1468	1472	1481	1498	1498	1474	1463	1453	1445	1451	1468	1494	1507	1475	1458	1449	1450	1454	1464	1465	1456	1443	1449	1465	1477	1505	1523	1534	1501	1506	1514	1527	1532	1532	1531	1525	1513	1505	1493	1479	1486	1485	1498	1492	1493	1492	1500	1511	1534	1543	1538	1525	1502	1484	1487	1492	1512	1519	1530	1524	1514	1517	1544	1560	1553	1544	1529	1513	1521	1525	1529	1536	1533	1541	1537	1531	1535	1541	1557	1558	1556	1553	1533	1521	1515	1520	1523	1535	1528	1534	1538	1541	1537	1527	1526	1529	1542	1554	1566	1571	1572	1568	1567	1564	1565	1556	1557	1587	1585	1534	1523	1512	1528	1513	1478	1463	1480	1495	1499	1491	1479	1466	1465	1464	1457	1461	1460	1453	1441	1434	1457	1489	1514	1525	1525	1506	1483	1468	1464	1472	1491	1500	1505	1507	1487	1481	1475	1475	1492	1500	1499	1497	1496	1483	1455	1458	1472	1503	1496	1484	1493	1490	1475	1463	1474	1488	1498	1497	1494	1500	1503	1509	1517	1511	1536	1523	1518	1508	1491	1484	1473	1473	1476	1471	1492	1505	1490	1483	1486	1493	1516	1610	1632	1639	1641	1629	1609	1612	1640	1650	1636	1638	1664	1685	1677	1658	1659	1669	1670	1671	1670	1673	1674	1662	1662	1675	1682	1693	1698	1699	1694	1695	1705	1711	1714	1714	1710	1710	1704	1689	1683	1684	1693	1713	1724	1730	1729	1736	1742	1720	1710	1708	1713	1722	1759	1767	1759	1750	1745	1796	1795	1769	1714	1714	1759	1785	1806	1795	1784	1768	1743	1746	1771	1770	1767	1739	1640	1627	1610	1598	1582	1568	1549	1530	1535	1520	1494	1458	1425	1441	1443	1456	1457	1434	1425	1432	1429	1443	1441	1433	1426	1421	1427	1438	1443	1443	1441	1446	1453	1459	1454	1450	1451	1457	1476	1491	1500	1507	1484	1472	1471	1466	1468	1469	1469	1466	1456	1451	1447	1448	1450	1453	1454	1457	1452	1446	1449	1456	1470	1555	1608	1653	1830	1889	1889	1884	1872	1853	1858	1854	1854	1867	1881	1879	1862	1854	1859	1871	1876	1888	1921	1934	1935	1933	1917	1898	1889	1899	1893	1894	1893	1920	1917	1908	1907	1911	1922	1924	1916	1898	1921	1928	1920	1935	1930	1913	1903	1911	1930	1935	1938	1945	1955	1958	1956	1954	1930	1893	1876	1890	1927	1968	1975	1959	1934	1952	1973	1992	1965	1940	1932	1955	1956	1952	1951	1947	1947	1951	1954	1937	1943	1934	1946	1951	1957	1959	1954	1945	1932	1906	1895	1903	1901	1909	1909	1909	1904	1914	0	0	0	0	0	0	0	0
1345	1342	1339	1335	1335	1337	1339	1334	1316	1311	1311	1319	1332	1345	1350	1356	1356	1362	1338	1366	1380	1381	1381	1382	1370	1349	1336	1332	1337	1337	1341	1345	1350	1352	1364	1373	1381	1381	1391	1392	1370	1361	1355	1357	1359	1353	1353	1356	1378	1401	1412	1404	1390	1375	1367	1372	1381	1388	1388	1394	1401	1391	1370	1355	1354	1365	1387	1405	1411	1413	1415	1415	1411	1404	1402	1402	1396	1403	1417	1422	1408	1390	1377	1370	1372	1380	1392	1407	1401	1409	1411	1397	1401	1403	1402	1400	1407	1412	1412	1410	1402	1390	1393	1407	1417	1424	1424	1423	1418	1412	1408	1399	1391	1415	1431	1435	1432	1436	1437	1437	1429	1414	1409	1417	1417	1419	1419	1412	1411	1413	1422	1419	1413	1413	1416	1417	1422	1427	1424	1424	1424	1420	1422	1429	1433	1437	1442	1449	1425	1411	1412	1406	1451	1455	1454	1444	1431	1427	1441	1462	1472	1469	1461	1444	1446	1458	1468	1469	1477	1489	1506	1494	1485	1477	1467	1458	1461	1456	1464	1466	1461	1461	1442	1433	1440	1450	1460	1464	1464	1473	1488	1495	1493	1469	1453	1447	1439	1468	1468	1446	1428	1437	1447	1455	1461	1468	1480	1489	1486	1472	1458	1441	1437	1455	1461	1466	1460	1445	1438	1429	1426	1447	1459	1465	1454	1449	1443	1446	1464	1491	1488	1504	1496	1500	1511	1520	1525	1521	1514	1503	1493	1488	1475	1466	1457	1461	1469	1474	1481	1482	1495	1498	1498	1498	1488	1455	1444	1450	1467	1486	1504	1524	1521	1506	1493	1499	1508	1517	1505	1483	1476	1479	1493	1500	1507	1521	1505	1490	1491	1488	1489	1490	1489	1485	1473	1460	1489	1487	1481	1480	1462	1466	1476	1485	1489	1487	1490	1494	1488	1499	1511	1525	1535	1544	1535	1549	1537	1531	1517	1512	1516	1532	1543	1540	1516	1519	1506	1500	1482	1473	1495	1500	1499	1488	1473	1463	1463	1473	1466	1462	1470	1459	1443	1437	1449	1481	1506	1527	1524	1509	1476	1469	1467	1474	1482	1484	1481	1473	1469	1465	1466	1476	1473	1473	1480	1487	1479	1460	1448	1453	1459	1481	1483	1485	1484	1481	1466	1462	1478	1490	1500	1500	1496	1487	1485	1473	1477	1513	1516	1518	1515	1508	1499	1492	1481	1476	1481	1470	1465	1495	1495	1489	1480	1492	1531	1610	1613	1593	1585	1584	1595	1607	1617	1607	1607	1607	1610	1624	1638	1641	1638	1643	1648	1651	1655	1649	1642	1637	1639	1646	1656	1665	1668	1658	1661	1677	1689	1692	1676	1686	1691	1687	1675	1670	1651	1645	1653	1676	1687	1697	1701	1691	1696	1694	1688	1681	1690	1707	1737	1745	1734	1720	1705	1697	1680	1689	1679	1682	1685	1698	1712	1712	1705	1698	1698	1700	1717	1730	1737	1714	1655	1650	1629	1604	1576	1558	1527	1515	1509	1500	1475	1441	1437	1438	1443	1459	1462	1439	1430	1435	1435	1458	1455	1446	1439	1436	1443	1444	1442	1443	1445	1449	1453	1453	1456	1458	1461	1466	1469	1474	1484	1497	1486	1470	1472	1466	1467	1463	1462	1459	1460	1467	1466	1452	1449	1453	1450	1450	1433	1436	1448	1463	1474	1558	1603	1642	1786	1864	1870	1864	1847	1838	1837	1834	1831	1845	1857	1843	1838	1833	1852	1858	1862	1859	1856	1845	1829	1834	1860	1877	1877	1880	1875	1877	1885	1894	1898	1884	1872	1874	1872	1868	1866	1856	1858	1852	1872	1906	1892	1888	1882	1880	1889	1897	1918	1926	1935	1941	1935	1923	1901	1869	1862	1873	1879	1882	1875	1901	1896	1919	1948	1955	1929	1906	1901	1889	1888	1900	1895	1893	1893	1879	1886	1890	1903	1912	1920	1948	1956	1956	1950	1932	1910	1881	1864	1856	1860	1880	1888	1888	1884	1887	0	0	0	0	0	0	0	0
1304	1313	1320	1326	1326	1325	1331	1329	1315	1299	1299	1296	1311	1339	1341	1335	1335	1332	1316	1326	1343	1350	1350	1352	1339	1333	1329	1330	1336	1336	1338	1339	1352	1360	1370	1380	1383	1383	1383	1373	1350	1346	1344	1338	1334	1339	1339	1344	1359	1380	1390	1382	1366	1350	1352	1352	1358	1365	1365	1379	1389	1374	1355	1350	1352	1363	1375	1382	1388	1391	1390	1393	1393	1388	1380	1380	1378	1381	1390	1393	1385	1370	1360	1355	1360	1367	1378	1381	1391	1391	1370	1371	1377	1393	1389	1380	1379	1384	1386	1386	1374	1368	1363	1383	1394	1403	1406	1405	1404	1403	1398	1393	1390	1399	1411	1420	1424	1427	1428	1424	1419	1407	1404	1405	1399	1394	1390	1399	1400	1393	1395	1397	1416	1423	1415	1410	1412	1411	1411	1410	1412	1406	1402	1406	1410	1429	1434	1424	1407	1391	1386	1389	1392	1388	1396	1388	1400	1401	1425	1448	1472	1469	1456	1434	1434	1444	1444	1443	1454	1468	1475	1454	1449	1439	1423	1416	1414	1425	1444	1457	1458	1454	1434	1423	1428	1441	1446	1450	1452	1447	1443	1446	1447	1449	1446	1448	1446	1450	1445	1417	1398	1406	1421	1433	1442	1448	1463	1472	1473	1462	1450	1443	1443	1446	1446	1442	1430	1427	1416	1411	1409	1409	1446	1457	1454	1450	1446	1444	1456	1464	1472	1459	1455	1473	1493	1503	1502	1495	1497	1492	1488	1477	1462	1444	1436	1447	1457	1467	1473	1477	1479	1476	1488	1484	1478	1446	1438	1449	1467	1490	1507	1514	1500	1477	1465	1453	1464	1476	1482	1475	1475	1484	1492	1499	1505	1504	1480	1457	1442	1443	1455	1466	1465	1452	1431	1418	1418	1421	1423	1438	1452	1457	1466	1467	1479	1484	1488	1485	1471	1470	1485	1491	1498	1515	1514	1506	1482	1462	1470	1471	1480	1492	1492	1477	1463	1476	1502	1494	1472	1481	1492	1498	1491	1470	1468	1465	1461	1474	1481	1473	1473	1469	1450	1445	1448	1466	1491	1518	1522	1494	1479	1472	1474	1477	1482	1481	1478	1477	1478	1478	1478	1486	1494	1490	1490	1505	1492	1477	1463	1463	1463	1467	1480	1480	1479	1475	1472	1459	1473	1483	1484	1479	1480	1490	1505	1506	1493	1473	1485	1508	1507	1509	1505	1497	1489	1485	1476	1467	1466	1502	1521	1500	1492	1484	1543	1577	1575	1570	1568	1576	1589	1603	1611	1608	1598	1576	1563	1572	1610	1622	1617	1600	1599	1609	1626	1629	1617	1599	1593	1600	1612	1614	1620	1623	1646	1665	1686	1681	1663	1638	1637	1637	1636	1624	1613	1607	1599	1610	1623	1645	1674	1662	1654	1657	1662	1662	1672	1688	1697	1698	1695	1682	1653	1660	1668	1662	1656	1652	1659	1678	1684	1678	1663	1652	1652	1672	1680	1694	1679	1660	1642	1635	1647	1624	1588	1547	1512	1501	1499	1487	1459	1434	1449	1432	1442	1466	1464	1441	1447	1448	1458	1477	1466	1456	1450	1453	1454	1451	1445	1444	1446	1450	1448	1454	1456	1465	1468	1470	1462	1462	1471	1485	1480	1472	1473	1474	1464	1460	1442	1447	1468	1489	1494	1477	1466	1451	1448	1450	1438	1431	1447	1465	1463	1549	1589	1633	1780	1808	1818	1832	1832	1829	1824	1820	1826	1834	1834	1823	1819	1827	1842	1846	1842	1833	1827	1816	1810	1808	1797	1819	1840	1850	1855	1864	1875	1870	1857	1855	1848	1839	1837	1834	1833	1827	1829	1835	1841	1850	1854	1854	1842	1838	1845	1852	1862	1869	1884	1880	1867	1871	1863	1845	1835	1834	1845	1847	1846	1842	1852	1872	1902	1903	1894	1887	1870	1860	1855	1852	1849	1852	1852	1855	1862	1868	1864	1875	1899	1911	1922	1923	1937	1920	1897	1865	1846	1836	1838	1853	1853	1857	1858	1861	0	0	0	0	0	0	0	0
1268	1275	1287	1300	1314	1314	1324	1321	1312	1297	1297	1284	1305	1309	1309	1310	1310	1312	1301	1317	1323	1329	1329	1315	1314	1314	1317	1324	1331	1331	1336	1335	1340	1354	1369	1356	1336	1336	1333	1330	1331	1332	1327	1319	1313	1319	1324	1324	1342	1343	1341	1342	1334	1332	1332	1335	1342	1348	1348	1347	1343	1351	1348	1348	1351	1357	1359	1361	1364	1372	1380	1380	1376	1369	1350	1350	1350	1355	1361	1361	1355	1347	1347	1350	1357	1360	1362	1361	1358	1344	1347	1354	1364	1372	1372	1368	1361	1359	1362	1353	1349	1340	1339	1359	1372	1381	1381	1382	1385	1385	1384	1376	1376	1380	1390	1400	1404	1403	1405	1405	1399	1400	1402	1395	1384	1374	1372	1380	1384	1382	1378	1388	1418	1413	1398	1390	1393	1398	1385	1379	1388	1389	1386	1388	1401	1408	1410	1406	1399	1390	1387	1392	1391	1376	1374	1373	1375	1376	1381	1386	1389	1457	1435	1419	1415	1421	1410	1419	1429	1437	1440	1436	1434	1428	1414	1398	1399	1408	1426	1442	1449	1437	1418	1412	1415	1428	1434	1439	1442	1437	1427	1426	1426	1431	1438	1447	1440	1426	1420	1402	1392	1390	1400	1413	1413	1423	1432	1444	1451	1448	1444	1440	1439	1440	1443	1433	1422	1414	1407	1405	1399	1400	1409	1437	1443	1443	1444	1447	1449	1449	1450	1443	1450	1459	1464	1477	1477	1470	1463	1473	1471	1455	1435	1422	1431	1445	1453	1462	1463	1464	1467	1463	1465	1455	1449	1432	1428	1438	1450	1462	1469	1472	1461	1447	1430	1437	1453	1475	1485	1473	1477	1480	1491	1504	1507	1487	1457	1441	1430	1424	1431	1444	1446	1443	1434	1420	1407	1397	1398	1414	1440	1455	1447	1431	1454	1480	1483	1470	1449	1441	1448	1457	1458	1451	1464	1471	1455	1446	1448	1456	1469	1477	1518	1501	1492	1468	1452	1447	1458	1471	1484	1488	1486	1468	1465	1466	1461	1464	1470	1468	1461	1463	1463	1461	1461	1461	1471	1487	1493	1495	1487	1479	1471	1474	1472	1473	1473	1474	1479	1480	1478	1484	1492	1492	1493	1505	1496	1489	1475	1465	1466	1469	1475	1480	1473	1467	1456	1450	1450	1478	1483	1479	1482	1491	1503	1504	1492	1485	1486	1495	1502	1509	1505	1483	1477	1474	1468	1473	1491	1497	1515	1521	1496	1499	1542	1552	1551	1552	1559	1570	1586	1600	1603	1600	1578	1558	1544	1553	1567	1568	1568	1570	1571	1566	1544	1541	1540	1554	1549	1548	1558	1564	1564	1570	1598	1635	1654	1638	1622	1610	1610	1625	1621	1613	1598	1587	1585	1593	1613	1624	1631	1628	1622	1619	1630	1641	1655	1674	1674	1664	1616	1616	1629	1636	1641	1636	1634	1627	1631	1644	1653	1655	1644	1633	1628	1638	1631	1629	1644	1649	1630	1625	1622	1602	1588	1550	1507	1501	1496	1480	1457	1441	1468	1430	1449	1462	1464	1441	1458	1465	1476	1485	1468	1463	1465	1463	1454	1452	1448	1443	1443	1446	1454	1466	1466	1468	1474	1474	1466	1461	1463	1463	1464	1468	1466	1454	1443	1433	1428	1436	1465	1476	1502	1499	1482	1465	1464	1460	1450	1447	1454	1463	1458	1544	1578	1623	1747	1778	1794	1807	1810	1828	1826	1812	1818	1825	1819	1805	1800	1808	1822	1827	1814	1800	1791	1794	1802	1801	1785	1784	1792	1812	1826	1841	1849	1842	1828	1817	1811	1810	1806	1803	1801	1798	1799	1799	1786	1795	1808	1807	1805	1806	1809	1824	1826	1820	1804	1831	1831	1831	1824	1823	1823	1827	1837	1844	1844	1837	1830	1832	1822	1825	1821	1828	1828	1827	1830	1838	1835	1839	1839	1844	1849	1851	1848	1843	1845	1845	1850	1867	1888	1879	1883	1851	1834	1825	1822	1825	1825	1831	1830	1834	0	0	0	0	0	0	0	0
1245	1242	1256	1262	1277	1277	1281	1280	1283	1281	1281	1281	1292	1291	1284	1281	1281	1252	1260	1276	1296	1304	1304	1300	1296	1298	1309	1317	1331	1331	1333	1329	1306	1296	1299	1292	1288	1288	1296	1298	1302	1302	1300	1296	1286	1276	1270	1270	1283	1295	1303	1311	1315	1322	1327	1332	1328	1307	1307	1314	1323	1336	1339	1339	1340	1342	1332	1340	1346	1354	1353	1313	1326	1329	1327	1325	1325	1335	1344	1342	1332	1328	1330	1339	1350	1355	1355	1343	1327	1323	1322	1334	1344	1343	1341	1337	1337	1337	1336	1329	1326	1318	1317	1345	1357	1364	1362	1357	1359	1361	1363	1362	1354	1352	1359	1370	1376	1377	1376	1373	1376	1382	1386	1377	1365	1356	1351	1360	1362	1363	1350	1346	1366	1370	1364	1364	1370	1373	1364	1365	1366	1367	1368	1372	1377	1376	1369	1372	1383	1393	1387	1380	1368	1353	1344	1350	1353	1355	1364	1371	1377	1377	1370	1363	1361	1384	1383	1388	1402	1418	1425	1428	1425	1420	1403	1395	1397	1400	1412	1419	1424	1412	1403	1399	1397	1407	1415	1416	1421	1422	1410	1405	1407	1416	1422	1428	1420	1409	1411	1396	1385	1373	1381	1385	1395	1400	1400	1404	1419	1433	1435	1431	1427	1433	1436	1428	1419	1408	1399	1394	1396	1390	1384	1401	1430	1438	1446	1447	1449	1435	1436	1425	1435	1448	1451	1451	1452	1450	1439	1435	1429	1426	1427	1430	1437	1442	1449	1451	1455	1454	1450	1449	1443	1435	1432	1432	1420	1418	1432	1438	1444	1449	1441	1437	1433	1441	1458	1474	1472	1459	1434	1427	1436	1460	1467	1452	1441	1435	1429	1416	1414	1428	1429	1426	1414	1406	1401	1395	1402	1419	1426	1436	1431	1425	1436	1443	1454	1454	1445	1440	1444	1440	1435	1446	1463	1470	1458	1443	1439	1442	1452	1459	1457	1463	1460	1450	1444	1440	1450	1465	1477	1483	1479	1468	1461	1455	1451	1448	1449	1448	1451	1459	1459	1458	1457	1453	1454	1470	1483	1485	1480	1474	1470	1466	1464	1468	1476	1481	1482	1480	1475	1477	1484	1486	1471	1469	1473	1469	1474	1467	1466	1469	1477	1471	1467	1442	1441	1449	1459	1462	1470	1471	1469	1466	1472	1487	1490	1487	1486	1489	1491	1490	1494	1495	1485	1485	1493	1487	1475	1492	1498	1515	1517	1519	1512	1513	1512	1509	1508	1524	1547	1555	1553	1540	1529	1529	1528	1510	1482	1479	1490	1501	1506	1511	1501	1499	1521	1521	1525	1531	1550	1543	1531	1522	1532	1542	1541	1542	1545	1556	1586	1600	1602	1594	1594	1596	1590	1597	1610	1615	1610	1586	1573	1576	1583	1605	1605	1605	1570	1578	1586	1594	1593	1579	1570	1572	1578	1601	1600	1603	1618	1625	1631	1629	1622	1617	1615	1611	1603	1620	1616	1614	1614	1621	1646	1610	1561	1529	1501	1479	1461	1481	1469	1424	1452	1465	1468	1463	1467	1468	1482	1481	1472	1468	1467	1452	1446	1445	1444	1442	1448	1450	1453	1471	1488	1486	1482	1479	1472	1464	1471	1450	1441	1446	1443	1437	1432	1427	1422	1432	1450	1456	1465	1479	1471	1474	1475	1472	1471	1471	1478	1462	1459	1539	1572	1616	1723	1760	1769	1779	1794	1810	1826	1819	1796	1782	1775	1784	1780	1789	1798	1801	1790	1763	1768	1774	1785	1784	1777	1766	1765	1775	1788	1801	1819	1820	1806	1798	1797	1796	1789	1774	1761	1752	1761	1770	1771	1769	1765	1773	1776	1778	1788	1795	1782	1782	1790	1798	1803	1801	1800	1807	1811	1816	1830	1838	1835	1828	1815	1802	1792	1780	1774	1786	1800	1809	1812	1810	1825	1825	1833	1830	1832	1832	1832	1830	1829	1825	1816	1812	1817	1827	1825	1823	1824	1810	1805	1801	1801	1800	1810	1812	0	0	0	0	0	0	0	0
1233	1239	1245	1253	1264	1264	1265	1270	1284	1285	1285	1279	1278	1273	1258	1250	1250	1238	1237	1237	1243	1264	1274	1274	1283	1298	1304	1311	1319	1317	1317	1303	1290	1284	1280	1280	1284	1288	1288	1290	1283	1279	1284	1288	1288	1286	1283	1283	1286	1295	1304	1314	1310	1306	1298	1290	1284	1287	1303	1303	1319	1332	1328	1331	1332	1328	1316	1306	1305	1296	1301	1303	1304	1304	1301	1305	1305	1312	1317	1325	1315	1312	1314	1322	1337	1336	1340	1323	1306	1299	1300	1303	1320	1317	1317	1324	1328	1328	1320	1313	1305	1302	1304	1310	1323	1338	1339	1335	1328	1330	1337	1343	1339	1330	1330	1347	1349	1347	1340	1349	1348	1364	1367	1361	1360	1354	1342	1320	1321	1323	1318	1312	1311	1323	1334	1340	1346	1343	1345	1352	1353	1354	1352	1352	1353	1344	1342	1352	1375	1382	1369	1338	1338	1337	1333	1333	1333	1338	1348	1355	1358	1362	1363	1356	1348	1345	1345	1362	1390	1398	1405	1409	1408	1399	1395	1395	1396	1399	1401	1400	1400	1392	1391	1385	1378	1376	1367	1374	1378	1390	1387	1385	1392	1402	1405	1406	1398	1394	1397	1389	1367	1360	1364	1379	1387	1380	1373	1376	1396	1415	1422	1423	1415	1417	1418	1420	1413	1400	1382	1373	1357	1359	1360	1378	1403	1417	1403	1394	1393	1391	1397	1398	1394	1391	1433	1433	1426	1420	1417	1410	1410	1415	1426	1430	1429	1435	1437	1438	1440	1438	1444	1436	1435	1432	1429	1427	1412	1408	1412	1419	1427	1422	1419	1423	1429	1437	1454	1463	1455	1432	1408	1399	1408	1429	1433	1431	1431	1430	1427	1412	1416	1413	1414	1414	1408	1401	1393	1391	1394	1406	1416	1422	1413	1407	1409	1415	1423	1432	1433	1433	1438	1426	1430	1439	1455	1448	1446	1437	1429	1427	1432	1441	1451	1455	1452	1444	1437	1440	1448	1461	1472	1472	1464	1450	1440	1426	1438	1445	1446	1445	1448	1445	1450	1455	1448	1444	1444	1456	1462	1470	1470	1465	1463	1457	1456	1465	1469	1469	1461	1448	1444	1459	1463	1439	1430	1436	1441	1450	1461	1462	1459	1452	1447	1440	1431	1429	1431	1435	1441	1435	1435	1450	1452	1456	1461	1472	1474	1482	1484	1479	1481	1478	1482	1487	1480	1473	1476	1473	1459	1455	1455	1470	1486	1490	1503	1511	1505	1488	1487	1488	1487	1480	1466	1454	1458	1480	1479	1476	1470	1470	1476	1483	1499	1504	1499	1495	1494	1494	1497	1513	1515	1506	1502	1505	1522	1526	1514	1513	1510	1521	1547	1566	1564	1569	1577	1594	1591	1585	1578	1566	1549	1541	1534	1540	1550	1552	1552	1554	1559	1560	1562	1558	1537	1533	1526	1525	1532	1529	1522	1536	1560	1582	1607	1603	1575	1599	1604	1606	1593	1577	1559	1559	1583	1601	1632	1623	1604	1594	1548	1496	1480	1471	1456	1429	1455	1477	1466	1462	1473	1476	1484	1480	1473	1476	1471	1443	1437	1440	1443	1448	1452	1448	1453	1468	1490	1515	1503	1499	1491	1487	1471	1456	1447	1445	1444	1439	1432	1427	1422	1424	1436	1440	1438	1445	1461	1478	1481	1483	1484	1489	1493	1468	1476	1527	1562	1618	1722	1741	1738	1742	1750	1772	1791	1777	1766	1761	1758	1752	1757	1745	1740	1733	1727	1721	1728	1743	1754	1760	1744	1727	1718	1727	1743	1759	1781	1779	1772	1771	1776	1774	1771	1756	1741	1744	1748	1758	1766	1757	1747	1748	1745	1737	1743	1747	1755	1763	1779	1785	1786	1782	1779	1781	1797	1808	1820	1823	1818	1804	1791	1778	1765	1758	1749	1758	1776	1794	1788	1779	1785	1785	1802	1806	1804	1803	1804	1810	1795	1786	1783	1784	1786	1794	1793	1810	1808	1797	1789	1782	1782	1786	1791	1798	0	0	0	0	0	0	0	0
1226	1225	1234	1246	1252	1252	1250	1255	1269	1273	1273	1271	1265	1260	1242	1238	1238	1230	1226	1223	1225	1238	1251	1251	1255	1260	1271	1284	1297	1300	1300	1288	1278	1270	1270	1276	1279	1284	1284	1278	1273	1271	1275	1277	1280	1282	1276	1276	1276	1289	1300	1310	1307	1293	1275	1266	1265	1264	1280	1280	1296	1313	1320	1317	1320	1317	1308	1282	1275	1272	1274	1274	1274	1276	1274	1278	1278	1283	1286	1295	1296	1297	1299	1311	1316	1291	1284	1282	1280	1271	1266	1266	1279	1290	1298	1307	1317	1315	1307	1299	1286	1289	1290	1294	1296	1301	1299	1299	1299	1301	1303	1318	1329	1325	1316	1308	1303	1301	1302	1308	1321	1320	1314	1312	1312	1320	1316	1300	1302	1306	1303	1299	1300	1304	1311	1317	1321	1323	1327	1328	1335	1332	1333	1310	1298	1293	1297	1320	1346	1351	1328	1324	1325	1321	1313	1306	1313	1324	1326	1321	1333	1343	1344	1346	1338	1317	1318	1343	1347	1341	1334	1326	1343	1357	1361	1369	1365	1367	1355	1354	1352	1355	1370	1367	1356	1337	1333	1339	1348	1353	1351	1354	1372	1383	1390	1385	1376	1365	1372	1369	1361	1353	1357	1358	1368	1365	1355	1347	1357	1371	1387	1382	1385	1391	1387	1405	1401	1371	1367	1371	1370	1383	1376	1374	1380	1375	1366	1355	1354	1358	1369	1373	1368	1344	1345	1344	1378	1381	1378	1382	1385	1398	1403	1404	1399	1401	1417	1419	1411	1418	1426	1437	1437	1430	1426	1420	1413	1399	1404	1407	1404	1391	1393	1397	1404	1417	1435	1439	1432	1416	1384	1390	1403	1409	1414	1416	1417	1417	1414	1407	1399	1397	1393	1391	1393	1395	1392	1385	1390	1394	1401	1402	1390	1381	1384	1389	1398	1412	1424	1430	1431	1428	1422	1415	1418	1426	1430	1424	1418	1415	1421	1431	1444	1445	1446	1439	1433	1435	1443	1447	1449	1441	1430	1428	1423	1419	1417	1435	1443	1445	1442	1445	1441	1444	1440	1435	1435	1439	1441	1447	1454	1453	1452	1449	1448	1450	1448	1450	1447	1438	1431	1429	1426	1413	1412	1411	1416	1411	1413	1421	1435	1438	1431	1423	1415	1413	1416	1422	1427	1428	1426	1427	1433	1436	1433	1437	1453	1467	1457	1446	1434	1433	1440	1455	1458	1460	1456	1451	1446	1443	1448	1456	1460	1459	1468	1466	1467	1461	1462	1459	1450	1436	1430	1432	1426	1436	1444	1460	1471	1476	1488	1500	1501	1499	1497	1496	1484	1470	1466	1467	1467	1467	1482	1498	1505	1499	1499	1490	1493	1497	1517	1529	1537	1535	1542	1554	1561	1563	1550	1538	1524	1504	1501	1507	1506	1523	1537	1523	1501	1488	1486	1476	1484	1503	1507	1509	1504	1503	1496	1508	1532	1550	1570	1570	1551	1551	1559	1564	1550	1532	1523	1515	1520	1535	1540	1545	1556	1563	1554	1524	1484	1458	1448	1472	1471	1488	1465	1448	1475	1485	1486	1498	1478	1479	1472	1443	1440	1444	1450	1467	1467	1452	1451	1469	1509	1517	1498	1491	1482	1481	1471	1460	1452	1447	1450	1451	1444	1432	1426	1427	1429	1429	1420	1430	1441	1471	1488	1482	1484	1489	1489	1478	1493	1523	1560	1642	1714	1714	1714	1709	1709	1709	1717	1692	1714	1735	1737	1732	1719	1714	1704	1705	1697	1695	1696	1706	1722	1727	1718	1703	1683	1682	1679	1668	1673	1704	1717	1737	1745	1748	1742	1742	1742	1735	1740	1749	1748	1741	1722	1714	1718	1714	1721	1730	1728	1736	1757	1764	1759	1724	1719	1737	1749	1746	1756	1764	1773	1770	1767	1754	1746	1742	1738	1744	1760	1775	1770	1763	1759	1759	1763	1750	1765	1765	1760	1766	1763	1732	1722	1724	1727	1732	1751	1783	1796	1782	1769	1765	1765	1768	1773	1775	0	0	0	0	0	0	0	0
1193	1208	1217	1225	1233	1233	1227	1236	1250	1262	1262	1262	1253	1237	1228	1227	1227	1228	1226	1213	1211	1219	1226	1226	1226	1232	1244	1262	1280	1278	1278	1269	1261	1255	1253	1259	1266	1265	1265	1253	1252	1253	1262	1267	1267	1268	1262	1262	1263	1271	1290	1299	1285	1260	1258	1257	1257	1264	1272	1272	1278	1281	1278	1281	1292	1272	1262	1245	1233	1223	1235	1241	1251	1250	1249	1255	1264	1264	1265	1269	1270	1277	1272	1269	1267	1263	1263	1260	1261	1257	1252	1251	1254	1267	1278	1290	1291	1282	1275	1268	1268	1271	1277	1280	1282	1284	1287	1285	1277	1276	1280	1292	1300	1302	1295	1292	1290	1293	1295	1302	1306	1301	1293	1285	1281	1283	1281	1288	1293	1299	1300	1296	1296	1296	1302	1307	1308	1307	1302	1295	1318	1313	1295	1293	1286	1284	1287	1302	1319	1328	1324	1308	1307	1296	1289	1286	1283	1275	1281	1285	1304	1316	1323	1326	1311	1302	1301	1323	1330	1326	1314	1310	1306	1303	1303	1320	1326	1320	1317	1319	1330	1335	1344	1349	1335	1324	1319	1323	1329	1336	1335	1339	1347	1358	1361	1356	1347	1346	1351	1363	1360	1356	1348	1346	1344	1339	1334	1330	1321	1327	1334	1349	1352	1361	1360	1345	1348	1339	1346	1351	1368	1374	1375	1370	1368	1360	1347	1335	1331	1336	1347	1351	1337	1334	1327	1333	1338	1346	1354	1341	1340	1345	1353	1365	1370	1379	1382	1383	1384	1384	1391	1418	1432	1413	1405	1390	1374	1366	1370	1378	1382	1382	1378	1382	1385	1389	1396	1409	1406	1385	1372	1379	1391	1394	1398	1394	1393	1395	1390	1384	1385	1379	1381	1379	1387	1384	1391	1385	1384	1384	1385	1385	1378	1374	1369	1363	1364	1384	1405	1418	1423	1420	1412	1405	1405	1414	1415	1404	1392	1391	1398	1414	1428	1422	1419	1428	1424	1428	1421	1425	1424	1420	1418	1414	1413	1405	1406	1415	1427	1424	1417	1410	1418	1418	1416	1423	1424	1423	1419	1422	1430	1439	1444	1441	1440	1425	1414	1407	1405	1412	1421	1426	1423	1413	1400	1404	1405	1414	1413	1413	1420	1411	1402	1404	1402	1400	1405	1408	1414	1415	1418	1423	1419	1417	1414	1420	1431	1440	1437	1419	1413	1405	1407	1422	1435	1439	1437	1428	1424	1429	1443	1449	1448	1440	1439	1449	1448	1436	1433	1429	1430	1429	1433	1442	1438	1434	1423	1431	1440	1456	1471	1469	1475	1475	1480	1479	1467	1441	1435	1438	1436	1440	1436	1444	1459	1453	1445	1459	1465	1485	1495	1501	1501	1505	1517	1525	1527	1520	1518	1510	1498	1492	1478	1487	1497	1508	1504	1491	1478	1465	1458	1459	1466	1468	1477	1491	1502	1485	1467	1480	1489	1493	1537	1550	1522	1514	1493	1499	1513	1505	1504	1509	1513	1523	1516	1507	1504	1512	1513	1522	1473	1458	1462	1479	1487	1474	1459	1448	1476	1489	1495	1496	1485	1480	1470	1455	1454	1461	1484	1488	1470	1464	1470	1487	1505	1505	1479	1458	1459	1478	1473	1468	1455	1445	1434	1429	1430	1433	1434	1441	1441	1437	1435	1439	1447	1470	1483	1485	1487	1485	1486	1477	1499	1518	1539	1650	1664	1670	1670	1676	1678	1667	1645	1631	1643	1661	1705	1712	1695	1678	1674	1666	1670	1677	1673	1683	1702	1707	1693	1671	1642	1641	1635	1642	1660	1673	1686	1705	1714	1724	1718	1717	1713	1729	1729	1730	1724	1717	1710	1702	1692	1688	1682	1676	1670	1670	1676	1695	1707	1693	1689	1715	1730	1733	1726	1718	1722	1696	1683	1691	1704	1717	1728	1740	1743	1733	1727	1723	1723	1733	1729	1715	1702	1703	1702	1717	1720	1704	1703	1693	1692	1693	1688	1696	1740	1739	1729	1729	1713	1720	1720	1736	0	0	0	0	0	0	0	0
1154	1166	1175	1189	1194	1194	1200	1213	1233	1242	1231	1231	1225	1214	1215	1223	1229	1229	1228	1220	1204	1203	1203	1203	1210	1218	1233	1244	1255	1248	1248	1224	1209	1208	1224	1239	1242	1237	1237	1229	1219	1224	1213	1215	1229	1236	1236	1236	1232	1240	1241	1228	1232	1236	1242	1247	1252	1253	1263	1263	1256	1248	1241	1223	1249	1251	1247	1236	1226	1217	1216	1218	1226	1228	1229	1235	1243	1243	1253	1251	1247	1243	1240	1246	1243	1241	1246	1250	1244	1237	1229	1206	1213	1224	1229	1226	1228	1229	1232	1240	1245	1253	1260	1265	1266	1267	1268	1273	1264	1261	1264	1272	1275	1275	1276	1268	1266	1269	1277	1284	1292	1284	1282	1280	1273	1274	1277	1280	1280	1293	1295	1290	1287	1285	1293	1303	1307	1310	1302	1297	1288	1286	1290	1289	1284	1278	1279	1286	1301	1306	1305	1300	1297	1290	1277	1269	1260	1264	1266	1272	1291	1301	1305	1303	1290	1286	1293	1306	1299	1299	1294	1294	1294	1291	1287	1285	1280	1284	1301	1312	1317	1321	1329	1339	1330	1316	1309	1316	1325	1326	1328	1323	1324	1324	1327	1328	1322	1327	1338	1364	1374	1373	1348	1335	1332	1323	1319	1312	1310	1314	1319	1326	1332	1338	1322	1302	1305	1305	1317	1335	1353	1361	1358	1361	1361	1356	1341	1322	1313	1319	1331	1333	1326	1325	1322	1317	1314	1317	1316	1308	1325	1318	1313	1324	1334	1346	1354	1364	1364	1357	1348	1346	1348	1355	1346	1340	1337	1354	1361	1366	1375	1381	1380	1376	1369	1373	1368	1357	1322	1323	1341	1364	1376	1374	1363	1368	1369	1371	1371	1369	1362	1359	1359	1358	1359	1367	1381	1378	1376	1375	1376	1371	1365	1348	1334	1330	1338	1355	1379	1390	1398	1399	1405	1399	1391	1381	1374	1368	1360	1358	1367	1385	1397	1381	1360	1367	1372	1377	1386	1394	1405	1401	1398	1395	1383	1383	1383	1390	1391	1381	1390	1400	1409	1411	1411	1415	1412	1405	1399	1396	1402	1406	1408	1412	1411	1408	1397	1385	1380	1391	1408	1419	1421	1413	1391	1387	1396	1397	1395	1400	1399	1386	1374	1371	1383	1386	1391	1393	1397	1405	1416	1418	1414	1406	1400	1390	1401	1419	1419	1409	1396	1394	1401	1413	1419	1418	1412	1413	1410	1424	1436	1439	1437	1425	1430	1437	1432	1429	1423	1418	1418	1419	1429	1443	1447	1438	1420	1409	1416	1431	1440	1435	1428	1433	1445	1443	1433	1415	1414	1418	1416	1417	1419	1414	1427	1424	1422	1420	1434	1445	1455	1462	1463	1466	1472	1466	1457	1453	1463	1479	1457	1453	1471	1482	1491	1495	1452	1438	1437	1440	1441	1449	1456	1456	1453	1467	1470	1461	1455	1446	1451	1466	1468	1464	1468	1472	1479	1480	1486	1486	1491	1500	1514	1513	1507	1501	1501	1494	1494	1496	1480	1473	1470	1473	1475	1463	1452	1462	1476	1482	1492	1502	1492	1475	1473	1480	1489	1495	1507	1498	1478	1470	1475	1494	1499	1483	1465	1448	1446	1472	1478	1483	1474	1460	1447	1434	1439	1451	1463	1464	1469	1467	1464	1465	1471	1474	1485	1495	1504	1501	1498	1479	1493	1506	1551	1589	1632	1643	1645	1641	1640	1628	1611	1610	1621	1628	1636	1670	1668	1656	1634	1628	1642	1655	1654	1659	1654	1653	1646	1624	1619	1618	1624	1639	1650	1657	1662	1664	1657	1668	1681	1682	1673	1687	1682	1690	1693	1670	1671	1676	1670	1653	1653	1643	1641	1650	1664	1675	1686	1680	1677	1686	1723	1716	1700	1678	1669	1660	1659	1669	1684	1707	1714	1710	1710	1706	1694	1684	1684	1686	1681	1670	1661	1663	1679	1688	1691	1688	1679	1670	1677	1669	1661	1664	1681	1709	1701	1701	1689	1672	1660	1696	0	0	0	0	0	0	0	0
1162	1167	1174	1185	1185	1185	1186	1187	1191	1186	1180	1180	1176	1181	1197	1217	1219	1219	1225	1216	1201	1178	1173	1173	1185	1204	1216	1227	1219	1206	1206	1196	1188	1194	1209	1219	1225	1217	1217	1205	1198	1197	1202	1200	1205	1207	1207	1213	1213	1216	1216	1206	1203	1211	1225	1232	1239	1244	1247	1247	1250	1232	1206	1197	1207	1221	1228	1224	1215	1211	1211	1210	1215	1213	1215	1221	1227	1227	1231	1232	1232	1233	1226	1223	1223	1231	1236	1238	1231	1217	1199	1192	1197	1195	1203	1207	1212	1216	1217	1216	1227	1230	1224	1218	1223	1238	1247	1255	1242	1241	1243	1254	1259	1257	1244	1226	1217	1224	1242	1262	1262	1258	1258	1268	1270	1268	1271	1287	1283	1280	1271	1255	1256	1273	1286	1296	1306	1307	1299	1287	1276	1274	1277	1280	1278	1272	1267	1266	1268	1277	1282	1285	1283	1284	1274	1260	1248	1249	1258	1271	1288	1297	1296	1285	1280	1283	1295	1297	1293	1289	1286	1286	1284	1280	1277	1273	1271	1279	1290	1302	1311	1315	1318	1323	1318	1308	1302	1305	1315	1321	1319	1301	1276	1290	1295	1292	1288	1294	1311	1340	1321	1304	1307	1312	1318	1316	1316	1314	1312	1304	1307	1312	1315	1314	1303	1291	1277	1285	1300	1322	1334	1340	1341	1338	1338	1341	1319	1301	1299	1306	1320	1324	1323	1318	1305	1297	1291	1293	1302	1303	1298	1298	1315	1317	1323	1332	1341	1347	1346	1334	1326	1319	1324	1328	1327	1327	1331	1331	1343	1347	1346	1360	1368	1370	1364	1357	1343	1315	1292	1302	1325	1355	1363	1356	1340	1342	1352	1360	1363	1358	1345	1334	1328	1329	1323	1341	1349	1343	1346	1348	1348	1346	1342	1333	1317	1310	1321	1335	1352	1368	1372	1378	1386	1386	1373	1369	1365	1354	1339	1330	1328	1331	1334	1335	1340	1340	1345	1349	1351	1360	1361	1356	1344	1341	1350	1354	1360	1363	1356	1359	1361	1396	1404	1404	1400	1402	1398	1391	1389	1390	1385	1375	1376	1369	1377	1376	1365	1346	1340	1345	1375	1403	1409	1402	1384	1381	1385	1386	1388	1382	1363	1361	1352	1354	1364	1374	1375	1378	1381	1393	1406	1413	1397	1389	1382	1376	1382	1390	1393	1388	1380	1386	1397	1409	1417	1396	1389	1388	1395	1408	1425	1429	1423	1417	1418	1427	1429	1419	1411	1406	1404	1407	1419	1434	1439	1419	1388	1369	1386	1397	1408	1406	1390	1399	1417	1421	1411	1407	1406	1393	1374	1374	1395	1394	1400	1409	1409	1407	1415	1424	1432	1432	1434	1421	1415	1410	1422	1421	1411	1424	1435	1440	1448	1445	1441	1425	1417	1403	1396	1402	1410	1433	1442	1435	1433	1437	1443	1450	1446	1434	1433	1441	1444	1435	1443	1455	1462	1465	1476	1481	1493	1500	1499	1500	1493	1496	1498	1497	1488	1481	1483	1473	1467	1456	1460	1468	1474	1465	1476	1478	1486	1495	1492	1486	1479	1477	1488	1493	1485	1473	1462	1460	1484	1507	1507	1484	1470	1463	1453	1460	1476	1491	1503	1480	1469	1453	1469	1470	1503	1504	1498	1493	1497	1502	1491	1489	1489	1499	1509	1514	1518	1524	1503	1514	1554	1588	1605	1613	1617	1617	1608	1598	1595	1592	1596	1603	1603	1612	1615	1601	1593	1602	1613	1627	1634	1635	1638	1642	1635	1621	1612	1608	1609	1625	1632	1640	1641	1641	1624	1597	1607	1619	1642	1629	1622	1617	1605	1619	1629	1642	1648	1648	1642	1635	1635	1645	1657	1649	1655	1649	1651	1649	1645	1647	1649	1650	1641	1645	1654	1658	1654	1657	1663	1675	1683	1679	1667	1656	1656	1656	1646	1642	1641	1644	1657	1670	1673	1665	1664	1665	1650	1646	1630	1631	1649	1684	1678	1678	1670	1653	1640	1635	0	0	0	0	0	0	0	0
1174	1178	1186	1190	1185	1179	1179	1170	1171	1176	1170	1170	1170	1176	1185	1203	1166	1166	1164	1165	1163	1156	1148	1148	1153	1180	1191	1164	1146	1157	1157	1165	1176	1184	1191	1196	1198	1191	1191	1191	1193	1198	1192	1193	1192	1195	1194	1195	1195	1194	1200	1207	1209	1205	1197	1210	1225	1233	1235	1228	1211	1201	1188	1180	1186	1209	1221	1220	1213	1206	1203	1203	1205	1207	1208	1213	1214	1210	1210	1214	1219	1222	1218	1206	1211	1220	1228	1231	1219	1198	1188	1183	1185	1187	1194	1197	1194	1197	1209	1213	1220	1217	1196	1194	1199	1205	1213	1222	1231	1230	1233	1234	1237	1232	1221	1211	1204	1206	1211	1215	1207	1207	1232	1242	1239	1243	1249	1263	1259	1239	1228	1212	1215	1228	1254	1285	1299	1297	1289	1270	1261	1254	1260	1259	1259	1256	1246	1240	1241	1248	1264	1264	1267	1270	1268	1253	1240	1236	1243	1259	1274	1266	1267	1265	1260	1263	1271	1291	1285	1284	1283	1278	1272	1269	1258	1252	1254	1259	1274	1283	1279	1276	1272	1266	1303	1286	1274	1266	1267	1256	1247	1242	1251	1266	1285	1285	1276	1272	1279	1291	1281	1272	1279	1277	1281	1282	1307	1300	1277	1290	1294	1303	1300	1298	1292	1279	1264	1272	1290	1307	1313	1317	1317	1317	1306	1275	1255	1268	1279	1295	1310	1313	1311	1310	1303	1296	1290	1287	1289	1288	1287	1282	1274	1281	1315	1320	1326	1328	1319	1308	1306	1305	1319	1325	1324	1321	1320	1309	1306	1306	1307	1314	1322	1347	1346	1340	1325	1297	1289	1290	1305	1328	1338	1336	1335	1333	1334	1345	1347	1335	1335	1327	1328	1327	1329	1330	1332	1325	1325	1327	1330	1330	1331	1320	1307	1293	1305	1326	1331	1341	1347	1355	1361	1355	1357	1362	1354	1346	1332	1320	1317	1315	1316	1324	1333	1335	1334	1336	1336	1338	1345	1342	1332	1322	1312	1319	1325	1326	1339	1342	1346	1355	1382	1389	1385	1371	1366	1366	1368	1369	1359	1360	1352	1343	1343	1336	1329	1326	1321	1324	1334	1353	1367	1370	1372	1370	1376	1366	1363	1356	1343	1331	1339	1344	1348	1350	1354	1353	1352	1360	1364	1367	1367	1365	1366	1363	1358	1355	1358	1353	1355	1362	1380	1386	1391	1383	1377	1385	1395	1406	1414	1412	1409	1401	1402	1410	1412	1411	1411	1401	1389	1394	1393	1392	1390	1383	1359	1357	1357	1370	1376	1367	1361	1357	1379	1386	1388	1391	1392	1380	1365	1365	1388	1395	1400	1405	1404	1400	1400	1401	1407	1413	1410	1402	1394	1386	1371	1381	1404	1420	1423	1424	1417	1403	1400	1406	1399	1388	1383	1388	1395	1399	1405	1407	1407	1412	1414	1420	1414	1409	1410	1417	1434	1423	1421	1439	1444	1437	1424	1419	1443	1456	1457	1459	1474	1480	1475	1474	1478	1479	1471	1465	1460	1461	1460	1461	1464	1470	1470	1471	1474	1478	1478	1446	1456	1466	1477	1484	1483	1483	1491	1494	1492	1491	1489	1483	1477	1472	1469	1466	1474	1481	1507	1516	1514	1511	1507	1503	1508	1505	1501	1507	1516	1525	1513	1505	1502	1501	1509	1516	1528	1543	1549	1558	1566	1563	1569	1573	1584	1584	1577	1574	1576	1581	1580	1586	1586	1588	1587	1580	1574	1574	1580	1586	1590	1603	1626	1631	1618	1589	1566	1571	1592	1609	1627	1621	1621	1614	1600	1590	1586	1600	1607	1600	1605	1599	1591	1587	1601	1607	1616	1627	1634	1631	1628	1627	1629	1624	1619	1611	1617	1623	1626	1625	1615	1614	1622	1636	1639	1638	1623	1616	1611	1634	1646	1639	1627	1627	1622	1627	1631	1630	1631	1630	1629	1633	1636	1637	1640	1641	1646	1633	1613	1603	1613	1631	1642	1642	1644	1630	1622	1610	0	0	0	0	0	0	0	0
1175	1175	1181	1167	1160	1159	1159	1159	1164	1168	1171	1171	1174	1172	1178	1171	1147	1147	1148	1144	1142	1143	1142	1135	1135	1130	1129	1132	1156	1160	1161	1161	1163	1164	1175	1173	1179	1181	1187	1187	1190	1187	1178	1173	1179	1179	1177	1178	1178	1182	1193	1203	1203	1191	1181	1165	1169	1198	1215	1198	1198	1184	1172	1164	1178	1199	1217	1219	1209	1199	1195	1189	1188	1189	1194	1197	1195	1190	1190	1197	1207	1212	1191	1181	1171	1170	1172	1174	1181	1185	1185	1183	1183	1185	1190	1190	1184	1180	1196	1204	1203	1185	1186	1185	1195	1197	1205	1210	1213	1216	1214	1209	1206	1210	1210	1205	1198	1188	1196	1208	1204	1192	1194	1201	1212	1224	1225	1231	1234	1222	1212	1203	1211	1221	1237	1238	1231	1221	1216	1227	1223	1208	1201	1207	1222	1234	1237	1234	1232	1234	1249	1257	1263	1267	1264	1249	1233	1225	1217	1207	1212	1223	1228	1233	1237	1239	1238	1240	1255	1267	1267	1261	1252	1249	1245	1240	1235	1244	1249	1241	1219	1207	1208	1211	1226	1239	1238	1251	1246	1243	1234	1229	1238	1247	1255	1264	1269	1263	1267	1267	1265	1256	1260	1252	1255	1255	1254	1245	1254	1259	1273	1287	1273	1276	1279	1272	1265	1264	1277	1290	1290	1274	1267	1263	1253	1239	1236	1245	1265	1281	1296	1299	1295	1291	1291	1294	1283	1270	1265	1253	1264	1256	1254	1262	1266	1267	1304	1298	1287	1279	1286	1296	1310	1313	1310	1311	1311	1312	1304	1287	1286	1289	1285	1292	1303	1303	1302	1296	1306	1309	1310	1307	1302	1300	1307	1308	1306	1320	1325	1329	1329	1326	1327	1327	1329	1326	1323	1311	1312	1314	1319	1311	1297	1295	1294	1289	1284	1290	1288	1286	1291	1309	1316	1323	1313	1317	1328	1327	1322	1319	1314	1310	1317	1329	1330	1324	1318	1308	1308	1320	1324	1322	1309	1301	1298	1294	1301	1312	1321	1325	1329	1328	1323	1320	1318	1321	1333	1345	1357	1361	1355	1342	1334	1325	1317	1306	1304	1304	1305	1312	1319	1326	1345	1354	1357	1362	1353	1343	1324	1316	1321	1337	1342	1342	1337	1330	1320	1321	1327	1339	1346	1329	1322	1317	1335	1350	1351	1343	1337	1336	1334	1347	1365	1370	1369	1366	1363	1368	1378	1396	1405	1393	1377	1379	1388	1395	1394	1390	1392	1387	1386	1375	1379	1374	1367	1354	1359	1358	1348	1351	1349	1336	1342	1350	1365	1369	1366	1362	1363	1363	1366	1373	1376	1377	1379	1387	1388	1379	1366	1368	1398	1402	1392	1395	1377	1372	1373	1384	1398	1411	1416	1400	1393	1384	1383	1391	1386	1376	1375	1383	1387	1387	1378	1381	1391	1397	1398	1383	1388	1388	1391	1401	1416	1406	1398	1401	1400	1391	1386	1394	1393	1399	1402	1425	1437	1450	1450	1460	1459	1470	1466	1461	1452	1458	1460	1458	1457	1454	1449	1443	1451	1455	1451	1439	1427	1439	1467	1477	1484	1488	1483	1496	1489	1476	1465	1453	1453	1456	1450	1465	1469	1463	1461	1474	1484	1501	1515	1519	1504	1485	1489	1502	1516	1532	1528	1519	1512	1508	1506	1512	1519	1540	1551	1557	1553	1548	1533	1541	1551	1555	1551	1535	1548	1558	1566	1573	1578	1571	1567	1560	1550	1549	1555	1562	1565	1571	1576	1570	1562	1550	1550	1563	1579	1601	1617	1614	1609	1599	1587	1576	1576	1582	1582	1575	1575	1582	1576	1577	1577	1581	1591	1603	1608	1608	1594	1573	1572	1574	1573	1581	1585	1595	1606	1601	1589	1585	1596	1615	1618	1610	1598	1588	1591	1600	1612	1621	1617	1617	1619	1631	1636	1629	1621	1619	1611	1605	1591	1576	1587	1599	1612	1613	1601	1592	1586	1580	1580	1575	1584	1599	1594	1584	0	0	0	0	0	0	0	0
1161	1161	1151	1143	1126	1135	1135	1138	1149	1164	1169	1169	1165	1161	1164	1154	1135	1135	1130	1135	1135	1137	1136	1130	1130	1125	1137	1146	1151	1159	1155	1155	1148	1147	1150	1156	1163	1167	1171	1171	1178	1175	1167	1165	1168	1167	1166	1165	1165	1171	1182	1188	1188	1171	1152	1140	1144	1142	1143	1178	1178	1163	1145	1137	1151	1168	1206	1208	1202	1189	1175	1168	1165	1155	1159	1159	1167	1167	1167	1172	1177	1182	1176	1166	1155	1148	1143	1147	1154	1163	1171	1174	1182	1186	1192	1188	1174	1146	1139	1146	1165	1173	1178	1179	1175	1167	1177	1184	1191	1194	1196	1195	1195	1202	1209	1206	1195	1194	1198	1204	1202	1194	1193	1200	1203	1202	1192	1189	1190	1195	1198	1208	1218	1223	1226	1227	1220	1216	1208	1200	1191	1185	1186	1194	1209	1220	1230	1232	1231	1231	1232	1248	1252	1256	1255	1245	1231	1213	1186	1182	1187	1205	1217	1223	1224	1216	1219	1221	1244	1254	1246	1238	1233	1231	1224	1217	1217	1222	1221	1214	1204	1198	1198	1197	1210	1215	1218	1219	1199	1185	1219	1225	1233	1232	1238	1249	1251	1244	1235	1227	1221	1230	1238	1245	1248	1248	1247	1240	1228	1225	1240	1255	1260	1259	1265	1264	1263	1259	1266	1249	1250	1246	1243	1242	1232	1222	1216	1229	1247	1263	1267	1266	1265	1270	1278	1274	1251	1243	1242	1231	1224	1227	1240	1249	1255	1251	1249	1243	1263	1259	1270	1282	1290	1295	1288	1283	1302	1299	1297	1273	1269	1265	1261	1253	1258	1266	1291	1287	1276	1269	1262	1264	1272	1275	1261	1262	1276	1299	1302	1302	1296	1291	1290	1290	1317	1319	1298	1300	1300	1288	1269	1254	1253	1268	1277	1285	1275	1268	1265	1268	1273	1284	1289	1288	1266	1278	1281	1289	1312	1317	1314	1314	1309	1305	1304	1300	1283	1279	1294	1298	1304	1295	1289	1285	1291	1294	1299	1303	1310	1311	1309	1297	1273	1274	1275	1275	1292	1317	1333	1346	1346	1333	1318	1303	1292	1285	1283	1286	1290	1288	1301	1306	1321	1340	1350	1345	1322	1314	1300	1299	1308	1321	1335	1340	1326	1312	1300	1292	1289	1294	1293	1296	1300	1302	1309	1321	1334	1334	1331	1328	1326	1323	1317	1340	1347	1341	1342	1340	1340	1341	1342	1350	1354	1359	1358	1352	1343	1354	1348	1343	1350	1365	1377	1366	1335	1324	1342	1358	1358	1353	1347	1339	1336	1341	1349	1356	1355	1349	1350	1352	1359	1369	1363	1353	1348	1350	1358	1349	1347	1357	1360	1368	1358	1362	1364	1366	1377	1391	1398	1399	1395	1384	1374	1374	1367	1366	1368	1364	1360	1370	1373	1367	1360	1364	1373	1383	1389	1382	1373	1376	1385	1388	1376	1382	1385	1385	1380	1378	1375	1383	1392	1393	1390	1398	1402	1416	1427	1431	1426	1433	1425	1426	1432	1441	1445	1441	1433	1416	1428	1438	1448	1447	1438	1425	1408	1409	1419	1421	1407	1406	1423	1453	1468	1470	1455	1439	1439	1451	1454	1461	1470	1467	1472	1478	1471	1468	1466	1463	1471	1479	1486	1491	1495	1501	1516	1513	1511	1504	1499	1504	1516	1536	1548	1549	1542	1524	1522	1519	1525	1521	1518	1488	1503	1533	1550	1563	1568	1560	1550	1539	1527	1523	1529	1535	1538	1537	1537	1540	1534	1530	1534	1545	1561	1576	1585	1590	1579	1568	1563	1558	1552	1550	1551	1545	1535	1534	1538	1550	1561	1556	1548	1547	1556	1559	1554	1547	1545	1543	1544	1546	1556	1567	1564	1557	1547	1556	1568	1583	1593	1593	1577	1570	1566	1576	1581	1597	1609	1609	1613	1619	1619	1602	1587	1586	1586	1569	1551	1547	1548	1561	1570	1575	1575	1573	1569	1560	1560	1543	1534	1545	1558	1560	0	0	0	0	0	0	0	0
1131	1131	1114	1101	1101	1108	1108	1116	1123	1128	1127	1127	1127	1122	1130	1130	1109	1109	1113	1115	1128	1130	1133	1130	1130	1123	1120	1125	1128	1143	1143	1143	1139	1141	1140	1141	1141	1149	1156	1156	1162	1165	1163	1162	1162	1157	1152	1146	1157	1157	1168	1171	1165	1151	1139	1131	1121	1125	1129	1125	1125	1133	1132	1137	1144	1149	1156	1160	1160	1156	1153	1144	1137	1135	1138	1138	1150	1148	1152	1152	1152	1162	1158	1151	1140	1134	1132	1134	1138	1142	1147	1154	1160	1166	1164	1159	1144	1129	1120	1123	1148	1163	1174	1174	1164	1157	1163	1171	1169	1169	1171	1170	1181	1195	1206	1204	1197	1191	1193	1198	1191	1182	1178	1184	1184	1188	1184	1178	1180	1179	1181	1196	1207	1212	1213	1215	1211	1208	1201	1189	1177	1177	1184	1189	1197	1206	1221	1228	1227	1222	1217	1219	1221	1227	1232	1227	1215	1199	1179	1178	1189	1210	1217	1218	1204	1200	1202	1208	1238	1239	1221	1207	1201	1199	1196	1197	1199	1204	1207	1201	1195	1194	1193	1187	1192	1198	1207	1201	1192	1178	1168	1170	1181	1218	1230	1238	1233	1221	1210	1199	1206	1221	1232	1233	1223	1231	1229	1227	1208	1198	1195	1199	1205	1212	1223	1235	1230	1226	1216	1220	1223	1219	1214	1220	1214	1196	1187	1188	1198	1219	1231	1235	1239	1245	1248	1245	1232	1228	1222	1205	1204	1211	1221	1235	1242	1238	1230	1230	1229	1231	1255	1263	1268	1273	1270	1269	1273	1287	1279	1267	1253	1247	1240	1237	1246	1270	1271	1256	1250	1236	1242	1249	1251	1242	1230	1228	1226	1239	1259	1256	1255	1251	1250	1256	1260	1260	1276	1282	1272	1238	1230	1231	1232	1251	1262	1265	1255	1252	1242	1252	1258	1261	1259	1248	1245	1261	1269	1263	1265	1277	1282	1274	1254	1250	1260	1274	1264	1264	1273	1284	1270	1243	1246	1256	1272	1293	1301	1301	1304	1301	1281	1269	1255	1261	1261	1265	1270	1281	1291	1309	1317	1315	1310	1298	1278	1270	1270	1276	1284	1292	1292	1292	1298	1303	1308	1302	1296	1283	1286	1290	1298	1309	1315	1321	1308	1297	1291	1281	1278	1283	1283	1283	1286	1287	1301	1301	1297	1301	1311	1320	1320	1306	1294	1296	1305	1311	1310	1318	1309	1305	1304	1308	1308	1312	1315	1319	1316	1312	1323	1328	1335	1346	1349	1339	1327	1321	1322	1335	1359	1363	1357	1345	1339	1333	1335	1340	1342	1330	1330	1329	1357	1355	1344	1329	1314	1320	1328	1333	1336	1335	1319	1316	1329	1344	1352	1362	1375	1385	1383	1389	1378	1367	1364	1359	1326	1320	1334	1344	1343	1352	1351	1349	1345	1354	1369	1363	1379	1376	1383	1384	1380	1370	1354	1357	1369	1374	1379	1372	1370	1372	1386	1386	1386	1383	1385	1392	1391	1396	1388	1379	1362	1367	1387	1407	1424	1381	1390	1402	1399	1391	1395	1399	1397	1390	1386	1390	1396	1396	1383	1379	1388	1414	1446	1445	1425	1422	1427	1438	1444	1441	1441	1429	1419	1416	1430	1426	1424	1420	1433	1464	1482	1489	1489	1491	1470	1473	1478	1468	1451	1440	1455	1483	1509	1530	1521	1506	1495	1492	1495	1500	1492	1478	1470	1482	1528	1548	1555	1551	1538	1526	1512	1499	1504	1511	1521	1525	1523	1520	1516	1515	1515	1530	1539	1536	1537	1522	1523	1531	1536	1538	1538	1528	1519	1497	1486	1481	1506	1532	1530	1528	1520	1522	1528	1534	1532	1526	1530	1526	1522	1526	1537	1544	1538	1527	1520	1528	1540	1551	1530	1525	1546	1552	1551	1559	1569	1580	1580	1595	1600	1594	1583	1564	1550	1549	1550	1535	1524	1525	1521	1529	1536	1539	1540	1541	1541	1537	1537	1525	1520	1513	1511	1505	0	0	0	0	0	0	0	0
1103	1103	1095	1078	1077	1086	1086	1102	1114	1113	1108	1102	1102	1100	1105	1106	1102	1099	1099	1107	1111	1113	1116	1114	1114	1112	1109	1109	1110	1111	1112	1112	1126	1130	1129	1122	1118	1129	1142	1142	1154	1157	1162	1158	1152	1142	1135	1134	1147	1147	1148	1147	1139	1131	1125	1104	1101	1098	1094	1101	1110	1110	1118	1133	1139	1140	1144	1145	1146	1144	1141	1134	1123	1113	1112	1127	1133	1130	1131	1131	1136	1143	1141	1136	1131	1128	1126	1132	1132	1137	1140	1144	1139	1145	1146	1140	1126	1112	1105	1115	1127	1148	1163	1169	1161	1152	1153	1157	1159	1150	1138	1137	1142	1166	1179	1185	1191	1183	1181	1182	1179	1160	1163	1166	1170	1176	1183	1176	1169	1171	1171	1178	1186	1191	1195	1199	1181	1172	1171	1163	1161	1165	1182	1188	1190	1196	1202	1205	1203	1206	1200	1200	1198	1188	1185	1181	1186	1185	1178	1183	1192	1197	1198	1193	1190	1188	1187	1197	1216	1214	1200	1186	1179	1188	1191	1189	1189	1188	1185	1179	1180	1182	1181	1169	1164	1164	1175	1177	1183	1176	1168	1155	1162	1170	1179	1217	1210	1199	1177	1171	1196	1198	1198	1200	1203	1200	1198	1193	1188	1185	1185	1192	1193	1189	1185	1191	1195	1190	1190	1198	1203	1205	1197	1192	1185	1180	1173	1178	1194	1210	1219	1221	1222	1221	1217	1217	1221	1221	1213	1192	1190	1201	1212	1223	1224	1219	1211	1204	1199	1215	1216	1218	1245	1253	1253	1253	1262	1269	1259	1255	1243	1236	1230	1231	1244	1258	1250	1237	1233	1226	1228	1230	1229	1228	1220	1211	1216	1220	1227	1223	1224	1226	1228	1237	1243	1246	1248	1246	1240	1216	1210	1214	1228	1235	1240	1250	1255	1248	1245	1248	1246	1244	1239	1230	1237	1247	1259	1261	1252	1241	1231	1225	1222	1225	1233	1238	1246	1248	1254	1249	1243	1238	1236	1238	1244	1259	1285	1288	1282	1278	1276	1267	1261	1254	1254	1254	1261	1267	1276	1284	1287	1286	1280	1275	1269	1262	1260	1263	1273	1280	1283	1285	1278	1259	1264	1265	1256	1256	1273	1278	1285	1293	1300	1299	1294	1284	1272	1269	1266	1269	1274	1277	1287	1297	1294	1276	1269	1275	1286	1293	1300	1288	1280	1280	1284	1285	1305	1295	1294	1294	1295	1293	1291	1284	1290	1302	1303	1298	1297	1302	1312	1320	1334	1333	1323	1316	1314	1313	1321	1332	1328	1317	1311	1315	1330	1329	1333	1320	1299	1284	1328	1328	1325	1306	1292	1293	1304	1329	1326	1319	1305	1300	1309	1322	1331	1337	1338	1340	1354	1375	1365	1352	1347	1325	1300	1300	1308	1298	1292	1288	1284	1303	1330	1346	1349	1346	1350	1357	1358	1355	1352	1343	1330	1329	1347	1369	1370	1364	1357	1361	1362	1367	1373	1370	1362	1361	1362	1356	1338	1338	1340	1348	1352	1353	1356	1359	1374	1387	1384	1369	1360	1352	1348	1361	1364	1373	1382	1377	1367	1366	1372	1392	1407	1407	1405	1402	1407	1417	1432	1425	1404	1395	1389	1392	1392	1390	1383	1378	1388	1411	1440	1461	1475	1468	1462	1454	1439	1425	1413	1417	1434	1455	1471	1491	1485	1473	1462	1453	1450	1453	1459	1466	1466	1460	1479	1493	1503	1499	1500	1494	1477	1470	1484	1495	1503	1508	1504	1495	1482	1485	1502	1518	1526	1520	1507	1485	1489	1498	1508	1514	1509	1497	1482	1470	1469	1473	1481	1491	1496	1503	1504	1500	1508	1511	1511	1510	1513	1508	1504	1508	1516	1519	1508	1501	1494	1503	1504	1472	1463	1485	1505	1526	1537	1541	1557	1571	1571	1583	1582	1569	1555	1534	1513	1505	1514	1509	1504	1506	1506	1508	1507	1501	1506	1508	1514	1515	1515	1506	1504	1504	1494	1480	0	0	0	0	0	0	0	0
1081	1081	1085	1073	1069	1074	1074	1089	1097	1081	1074	1077	1077	1073	1076	1087	1095	1096	1096	1095	1095	1097	1097	1100	1100	1094	1094	1095	1093	1088	1084	1084	1093	1101	1102	1101	1103	1110	1121	1136	1136	1138	1132	1133	1128	1114	1108	1108	1112	1112	1114	1111	1121	1105	1098	1093	1093	1089	1088	1098	1103	1103	1112	1121	1123	1129	1135	1130	1127	1110	1114	1121	1119	1107	1104	1115	1120	1119	1114	1114	1117	1124	1121	1120	1118	1129	1139	1144	1138	1139	1138	1134	1127	1120	1119	1113	1113	1101	1093	1097	1099	1106	1124	1140	1151	1144	1139	1144	1143	1137	1130	1133	1134	1129	1140	1147	1148	1142	1141	1152	1148	1144	1152	1159	1166	1170	1182	1183	1173	1164	1153	1151	1156	1164	1172	1171	1157	1151	1149	1149	1151	1154	1163	1177	1183	1172	1163	1170	1177	1182	1187	1171	1169	1165	1157	1151	1148	1155	1155	1159	1161	1164	1156	1150	1154	1177	1179	1183	1191	1186	1179	1178	1180	1185	1186	1182	1175	1174	1167	1163	1154	1145	1145	1144	1153	1140	1148	1151	1153	1154	1155	1153	1158	1160	1159	1150	1148	1141	1166	1168	1176	1180	1178	1178	1188	1187	1191	1181	1179	1183	1185	1188	1188	1183	1178	1178	1180	1177	1176	1181	1186	1193	1195	1196	1203	1199	1184	1184	1178	1181	1197	1209	1214	1219	1220	1209	1206	1216	1211	1201	1184	1182	1196	1210	1218	1223	1229	1225	1218	1206	1201	1201	1200	1183	1233	1230	1232	1231	1239	1248	1239	1233	1229	1231	1237	1240	1226	1226	1221	1215	1212	1211	1208	1205	1199	1201	1210	1218	1221	1227	1226	1225	1224	1217	1226	1225	1216	1215	1215	1215	1207	1205	1213	1216	1218	1224	1234	1236	1238	1240	1241	1238	1230	1229	1238	1245	1249	1258	1256	1251	1234	1221	1220	1227	1228	1225	1227	1221	1213	1213	1225	1232	1232	1233	1233	1237	1248	1251	1257	1273	1271	1263	1249	1242	1245	1244	1241	1245	1250	1253	1247	1236	1228	1237	1244	1249	1251	1249	1260	1270	1275	1277	1267	1240	1252	1261	1244	1230	1232	1251	1273	1283	1287	1282	1259	1256	1262	1256	1255	1256	1262	1276	1284	1271	1257	1256	1261	1267	1280	1289	1287	1287	1283	1281	1288	1296	1292	1287	1282	1282	1280	1275	1272	1264	1273	1285	1287	1281	1271	1281	1284	1287	1297	1310	1313	1305	1283	1282	1292	1288	1282	1277	1283	1287	1300	1301	1301	1267	1260	1257	1287	1298	1308	1300	1282	1282	1299	1305	1307	1301	1293	1287	1285	1292	1304	1302	1291	1289	1310	1328	1339	1337	1317	1296	1299	1297	1299	1302	1306	1297	1283	1290	1309	1320	1328	1329	1333	1333	1343	1344	1336	1329	1321	1313	1313	1318	1345	1351	1346	1342	1351	1359	1356	1341	1326	1317	1313	1310	1321	1329	1335	1341	1353	1353	1350	1347	1348	1355	1365	1365	1353	1339	1341	1344	1336	1343	1349	1356	1352	1358	1360	1372	1382	1381	1379	1380	1389	1392	1407	1400	1385	1367	1370	1373	1379	1375	1371	1366	1374	1387	1404	1418	1430	1427	1417	1405	1403	1403	1394	1398	1414	1428	1443	1444	1441	1429	1426	1422	1428	1435	1438	1441	1443	1456	1465	1478	1476	1473	1457	1443	1431	1435	1451	1456	1452	1449	1454	1450	1439	1446	1475	1490	1498	1496	1480	1457	1456	1463	1475	1480	1468	1467	1458	1455	1464	1471	1469	1457	1453	1467	1470	1471	1469	1470	1472	1473	1480	1485	1486	1491	1500	1495	1476	1464	1468	1474	1460	1439	1426	1432	1442	1474	1486	1494	1500	1500	1500	1493	1489	1484	1482	1467	1455	1454	1475	1484	1487	1489	1488	1483	1479	1478	1477	1485	1491	1491	1496	1490	1488	1487	1483	1466	0	0	0	0	0	0	0	0
1081	1081	1083	1072	1063	1065	1075	1075	1062	1056	1051	1048	1048	1051	1064	1084	1089	1088	1088	1086	1086	1086	1084	1083	1080	1080	1084	1084	1083	1077	1073	1083	1083	1089	1088	1081	1076	1075	1079	1082	1082	1089	1116	1112	1106	1101	1098	1095	1094	1094	1100	1117	1108	1093	1095	1091	1091	1088	1089	1092	1094	1094	1101	1100	1095	1090	1086	1085	1083	1082	1080	1090	1093	1101	1098	1100	1107	1109	1095	1096	1096	1102	1103	1098	1086	1096	1104	1105	1122	1132	1136	1126	1117	1111	1106	1106	1100	1106	1113	1115	1112	1116	1125	1126	1129	1129	1124	1124	1123	1127	1139	1136	1131	1121	1112	1110	1102	1104	1118	1118	1117	1120	1136	1145	1149	1145	1168	1178	1168	1160	1151	1136	1133	1134	1140	1143	1134	1134	1138	1146	1149	1137	1123	1117	1113	1117	1119	1126	1129	1140	1149	1154	1149	1144	1134	1137	1147	1156	1155	1146	1147	1145	1136	1130	1130	1133	1141	1145	1159	1156	1146	1155	1174	1179	1176	1170	1160	1153	1157	1155	1147	1134	1132	1129	1133	1146	1148	1148	1145	1141	1141	1142	1149	1152	1146	1133	1126	1130	1124	1122	1150	1157	1158	1171	1176	1170	1169	1175	1179	1178	1177	1180	1179	1158	1165	1171	1171	1168	1161	1164	1161	1165	1171	1182	1193	1197	1190	1171	1170	1170	1170	1178	1203	1216	1215	1208	1192	1193	1195	1196	1188	1189	1197	1205	1206	1203	1199	1192	1201	1197	1180	1164	1160	1167	1173	1171	1188	1204	1220	1237	1239	1223	1213	1203	1199	1202	1205	1211	1210	1206	1200	1196	1194	1194	1195	1195	1201	1211	1219	1220	1219	1219	1218	1208	1201	1198	1192	1188	1191	1205	1211	1210	1203	1195	1193	1187	1194	1221	1227	1229	1235	1230	1223	1222	1232	1232	1240	1247	1246	1245	1236	1219	1221	1225	1222	1207	1197	1189	1185	1198	1209	1220	1229	1229	1229	1230	1232	1240	1255	1266	1264	1252	1239	1213	1214	1216	1212	1212	1214	1226	1218	1212	1213	1221	1225	1216	1219	1233	1240	1243	1244	1250	1248	1252	1264	1250	1239	1213	1211	1228	1244	1255	1248	1234	1228	1236	1252	1252	1235	1217	1219	1227	1232	1238	1245	1250	1256	1265	1272	1279	1284	1261	1266	1269	1271	1270	1265	1266	1260	1267	1263	1257	1257	1259	1263	1270	1267	1255	1249	1252	1260	1260	1257	1278	1290	1285	1275	1276	1276	1276	1270	1268	1267	1277	1283	1275	1243	1231	1229	1235	1253	1285	1294	1295	1295	1289	1286	1291	1292	1291	1281	1265	1261	1264	1273	1280	1282	1280	1290	1298	1302	1295	1291	1278	1292	1284	1293	1299	1296	1281	1278	1286	1299	1307	1308	1315	1321	1326	1326	1324	1313	1318	1316	1319	1318	1311	1303	1319	1320	1323	1333	1341	1336	1329	1314	1302	1298	1300	1307	1319	1335	1339	1350	1350	1348	1346	1348	1355	1357	1359	1348	1338	1328	1339	1335	1330	1332	1336	1339	1347	1347	1346	1342	1328	1335	1352	1362	1362	1364	1361	1355	1337	1352	1357	1364	1371	1368	1360	1367	1376	1390	1410	1412	1409	1403	1395	1386	1375	1368	1367	1385	1398	1409	1415	1407	1402	1405	1408	1415	1425	1421	1411	1408	1411	1431	1445	1450	1448	1438	1426	1418	1418	1426	1432	1438	1425	1420	1421	1427	1438	1448	1450	1449	1428	1423	1414	1419	1438	1435	1428	1426	1430	1445	1449	1454	1462	1454	1442	1432	1433	1439	1446	1444	1436	1427	1426	1434	1455	1465	1471	1454	1447	1443	1447	1453	1457	1442	1428	1417	1411	1405	1417	1435	1443	1443	1443	1426	1417	1429	1446	1451	1448	1437	1429	1433	1454	1457	1437	1434	1458	1459	1458	1453	1465	1467	1467	1470	1465	1472	1474	1470	1453	0	0	0	0	0	0	0	0
1068	1075	1075	1067	1058	1049	1044	1044	1038	1037	1038	1040	1040	1045	1061	1078	1073	1077	1077	1076	1076	1072	1069	1066	1066	1066	1071	1080	1076	1076	1079	1087	1087	1091	1086	1074	1069	1073	1077	1075	1075	1073	1072	1075	1086	1092	1091	1093	1094	1094	1104	1098	1076	1082	1088	1093	1093	1094	1087	1084	1085	1085	1084	1082	1079	1075	1072	1067	1066	1061	1061	1064	1064	1070	1077	1076	1082	1088	1085	1092	1092	1093	1091	1078	1075	1076	1087	1092	1089	1084	1088	1094	1100	1099	1099	1090	1085	1086	1100	1105	1108	1113	1119	1123	1117	1114	1106	1104	1108	1116	1120	1122	1118	1110	1102	1097	1090	1089	1102	1105	1107	1110	1117	1111	1110	1111	1102	1097	1146	1151	1142	1133	1115	1114	1114	1118	1119	1126	1131	1128	1121	1114	1099	1092	1094	1094	1099	1114	1115	1116	1116	1130	1136	1132	1130	1133	1136	1138	1134	1126	1132	1132	1127	1116	1116	1125	1132	1127	1121	1116	1122	1132	1148	1162	1163	1153	1133	1129	1132	1129	1128	1128	1118	1116	1123	1136	1135	1131	1130	1126	1126	1129	1135	1145	1135	1124	1117	1114	1100	1109	1111	1134	1138	1153	1154	1157	1155	1163	1166	1163	1152	1140	1132	1136	1135	1142	1152	1156	1158	1159	1159	1151	1155	1160	1171	1171	1161	1155	1148	1160	1163	1168	1171	1174	1183	1183	1177	1170	1170	1169	1175	1178	1183	1191	1190	1184	1180	1179	1182	1178	1169	1160	1152	1153	1157	1162	1168	1178	1215	1226	1216	1197	1193	1186	1184	1178	1178	1172	1174	1165	1169	1176	1181	1190	1198	1205	1201	1202	1203	1204	1199	1204	1207	1188	1184	1178	1175	1177	1184	1192	1199	1200	1194	1183	1178	1174	1174	1183	1196	1208	1209	1209	1205	1206	1213	1223	1225	1216	1221	1222	1223	1220	1210	1206	1190	1180	1172	1175	1180	1186	1191	1192	1191	1192	1199	1211	1213	1230	1246	1253	1249	1236	1201	1192	1195	1204	1206	1204	1201	1200	1200	1199	1201	1204	1200	1194	1194	1194	1203	1211	1204	1201	1215	1239	1252	1250	1221	1203	1200	1218	1233	1241	1233	1219	1213	1213	1209	1204	1201	1205	1211	1220	1226	1230	1237	1244	1250	1255	1257	1255	1243	1246	1252	1259	1258	1253	1250	1253	1250	1258	1255	1254	1256	1246	1248	1252	1248	1237	1229	1238	1240	1247	1241	1234	1253	1259	1262	1271	1270	1267	1262	1252	1256	1262	1271	1267	1240	1224	1223	1237	1235	1236	1258	1277	1275	1261	1258	1255	1266	1269	1267	1257	1222	1222	1232	1239	1240	1247	1258	1280	1278	1267	1266	1270	1282	1273	1275	1277	1278	1273	1262	1278	1283	1287	1300	1315	1321	1317	1309	1310	1298	1307	1317	1320	1318	1310	1298	1280	1283	1283	1295	1307	1304	1308	1303	1285	1284	1289	1295	1310	1322	1329	1337	1337	1347	1344	1348	1355	1358	1353	1348	1333	1317	1317	1316	1307	1306	1306	1305	1299	1300	1311	1316	1306	1305	1315	1334	1349	1345	1335	1321	1314	1308	1312	1346	1359	1370	1363	1362	1359	1363	1387	1382	1380	1381	1383	1375	1366	1348	1332	1337	1359	1371	1381	1369	1379	1384	1393	1396	1413	1410	1402	1387	1381	1381	1398	1405	1407	1400	1405	1403	1401	1399	1397	1397	1395	1401	1407	1416	1425	1428	1419	1407	1395	1388	1392	1406	1414	1412	1411	1409	1398	1404	1415	1440	1445	1436	1417	1412	1412	1409	1402	1395	1395	1398	1390	1390	1404	1420	1428	1427	1427	1428	1433	1428	1424	1420	1415	1403	1386	1347	1360	1381	1393	1394	1394	1397	1393	1395	1402	1414	1422	1426	1421	1420	1409	1402	1383	1379	1384	1390	1393	1416	1421	1416	1416	1421	1439	1453	1452	1455	1427	0	0	0	0	0	0	0	0
1037	1031	1031	1021	1015	1021	1028	1028	1033	1035	1032	1036	1036	1044	1056	1045	1041	1051	1051	1064	1063	1057	1052	1051	1054	1054	1070	1074	1074	1074	1078	1083	1083	1083	1081	1075	1073	1083	1087	1072	1072	1063	1060	1056	1054	1058	1058	1060	1066	1066	1066	1046	1049	1055	1059	1076	1077	1081	1086	1079	1071	1055	1055	1048	1051	1060	1062	1062	1061	1056	1050	1053	1062	1071	1071	1067	1058	1053	1072	1088	1088	1092	1080	1071	1065	1066	1076	1084	1080	1073	1075	1079	1088	1091	1078	1077	1078	1076	1077	1083	1094	1099	1106	1112	1112	1109	1102	1096	1097	1101	1110	1111	1112	1110	1106	1096	1087	1084	1085	1090	1088	1088	1091	1092	1092	1095	1093	1087	1094	1094	1084	1084	1093	1100	1106	1112	1117	1125	1123	1112	1103	1098	1085	1076	1069	1067	1078	1094	1102	1101	1100	1105	1108	1119	1118	1116	1119	1116	1112	1100	1095	1095	1096	1097	1105	1118	1121	1116	1109	1103	1110	1117	1130	1132	1120	1117	1118	1121	1113	1102	1107	1107	1099	1101	1111	1117	1111	1106	1105	1108	1108	1113	1126	1120	1116	1119	1117	1100	1095	1091	1102	1111	1121	1121	1126	1141	1142	1142	1144	1141	1135	1128	1124	1126	1128	1133	1144	1148	1151	1155	1150	1141	1134	1134	1135	1148	1149	1142	1129	1124	1125	1133	1142	1151	1155	1161	1162	1160	1154	1156	1161	1165	1170	1172	1169	1163	1155	1155	1162	1163	1166	1159	1148	1143	1147	1156	1161	1163	1168	1176	1175	1195	1188	1179	1170	1166	1170	1168	1161	1152	1149	1163	1182	1189	1200	1196	1194	1187	1182	1178	1180	1183	1183	1177	1168	1159	1162	1168	1172	1181	1182	1184	1181	1176	1166	1157	1162	1168	1168	1174	1175	1183	1185	1189	1193	1198	1191	1192	1183	1192	1201	1211	1205	1184	1176	1183	1201	1203	1189	1177	1178	1178	1178	1178	1168	1179	1179	1179	1215	1234	1225	1189	1178	1176	1182	1191	1197	1195	1195	1193	1192	1192	1190	1188	1189	1184	1184	1186	1188	1175	1180	1187	1195	1214	1226	1205	1201	1198	1192	1201	1213	1206	1208	1203	1200	1200	1192	1191	1193	1194	1206	1212	1216	1219	1223	1227	1231	1231	1224	1220	1229	1235	1242	1239	1233	1213	1213	1216	1236	1258	1259	1248	1238	1225	1226	1229	1224	1216	1213	1221	1233	1237	1231	1220	1224	1221	1234	1250	1259	1257	1245	1237	1239	1248	1254	1257	1244	1235	1236	1242	1236	1233	1236	1236	1236	1233	1234	1227	1226	1228	1223	1217	1210	1212	1219	1226	1228	1235	1240	1243	1250	1245	1242	1260	1271	1262	1254	1244	1247	1243	1249	1250	1244	1251	1257	1273	1270	1264	1282	1283	1279	1295	1307	1296	1296	1279	1263	1257	1256	1254	1268	1276	1281	1269	1277	1281	1280	1291	1295	1295	1300	1309	1300	1303	1322	1335	1340	1348	1349	1340	1334	1313	1261	1259	1262	1274	1283	1295	1293	1284	1289	1283	1285	1288	1286	1297	1314	1328	1323	1310	1302	1268	1252	1255	1274	1318	1354	1363	1354	1343	1339	1339	1340	1345	1357	1372	1373	1364	1339	1306	1306	1311	1323	1331	1336	1344	1343	1366	1378	1377	1396	1383	1370	1368	1365	1369	1374	1375	1371	1378	1379	1373	1370	1333	1334	1350	1358	1356	1365	1376	1390	1389	1378	1361	1353	1367	1361	1347	1337	1337	1371	1367	1378	1387	1384	1386	1390	1395	1396	1385	1380	1371	1368	1370	1368	1372	1370	1366	1369	1376	1381	1389	1386	1379	1367	1369	1381	1389	1376	1341	1337	1342	1351	1353	1353	1335	1340	1343	1367	1369	1372	1380	1381	1380	1368	1353	1355	1362	1365	1372	1368	1364	1358	1371	1371	1384	1403	1421	1428	1419	1412	1396	0	0	0	0	0	0	0	0
1024	1019	1019	1013	1009	1018	1027	1027	1034	1040	1041	1039	1040	1040	1040	1026	1032	1041	1047	1047	1047	1040	1037	1040	1052	1052	1063	1069	1063	1054	1056	1060	1060	1057	1063	1072	1081	1094	1074	1065	1065	1054	1053	1045	1040	1039	1047	1044	1042	1047	1038	1040	1040	1044	1040	1033	1034	1041	1048	1056	1055	1047	1047	1046	1044	1042	1048	1052	1057	1053	1048	1047	1054	1062	1065	1047	1038	1041	1063	1075	1079	1079	1075	1066	1060	1059	1067	1071	1068	1066	1066	1069	1065	1046	1048	1063	1065	1065	1064	1070	1078	1085	1093	1097	1104	1102	1096	1090	1086	1086	1097	1109	1113	1114	1106	1093	1080	1076	1074	1071	1073	1071	1075	1077	1083	1086	1085	1081	1068	1066	1069	1073	1084	1089	1093	1093	1100	1101	1093	1077	1079	1082	1074	1070	1063	1063	1068	1077	1081	1086	1092	1097	1096	1093	1087	1083	1083	1096	1096	1094	1085	1079	1077	1085	1094	1105	1112	1106	1101	1101	1102	1113	1122	1123	1116	1113	1115	1113	1107	1088	1078	1081	1079	1087	1098	1102	1087	1079	1076	1074	1082	1091	1093	1096	1103	1107	1105	1094	1090	1087	1094	1095	1109	1111	1114	1105	1090	1085	1119	1119	1117	1122	1120	1109	1109	1114	1137	1146	1143	1132	1131	1123	1119	1122	1129	1142	1139	1124	1108	1102	1108	1117	1125	1133	1136	1136	1143	1141	1130	1142	1146	1149	1153	1149	1146	1138	1130	1134	1143	1147	1148	1133	1133	1127	1122	1132	1144	1147	1146	1151	1155	1148	1140	1166	1159	1157	1156	1153	1154	1152	1154	1161	1167	1175	1188	1181	1180	1173	1164	1161	1165	1167	1167	1163	1154	1146	1149	1155	1163	1162	1146	1153	1159	1156	1153	1153	1154	1158	1159	1159	1158	1154	1163	1172	1149	1142	1142	1151	1156	1172	1180	1190	1186	1169	1158	1142	1136	1147	1158	1163	1168	1170	1170	1164	1167	1171	1166	1155	1153	1175	1176	1169	1157	1161	1167	1168	1174	1183	1192	1189	1185	1185	1180	1177	1180	1185	1179	1180	1167	1153	1153	1165	1172	1178	1185	1190	1190	1191	1184	1182	1184	1184	1181	1174	1171	1182	1180	1178	1183	1191	1201	1207	1205	1195	1192	1194	1199	1204	1201	1193	1219	1233	1217	1208	1204	1198	1199	1206	1231	1250	1250	1237	1216	1201	1200	1204	1204	1201	1202	1228	1240	1213	1197	1192	1198	1199	1196	1186	1193	1202	1197	1196	1206	1235	1242	1244	1240	1217	1189	1202	1213	1228	1239	1235	1229	1228	1234	1233	1213	1206	1202	1206	1201	1201	1203	1214	1219	1223	1229	1233	1232	1225	1231	1234	1254	1259	1246	1229	1220	1220	1226	1231	1233	1238	1245	1250	1254	1242	1234	1235	1243	1250	1265	1270	1266	1247	1247	1252	1250	1245	1239	1236	1253	1268	1284	1291	1293	1293	1291	1293	1288	1293	1282	1277	1278	1272	1287	1300	1314	1309	1293	1276	1252	1244	1240	1256	1277	1283	1275	1273	1269	1275	1272	1272	1275	1285	1302	1309	1300	1295	1274	1249	1244	1254	1270	1283	1313	1331	1326	1326	1334	1330	1316	1323	1342	1361	1353	1349	1331	1292	1287	1294	1305	1304	1315	1311	1313	1310	1307	1302	1310	1322	1315	1309	1295	1284	1279	1272	1273	1297	1312	1319	1314	1290	1286	1291	1304	1317	1317	1335	1342	1341	1333	1328	1333	1355	1345	1334	1326	1317	1313	1314	1315	1323	1331	1332	1332	1330	1335	1361	1344	1342	1346	1350	1358	1356	1350	1348	1348	1355	1363	1361	1356	1349	1348	1353	1360	1357	1344	1334	1335	1339	1342	1331	1331	1320	1320	1324	1334	1344	1352	1356	1362	1356	1345	1343	1349	1357	1361	1361	1355	1350	1348	1347	1347	1371	1394	1403	1392	1377	1370	1371	0	0	0	0	0	0	0	0
1010	1008	1008	1005	1005	1012	1021	1021	1030	1034	1030	1024	1021	1021	1020	1021	1035	1043	1047	1047	1042	1035	1027	1032	1040	1040	1049	1037	1017	1014	1010	1013	1017	1017	1026	1035	1039	1042	1030	1027	1021	1021	1021	1022	1027	1032	1029	1036	1036	1038	1028	1034	1037	1042	1042	1029	1020	1017	1020	1027	1032	1034	1034	1037	1035	1036	1032	1043	1049	1048	1048	1045	1050	1053	1041	1033	1034	1039	1051	1063	1062	1062	1056	1057	1053	1053	1053	1056	1057	1056	1052	1049	1037	1025	1029	1038	1043	1049	1053	1057	1063	1071	1077	1081	1078	1085	1083	1082	1076	1075	1075	1099	1108	1101	1081	1067	1065	1059	1063	1061	1062	1061	1063	1065	1071	1076	1081	1075	1067	1065	1065	1072	1075	1079	1072	1067	1072	1077	1073	1074	1070	1069	1069	1071	1068	1067	1073	1074	1078	1081	1085	1074	1077	1080	1082	1079	1078	1082	1087	1086	1080	1075	1078	1084	1092	1101	1096	1095	1090	1097	1102	1104	1100	1096	1094	1101	1104	1100	1092	1077	1070	1073	1072	1066	1074	1089	1073	1061	1056	1059	1062	1076	1086	1083	1087	1091	1094	1089	1083	1082	1087	1088	1096	1096	1101	1101	1080	1070	1071	1077	1098	1114	1115	1114	1114	1109	1118	1127	1132	1124	1113	1112	1109	1116	1126	1128	1121	1104	1089	1088	1095	1105	1115	1122	1121	1117	1115	1117	1119	1116	1124	1132	1136	1131	1123	1112	1106	1109	1118	1120	1107	1109	1097	1094	1099	1106	1113	1112	1100	1097	1096	1091	1093	1128	1139	1146	1143	1136	1144	1150	1160	1161	1163	1159	1159	1161	1160	1156	1151	1139	1144	1148	1135	1123	1119	1124	1131	1142	1149	1142	1124	1120	1128	1135	1139	1149	1151	1152	1144	1138	1140	1141	1139	1131	1131	1138	1140	1142	1147	1159	1165	1167	1166	1153	1137	1110	1105	1107	1122	1129	1143	1157	1161	1161	1166	1164	1157	1146	1137	1139	1156	1149	1144	1146	1147	1132	1153	1169	1179	1193	1185	1168	1153	1143	1149	1170	1172	1170	1151	1141	1146	1149	1157	1162	1173	1173	1177	1178	1177	1175	1172	1165	1158	1152	1144	1157	1166	1167	1166	1167	1170	1175	1174	1177	1175	1177	1185	1186	1184	1183	1186	1193	1201	1191	1185	1186	1187	1199	1214	1233	1238	1220	1198	1182	1180	1184	1183	1179	1205	1215	1197	1179	1177	1179	1181	1175	1166	1155	1176	1179	1178	1181	1192	1193	1187	1148	1166	1167	1162	1145	1142	1157	1174	1198	1200	1194	1190	1197	1177	1173	1183	1177	1180	1180	1190	1197	1208	1211	1214	1217	1211	1204	1214	1220	1221	1226	1237	1218	1214	1214	1218	1222	1225	1230	1235	1241	1241	1231	1228	1224	1233	1245	1262	1264	1252	1246	1247	1255	1255	1239	1230	1227	1229	1229	1237	1247	1235	1225	1240	1242	1257	1260	1255	1254	1257	1254	1261	1262	1266	1276	1272	1270	1241	1236	1229	1244	1263	1267	1259	1257	1258	1262	1266	1266	1268	1278	1286	1277	1277	1270	1256	1243	1242	1255	1269	1276	1278	1301	1309	1316	1328	1321	1279	1277	1294	1317	1325	1324	1307	1284	1269	1269	1279	1284	1292	1303	1269	1265	1271	1277	1292	1303	1308	1302	1281	1258	1247	1243	1236	1245	1247	1259	1269	1274	1266	1259	1280	1296	1292	1304	1299	1292	1284	1290	1296	1314	1315	1317	1313	1306	1304	1298	1299	1312	1317	1323	1315	1312	1317	1322	1317	1321	1329	1334	1327	1334	1333	1331	1335	1342	1346	1339	1336	1336	1337	1344	1342	1340	1331	1332	1332	1337	1332	1332	1314	1304	1302	1309	1322	1332	1335	1342	1341	1335	1328	1327	1334	1340	1345	1342	1339	1334	1331	1333	1333	1341	1346	1333	1326	1321	1325	1326	0	0	0	0	0	0	0	0
988	989	989	992	996	1002	1011	1018	1018	1012	1014	1008	1004	1004	1009	1014	1035	1045	1048	1048	1039	1026	1011	1011	1019	1013	1013	1003	1000	1001	994	992	996	996	1006	1008	1006	1007	1007	1008	1005	1005	1008	1013	1022	1032	1034	1034	1027	1019	1024	1024	1028	1027	1029	1021	1009	994	999	996	1006	1015	1016	1016	1012	1010	1008	1006	1018	1029	1033	1030	1024	1021	1023	1028	1038	1049	1052	1046	1032	1027	1027	1029	1045	1038	1043	1044	1038	1042	1042	1030	1018	1016	1018	1022	1019	1024	1036	1046	1048	1052	1063	1062	1067	1072	1074	1073	1070	1069	1067	1071	1071	1068	1062	1060	1061	1057	1049	1047	1045	1046	1048	1053	1059	1063	1071	1059	1061	1063	1056	1059	1066	1057	1046	1052	1051	1052	1055	1062	1066	1065	1070	1073	1068	1067	1068	1072	1075	1074	1071	1075	1060	1059	1069	1067	1068	1075	1079	1065	1068	1069	1071	1076	1081	1089	1081	1072	1072	1073	1068	1087	1086	1082	1080	1082	1090	1090	1088	1079	1070	1070	1064	1061	1061	1073	1068	1060	1055	1055	1059	1068	1075	1075	1078	1081	1089	1088	1089	1090	1087	1079	1054	1061	1073	1084	1078	1062	1066	1075	1088	1100	1118	1120	1115	1108	1114	1120	1126	1129	1101	1104	1105	1106	1115	1109	1106	1092	1072	1077	1084	1096	1107	1113	1106	1102	1101	1102	1110	1116	1122	1126	1125	1119	1111	1101	1092	1089	1090	1094	1097	1103	1104	1102	1100	1099	1098	1090	1089	1095	1097	1100	1107	1118	1126	1126	1128	1129	1136	1149	1150	1149	1151	1131	1120	1118	1120	1124	1118	1112	1120	1125	1122	1115	1114	1113	1123	1127	1135	1125	1109	1096	1102	1120	1130	1146	1148	1148	1136	1128	1125	1123	1098	1093	1104	1122	1139	1140	1132	1138	1139	1139	1132	1125	1111	1098	1092	1095	1107	1120	1130	1142	1152	1156	1156	1154	1148	1134	1129	1129	1134	1139	1138	1138	1125	1117	1124	1147	1171	1177	1176	1161	1150	1145	1147	1147	1148	1157	1144	1144	1144	1140	1139	1152	1129	1132	1152	1155	1155	1165	1162	1147	1142	1143	1139	1145	1151	1149	1155	1163	1167	1155	1162	1174	1174	1178	1178	1172	1174	1176	1182	1181	1176	1172	1174	1181	1181	1182	1194	1196	1195	1171	1149	1138	1132	1138	1152	1179	1193	1181	1163	1165	1169	1173	1174	1162	1158	1153	1154	1161	1168	1162	1147	1123	1123	1138	1155	1166	1160	1144	1140	1148	1160	1175	1183	1182	1182	1180	1182	1163	1159	1147	1135	1146	1169	1185	1192	1201	1202	1190	1186	1189	1195	1203	1211	1209	1208	1191	1188	1186	1186	1191	1204	1209	1215	1224	1234	1236	1230	1218	1237	1257	1263	1258	1247	1243	1241	1249	1240	1227	1217	1214	1212	1212	1217	1222	1208	1197	1193	1194	1204	1219	1223	1237	1244	1246	1239	1232	1224	1236	1257	1251	1235	1224	1225	1234	1249	1250	1241	1241	1243	1250	1256	1246	1231	1222	1218	1231	1253	1258	1248	1237	1242	1255	1266	1268	1259	1252	1265	1266	1264	1261	1258	1264	1278	1292	1299	1301	1286	1270	1253	1257	1256	1251	1243	1239	1240	1239	1234	1229	1266	1285	1292	1275	1258	1242	1231	1226	1231	1238	1237	1237	1243	1249	1250	1253	1249	1257	1266	1271	1266	1255	1242	1239	1245	1251	1254	1263	1271	1266	1259	1253	1246	1249	1266	1274	1272	1278	1280	1286	1284	1284	1290	1309	1311	1305	1306	1305	1303	1319	1328	1330	1329	1330	1332	1330	1323	1318	1316	1316	1328	1321	1308	1308	1295	1287	1290	1300	1311	1314	1326	1319	1313	1304	1305	1310	1312	1311	1313	1310	1316	1317	1318	1318	1318	1327	1322	1305	1302	1294	1286	1291	0	0	0	0	0	0	0	0
965	976	984	984	988	988	991	987	987	983	974	971	974	974	993	980	1002	1013	1017	1017	1015	1002	998	1002	1003	994	994	989	994	993	990	993	996	996	1000	993	994	997	998	1000	999	999	1002	1004	1005	1010	1020	1022	1005	1009	1009	1009	1014	1017	1016	1010	992	979	978	985	995	1001	994	994	987	987	992	1001	999	996	1013	1018	1016	1009	1005	1005	1015	1034	1027	1014	1003	997	997	1000	1000	1017	1016	1017	1014	1016	1019	1016	1013	1014	1015	1009	1005	1004	1011	1023	1037	1036	1034	1036	1043	1046	1046	1037	1035	1036	1039	1045	1057	1059	1057	1043	1032	1033	1032	1025	1021	1019	1015	1014	1012	1013	1025	1053	1045	1038	1033	1028	1033	1036	1038	1033	1022	1012	1042	1048	1049	1044	1048	1049	1055	1055	1046	1049	1062	1075	1077	1074	1051	1045	1044	1038	1036	1033	1039	1045	1052	1057	1054	1048	1056	1063	1060	1060	1062	1064	1050	1047	1063	1065	1062	1069	1069	1057	1056	1058	1063	1062	1056	1049	1039	1044	1058	1057	1056	1055	1058	1064	1069	1069	1067	1071	1070	1068	1047	1051	1058	1054	1042	1045	1055	1063	1059	1055	1054	1060	1084	1096	1108	1118	1110	1101	1086	1075	1068	1071	1086	1095	1096	1090	1089	1094	1089	1078	1069	1069	1078	1087	1096	1096	1095	1089	1086	1093	1101	1114	1113	1115	1112	1109	1098	1092	1085	1079	1082	1082	1088	1097	1103	1103	1108	1101	1091	1083	1084	1088	1091	1095	1101	1105	1104	1105	1105	1098	1093	1098	1137	1135	1122	1119	1113	1117	1113	1116	1115	1110	1116	1116	1098	1107	1104	1107	1111	1114	1107	1109	1096	1085	1084	1098	1116	1127	1138	1143	1133	1126	1121	1119	1111	1072	1087	1102	1112	1118	1115	1103	1088	1088	1112	1113	1106	1094	1085	1089	1101	1120	1137	1144	1153	1154	1145	1134	1131	1126	1119	1119	1118	1122	1134	1133	1124	1117	1118	1129	1161	1166	1162	1153	1143	1138	1136	1126	1134	1135	1136	1139	1137	1133	1132	1125	1118	1123	1140	1144	1141	1132	1134	1131	1137	1141	1146	1140	1137	1141	1137	1149	1144	1125	1138	1146	1177	1178	1165	1159	1147	1162	1169	1169	1163	1164	1172	1176	1175	1171	1171	1162	1154	1155	1151	1157	1151	1145	1140	1146	1145	1147	1148	1150	1155	1152	1153	1149	1150	1148	1151	1154	1140	1131	1120	1118	1121	1129	1123	1126	1138	1134	1132	1132	1131	1132	1155	1169	1161	1168	1163	1158	1152	1141	1128	1124	1137	1163	1197	1182	1186	1180	1174	1177	1184	1193	1192	1184	1189	1180	1177	1171	1172	1178	1184	1191	1209	1220	1231	1223	1220	1241	1248	1249	1250	1254	1218	1216	1218	1207	1208	1204	1200	1198	1197	1198	1197	1199	1189	1178	1178	1189	1202	1216	1223	1224	1229	1235	1233	1222	1217	1220	1225	1224	1216	1216	1224	1230	1215	1206	1218	1221	1221	1215	1220	1221	1218	1210	1214	1218	1221	1216	1211	1212	1224	1243	1254	1250	1238	1231	1230	1233	1234	1240	1246	1250	1256	1233	1242	1243	1237	1241	1250	1258	1261	1254	1243	1231	1226	1224	1219	1213	1218	1226	1234	1236	1236	1226	1228	1229	1230	1229	1227	1225	1221	1228	1237	1239	1236	1231	1235	1235	1232	1225	1220	1224	1230	1235	1242	1246	1242	1236	1235	1235	1237	1238	1235	1237	1244	1259	1267	1266	1265	1266	1268	1279	1291	1293	1285	1280	1286	1287	1286	1277	1263	1318	1318	1317	1305	1302	1291	1287	1291	1275	1275	1261	1257	1263	1273	1288	1304	1311	1299	1291	1280	1278	1283	1279	1284	1289	1285	1290	1304	1310	1310	1310	1307	1308	1299	1291	1290	1282	1273	1272	0	0	0	0	0	0	0	0
946	959	974	974	982	979	971	963	963	960	958	959	962	962	965	958	962	971	968	968	970	980	989	994	991	981	981	980	984	983	988	991	994	994	985	979	978	986	990	993	990	990	989	988	986	997	1002	1006	998	995	999	999	1006	1007	1005	1001	988	973	971	980	989	984	984	984	980	982	988	994	993	990	993	1001	1003	1002	995	994	986	992	993	1001	998	1003	1003	1002	1002	1004	999	995	993	993	997	1006	1013	1012	1008	1001	995	992	991	996	1004	1010	1014	1021	1028	1029	1029	1017	1017	1023	1023	1009	1008	1015	1015	1006	997	995	993	989	993	999	1000	996	989	984	990	1009	1014	1019	1019	1021	1022	1023	1025	1025	1016	1008	1003	999	991	996	1010	1016	1020	1019	1021	1026	1034	1040	1058	1067	1047	1039	1032	1023	1018	1018	1028	1033	1039	1036	1032	1031	1035	1038	1039	1039	1046	1046	1042	1037	1035	1042	1054	1063	1056	1037	1026	1028	1037	1041	1036	1022	1018	1023	1031	1040	1031	1024	1027	1029	1034	1036	1037	1035	1029	1029	1035	1035	1037	1031	1030	1035	1039	1041	1043	1045	1044	1053	1060	1072	1090	1064	1064	1063	1055	1068	1057	1057	1074	1081	1088	1084	1084	1085	1078	1070	1064	1066	1074	1079	1081	1086	1083	1078	1073	1077	1083	1094	1101	1103	1101	1089	1077	1064	1063	1067	1071	1072	1078	1090	1098	1093	1093	1091	1087	1079	1077	1079	1082	1078	1078	1086	1066	1075	1080	1085	1083	1087	1087	1084	1102	1103	1114	1116	1116	1113	1110	1104	1101	1089	1081	1079	1081	1088	1096	1099	1099	1092	1084	1072	1065	1076	1083	1112	1123	1127	1119	1119	1120	1114	1095	1065	1077	1087	1089	1091	1085	1084	1077	1073	1092	1100	1092	1083	1080	1085	1101	1127	1128	1122	1117	1111	1105	1100	1099	1087	1088	1093	1103	1114	1124	1134	1127	1119	1105	1110	1117	1123	1125	1124	1127	1121	1120	1118	1116	1125	1127	1133	1133	1127	1123	1117	1110	1112	1123	1131	1130	1124	1130	1124	1131	1128	1125	1116	1103	1110	1119	1126	1113	1102	1106	1120	1149	1148	1153	1139	1130	1136	1151	1153	1152	1160	1170	1171	1165	1158	1142	1136	1132	1139	1148	1154	1151	1143	1135	1137	1143	1144	1146	1143	1138	1135	1143	1145	1144	1141	1130	1122	1113	1110	1108	1114	1126	1128	1115	1115	1120	1126	1125	1125	1130	1129	1129	1133	1145	1155	1151	1152	1146	1137	1125	1124	1134	1148	1151	1172	1174	1174	1167	1169	1176	1181	1178	1177	1173	1170	1167	1164	1160	1156	1160	1160	1166	1176	1176	1177	1167	1212	1232	1231	1182	1168	1173	1177	1179	1181	1193	1188	1182	1182	1185	1186	1185	1179	1176	1174	1182	1188	1194	1197	1206	1206	1206	1208	1224	1223	1216	1212	1214	1209	1201	1199	1203	1208	1202	1194	1194	1196	1190	1192	1197	1205	1206	1197	1199	1199	1201	1204	1201	1204	1205	1209	1219	1220	1213	1212	1212	1222	1232	1202	1214	1208	1207	1202	1204	1210	1217	1229	1238	1252	1257	1252	1241	1229	1220	1208	1203	1207	1211	1218	1230	1229	1228	1218	1213	1219	1223	1222	1212	1201	1206	1211	1217	1222	1225	1218	1219	1225	1225	1221	1219	1221	1218	1222	1230	1235	1234	1236	1247	1246	1241	1236	1230	1228	1227	1231	1251	1264	1263	1260	1255	1254	1254	1257	1261	1265	1256	1252	1255	1252	1245	1250	1251	1303	1296	1288	1280	1268	1259	1252	1252	1249	1247	1256	1263	1276	1283	1270	1237	1235	1237	1247	1238	1234	1251	1265	1268	1281	1290	1297	1274	1274	1260	1262	1272	1269	1269	1268	1262	1255	0	0	0	0	0	0	0	0
943	953	967	967	975	965	950	940	940	945	949	952	953	957	957	954	943	936	943	952	952	962	966	967	964	961	961	966	968	971	978	983	982	982	979	965	963	971	977	977	973	979	979	973	971	972	981	982	987	986	996	996	1000	1001	975	972	972	969	966	968	977	978	978	978	978	976	983	986	983	983	986	993	995	995	987	978	974	976	980	990	990	986	988	988	992	994	992	987	984	987	987	984	982	995	1002	996	994	986	982	985	989	995	996	1004	1005	1004	1017	1025	1014	1005	1000	1000	982	976	977	975	980	1004	995	983	985	991	996	995	986	973	977	985	998	1001	1004	1005	1010	1020	1020	1018	1012	1001	982	983	988	990	1005	1012	1014	1015	1018	1022	1020	1018	1008	1016	1016	1041	1033	1032	1028	1022	1023	1026	1031	1024	1018	1009	1014	1020	1028	1027	1034	1025	1020	1014	1000	1002	1014	1014	1013	1008	1010	1007	1023	1031	1025	1016	1014	1017	1014	1020	1013	1004	1012	1015	1020	1024	1024	1019	1021	1022	1027	1023	1018	1018	1017	1023	1026	1030	1031	1038	1042	1040	1044	1057	1052	1038	1037	1045	1049	1051	1046	1056	1058	1063	1061	1065	1067	1069	1064	1058	1057	1062	1074	1075	1076	1068	1066	1073	1067	1063	1057	1062	1077	1077	1064	1055	1049	1040	1049	1058	1067	1071	1075	1073	1085	1077	1070	1074	1074	1077	1074	1071	1067	1058	1060	1048	1039	1061	1067	1074	1076	1081	1080	1077	1072	1075	1093	1100	1100	1095	1092	1088	1068	1070	1066	1065	1070	1076	1080	1087	1085	1081	1068	1068	1064	1059	1068	1077	1078	1083	1099	1106	1109	1101	1076	1060	1073	1078	1077	1075	1076	1073	1069	1066	1065	1070	1073	1073	1078	1091	1107	1120	1116	1099	1100	1098	1097	1096	1094	1083	1075	1074	1080	1091	1117	1125	1121	1117	1099	1102	1107	1082	1081	1087	1113	1114	1108	1103	1104	1103	1109	1111	1122	1120	1116	1112	1105	1107	1114	1122	1121	1109	1110	1111	1100	1090	1089	1087	1095	1105	1112	1110	1101	1102	1106	1113	1121	1115	1127	1138	1123	1106	1104	1139	1141	1152	1125	1122	1118	1110	1109	1109	1122	1128	1135	1148	1140	1137	1129	1127	1132	1140	1140	1146	1139	1130	1129	1134	1120	1123	1121	1099	1091	1086	1095	1111	1125	1119	1110	1112	1117	1124	1128	1123	1118	1123	1121	1126	1134	1139	1138	1139	1138	1125	1121	1123	1131	1136	1136	1145	1159	1139	1143	1150	1158	1148	1158	1159	1153	1146	1147	1146	1147	1146	1148	1146	1146	1127	1128	1133	1150	1156	1148	1155	1154	1157	1161	1166	1174	1174	1164	1149	1144	1150	1175	1180	1177	1161	1163	1163	1161	1165	1175	1172	1173	1176	1176	1170	1173	1194	1205	1202	1200	1198	1193	1189	1192	1194	1199	1197	1193	1191	1182	1176	1178	1183	1188	1188	1189	1192	1198	1201	1198	1194	1184	1187	1193	1190	1183	1170	1176	1181	1179	1190	1192	1191	1191	1195	1191	1197	1204	1209	1221	1225	1229	1236	1233	1225	1211	1195	1186	1189	1198	1211	1223	1225	1218	1209	1203	1206	1210	1201	1196	1193	1196	1196	1199	1208	1212	1213	1210	1213	1213	1210	1207	1198	1194	1191	1211	1217	1222	1234	1241	1241	1235	1230	1223	1218	1215	1215	1220	1230	1245	1253	1247	1238	1227	1229	1238	1243	1239	1230	1223	1223	1230	1235	1229	1215	1206	1211	1244	1240	1239	1239	1236	1237	1240	1246	1250	1247	1240	1233	1226	1221	1219	1226	1231	1233	1235	1243	1248	1253	1256	1261	1261	1237	1212	1219	1237	1244	1252	1236	1225	1221	0	0	0	0	0	0	0	0
933	938	945	945	943	937	932	926	926	922	926	934	952	962	962	949	937	925	927	938	938	950	955	952	944	941	941	943	951	961	968	969	971	961	961	950	958	973	981	980	972	961	961	950	951	959	972	982	982	983	986	973	973	961	955	954	962	963	963	959	961	968	973	971	971	968	967	969	969	972	981	987	988	988	983	972	970	971	974	976	979	974	974	974	979	980	977	972	976	982	983	979	970	974	987	989	986	981	973	983	986	984	974	966	967	976	983	986	979	967	965	974	977	974	969	969	976	1003	989	977	983	988	991	990	975	966	965	975	984	981	981	983	988	1003	1003	1004	1001	994	974	972	973	982	998	1003	1002	1001	1002	1012	1012	1002	987	981	983	983	987	999	997	998	996	1005	1011	1005	988	977	982	994	1011	1028	1028	1023	1006	975	977	972	976	987	992	991	988	999	1011	1022	1023	1017	1012	1012	1015	1006	1003	996	1004	1011	1013	1009	1011	1011	1017	1018	1022	1020	1013	1011	1011	1010	1020	1026	1029	1033	1031	1033	1037	1039	1032	1029	1034	1039	1037	1028	1027	1029	1033	1034	1027	1044	1044	1052	1050	1045	1031	1026	1035	1027	1026	1041	1049	1049	1044	1045	1049	1053	1057	1043	1030	1028	1027	1030	1029	1047	1060	1062	1038	1037	1045	1047	1049	1049	1054	1057	1059	1050	1041	1024	1020	1024	1026	1052	1054	1055	1054	1055	1049	1054	1062	1067	1072	1074	1068	1080	1060	1054	1054	1059	1058	1048	1052	1050	1054	1057	1060	1058	1059	1059	1056	1050	1057	1060	1059	1052	1058	1065	1070	1067	1067	1064	1072	1070	1067	1065	1064	1060	1060	1057	1064	1074	1081	1071	1076	1089	1107	1116	1114	1089	1084	1084	1090	1093	1093	1087	1077	1068	1069	1069	1075	1088	1111	1106	1090	1094	1085	1071	1068	1083	1087	1086	1082	1079	1090	1085	1080	1077	1077	1099	1106	1106	1102	1100	1102	1109	1081	1083	1086	1097	1098	1088	1086	1090	1101	1112	1118	1115	1105	1097	1106	1114	1121	1105	1105	1104	1087	1082	1073	1099	1104	1096	1098	1099	1096	1087	1088	1096	1102	1109	1104	1100	1106	1106	1102	1105	1109	1127	1132	1125	1112	1108	1106	1101	1098	1097	1103	1108	1107	1102	1092	1093	1097	1109	1105	1098	1099	1112	1114	1107	1112	1115	1119	1122	1120	1123	1126	1123	1118	1121	1114	1112	1117	1121	1111	1114	1112	1119	1128	1131	1121	1131	1144	1148	1147	1139	1139	1140	1143	1147	1140	1141	1118	1112	1117	1113	1133	1136	1140	1141	1141	1141	1143	1152	1160	1161	1154	1138	1136	1142	1155	1168	1165	1148	1144	1139	1144	1149	1152	1144	1153	1155	1146	1144	1147	1162	1173	1172	1149	1161	1178	1178	1178	1187	1194	1193	1185	1176	1165	1156	1156	1161	1165	1168	1171	1178	1185	1186	1176	1164	1162	1148	1158	1160	1163	1168	1173	1175	1175	1180	1174	1166	1157	1157	1158	1165	1168	1168	1167	1164	1164	1169	1176	1178	1178	1174	1171	1173	1166	1170	1178	1187	1180	1191	1183	1189	1181	1186	1186	1185	1189	1188	1191	1198	1203	1199	1197	1191	1193	1196	1197	1193	1184	1175	1179	1193	1205	1215	1224	1226	1226	1221	1217	1211	1207	1202	1197	1193	1208	1220	1211	1209	1211	1220	1221	1221	1219	1204	1197	1198	1206	1211	1208	1197	1196	1193	1197	1201	1218	1218	1221	1220	1226	1238	1238	1229	1223	1219	1214	1211	1212	1218	1223	1229	1231	1235	1231	1230	1236	1227	1227	1211	1204	1204	1211	1217	1215	1194	1183	1179	0	0	0	0	0	0	0	0
913	917	923	923	921	919	918	918	917	917	919	931	957	957	957	941	934	921	918	924	924	935	942	938	927	921	924	924	935	946	951	955	956	941	941	942	956	970	974	973	970	967	967	955	956	964	974	976	961	946	953	948	948	951	951	950	953	954	951	946	938	939	946	956	956	960	953	957	964	975	983	979	977	973	976	965	966	961	960	964	962	958	958	962	962	966	961	963	971	978	981	973	963	959	965	948	946	944	946	958	982	982	970	964	968	971	975	971	959	955	966	972	972	966	963	964	965	966	965	971	975	984	990	987	971	955	951	956	976	970	966	968	974	979	980	986	986	981	975	969	967	972	977	992	997	997	999	1001	985	987	985	976	971	974	975	980	990	999	1000	989	986	978	977	966	962	976	1001	1009	1014	1014	1009	974	967	969	971	975	979	980	979	983	991	1000	1007	1010	1008	1010	1009	1015	1013	1006	1002	1008	1007	1003	1000	1001	1006	1003	1001	1003	1003	1004	1004	979	998	1024	1020	1009	983	987	999	1004	1026	1024	1022	1006	1012	1008	998	1000	1021	1005	1002	1003	1033	1039	1037	1034	1026	1013	1003	993	994	1008	1016	1015	1021	1020	1023	1030	1026	1003	1008	1006	1001	1010	1017	1029	1036	1036	1032	1015	1021	1021	1020	1020	1024	1025	1009	1007	1003	999	1004	1013	1015	1020	1039	1044	1025	1026	1026	1025	1029	1020	1005	1015	1041	1053	1050	1045	1050	1056	1050	1050	1033	1034	1035	1043	1053	1051	1048	1046	1040	1039	1045	1046	1044	1046	1047	1048	1058	1058	1058	1061	1060	1064	1056	1046	1047	1050	1051	1055	1064	1076	1081	1073	1066	1080	1093	1106	1105	1088	1075	1075	1082	1087	1092	1090	1082	1069	1066	1065	1068	1074	1081	1084	1084	1074	1051	1046	1063	1078	1089	1084	1076	1086	1089	1090	1075	1065	1060	1052	1062	1081	1101	1101	1091	1076	1053	1060	1064	1071	1085	1097	1085	1094	1105	1118	1124	1119	1104	1088	1095	1106	1105	1081	1079	1083	1085	1087	1092	1094	1090	1091	1092	1093	1098	1097	1098	1085	1090	1096	1101	1092	1099	1100	1100	1096	1085	1085	1090	1095	1100	1100	1101	1094	1088	1091	1101	1105	1104	1099	1094	1093	1093	1091	1092	1089	1081	1079	1085	1085	1088	1093	1096	1099	1100	1106	1106	1109	1109	1105	1091	1089	1092	1093	1095	1096	1091	1097	1097	1099	1110	1121	1128	1135	1134	1129	1127	1130	1137	1143	1144	1137	1115	1105	1105	1107	1127	1132	1136	1131	1126	1120	1128	1140	1146	1145	1139	1129	1127	1135	1142	1142	1145	1139	1115	1124	1132	1134	1135	1132	1126	1122	1123	1125	1130	1137	1141	1144	1139	1143	1140	1145	1147	1153	1154	1146	1141	1137	1143	1141	1146	1152	1149	1150	1151	1158	1162	1162	1133	1127	1123	1129	1148	1154	1153	1150	1156	1160	1162	1161	1153	1149	1143	1140	1137	1137	1144	1158	1157	1151	1146	1130	1125	1123	1132	1147	1158	1165	1147	1145	1144	1146	1158	1162	1162	1160	1152	1146	1173	1178	1186	1186	1189	1188	1188	1195	1197	1194	1192	1192	1191	1188	1182	1161	1162	1165	1173	1185	1184	1205	1212	1211	1210	1207	1203	1194	1185	1178	1179	1184	1190	1183	1185	1204	1212	1185	1183	1177	1176	1175	1180	1182	1184	1187	1186	1181	1177	1189	1189	1192	1206	1208	1208	1209	1201	1200	1210	1206	1205	1203	1199	1201	1204	1207	1216	1229	1226	1228	1235	1225	1225	1203	1192	1188	1187	1194	1194	1189	1185	1179	0	0	0	0	0	0	0	0
901	904	908	910	910	914	920	919	917	917	919	924	942	949	949	941	934	933	929	932	932	938	944	935	918	904	908	908	905	914	923	935	941	938	938	936	947	954	959	963	960	962	962	958	957	964	930	932	927	931	938	944	944	949	946	944	943	944	944	939	937	941	940	943	946	946	950	955	963	968	969	968	963	958	950	941	939	951	953	952	947	944	955	955	955	952	953	959	964	947	945	947	950	945	941	937	932	930	935	949	957	964	965	962	963	966	966	958	952	955	958	965	962	960	955	956	965	968	965	963	968	977	981	977	967	958	947	952	970	962	959	956	959	967	968	977	978	974	970	963	965	966	967	976	992	993	988	975	971	983	985	974	970	971	972	973	973	976	973	966	963	963	967	968	967	964	983	989	1002	1004	1004	987	972	964	964	973	983	979	966	972	986	987	995	995	996	991	989	989	998	1000	1002	997	992	990	989	990	982	958	959	965	973	974	974	975	975	979	976	973	982	991	992	995	995	995	991	997	1006	1008	1001	987	990	992	989	987	985	987	1029	1026	1010	1000	996	993	1002	1001	1000	1004	1004	1006	1009	1013	1003	993	990	994	999	1007	1017	1024	1026	1030	1023	1019	1025	1015	999	987	992	1003	1004	1002	998	992	1001	1019	1018	1012	1017	1017	1007	1015	1023	1011	1006	983	985	996	1021	1049	1055	1045	1046	1044	1049	1048	1029	1026	1027	1033	1041	1042	1040	1033	1029	1028	1032	1032	1032	1039	1039	1042	1048	1048	1049	1047	1055	1048	1045	1039	1041	1045	1043	1033	1031	1065	1076	1067	1059	1056	1063	1067	1070	1068	1064	1067	1075	1080	1081	1086	1077	1071	1062	1060	1062	1073	1079	1073	1055	1038	1032	1038	1057	1069	1084	1086	1078	1076	1082	1081	1080	1060	1054	1049	1057	1052	1051	1048	1031	1033	1044	1055	1059	1067	1081	1080	1082	1085	1106	1115	1116	1107	1088	1075	1074	1085	1074	1060	1061	1069	1073	1086	1092	1094	1098	1099	1099	1100	1095	1087	1079	1084	1088	1093	1093	1092	1093	1096	1097	1085	1072	1083	1087	1089	1090	1095	1093	1086	1076	1060	1066	1091	1096	1093	1092	1092	1087	1085	1089	1088	1083	1078	1075	1080	1086	1084	1080	1083	1083	1086	1088	1093	1098	1086	1068	1065	1074	1078	1077	1080	1090	1093	1088	1080	1084	1111	1118	1124	1121	1115	1114	1115	1121	1125	1139	1114	1111	1102	1103	1105	1099	1104	1108	1111	1110	1103	1103	1109	1125	1128	1127	1120	1117	1121	1124	1120	1106	1104	1108	1118	1119	1126	1123	1121	1116	1117	1118	1117	1118	1122	1125	1129	1137	1139	1135	1135	1135	1138	1137	1130	1126	1122	1121	1125	1131	1137	1141	1139	1144	1129	1120	1119	1117	1115	1113	1114	1119	1111	1112	1113	1120	1119	1120	1132	1133	1134	1135	1129	1129	1129	1131	1136	1141	1141	1131	1126	1113	1104	1113	1136	1146	1151	1140	1138	1134	1139	1148	1142	1138	1144	1139	1134	1132	1159	1173	1180	1169	1164	1171	1177	1187	1194	1192	1190	1189	1184	1182	1167	1157	1157	1158	1166	1174	1182	1187	1193	1188	1196	1194	1183	1173	1164	1161	1166	1175	1168	1155	1155	1168	1173	1174	1171	1168	1166	1161	1152	1149	1156	1175	1179	1171	1171	1171	1176	1180	1183	1202	1200	1191	1187	1187	1187	1191	1193	1190	1198	1192	1186	1182	1207	1233	1230	1224	1224	1210	1198	1188	1180	1178	1185	1187	1183	1181	1183	0	0	0	0	0	0	0	0
889	895	895	904	904	916	922	921	915	915	914	916	907	919	926	926	917	918	915	917	925	925	932	924	910	908	909	909	911	910	916	920	919	920	920	921	921	927	932	941	941	943	948	948	942	921	915	910	903	902	902	908	908	922	926	929	933	937	937	936	945	944	941	940	943	943	946	949	959	959	957	955	949	942	934	927	916	924	933	932	933	938	940	939	938	938	933	930	931	934	928	936	937	937	935	921	920	923	928	933	943	949	947	950	953	959	954	949	949	955	957	960	953	947	949	954	969	974	967	959	959	963	968	969	959	954	949	951	953	955	952	946	947	957	963	963	962	964	958	963	964	962	957	955	972	976	970	966	970	982	981	976	962	965	969	970	971	973	970	965	966	956	962	959	951	942	941	952	955	971	987	982	971	960	960	967	964	957	950	958	970	980	982	986	981	977	975	976	979	976	973	971	972	977	977	974	956	957	963	966	966	965	975	974	971	968	970	970	980	985	986	983	981	977	980	988	994	996	994	987	985	982	981	981	974	968	966	962	992	982	977	986	989	992	993	989	993	994	994	999	988	978	979	983	983	987	992	998	1016	1014	1009	1022	1017	1002	989	974	978	990	996	997	980	982	992	1005	1014	1012	1003	995	995	992	1003	998	997	992	967	966	984	999	1002	1009	1011	1009	1010	1019	1018	1014	999	1014	1027	1032	1030	1027	1022	1017	1019	1027	1029	1034	1037	1038	1033	1037	1038	1039	1037	1041	1037	1040	1040	1039	1035	1027	1020	1019	1039	1035	1028	1025	1027	1026	1029	1038	1054	1060	1060	1038	1036	1033	1051	1057	1061	1063	1065	1059	1050	1035	1032	1036	1035	1040	1062	1067	1071	1077	1071	1065	1055	1044	1051	1052	1050	1048	1052	1027	1025	1021	1026	1038	1052	1060	1063	1066	1069	1071	1066	1070	1072	1073	1067	1062	1063	1062	1070	1070	1062	1046	1051	1059	1071	1079	1083	1090	1092	1092	1090	1084	1078	1076	1063	1055	1070	1082	1084	1085	1085	1069	1066	1052	1054	1052	1050	1034	1035	1043	1053	1055	1055	1054	1055	1051	1069	1085	1083	1057	1057	1066	1068	1067	1064	1068	1072	1077	1070	1070	1064	1065	1065	1073	1077	1079	1079	1071	1067	1060	1059	1064	1070	1073	1089	1090	1085	1075	1069	1074	1084	1100	1105	1100	1102	1104	1106	1083	1098	1096	1078	1080	1073	1074	1081	1088	1088	1082	1083	1079	1082	1095	1103	1112	1117	1115	1112	1107	1102	1096	1087	1094	1102	1108	1111	1112	1113	1116	1113	1116	1117	1116	1110	1111	1112	1118	1119	1130	1130	1126	1126	1129	1126	1120	1115	1112	1106	1108	1114	1083	1089	1135	1124	1113	1106	1104	1106	1107	1103	1100	1099	1100	1100	1098	1101	1108	1106	1107	1114	1117	1118	1121	1119	1120	1118	1115	1126	1124	1120	1118	1109	1105	1110	1119	1129	1134	1127	1130	1125	1127	1133	1130	1126	1135	1131	1122	1119	1133	1149	1155	1149	1149	1142	1135	1142	1147	1167	1176	1176	1165	1134	1122	1134	1142	1150	1163	1166	1171	1169	1164	1152	1149	1149	1167	1162	1155	1152	1158	1169	1169	1154	1137	1130	1148	1161	1161	1159	1155	1145	1143	1143	1148	1164	1172	1171	1171	1166	1165	1164	1171	1180	1188	1198	1188	1172	1181	1181	1186	1188	1192	1183	1170	1165	1165	1171	1173	1180	1180	1173	1182	1186	1189	1185	1185	1182	1176	1169	1165	0	0	0	0	0	0	0	0
870	869	875	894	894	906	917	914	913	913	907	902	902	907	913	913	903	893	892	899	902	902	906	898	889	894	898	898	901	897	895	894	904	912	912	912	905	907	919	931	934	932	934	934	931	916	915	916	912	906	900	901	908	908	913	919	920	921	924	925	920	921	921	925	929	929	931	929	937	948	949	944	939	936	928	917	911	915	912	913	928	937	946	945	932	932	921	913	900	907	923	929	928	927	917	909	910	913	921	922	921	919	915	917	925	928	923	918	915	930	948	950	949	916	912	918	930	949	947	948	947	948	948	946	948	951	948	947	948	940	933	930	937	947	950	950	952	949	957	963	961	956	931	923	938	956	964	968	973	977	979	975	964	945	954	965	968	971	972	968	964	959	954	947	929	926	927	933	944	956	963	952	945	936	951	961	961	957	955	957	961	960	964	970	976	968	964	962	962	960	960	958	963	961	957	955	965	968	965	961	953	964	975	968	965	965	965	967	987	987	984	975	971	972	973	980	983	984	978	979	971	965	974	971	968	966	963	960	960	959	969	971	973	979	980	975	979	985	986	974	954	954	972	970	970	971	974	981	987	989	1001	1005	1000	990	978	970	971	981	987	981	971	968	980	983	995	995	990	981	982	979	981	990	984	977	973	972	975	983	989	991	986	989	983	976	972	971	974	976	1011	1017	1015	1012	1006	1012	1017	1023	1025	1025	1029	1023	1020	1023	1025	1030	1034	1032	1031	1031	1030	1028	1025	1022	1016	1012	1017	1021	1016	1005	1007	1007	1010	1015	1021	1023	1027	1029	1028	1026	1027	1034	1040	1042	1040	1040	1038	1031	1026	1034	1045	1047	1040	1039	1039	1038	1036	1027	1027	1028	1034	1039	1039	1036	1031	1034	1037	1038	1033	1036	1042	1051	1062	1054	1058	1039	1027	1013	1014	1031	1036	1039	1043	1043	1037	1030	1037	1037	1046	1048	1060	1066	1071	1068	1062	1074	1074	1066	1063	1057	1050	1038	1035	1064	1040	1052	1057	1054	1048	1035	1046	1043	1037	1034	1026	1027	1035	1048	1052	1048	1038	1035	1037	1037	1037	1037	1049	1047	1048	1045	1040	1036	1042	1053	1055	1050	1048	1054	1061	1060	1061	1065	1069	1064	1063	1057	1055	1056	1060	1075	1083	1085	1080	1076	1072	1078	1085	1086	1090	1086	1080	1059	1048	1043	1058	1056	1060	1063	1065	1065	1068	1073	1073	1074	1078	1084	1083	1078	1090	1097	1100	1093	1093	1095	1092	1079	1074	1084	1089	1082	1080	1089	1088	1090	1087	1090	1096	1103	1099	1087	1072	1063	1072	1100	1118	1114	1110	1109	1110	1112	1108	1103	1071	1053	1051	1050	1056	1078	1087	1092	1092	1096	1096	1090	1085	1084	1092	1097	1093	1094	1091	1092	1095	1092	1097	1104	1105	1108	1110	1102	1100	1097	1100	1103	1106	1111	1105	1104	1106	1110	1113	1115	1107	1111	1116	1114	1116	1116	1117	1126	1123	1114	1121	1132	1142	1144	1124	1121	1104	1105	1111	1123	1141	1148	1144	1126	1117	1102	1100	1118	1133	1143	1144	1150	1141	1133	1119	1123	1129	1133	1144	1147	1145	1149	1159	1157	1148	1133	1123	1126	1132	1145	1145	1141	1138	1136	1140	1142	1155	1169	1169	1169	1159	1149	1144	1136	1136	1131	1128	1136	1170	1174	1179	1177	1180	1163	1148	1138	1148	1146	1147	1145	1146	1146	1158	1162	1172	1173	1172	1171	1171	1164	1157	1151	0	0	0	0	0	0	0	0
