1668	1666	1677	1677	1685	1679	1674	1676	1676	1682	1691	1701	1715	1726	1726	1722	1707	1699	1692	1690	1690	1698	1721	1703	1702	1689	1686	1686	1691	1690	1686	1660	1670	1707	1712	1712	1709	1671	1664	1685	1701	1715	1721	1717	1717	1739	1741	1716	1705	1717	1718	1702	1683	1677	1702	1714	1714	1725	1727	1718	1708	1689	1729	1741	1737	1695	1700	1689	1680	1668	1672	1687	1687	1705	1725	1722	1736	1744	1730	1723	1713	1703	1749	1759	1775	1773	1765	1759	1750	1737	1721	1716	1717	1730	1743	1747	1752	1756	1762	1756	1749	1753	1761	1764	1782	1787	1787	1792	1796	1804	1817	1832	1831	1805	1774	1753	1749	1767	1794	1803	1795	1782	1765	1752	1749	1770	1765	1760	1746	1750	1754	1765	1764	1755	1750	1757	1773	1787	1800	1807	1808	1805	1803	1799	1794	1787	1784	1780	1780	1777	1769	1759	1763	1770	1764	1751	1746	1748	1754	1746	1741	1753	1766	1784	1818	1817	1799	1802	1819	1836	1847	1842	1827	1803	1775	1765	1768	1701	1674	1538	1521	1456	1444	1460	1486	1505	1512	1506	1498	1492	1483	1489	1483	1469	1451	1465	1466	1475	1482	1478	1468	1459	1469	1485	1499	1501	1486	1478	1466	1464	1468	1459	1466	1486	1494	1490	1485	1488	1508	1522	1500	1497	1491	1502	1492	1510	1537	1497	1486	1501	1513	1522	1533	1548	1567	1577	1590	1595	1594	1601	1612	1618	1658	1781	1886	1902	1917	1917	1880	1877	1884	1883	1890	1904	1926	1937	1936	1919	1888	1861	1844	1847	1864	1867	1858	1842	1839	1850	1857	1861	1881	1902	1923	1918	1907	1897	1895	1982	2000	2004	1985	1970	1961	1970	1984	2015	2024	2005	1998	1987	1981	1968	1969	1959	1944	1938	1946	1965	1996	2029	2028	2035	2024	2004	1985	1965	1976	2011	2030	2043	2051	1986	1818	1769	1559	1511	1511	1516	1496	1494	1516	1525	1515	1505	1501	1506	1508	1497	1497	1491	1490	1497	1502	1504	1513	1512	1505	1496	1487	1487	1500	1506	1513	1517	1525	1528	1499	1485	1471	1482	1485	1492	1496	1498	1497	1499	1505	1523	1501	1516	1500	1507	1485	1484	1487	1494	1507	1510	1519	1514	1503	1497	1508	1502	1498	1508	1508	1512	1519	1515	1514	1523	1528	1520	1517	1508	1511	1484	1489	1514	1515	1483	1477	1464	1590	1925	2147	2158	2164	2175	2193	2187	2194	2200	2164	2181	2209	2200	2148	2109	2088	2116	2125	2143	2131	2129	2140	2154	2148	2142	2161	2169	2159	2165	2165	2198	2205	2196	2161	2169	2169	2171	2167	2162	2148	2134	2129	2122	2118	2149	2139	2136	2138	2098	2073	2003	1952	1906	1912	1925	1943	1954	1892	1908	1918	1933	1993	1980	1973	1945	1926	1921	1917	1914	1912	1919	1934	1927	1833	1679	1673	1667	1654	1637	1614	1580	1541	1539	1553	1572	1576	1572	1518	1448	1478	1500	1508	1522	1488	1470	1465	1474	1471	1424	1420	1420	1422	1425	1440	1485	1508	1494	1479	1479	1476	1464	1449	1436	1440	1442	1454	1460	1455	1439	1442	1445	1460	1470	1464	1440	1416	1403	1401	1425	1453	1467	1480	1481	1469	1454	1452	1455	1464	1527	1740	1954	2125	2370	2453	2465	2475	2529	2563	2586	2611	2580	2550	2542	2541	2546	2594	2632	2643	2617	2593	2555	2568	2589	2605	2612	2615	2608	2596	2593	2606	2625	2645	2654	2656	2667	2651	2661	2669	2673	2664	2669	2678	2667	2652	2642	2659	2702	2692	2719	2727	2731	2734	2737	2730	2713	2708	2703	2707	2720	2744	2771	2784	2769	2724	2616	2469	2417	2168	2087	2104	2101	2103	2097	2083	2062	2040	2036	2022	2022	2052	2048	2041	2037	2027	2011	2003	2005	2016	2024	2020	2019	2019	2013	2012	2014	2025	2025	0	0	0	0	0	0	0	0
1608	1633	1634	1634	1657	1656	1647	1651	1651	1661	1649	1648	1652	1666	1666	1682	1685	1693	1682	1671	1671	1661	1663	1669	1652	1670	1672	1672	1659	1643	1622	1627	1634	1644	1647	1647	1650	1653	1651	1659	1674	1690	1693	1682	1682	1673	1665	1664	1675	1691	1694	1679	1659	1650	1662	1677	1677	1699	1705	1696	1682	1673	1672	1657	1665	1664	1666	1659	1657	1657	1657	1656	1667	1667	1683	1702	1725	1721	1709	1708	1692	1675	1683	1699	1717	1724	1721	1709	1689	1696	1686	1693	1701	1703	1710	1725	1734	1734	1745	1755	1758	1751	1749	1752	1753	1752	1754	1757	1743	1752	1771	1779	1782	1769	1754	1739	1737	1741	1755	1765	1762	1752	1746	1739	1741	1753	1741	1732	1713	1711	1710	1722	1726	1729	1732	1742	1753	1748	1748	1771	1793	1797	1787	1775	1771	1758	1744	1746	1748	1744	1733	1734	1738	1745	1735	1722	1707	1713	1708	1708	1708	1716	1728	1753	1787	1781	1774	1782	1798	1804	1806	1803	1803	1787	1751	1735	1730	1697	1683	1544	1513	1464	1452	1464	1477	1490	1502	1496	1491	1487	1491	1506	1511	1492	1474	1459	1464	1476	1480	1477	1469	1461	1474	1486	1495	1500	1486	1470	1464	1462	1466	1460	1464	1476	1482	1479	1486	1502	1517	1530	1501	1496	1492	1486	1466	1497	1531	1506	1510	1520	1516	1523	1531	1551	1580	1592	1601	1605	1629	1626	1627	1640	1711	1782	1850	1866	1828	1823	1826	1823	1852	1846	1836	1852	1874	1885	1895	1882	1863	1825	1805	1817	1833	1843	1827	1807	1799	1809	1826	1835	1843	1863	1888	1900	1893	1881	1866	1873	1892	1936	1927	1916	1916	1951	1964	1956	1944	1909	1897	1904	1927	1934	1945	1932	1912	1896	1896	1917	1950	1980	1992	1984	1964	1931	1924	1928	1936	1944	1959	1964	1995	1922	1808	1739	1551	1515	1509	1503	1499	1499	1506	1516	1515	1508	1506	1513	1499	1489	1491	1485	1483	1492	1498	1499	1493	1490	1497	1495	1494	1496	1494	1502	1508	1519	1521	1522	1504	1460	1471	1477	1484	1486	1500	1500	1504	1497	1497	1487	1486	1488	1512	1507	1505	1493	1496	1497	1495	1498	1499	1504	1489	1487	1500	1507	1508	1513	1506	1508	1513	1512	1506	1521	1513	1509	1505	1506	1506	1491	1478	1513	1517	1487	1467	1456	1604	1917	1990	2042	2090	2124	2138	2144	2105	2114	2081	2092	2122	2130	2118	2100	2072	2070	2102	2092	2098	2114	2122	2119	2132	2131	2139	2135	2121	2118	2117	2109	2055	2066	2100	2114	2125	2131	2135	2132	2129	2110	2095	2077	2057	2060	2053	2062	2082	2118	2097	2041	1977	1932	1907	1910	1926	1871	1873	1922	1921	1931	1993	1978	1980	1963	1943	1937	1926	1918	1920	1934	1941	1910	1801	1665	1652	1641	1646	1646	1629	1590	1552	1543	1556	1580	1588	1572	1519	1470	1486	1508	1521	1513	1481	1472	1459	1475	1452	1424	1416	1416	1429	1441	1461	1478	1499	1487	1481	1475	1483	1480	1466	1458	1460	1463	1461	1453	1433	1438	1442	1444	1455	1462	1457	1437	1415	1400	1410	1432	1452	1464	1464	1452	1449	1447	1442	1462	1476	1540	1768	1971	2087	2252	2393	2411	2440	2465	2477	2473	2446	2473	2498	2508	2492	2464	2455	2452	2553	2549	2532	2479	2482	2485	2510	2537	2553	2549	2534	2536	2547	2563	2575	2583	2582	2579	2571	2589	2598	2594	2601	2618	2605	2573	2562	2560	2551	2546	2581	2623	2643	2646	2651	2649	2659	2658	2648	2650	2638	2648	2669	2667	2653	2633	2632	2565	2450	2349	2134	2089	2102	2095	2103	2089	2066	2045	2038	2039	2031	2031	2063	2046	2043	2032	2019	2005	2001	2010	2022	2031	2033	2029	2023	2015	2008	2008	2023	2023	0	0	0	0	0	0	0	0
1573	1591	1604	1604	1620	1615	1615	1618	1618	1606	1617	1620	1619	1620	1620	1637	1647	1653	1648	1639	1637	1637	1634	1647	1614	1632	1625	1609	1609	1603	1604	1613	1617	1621	1630	1630	1638	1638	1640	1647	1650	1659	1664	1650	1643	1643	1642	1653	1658	1657	1665	1653	1640	1629	1640	1658	1658	1669	1678	1672	1664	1657	1647	1632	1632	1640	1648	1646	1648	1643	1641	1636	1643	1643	1658	1682	1701	1700	1692	1685	1678	1669	1653	1673	1682	1697	1699	1701	1692	1684	1669	1654	1658	1672	1683	1701	1706	1705	1711	1730	1733	1731	1725	1721	1717	1713	1708	1683	1670	1675	1692	1696	1725	1731	1721	1709	1698	1695	1712	1726	1733	1731	1726	1728	1730	1733	1731	1713	1698	1690	1687	1694	1698	1700	1709	1720	1714	1719	1726	1730	1744	1741	1739	1721	1724	1731	1725	1720	1723	1707	1702	1705	1719	1720	1714	1703	1693	1690	1691	1691	1693	1701	1714	1724	1723	1735	1735	1732	1743	1756	1754	1758	1768	1752	1727	1703	1699	1673	1648	1538	1508	1461	1463	1478	1485	1501	1502	1495	1491	1489	1500	1514	1521	1511	1490	1477	1476	1486	1489	1490	1475	1475	1479	1489	1496	1499	1490	1474	1472	1472	1466	1462	1465	1471	1470	1472	1486	1509	1531	1549	1512	1496	1487	1470	1462	1487	1496	1492	1502	1522	1518	1521	1535	1561	1596	1603	1610	1635	1635	1640	1645	1649	1697	1769	1809	1796	1802	1802	1789	1784	1792	1809	1803	1807	1795	1804	1821	1823	1798	1777	1774	1775	1796	1806	1802	1789	1787	1790	1793	1786	1783	1783	1792	1804	1803	1801	1797	1798	1816	1818	1889	1887	1915	1942	1944	1937	1891	1839	1844	1868	1917	1924	1930	1926	1919	1897	1886	1881	1889	1897	1908	1919	1907	1897	1899	1902	1893	1885	1875	1865	1896	1856	1747	1683	1527	1497	1493	1498	1508	1503	1500	1511	1520	1515	1510	1502	1482	1483	1484	1480	1487	1491	1493	1490	1484	1481	1484	1496	1499	1497	1493	1499	1506	1517	1516	1510	1503	1497	1477	1482	1487	1494	1500	1504	1498	1501	1496	1487	1472	1468	1474	1484	1503	1503	1505	1506	1512	1493	1495	1501	1499	1501	1513	1509	1511	1514	1512	1508	1510	1509	1513	1517	1501	1493	1486	1500	1470	1483	1466	1489	1514	1501	1479	1461	1605	1899	1962	2004	2038	2057	2025	2016	2032	2039	2045	2054	2078	2096	2100	2098	2085	2076	2065	2058	2056	2062	2066	2066	2095	2107	2106	2095	2079	2054	2042	2022	2022	2028	2019	2057	2074	2079	2087	2082	2088	2086	2068	2043	2029	2019	2025	2046	2042	2040	2059	2048	2004	1942	1910	1893	1897	1863	1884	1927	1921	1931	1982	1973	1975	1954	1955	1947	1945	1942	1954	1959	1964	1906	1683	1657	1631	1610	1615	1628	1628	1604	1579	1568	1580	1591	1582	1559	1521	1483	1474	1509	1516	1501	1480	1477	1475	1481	1451	1442	1428	1429	1441	1450	1457	1456	1471	1475	1475	1468	1485	1483	1471	1467	1465	1467	1456	1443	1426	1438	1445	1448	1455	1452	1460	1453	1430	1416	1430	1457	1467	1464	1450	1443	1451	1451	1455	1473	1493	1542	1761	1921	2099	2215	2307	2336	2365	2379	2384	2376	2387	2410	2435	2466	2434	2377	2407	2416	2423	2416	2424	2434	2432	2426	2442	2469	2482	2481	2474	2482	2508	2522	2519	2511	2510	2500	2479	2497	2515	2513	2518	2535	2501	2489	2495	2489	2485	2489	2516	2546	2570	2570	2568	2565	2566	2572	2583	2573	2550	2551	2565	2565	2537	2505	2485	2462	2411	2339	2123	2085	2084	2093	2079	2074	2046	2024	2033	2050	2051	2051	2073	2050	2042	2029	2004	2000	2001	2006	2021	2033	2037	2041	2036	2027	2014	2008	2008	2019	0	0	0	0	0	0	0	0
1557	1566	1579	1579	1583	1582	1584	1573	1570	1570	1569	1582	1594	1596	1596	1600	1607	1612	1610	1604	1603	1603	1601	1589	1602	1609	1605	1589	1589	1588	1591	1594	1599	1601	1617	1617	1623	1623	1621	1622	1622	1618	1616	1609	1609	1609	1621	1627	1619	1615	1626	1625	1613	1607	1618	1635	1635	1646	1656	1656	1654	1651	1640	1617	1612	1615	1623	1625	1628	1626	1623	1631	1630	1630	1644	1657	1667	1672	1667	1658	1648	1632	1637	1645	1656	1666	1679	1681	1678	1668	1652	1629	1617	1619	1652	1666	1670	1681	1696	1718	1721	1717	1712	1697	1683	1685	1685	1673	1652	1646	1646	1653	1670	1671	1666	1643	1639	1644	1679	1694	1705	1713	1713	1713	1705	1704	1700	1690	1698	1690	1686	1686	1684	1679	1679	1680	1696	1697	1694	1695	1695	1700	1698	1696	1699	1698	1703	1698	1685	1673	1668	1675	1695	1692	1685	1676	1686	1686	1687	1699	1711	1720	1714	1708	1693	1688	1674	1665	1675	1681	1699	1711	1727	1722	1704	1680	1671	1635	1609	1568	1497	1455	1484	1500	1509	1508	1504	1502	1495	1493	1505	1519	1520	1520	1505	1487	1483	1484	1485	1481	1489	1487	1483	1488	1494	1498	1488	1480	1480	1479	1480	1467	1465	1470	1470	1469	1487	1516	1537	1573	1522	1507	1495	1464	1465	1494	1481	1481	1488	1514	1520	1513	1525	1567	1597	1599	1604	1626	1637	1640	1645	1658	1696	1746	1770	1770	1781	1778	1772	1765	1772	1775	1769	1767	1763	1757	1751	1751	1761	1769	1774	1766	1765	1772	1779	1768	1768	1767	1754	1733	1732	1746	1763	1774	1773	1766	1766	1776	1790	1795	1791	1781	1842	1864	1874	1827	1798	1795	1777	1786	1838	1845	1857	1875	1864	1868	1863	1854	1852	1846	1839	1824	1825	1835	1841	1839	1814	1815	1801	1805	1816	1810	1681	1635	1483	1471	1481	1503	1522	1500	1497	1513	1506	1507	1494	1475	1480	1484	1483	1481	1486	1491	1491	1490	1482	1480	1486	1495	1500	1499	1497	1501	1502	1512	1508	1501	1495	1497	1498	1501	1475	1474	1496	1505	1503	1504	1493	1487	1469	1476	1477	1482	1499	1500	1505	1508	1515	1519	1490	1491	1503	1513	1503	1502	1508	1513	1510	1511	1514	1513	1510	1492	1489	1484	1479	1471	1481	1469	1466	1472	1505	1509	1495	1472	1720	1857	1940	2003	2015	2012	2002	1997	2001	2022	2031	2041	2053	2070	2066	2057	2044	2022	2026	2031	2026	2021	2018	2014	2017	2042	2060	2058	2047	2033	2025	2016	2015	2019	2013	2025	2037	2041	2045	2054	2053	2058	2047	2033	2016	2008	2008	2015	2011	2003	2004	2014	2018	1996	1990	1919	1873	1877	1882	1892	1924	1936	1978	1965	1956	1938	1937	1938	1962	1976	1986	1990	1986	1928	1699	1662	1608	1597	1601	1628	1630	1621	1615	1613	1604	1579	1565	1541	1506	1484	1453	1492	1497	1489	1481	1481	1485	1490	1449	1438	1440	1441	1449	1451	1451	1451	1465	1475	1460	1462	1466	1475	1471	1468	1470	1463	1451	1439	1436	1436	1441	1442	1444	1455	1461	1461	1449	1443	1457	1466	1468	1461	1454	1447	1458	1461	1466	1483	1496	1546	1729	1889	2047	2201	2283	2321	2336	2349	2343	2321	2347	2367	2359	2334	2299	2286	2321	2356	2384	2345	2330	2351	2359	2370	2375	2368	2377	2383	2412	2439	2463	2481	2478	2465	2449	2437	2419	2416	2445	2443	2454	2455	2447	2434	2423	2429	2426	2419	2432	2462	2492	2501	2499	2481	2483	2484	2503	2499	2476	2467	2471	2456	2434	2406	2394	2392	2359	2312	2119	2076	2086	2080	2062	2042	2040	2024	2032	2046	2055	2055	2066	2046	2035	2021	2001	1997	1997	2000	2007	2019	2037	2045	2047	2036	2027	2018	2018	2018	0	0	0	0	0	0	0	0
1537	1545	1557	1557	1564	1557	1536	1535	1530	1530	1537	1549	1564	1563	1563	1567	1577	1583	1585	1581	1576	1576	1555	1564	1579	1573	1563	1545	1545	1547	1547	1548	1528	1511	1515	1529	1529	1545	1543	1531	1534	1548	1572	1576	1583	1583	1590	1597	1596	1592	1587	1577	1571	1561	1584	1603	1603	1602	1603	1610	1623	1636	1623	1608	1601	1607	1614	1616	1611	1615	1619	1612	1628	1628	1628	1603	1603	1625	1625	1624	1615	1610	1607	1622	1634	1639	1648	1649	1646	1636	1619	1596	1581	1576	1589	1608	1628	1652	1675	1686	1701	1708	1699	1684	1671	1671	1669	1654	1634	1629	1630	1634	1629	1621	1620	1618	1619	1626	1642	1665	1685	1708	1707	1688	1653	1651	1637	1650	1661	1657	1650	1660	1661	1669	1663	1658	1663	1667	1634	1638	1644	1658	1673	1678	1673	1670	1676	1683	1656	1640	1638	1659	1668	1660	1633	1625	1663	1674	1659	1658	1675	1682	1681	1674	1674	1656	1636	1638	1656	1660	1655	1670	1687	1686	1683	1677	1657	1606	1563	1530	1481	1458	1493	1517	1518	1510	1504	1498	1490	1482	1493	1505	1508	1510	1500	1478	1466	1468	1476	1482	1485	1482	1480	1483	1482	1483	1484	1484	1493	1498	1499	1479	1475	1476	1481	1478	1485	1509	1533	1570	1514	1510	1497	1467	1468	1487	1476	1474	1476	1522	1524	1518	1527	1547	1578	1589	1591	1598	1616	1630	1643	1666	1709	1724	1747	1764	1760	1756	1743	1740	1749	1758	1762	1751	1733	1712	1712	1717	1732	1762	1763	1751	1750	1749	1746	1743	1746	1749	1733	1712	1704	1720	1744	1750	1748	1744	1749	1768	1782	1790	1786	1771	1771	1766	1792	1777	1760	1750	1741	1747	1763	1773	1781	1798	1805	1809	1819	1816	1811	1804	1802	1808	1799	1794	1782	1783	1775	1780	1785	1792	1785	1771	1639	1594	1481	1448	1452	1497	1520	1501	1500	1497	1497	1488	1480	1464	1468	1469	1472	1480	1482	1490	1494	1490	1482	1481	1485	1495	1502	1499	1493	1495	1498	1505	1499	1494	1492	1499	1507	1501	1496	1463	1464	1487	1495	1494	1492	1480	1480	1483	1484	1490	1492	1485	1507	1511	1517	1528	1513	1484	1494	1508	1510	1503	1500	1513	1516	1514	1505	1493	1481	1494	1499	1478	1477	1477	1485	1491	1473	1471	1493	1507	1492	1472	1709	1795	1910	1942	1947	1961	1973	1972	1985	2005	2018	2018	2027	2025	2020	2007	1994	1989	1990	1997	1999	1988	1976	1968	1959	1954	1999	2010	2013	2009	2003	2003	2012	2014	2007	2004	2014	2012	2011	2030	2039	2049	2049	2041	2016	2002	1995	1995	1988	1980	1978	1980	1991	2007	2027	2001	1950	1879	1891	1903	1933	1944	1960	1957	1940	1922	1923	1943	1968	1991	2005	2002	2005	1938	1718	1677	1627	1617	1623	1634	1637	1619	1616	1613	1605	1575	1546	1522	1493	1444	1441	1476	1481	1469	1468	1481	1487	1490	1453	1439	1440	1450	1452	1446	1444	1458	1472	1476	1466	1457	1467	1467	1467	1468	1473	1464	1452	1436	1445	1444	1439	1436	1446	1450	1457	1461	1457	1458	1462	1453	1465	1464	1469	1481	1473	1473	1476	1488	1484	1529	1698	1858	2009	2135	2226	2266	2281	2292	2280	2281	2300	2312	2304	2264	2251	2245	2246	2253	2316	2308	2270	2246	2260	2279	2298	2309	2286	2280	2324	2394	2402	2376	2372	2400	2398	2385	2374	2368	2372	2400	2399	2396	2379	2352	2348	2348	2354	2343	2372	2401	2431	2439	2435	2415	2411	2427	2445	2417	2379	2391	2381	2369	2348	2330	2331	2316	2301	2266	2107	2067	2079	2073	2063	2050	2043	2038	2025	2021	2021	2024	2038	2043	2039	2023	2008	2001	1997	1995	1997	2007	2028	2041	2047	2043	2036	2033	2033	2033	0	0	0	0	0	0	0	0
1470	1495	1510	1510	1505	1508	1512	1516	1514	1514	1519	1528	1532	1535	1541	1541	1550	1552	1557	1556	1560	1560	1526	1527	1521	1522	1514	1510	1510	1517	1511	1497	1479	1479	1485	1496	1496	1505	1509	1511	1513	1522	1537	1543	1554	1554	1568	1581	1581	1573	1566	1557	1542	1543	1552	1571	1571	1586	1584	1588	1593	1602	1605	1594	1591	1599	1602	1598	1585	1565	1562	1563	1564	1564	1572	1581	1580	1580	1584	1597	1590	1581	1595	1608	1620	1621	1620	1618	1607	1602	1582	1562	1549	1561	1577	1594	1610	1622	1627	1623	1654	1649	1649	1662	1660	1659	1645	1628	1609	1607	1610	1608	1600	1585	1590	1595	1595	1599	1612	1621	1632	1638	1639	1633	1625	1605	1581	1605	1602	1604	1603	1621	1630	1641	1637	1613	1591	1592	1602	1600	1614	1633	1645	1648	1648	1637	1636	1635	1638	1614	1621	1633	1646	1636	1617	1599	1589	1601	1613	1634	1651	1660	1659	1653	1653	1650	1645	1641	1647	1652	1647	1647	1656	1660	1662	1663	1648	1587	1523	1495	1456	1446	1479	1512	1506	1498	1493	1490	1473	1467	1475	1481	1495	1501	1499	1484	1466	1462	1463	1469	1473	1473	1473	1472	1478	1480	1479	1487	1503	1514	1514	1492	1487	1493	1492	1490	1494	1498	1516	1518	1495	1495	1494	1479	1472	1478	1470	1472	1472	1528	1536	1539	1550	1560	1566	1574	1582	1586	1592	1596	1651	1677	1688	1704	1714	1730	1732	1722	1707	1692	1702	1719	1740	1728	1706	1689	1676	1684	1685	1700	1707	1714	1715	1723	1712	1709	1709	1710	1704	1694	1690	1699	1725	1732	1724	1723	1733	1759	1774	1768	1741	1742	1747	1744	1743	1733	1746	1733	1732	1729	1730	1737	1734	1728	1737	1760	1774	1775	1771	1762	1767	1762	1757	1752	1741	1752	1750	1765	1777	1787	1781	1739	1581	1539	1486	1445	1450	1491	1512	1497	1487	1480	1482	1482	1468	1466	1462	1472	1478	1484	1476	1481	1492	1503	1494	1482	1477	1493	1499	1499	1491	1487	1489	1490	1494	1494	1489	1499	1507	1509	1487	1454	1471	1487	1486	1487	1482	1483	1479	1478	1486	1488	1477	1478	1506	1509	1521	1526	1524	1501	1485	1501	1504	1504	1498	1494	1500	1495	1489	1488	1490	1491	1493	1490	1483	1487	1503	1503	1476	1481	1487	1483	1476	1604	1688	1809	1884	1900	1902	1896	1901	1933	1952	1977	1994	1990	1986	1985	1966	1956	1952	1951	1957	1965	1967	1965	1953	1941	1903	1894	1902	1935	1966	1977	1975	1980	1999	2003	1981	1979	1979	1983	1992	2014	2032	2047	2049	2042	2022	1995	1977	1969	1965	1959	1963	1983	1989	1994	1991	2012	1989	1937	1913	1928	1930	1921	1932	1930	1935	1935	1917	1938	1971	1993	2010	2009	2003	1913	1721	1694	1659	1667	1665	1658	1632	1611	1608	1609	1592	1564	1544	1519	1489	1441	1437	1461	1473	1455	1452	1471	1477	1477	1457	1438	1455	1456	1453	1445	1430	1449	1462	1466	1458	1452	1459	1466	1470	1474	1474	1465	1446	1442	1452	1456	1444	1439	1438	1441	1445	1453	1456	1454	1448	1440	1443	1463	1482	1476	1461	1454	1477	1483	1463	1502	1687	1833	1979	2108	2191	2225	2246	2245	2232	2213	2206	2193	2190	2202	2215	2223	2220	2239	2250	2249	2239	2214	2205	2211	2256	2277	2255	2241	2237	2307	2315	2291	2288	2293	2284	2338	2340	2329	2321	2297	2296	2322	2312	2282	2275	2280	2285	2302	2314	2326	2352	2368	2279	2213	2212	2253	2284	2303	2294	2290	2288	2268	2272	2270	2265	2256	2239	2206	2093	2060	2060	2052	2052	2050	2045	2030	2014	1996	1996	2000	2002	2025	2030	2030	2021	2006	1999	1995	1995	2001	2017	2030	2037	2043	2040	2040	2040	2041	0	0	0	0	0	0	0	0
1436	1455	1478	1478	1492	1499	1502	1504	1505	1505	1510	1522	1517	1513	1521	1521	1527	1527	1530	1526	1523	1485	1477	1478	1478	1481	1487	1489	1489	1489	1486	1474	1469	1467	1471	1481	1481	1490	1492	1493	1495	1488	1477	1495	1514	1514	1532	1547	1551	1554	1549	1537	1533	1525	1524	1538	1556	1556	1558	1563	1565	1557	1551	1559	1564	1581	1579	1569	1554	1539	1529	1524	1527	1527	1550	1556	1566	1564	1564	1555	1560	1567	1577	1592	1604	1608	1594	1579	1557	1562	1553	1547	1544	1557	1572	1586	1595	1589	1577	1577	1577	1584	1588	1607	1608	1601	1589	1583	1570	1570	1576	1577	1578	1569	1568	1576	1575	1580	1583	1572	1573	1575	1577	1582	1584	1578	1563	1559	1557	1562	1578	1584	1595	1598	1595	1581	1565	1563	1565	1572	1588	1609	1621	1621	1616	1606	1595	1572	1571	1580	1592	1606	1611	1611	1610	1588	1576	1581	1596	1615	1634	1642	1643	1631	1632	1646	1641	1635	1633	1637	1631	1624	1635	1638	1642	1645	1637	1577	1510	1488	1458	1445	1464	1500	1500	1494	1486	1486	1481	1470	1461	1456	1472	1478	1495	1501	1487	1471	1454	1453	1456	1463	1468	1473	1482	1481	1490	1494	1497	1494	1505	1502	1493	1498	1499	1500	1494	1496	1496	1473	1471	1467	1483	1476	1464	1461	1474	1483	1495	1506	1556	1566	1559	1557	1552	1564	1576	1586	1639	1697	1703	1671	1660	1655	1651	1670	1689	1705	1692	1677	1673	1692	1714	1707	1687	1671	1657	1647	1651	1666	1675	1678	1675	1681	1693	1685	1671	1669	1657	1666	1668	1671	1692	1707	1700	1701	1708	1723	1726	1714	1697	1704	1708	1716	1723	1713	1703	1695	1707	1703	1708	1711	1711	1703	1706	1731	1737	1738	1737	1735	1735	1723	1713	1711	1729	1730	1736	1750	1759	1764	1759	1711	1557	1525	1471	1459	1475	1490	1495	1477	1460	1468	1470	1469	1471	1474	1470	1477	1497	1489	1482	1485	1497	1502	1497	1480	1474	1486	1497	1497	1485	1475	1475	1485	1494	1494	1487	1495	1503	1505	1484	1467	1483	1492	1479	1480	1468	1469	1472	1477	1488	1488	1475	1482	1497	1503	1509	1513	1517	1499	1478	1497	1499	1500	1493	1482	1484	1487	1491	1489	1485	1488	1485	1485	1485	1490	1508	1491	1487	1502	1470	1477	1481	1628	1695	1803	1858	1859	1847	1844	1849	1882	1905	1898	1898	1906	1908	1907	1909	1914	1921	1922	1923	1927	1936	1941	1933	1916	1864	1856	1852	1874	1872	1910	1929	1944	1953	1981	1931	1924	1927	1954	1956	1965	1986	1993	2010	2003	1984	1966	1937	1931	1924	1933	1952	1974	1981	1975	1971	1975	1976	1964	1945	1925	1914	1896	1918	1924	1935	1935	1924	1945	1972	1999	2009	2009	2000	1808	1716	1685	1673	1664	1665	1657	1644	1620	1611	1610	1599	1574	1557	1538	1494	1456	1447	1460	1461	1442	1437	1452	1456	1459	1444	1452	1461	1467	1457	1441	1426	1436	1449	1447	1439	1437	1453	1467	1472	1471	1461	1452	1443	1435	1465	1465	1455	1443	1435	1438	1441	1443	1445	1443	1441	1441	1448	1471	1488	1460	1435	1436	1445	1475	1458	1525	1696	1819	1963	2083	2152	2194	2204	2211	2200	2173	2165	2151	2141	2161	2181	2195	2218	2243	2257	2252	2228	2225	2211	2196	2195	2205	2205	2197	2199	2208	2228	2261	2242	2238	2231	2249	2230	2210	2216	2217	2210	2184	2181	2176	2182	2211	2238	2257	2265	2256	2246	2239	2167	2133	2135	2145	2152	2157	2155	2150	2154	2147	2143	2217	2225	2211	2178	2090	2089	2063	2046	2039	2036	2047	2045	2021	1999	1984	1984	1984	1984	2002	2019	2020	2016	2006	1998	1996	1998	2003	2016	2020	2023	2034	2036	2039	2039	2049	0	0	0	0	0	0	0	0
1429	1441	1462	1479	1479	1486	1493	1501	1499	1499	1513	1509	1497	1489	1491	1491	1497	1497	1498	1497	1485	1463	1464	1460	1461	1457	1459	1450	1450	1456	1455	1460	1461	1460	1463	1465	1465	1453	1454	1449	1447	1448	1460	1477	1494	1494	1513	1523	1526	1529	1520	1509	1501	1490	1498	1503	1517	1517	1522	1520	1507	1503	1507	1519	1525	1562	1557	1543	1536	1519	1505	1502	1512	1528	1528	1541	1545	1540	1528	1525	1530	1546	1558	1577	1588	1572	1563	1563	1551	1556	1556	1549	1548	1555	1566	1567	1567	1563	1563	1550	1543	1545	1562	1565	1567	1571	1573	1575	1576	1565	1561	1563	1565	1558	1548	1544	1549	1552	1550	1549	1544	1552	1554	1558	1561	1558	1542	1533	1539	1550	1563	1576	1577	1577	1566	1552	1546	1547	1548	1553	1559	1571	1584	1591	1577	1557	1534	1524	1551	1564	1564	1561	1567	1570	1580	1572	1565	1569	1581	1595	1613	1630	1618	1610	1612	1627	1624	1614	1604	1603	1594	1606	1612	1620	1620	1622	1625	1605	1534	1499	1472	1451	1462	1485	1488	1485	1490	1491	1484	1475	1464	1461	1462	1469	1490	1501	1498	1478	1456	1442	1445	1460	1472	1488	1492	1489	1496	1499	1495	1488	1476	1464	1472	1492	1500	1496	1498	1503	1490	1462	1463	1462	1469	1465	1452	1441	1469	1498	1499	1507	1555	1565	1560	1542	1526	1535	1563	1601	1680	1695	1674	1639	1634	1631	1634	1648	1665	1669	1674	1660	1651	1662	1666	1667	1665	1650	1632	1623	1623	1632	1643	1641	1639	1640	1662	1658	1642	1626	1625	1630	1639	1653	1655	1655	1674	1686	1696	1695	1690	1678	1671	1663	1659	1667	1680	1690	1686	1687	1697	1698	1694	1692	1698	1698	1694	1689	1690	1683	1678	1693	1708	1703	1693	1696	1707	1712	1707	1708	1720	1731	1726	1695	1553	1535	1491	1478	1487	1490	1477	1470	1466	1464	1464	1467	1478	1487	1496	1502	1502	1495	1489	1494	1505	1505	1498	1484	1475	1475	1493	1496	1480	1475	1475	1486	1494	1496	1484	1484	1501	1499	1492	1481	1494	1498	1485	1476	1459	1456	1466	1474	1486	1492	1490	1493	1505	1510	1510	1513	1508	1493	1483	1492	1505	1486	1475	1471	1475	1483	1488	1488	1486	1488	1486	1490	1490	1496	1500	1493	1499	1517	1488	1478	1534	1604	1696	1743	1759	1766	1785	1784	1779	1789	1820	1825	1840	1840	1836	1825	1813	1829	1855	1879	1862	1850	1875	1905	1901	1847	1841	1831	1831	1831	1845	1872	1899	1910	1908	1904	1884	1887	1900	1904	1894	1876	1875	1891	1898	1896	1880	1869	1871	1885	1906	1924	1935	1936	1942	1946	1943	1939	1919	1915	1931	1928	1921	1908	1920	1923	1933	1938	1936	1953	1977	1994	2002	1996	1985	1867	1759	1669	1649	1644	1658	1661	1659	1647	1643	1622	1605	1579	1563	1547	1506	1465	1456	1461	1452	1436	1437	1452	1456	1454	1441	1457	1474	1478	1462	1433	1427	1430	1437	1431	1428	1429	1452	1471	1484	1478	1462	1442	1438	1445	1473	1474	1462	1445	1437	1437	1440	1445	1438	1438	1441	1456	1489	1504	1473	1442	1422	1423	1436	1458	1462	1562	1679	1816	1944	2041	2086	2101	2113	2109	2119	2097	2089	2082	2069	2084	2101	2110	2120	2155	2215	2249	2238	2221	2185	2165	2099	2111	2119	2118	2122	2141	2165	2140	2130	2137	2153	2174	2178	2161	2127	2099	2087	2086	2102	2119	2130	2150	2145	2144	2144	2145	2126	2121	2113	2114	2109	2116	2114	2120	2121	2132	2138	2131	2124	2134	2138	2121	2098	2089	2087	2068	2049	2037	2032	2043	2048	2037	2004	1990	1990	1974	1971	1990	2009	2015	2013	2000	2000	1998	2002	2008	2012	2015	2019	2019	2024	2029	2029	2049	0	0	0	0	0	0	0	0
1425	1425	1440	1453	1453	1456	1463	1481	1498	1498	1503	1484	1460	1437	1442	1442	1455	1461	1464	1462	1442	1442	1436	1446	1451	1441	1435	1437	1437	1438	1441	1440	1450	1447	1446	1443	1443	1442	1441	1439	1439	1441	1451	1468	1480	1480	1489	1493	1494	1485	1467	1458	1447	1443	1462	1486	1502	1502	1502	1492	1475	1474	1481	1495	1503	1506	1509	1518	1518	1509	1499	1495	1491	1488	1488	1493	1518	1505	1486	1498	1514	1529	1539	1538	1535	1537	1541	1546	1544	1543	1544	1542	1534	1539	1537	1526	1529	1535	1546	1544	1538	1546	1553	1552	1556	1556	1557	1556	1553	1549	1541	1542	1546	1544	1533	1532	1539	1543	1538	1540	1541	1537	1531	1529	1533	1539	1519	1510	1510	1527	1543	1553	1549	1549	1531	1519	1517	1524	1530	1543	1563	1561	1559	1532	1515	1505	1508	1508	1542	1567	1563	1549	1541	1542	1552	1553	1556	1561	1573	1576	1590	1592	1581	1575	1578	1603	1583	1552	1548	1557	1576	1587	1600	1610	1605	1602	1594	1594	1567	1536	1517	1457	1469	1489	1484	1478	1486	1489	1483	1476	1474	1472	1469	1469	1486	1496	1492	1478	1464	1462	1464	1471	1488	1498	1492	1491	1491	1490	1493	1484	1472	1468	1469	1479	1495	1495	1502	1508	1495	1462	1459	1466	1470	1469	1473	1451	1467	1509	1504	1506	1532	1519	1502	1492	1495	1540	1569	1592	1598	1599	1607	1598	1597	1593	1616	1627	1625	1626	1631	1628	1610	1613	1605	1621	1619	1614	1620	1620	1617	1622	1628	1626	1616	1602	1598	1609	1609	1604	1605	1600	1612	1628	1650	1667	1667	1680	1677	1666	1658	1651	1638	1632	1620	1605	1606	1618	1638	1653	1652	1628	1624	1624	1635	1691	1687	1673	1650	1645	1659	1677	1680	1677	1660	1665	1681	1696	1698	1690	1683	1694	1687	1679	1562	1541	1516	1499	1492	1473	1460	1463	1477	1475	1468	1473	1482	1506	1514	1518	1512	1503	1494	1494	1509	1507	1504	1487	1472	1472	1471	1489	1484	1474	1475	1482	1492	1491	1483	1475	1489	1494	1507	1493	1498	1504	1494	1479	1480	1482	1478	1481	1487	1484	1483	1499	1507	1519	1518	1511	1501	1500	1470	1478	1453	1460	1463	1464	1467	1481	1476	1483	1488	1490	1495	1496	1495	1500	1493	1489	1503	1503	1479	1473	1548	1594	1646	1712	1741	1747	1742	1733	1730	1737	1776	1798	1803	1794	1781	1771	1772	1800	1826	1830	1815	1795	1789	1800	1799	1799	1817	1830	1826	1825	1832	1855	1878	1886	1884	1851	1858	1859	1864	1860	1857	1849	1844	1851	1858	1855	1840	1829	1837	1848	1866	1883	1894	1897	1884	1884	1879	1880	1885	1896	1904	1909	1920	1924	1932	1935	1938	1938	1927	1914	1943	1959	1908	1912	1928	1850	1752	1648	1629	1623	1646	1654	1655	1648	1637	1625	1605	1582	1560	1548	1504	1476	1464	1463	1458	1435	1442	1472	1471	1456	1438	1455	1480	1486	1469	1434	1432	1436	1439	1436	1435	1434	1451	1480	1490	1479	1456	1444	1444	1470	1482	1488	1476	1464	1440	1447	1447	1446	1441	1443	1453	1478	1494	1491	1478	1448	1426	1436	1443	1466	1466	1570	1664	1778	1903	1999	2051	2073	2078	2057	2065	2040	2015	2024	2041	2054	2050	2058	2057	2068	2071	2078	2083	2072	2061	2051	2045	2065	2066	2066	2060	2041	2060	2102	2106	2106	2121	2138	2152	2150	2126	2100	2072	2061	2073	2102	2114	2120	2107	2099	2082	2067	2067	2088	2105	2110	2107	2090	2070	2059	2063	2084	2097	2104	2098	2094	2081	2082	2093	2099	2092	2067	2053	2053	2061	2052	2057	2050	2033	2033	2011	1994	1983	1989	1996	2008	2011	2004	2005	2007	2010	2009	2007	2006	1998	2007	2013	2020	2020	2045	0	0	0	0	0	0	0	0
1422	1419	1419	1424	1424	1424	1445	1472	1484	1484	1476	1444	1429	1425	1436	1436	1447	1449	1439	1435	1408	1408	1411	1425	1429	1420	1425	1418	1418	1421	1415	1423	1429	1430	1434	1430	1430	1427	1426	1427	1434	1438	1444	1451	1462	1466	1466	1461	1465	1458	1457	1447	1439	1440	1443	1461	1481	1481	1486	1470	1452	1446	1455	1473	1482	1488	1490	1492	1494	1487	1480	1479	1469	1460	1460	1447	1445	1456	1473	1492	1504	1517	1521	1509	1499	1493	1498	1495	1488	1494	1499	1494	1491	1486	1483	1493	1506	1513	1515	1525	1544	1536	1541	1542	1540	1539	1535	1527	1516	1512	1513	1515	1521	1532	1522	1514	1515	1522	1523	1532	1532	1529	1519	1519	1523	1521	1500	1488	1484	1493	1509	1521	1510	1507	1504	1506	1514	1520	1530	1542	1553	1556	1544	1513	1491	1485	1486	1491	1514	1540	1550	1544	1531	1522	1525	1528	1539	1553	1555	1541	1535	1531	1535	1542	1542	1535	1503	1487	1504	1540	1556	1569	1584	1591	1582	1578	1575	1568	1549	1532	1510	1492	1506	1500	1483	1480	1481	1482	1481	1479	1478	1481	1486	1482	1479	1486	1486	1480	1477	1479	1483	1497	1506	1500	1487	1473	1474	1474	1480	1481	1478	1488	1488	1493	1500	1505	1502	1507	1505	1470	1467	1467	1468	1485	1484	1466	1477	1470	1502	1489	1466	1492	1497	1510	1547	1558	1571	1588	1597	1595	1585	1581	1579	1579	1582	1608	1612	1602	1599	1595	1594	1581	1575	1594	1589	1591	1596	1617	1619	1619	1618	1614	1594	1559	1546	1546	1565	1587	1587	1579	1581	1610	1636	1651	1675	1668	1649	1618	1620	1608	1607	1601	1586	1567	1566	1590	1624	1638	1643	1613	1609	1611	1610	1603	1601	1623	1618	1633	1642	1656	1660	1648	1631	1627	1646	1672	1684	1673	1661	1646	1648	1641	1564	1546	1528	1514	1486	1461	1456	1462	1492	1490	1487	1485	1493	1509	1522	1523	1517	1505	1496	1491	1497	1505	1504	1499	1483	1481	1478	1472	1490	1484	1479	1488	1486	1485	1475	1475	1485	1497	1504	1516	1504	1510	1509	1498	1482	1478	1491	1494	1503	1502	1497	1482	1494	1505	1507	1508	1501	1466	1454	1451	1451	1461	1477	1493	1501	1500	1487	1485	1481	1492	1499	1502	1504	1501	1494	1500	1487	1488	1468	1473	1546	1593	1644	1697	1725	1737	1740	1741	1738	1737	1743	1746	1743	1735	1731	1742	1753	1770	1778	1796	1780	1773	1775	1768	1771	1784	1809	1825	1832	1816	1808	1828	1859	1866	1849	1816	1821	1834	1835	1836	1833	1828	1826	1819	1826	1819	1811	1807	1808	1821	1835	1845	1846	1835	1822	1822	1827	1833	1850	1867	1877	1876	1887	1900	1918	1933	1933	1924	1916	1905	1877	1872	1869	1878	1877	1843	1723	1624	1608	1606	1627	1640	1635	1621	1602	1594	1580	1570	1550	1529	1483	1483	1459	1459	1466	1437	1442	1451	1465	1437	1431	1445	1467	1483	1476	1445	1445	1443	1443	1445	1450	1452	1468	1485	1490	1477	1456	1448	1445	1475	1488	1488	1479	1469	1456	1455	1451	1452	1450	1455	1460	1473	1483	1479	1476	1463	1455	1449	1460	1482	1480	1586	1649	1732	1860	1972	2009	2030	2037	2016	2030	2009	1978	1970	1993	2008	2021	2009	2011	2015	2026	2029	2018	1993	1994	1998	1999	1999	2012	2014	2007	1981	1978	2055	2066	2058	2058	2082	2097	2101	2103	2079	2051	2042	2046	2070	2094	2100	2099	2079	2046	2016	2013	2030	2062	2069	2048	2023	2011	2034	2040	2042	2064	2084	2081	2066	2054	2046	2041	2051	2060	2061	2056	2056	2066	2060	2049	2044	2037	2037	2016	2009	2005	1984	2007	2016	2013	2011	2015	2017	2016	2002	1980	1963	1954	1962	1968	1968	2007	2037	0	0	0	0	0	0	0	0
1423	1418	1405	1390	1390	1408	1433	1452	1442	1442	1424	1415	1404	1411	1422	1422	1430	1430	1417	1389	1387	1389	1389	1400	1396	1399	1406	1404	1403	1403	1415	1420	1417	1413	1414	1416	1416	1411	1408	1416	1424	1428	1432	1431	1433	1438	1438	1444	1446	1441	1435	1433	1435	1437	1440	1447	1454	1454	1463	1458	1440	1433	1437	1450	1470	1479	1479	1477	1471	1470	1470	1464	1451	1437	1437	1427	1432	1451	1467	1477	1486	1495	1499	1497	1490	1479	1465	1441	1433	1438	1445	1454	1455	1458	1463	1473	1452	1452	1443	1440	1445	1473	1484	1488	1483	1473	1473	1473	1469	1465	1446	1442	1441	1439	1435	1433	1433	1441	1461	1471	1477	1476	1473	1475	1468	1464	1473	1480	1479	1480	1471	1484	1475	1469	1483	1495	1511	1524	1521	1520	1526	1531	1533	1521	1509	1502	1471	1465	1491	1511	1527	1533	1528	1519	1509	1511	1508	1513	1511	1508	1498	1505	1513	1524	1520	1494	1481	1481	1508	1517	1527	1539	1544	1558	1553	1546	1535	1520	1509	1501	1493	1504	1510	1499	1489	1476	1479	1481	1479	1479	1482	1487	1489	1485	1478	1476	1482	1483	1487	1491	1491	1496	1498	1499	1492	1482	1479	1478	1482	1483	1489	1507	1508	1510	1506	1509	1505	1500	1500	1477	1474	1472	1475	1491	1489	1489	1485	1496	1500	1498	1502	1535	1519	1518	1532	1545	1558	1579	1579	1571	1568	1561	1561	1555	1540	1544	1551	1559	1559	1559	1559	1555	1557	1554	1548	1542	1563	1573	1583	1588	1587	1580	1565	1574	1570	1549	1531	1530	1532	1547	1569	1583	1597	1608	1608	1605	1595	1589	1583	1585	1584	1585	1576	1563	1557	1564	1601	1614	1617	1589	1591	1595	1604	1605	1594	1585	1577	1608	1624	1627	1620	1607	1582	1572	1579	1597	1657	1653	1631	1612	1598	1587	1566	1533	1520	1508	1471	1455	1462	1479	1507	1500	1492	1491	1497	1506	1514	1514	1512	1502	1494	1485	1480	1478	1480	1486	1492	1494	1489	1488	1485	1494	1488	1482	1474	1471	1470	1470	1477	1495	1503	1520	1528	1535	1520	1513	1482	1471	1481	1495	1503	1499	1485	1480	1489	1496	1495	1489	1477	1465	1463	1459	1473	1482	1499	1505	1515	1508	1493	1490	1470	1488	1502	1503	1492	1483	1474	1445	1468	1472	1469	1484	1543	1597	1630	1690	1707	1703	1709	1724	1732	1732	1729	1715	1701	1704	1710	1725	1730	1734	1751	1759	1756	1748	1757	1763	1770	1777	1775	1767	1776	1767	1765	1777	1810	1825	1813	1783	1780	1792	1804	1809	1809	1809	1807	1809	1802	1785	1764	1758	1774	1795	1818	1828	1822	1823	1822	1816	1822	1814	1831	1842	1853	1855	1855	1852	1851	1858	1881	1890	1834	1839	1825	1815	1814	1827	1862	1782	1664	1589	1574	1585	1603	1614	1603	1574	1553	1537	1540	1535	1526	1500	1472	1483	1459	1449	1472	1458	1465	1463	1464	1437	1430	1435	1452	1471	1478	1459	1461	1453	1455	1461	1462	1461	1467	1479	1478	1470	1457	1454	1468	1470	1483	1481	1472	1463	1456	1454	1455	1459	1454	1455	1461	1464	1470	1479	1489	1485	1476	1473	1479	1493	1506	1589	1638	1667	1863	1947	1985	2002	2009	2004	1998	1989	1974	1967	1977	1987	1985	1978	1975	1975	1971	1964	1938	1935	1946	1946	1943	1941	1961	1971	1956	1952	1967	1960	1964	1966	2007	2041	2056	2053	2038	2010	1997	1993	2003	2007	2045	2062	2052	2012	1985	1977	1974	1989	2022	2025	2016	1999	1987	1996	2014	2023	2030	2051	2059	2051	2025	2006	1998	2018	2042	2042	2035	2026	2017	2039	2010	1998	1991	1991	1985	1985	2000	1997	1985	1976	1976	1983	1975	1977	1981	1986	1978	1964	1944	1941	1944	1944	1980	1983	0	0	0	0	0	0	0	0
1379	1379	1371	1376	1376	1392	1411	1411	1376	1376	1385	1387	1390	1394	1402	1402	1413	1409	1402	1368	1364	1366	1366	1373	1379	1375	1379	1389	1394	1394	1413	1410	1401	1400	1394	1401	1400	1400	1399	1407	1414	1415	1410	1407	1409	1418	1418	1426	1420	1421	1420	1428	1438	1442	1439	1433	1434	1434	1446	1452	1442	1430	1434	1445	1467	1482	1487	1476	1456	1445	1450	1448	1436	1410	1407	1407	1420	1433	1443	1451	1460	1465	1471	1482	1474	1463	1441	1396	1386	1381	1395	1416	1425	1425	1424	1430	1441	1449	1448	1444	1438	1428	1418	1425	1447	1470	1481	1479	1467	1436	1424	1425	1429	1433	1433	1427	1426	1432	1443	1455	1462	1472	1475	1474	1464	1446	1446	1470	1478	1470	1458	1447	1445	1447	1453	1463	1475	1479	1484	1482	1486	1484	1506	1512	1507	1491	1470	1455	1462	1482	1494	1512	1518	1513	1504	1498	1496	1495	1484	1471	1464	1475	1494	1509	1502	1490	1491	1478	1487	1487	1495	1496	1498	1498	1505	1501	1497	1478	1478	1485	1488	1475	1461	1451	1451	1462	1474	1480	1485	1494	1503	1513	1522	1526	1516	1499	1480	1473	1464	1467	1466	1475	1489	1500	1512	1528	1526	1507	1500	1493	1494	1490	1483	1501	1500	1491	1490	1487	1486	1477	1477	1481	1485	1494	1480	1477	1478	1508	1520	1529	1541	1536	1521	1515	1525	1539	1533	1532	1521	1514	1511	1510	1516	1526	1525	1525	1524	1539	1537	1537	1534	1531	1539	1539	1539	1531	1524	1519	1535	1561	1564	1558	1567	1576	1579	1564	1546	1533	1519	1516	1530	1557	1568	1575	1578	1577	1576	1565	1559	1560	1568	1574	1566	1554	1545	1543	1557	1582	1575	1566	1574	1585	1586	1596	1581	1557	1545	1541	1551	1562	1581	1583	1575	1559	1551	1552	1564	1564	1574	1571	1566	1567	1540	1482	1478	1477	1456	1455	1474	1496	1519	1501	1490	1486	1491	1493	1500	1496	1499	1497	1491	1485	1474	1464	1462	1466	1477	1490	1494	1497	1499	1499	1496	1491	1479	1467	1466	1469	1480	1497	1497	1518	1527	1529	1506	1488	1476	1485	1494	1494	1501	1496	1483	1475	1477	1489	1482	1488	1479	1475	1473	1480	1487	1489	1502	1510	1515	1501	1493	1494	1473	1490	1495	1499	1501	1478	1475	1458	1475	1477	1498	1509	1538	1576	1603	1679	1678	1673	1670	1679	1713	1716	1703	1683	1679	1688	1702	1708	1697	1680	1675	1672	1686	1714	1713	1728	1743	1750	1741	1726	1696	1696	1708	1739	1757	1772	1773	1751	1749	1753	1767	1789	1788	1787	1788	1797	1780	1757	1736	1728	1748	1771	1793	1802	1785	1778	1775	1779	1786	1794	1788	1786	1823	1829	1808	1788	1799	1802	1765	1783	1796	1796	1790	1780	1772	1781	1831	1759	1610	1559	1549	1569	1588	1592	1571	1542	1511	1502	1507	1506	1491	1469	1454	1469	1464	1447	1451	1467	1473	1471	1470	1451	1435	1438	1442	1451	1466	1478	1474	1469	1463	1461	1453	1446	1443	1447	1442	1446	1450	1464	1478	1471	1473	1464	1452	1442	1440	1454	1461	1458	1457	1454	1452	1458	1469	1483	1500	1497	1487	1480	1472	1479	1509	1578	1626	1656	1878	1928	1949	1978	1987	1982	1952	1939	1934	1934	1944	1960	1961	1947	1945	1937	1934	1923	1912	1899	1901	1902	1904	1902	1906	1924	1944	1944	1950	1945	1941	1961	1995	1995	1998	1986	1941	1945	1954	1962	1954	1949	1952	1959	1966	1960	1961	1950	1949	1960	1973	1988	1983	1981	1976	1977	1982	1994	2016	2038	2045	2027	1992	1972	1966	1986	2012	2025	2024	2011	1980	1950	1938	1923	1934	1950	1956	1972	1966	1973	1967	1953	1941	1939	1940	1938	1937	1938	1945	1945	1947	1945	1939	1939	1934	1928	0	0	0	0	0	0	0	0
1370	1362	1356	1359	1359	1366	1376	1364	1346	1345	1345	1362	1369	1374	1380	1380	1392	1388	1344	1347	1357	1360	1360	1362	1359	1348	1347	1364	1389	1389	1403	1402	1390	1387	1390	1393	1389	1389	1394	1403	1413	1411	1402	1397	1398	1399	1399	1399	1402	1405	1409	1418	1422	1424	1415	1419	1413	1410	1410	1429	1442	1433	1428	1429	1439	1461	1477	1473	1462	1439	1423	1416	1401	1388	1381	1381	1389	1397	1402	1413	1423	1436	1450	1460	1415	1404	1389	1382	1374	1377	1388	1402	1411	1415	1415	1417	1428	1437	1444	1440	1425	1405	1394	1398	1420	1445	1461	1449	1436	1416	1422	1425	1427	1429	1432	1433	1426	1430	1438	1443	1450	1458	1463	1458	1437	1431	1426	1425	1443	1437	1444	1444	1444	1443	1444	1452	1459	1461	1466	1464	1453	1447	1465	1481	1487	1466	1456	1440	1430	1456	1441	1447	1459	1467	1471	1481	1482	1476	1466	1429	1426	1431	1442	1450	1450	1440	1461	1474	1478	1480	1479	1487	1494	1499	1503	1498	1490	1475	1469	1477	1480	1473	1459	1450	1453	1458	1455	1461	1466	1482	1500	1510	1505	1497	1485	1463	1440	1442	1457	1463	1458	1454	1457	1471	1486	1488	1484	1475	1475	1466	1456	1440	1434	1451	1459	1455	1451	1446	1449	1465	1469	1475	1481	1476	1487	1471	1497	1518	1524	1541	1531	1493	1482	1489	1497	1500	1497	1495	1497	1493	1483	1482	1488	1492	1508	1501	1510	1526	1526	1520	1507	1503	1506	1510	1517	1508	1508	1511	1524	1521	1521	1523	1552	1555	1550	1545	1538	1531	1520	1520	1513	1516	1534	1536	1540	1546	1541	1551	1547	1549	1556	1555	1543	1519	1504	1518	1530	1542	1545	1537	1528	1523	1536	1529	1518	1502	1500	1505	1522	1530	1533	1544	1585	1564	1545	1533	1534	1544	1546	1545	1549	1551	1525	1481	1457	1443	1450	1453	1481	1500	1520	1495	1482	1477	1481	1483	1487	1487	1492	1503	1497	1487	1473	1457	1464	1474	1485	1489	1493	1497	1508	1504	1502	1498	1486	1482	1463	1469	1470	1479	1488	1497	1506	1507	1497	1487	1480	1487	1482	1495	1493	1495	1486	1469	1478	1486	1492	1484	1485	1484	1487	1484	1495	1496	1492	1484	1479	1490	1480	1484	1488	1494	1497	1498	1501	1485	1482	1476	1478	1478	1513	1528	1547	1563	1575	1648	1644	1635	1631	1626	1632	1658	1653	1640	1647	1667	1680	1671	1660	1651	1648	1660	1670	1685	1690	1690	1696	1690	1689	1693	1676	1671	1676	1693	1700	1687	1711	1728	1722	1720	1741	1762	1768	1747	1731	1723	1710	1702	1701	1701	1718	1745	1767	1770	1762	1754	1740	1732	1737	1750	1753	1756	1756	1757	1745	1744	1737	1754	1748	1742	1754	1761	1759	1752	1743	1755	1784	1734	1705	1557	1523	1549	1569	1575	1560	1531	1507	1491	1496	1488	1468	1452	1440	1449	1464	1462	1456	1464	1473	1477	1473	1459	1439	1442	1449	1461	1473	1479	1473	1461	1451	1451	1452	1440	1436	1435	1435	1432	1447	1462	1475	1470	1459	1447	1443	1430	1430	1453	1467	1467	1455	1450	1449	1463	1469	1470	1461	1459	1457	1459	1464	1471	1498	1571	1636	1661	1865	1902	1912	1926	1928	1904	1866	1881	1888	1889	1906	1926	1910	1916	1914	1913	1906	1894	1882	1879	1879	1881	1880	1887	1891	1910	1927	1943	1945	1939	1929	1938	1947	1951	1949	1908	1915	1922	1928	1929	1912	1913	1921	1929	1938	1940	1931	1921	1926	1932	1937	1946	1954	1958	1968	1980	1986	1988	1994	1983	1995	1989	1974	1955	1915	1914	1930	1950	1961	1975	1962	1942	1929	1924	1924	1931	1954	1957	1955	1956	1959	1959	1951	1936	1928	1922	1918	1912	1914	1927	1932	1928	1921	1921	1916	1918	0	0	0	0	0	0	0	0
1360	1350	1340	1341	1341	1344	1347	1340	1324	1331	1331	1338	1341	1347	1349	1353	1353	1345	1314	1338	1353	1364	1364	1363	1349	1330	1329	1343	1371	1371	1386	1388	1377	1374	1377	1383	1386	1386	1394	1403	1400	1398	1389	1384	1384	1376	1376	1373	1378	1386	1397	1404	1402	1387	1381	1388	1390	1387	1387	1389	1410	1408	1402	1397	1409	1428	1443	1440	1427	1407	1404	1400	1388	1377	1379	1379	1380	1384	1395	1407	1388	1392	1392	1392	1390	1384	1381	1384	1383	1383	1382	1390	1393	1397	1400	1395	1403	1406	1414	1416	1407	1390	1382	1386	1399	1408	1417	1410	1411	1409	1411	1420	1418	1429	1428	1420	1410	1413	1416	1422	1426	1431	1437	1430	1418	1415	1410	1406	1403	1411	1432	1439	1436	1432	1431	1438	1446	1450	1440	1424	1422	1426	1429	1443	1452	1452	1441	1428	1418	1411	1406	1405	1439	1448	1452	1451	1459	1425	1414	1412	1412	1428	1440	1447	1448	1444	1466	1479	1484	1482	1478	1474	1483	1493	1496	1488	1474	1472	1470	1472	1467	1467	1449	1445	1438	1442	1447	1447	1447	1458	1482	1494	1488	1473	1449	1433	1415	1435	1456	1461	1463	1467	1465	1472	1480	1480	1475	1465	1459	1451	1448	1439	1433	1448	1451	1459	1463	1462	1452	1439	1442	1460	1461	1462	1450	1445	1506	1517	1518	1506	1474	1471	1467	1471	1480	1483	1485	1486	1479	1471	1465	1466	1472	1478	1483	1491	1503	1506	1511	1496	1496	1488	1479	1473	1481	1511	1518	1518	1509	1502	1491	1495	1503	1502	1510	1514	1516	1516	1516	1505	1497	1488	1488	1487	1477	1485	1480	1502	1525	1534	1528	1520	1501	1493	1479	1477	1490	1500	1500	1504	1493	1492	1500	1497	1489	1467	1466	1466	1467	1465	1479	1496	1527	1534	1523	1529	1523	1528	1529	1529	1530	1523	1519	1483	1455	1441	1450	1489	1499	1507	1511	1495	1483	1480	1481	1482	1478	1482	1489	1495	1498	1493	1479	1469	1472	1486	1494	1498	1494	1501	1511	1507	1505	1504	1498	1495	1484	1463	1458	1459	1459	1464	1491	1497	1492	1482	1466	1472	1474	1487	1489	1492	1484	1477	1476	1484	1489	1488	1494	1490	1493	1494	1482	1473	1467	1476	1501	1498	1494	1487	1493	1497	1502	1504	1500	1493	1494	1502	1496	1478	1506	1528	1534	1551	1578	1623	1619	1609	1596	1584	1589	1596	1603	1601	1611	1622	1624	1625	1627	1627	1635	1646	1654	1639	1635	1635	1642	1650	1646	1648	1635	1640	1655	1656	1665	1667	1675	1679	1655	1669	1692	1695	1680	1671	1668	1672	1668	1667	1667	1671	1687	1703	1718	1723	1722	1710	1698	1690	1699	1717	1718	1717	1711	1706	1666	1656	1651	1681	1700	1698	1703	1706	1707	1707	1700	1702	1726	1747	1685	1661	1600	1551	1550	1557	1552	1533	1514	1511	1504	1488	1466	1453	1434	1437	1461	1472	1470	1462	1476	1484	1486	1466	1441	1447	1460	1474	1480	1473	1464	1448	1443	1450	1455	1448	1438	1433	1433	1435	1441	1456	1479	1472	1452	1437	1432	1421	1431	1447	1464	1469	1461	1462	1460	1463	1466	1467	1450	1439	1425	1430	1450	1471	1491	1563	1628	1663	1840	1886	1897	1903	1897	1883	1841	1832	1842	1865	1874	1870	1868	1853	1882	1872	1848	1842	1845	1845	1851	1860	1859	1866	1878	1893	1911	1920	1929	1903	1889	1893	1898	1898	1901	1902	1908	1909	1904	1889	1885	1893	1896	1904	1913	1917	1907	1903	1900	1911	1926	1932	1927	1938	1955	1968	1979	1956	1885	1883	1885	1892	1875	1872	1880	1879	1893	1915	1938	1943	1940	1917	1907	1893	1893	1874	1883	1906	1937	1944	1945	1961	1947	1928	1907	1896	1890	1878	1877	1881	1894	1903	1901	1901	1900	1902	0	0	0	0	0	0	0	0
1350	1345	1337	1335	1335	1326	1324	1313	1306	1309	1309	1310	1317	1305	1271	1287	1287	1300	1287	1320	1342	1355	1355	1357	1340	1326	1326	1337	1354	1354	1363	1360	1354	1355	1354	1356	1368	1368	1382	1395	1393	1381	1368	1357	1351	1350	1350	1356	1360	1363	1369	1369	1363	1347	1345	1350	1365	1367	1367	1363	1362	1373	1378	1383	1396	1406	1402	1387	1378	1383	1392	1393	1385	1383	1377	1377	1372	1349	1342	1344	1349	1357	1362	1375	1379	1374	1374	1380	1399	1399	1392	1382	1365	1367	1372	1370	1366	1374	1386	1392	1386	1378	1363	1366	1368	1381	1391	1394	1393	1390	1393	1400	1408	1411	1407	1401	1397	1396	1402	1401	1403	1402	1400	1403	1402	1403	1389	1381	1392	1391	1407	1417	1418	1413	1419	1429	1434	1423	1413	1402	1397	1405	1408	1416	1426	1441	1439	1425	1418	1405	1397	1387	1381	1383	1389	1388	1403	1401	1401	1405	1409	1419	1429	1438	1444	1437	1454	1474	1473	1467	1462	1443	1449	1445	1441	1440	1446	1446	1449	1454	1448	1442	1405	1399	1419	1426	1425	1425	1432	1441	1448	1451	1455	1444	1420	1407	1401	1424	1450	1457	1463	1468	1460	1462	1466	1462	1462	1454	1448	1447	1444	1440	1437	1437	1453	1464	1463	1458	1446	1441	1436	1430	1439	1440	1437	1434	1434	1440	1483	1478	1442	1428	1438	1448	1464	1474	1475	1471	1470	1464	1458	1450	1451	1460	1469	1480	1486	1485	1475	1467	1469	1469	1468	1463	1466	1494	1523	1525	1519	1496	1479	1465	1463	1475	1491	1490	1468	1460	1466	1472	1482	1477	1473	1472	1471	1475	1479	1474	1472	1491	1496	1495	1491	1486	1473	1460	1452	1450	1449	1459	1474	1495	1497	1478	1463	1449	1447	1446	1444	1448	1462	1469	1480	1484	1485	1498	1487	1476	1507	1509	1514	1510	1496	1484	1478	1485	1503	1522	1513	1504	1496	1492	1485	1474	1484	1484	1476	1470	1481	1487	1493	1492	1484	1480	1481	1492	1503	1503	1499	1506	1501	1497	1501	1505	1509	1503	1479	1472	1467	1469	1471	1489	1500	1495	1483	1467	1456	1461	1468	1482	1486	1486	1481	1474	1474	1477	1489	1491	1495	1491	1483	1485	1476	1481	1481	1473	1471	1474	1494	1518	1495	1501	1506	1502	1500	1505	1509	1509	1517	1475	1494	1509	1512	1534	1562	1574	1585	1589	1576	1565	1569	1587	1603	1599	1594	1590	1588	1606	1621	1611	1585	1586	1608	1599	1595	1590	1583	1585	1589	1602	1609	1619	1612	1615	1636	1651	1663	1655	1654	1657	1648	1649	1647	1645	1643	1641	1637	1645	1651	1662	1670	1677	1684	1694	1698	1682	1663	1653	1665	1679	1684	1686	1659	1658	1646	1635	1634	1648	1675	1687	1688	1689	1677	1669	1660	1672	1697	1706	1689	1710	1706	1668	1642	1591	1570	1548	1516	1522	1519	1501	1476	1441	1435	1436	1451	1476	1484	1458	1480	1488	1500	1481	1451	1455	1460	1477	1487	1478	1456	1431	1424	1441	1448	1451	1447	1449	1450	1449	1443	1453	1465	1470	1454	1441	1431	1427	1431	1448	1473	1476	1475	1470	1467	1463	1462	1458	1447	1431	1414	1417	1439	1483	1497	1551	1602	1664	1807	1841	1862	1864	1858	1846	1819	1805	1818	1832	1840	1837	1821	1803	1789	1806	1806	1808	1820	1821	1818	1824	1818	1842	1865	1871	1865	1865	1895	1861	1851	1857	1862	1872	1883	1891	1893	1885	1879	1871	1866	1870	1865	1874	1878	1878	1870	1863	1864	1883	1901	1892	1876	1869	1901	1903	1906	1865	1857	1858	1862	1849	1843	1834	1837	1846	1840	1857	1881	1899	1899	1871	1863	1851	1851	1854	1858	1872	1886	1896	1901	1894	1890	1885	1888	1874	1868	1854	1844	1836	1842	1861	1861	1872	1880	1883	0	0	0	0	0	0	0	0
1316	1323	1325	1323	1315	1315	1304	1293	1289	1294	1294	1291	1284	1271	1268	1260	1260	1260	1254	1293	1316	1323	1323	1333	1328	1320	1319	1324	1324	1324	1323	1321	1325	1326	1327	1329	1337	1337	1354	1367	1362	1349	1342	1330	1327	1336	1332	1332	1331	1328	1329	1335	1331	1322	1312	1311	1326	1343	1343	1348	1349	1355	1361	1373	1370	1370	1363	1359	1359	1367	1381	1386	1378	1372	1350	1340	1340	1331	1324	1330	1335	1345	1354	1369	1371	1367	1366	1372	1380	1387	1381	1365	1350	1341	1343	1341	1341	1348	1358	1363	1368	1364	1350	1342	1345	1362	1372	1378	1371	1366	1369	1381	1395	1398	1392	1387	1379	1375	1379	1386	1382	1377	1374	1372	1375	1375	1368	1359	1364	1380	1392	1400	1395	1387	1384	1393	1399	1389	1381	1374	1375	1382	1389	1397	1414	1419	1422	1423	1416	1385	1381	1377	1375	1375	1376	1379	1380	1381	1379	1389	1387	1398	1416	1425	1413	1409	1429	1437	1449	1442	1418	1417	1425	1428	1424	1418	1423	1423	1427	1435	1428	1410	1390	1385	1387	1404	1403	1406	1410	1412	1415	1415	1407	1395	1385	1379	1371	1384	1414	1425	1440	1436	1420	1406	1414	1431	1434	1428	1430	1433	1437	1434	1429	1425	1454	1460	1461	1444	1438	1434	1423	1419	1420	1423	1428	1428	1427	1426	1427	1411	1422	1422	1434	1440	1453	1470	1479	1486	1479	1467	1448	1438	1439	1453	1467	1474	1473	1464	1445	1445	1452	1450	1443	1434	1434	1456	1485	1498	1489	1480	1475	1468	1466	1471	1471	1464	1454	1452	1459	1462	1476	1473	1463	1459	1469	1474	1477	1469	1459	1458	1461	1455	1451	1443	1438	1430	1425	1427	1437	1447	1454	1456	1462	1464	1459	1452	1446	1442	1438	1441	1457	1467	1469	1470	1464	1458	1450	1449	1454	1459	1467	1470	1483	1493	1513	1530	1542	1521	1499	1491	1486	1481	1484	1476	1484	1486	1472	1462	1463	1469	1479	1484	1486	1482	1477	1475	1494	1493	1494	1489	1482	1486	1494	1506	1511	1504	1485	1476	1473	1475	1477	1491	1500	1492	1478	1459	1450	1470	1477	1485	1487	1486	1479	1470	1467	1471	1477	1484	1483	1474	1458	1464	1479	1482	1477	1470	1466	1472	1484	1494	1493	1476	1477	1481	1478	1485	1492	1490	1492	1492	1486	1492	1483	1489	1526	1519	1531	1549	1564	1565	1568	1583	1592	1588	1570	1564	1559	1564	1583	1575	1545	1547	1562	1564	1555	1550	1557	1564	1569	1581	1583	1588	1581	1579	1594	1601	1610	1610	1606	1603	1603	1606	1593	1573	1590	1615	1630	1636	1636	1641	1651	1654	1649	1652	1666	1662	1649	1632	1644	1648	1618	1606	1608	1605	1604	1611	1609	1626	1639	1671	1671	1660	1641	1639	1631	1642	1648	1651	1655	1655	1696	1707	1669	1605	1562	1540	1532	1533	1536	1518	1496	1446	1425	1435	1439	1454	1474	1447	1480	1493	1506	1489	1465	1460	1460	1470	1487	1481	1449	1422	1425	1431	1450	1461	1457	1455	1454	1446	1440	1449	1461	1460	1454	1448	1437	1430	1437	1457	1471	1475	1471	1462	1461	1468	1461	1454	1452	1441	1439	1432	1439	1489	1503	1546	1582	1637	1760	1785	1795	1811	1809	1794	1783	1781	1794	1802	1804	1791	1779	1768	1750	1746	1764	1784	1809	1813	1808	1794	1784	1797	1814	1829	1822	1816	1811	1806	1812	1815	1829	1846	1852	1860	1870	1863	1853	1845	1826	1837	1819	1828	1836	1842	1831	1819	1806	1819	1801	1826	1830	1828	1804	1786	1797	1815	1839	1846	1843	1832	1810	1807	1810	1812	1816	1828	1839	1848	1845	1843	1839	1842	1842	1834	1834	1840	1847	1851	1856	1851	1854	1852	1847	1832	1846	1830	1819	1810	1813	1836	1836	1856	1864	1864	0	0	0	0	0	0	0	0
1293	1286	1293	1287	1285	1285	1277	1283	1291	1290	1290	1285	1275	1272	1270	1261	1261	1237	1224	1238	1270	1302	1302	1313	1310	1301	1305	1303	1302	1302	1278	1286	1298	1308	1313	1318	1325	1325	1328	1333	1328	1314	1289	1276	1293	1298	1301	1301	1310	1310	1310	1306	1300	1291	1287	1297	1311	1328	1328	1336	1343	1346	1346	1340	1332	1330	1338	1343	1350	1360	1371	1339	1341	1342	1339	1329	1329	1314	1313	1313	1318	1326	1340	1357	1362	1359	1357	1346	1342	1358	1361	1356	1337	1322	1322	1323	1320	1317	1319	1327	1336	1333	1328	1327	1336	1348	1358	1355	1346	1345	1349	1366	1375	1375	1364	1354	1349	1350	1346	1358	1360	1365	1356	1346	1344	1347	1349	1343	1344	1354	1365	1357	1360	1359	1357	1359	1357	1355	1345	1344	1345	1353	1355	1369	1381	1392	1391	1386	1378	1372	1370	1365	1362	1361	1361	1368	1367	1352	1354	1364	1369	1359	1347	1342	1346	1382	1408	1414	1417	1409	1398	1399	1402	1406	1401	1401	1399	1394	1398	1403	1401	1389	1376	1369	1363	1374	1379	1383	1386	1388	1393	1391	1391	1391	1380	1368	1366	1370	1391	1398	1407	1398	1380	1362	1365	1389	1394	1403	1407	1416	1424	1417	1404	1404	1445	1451	1443	1427	1422	1413	1405	1398	1401	1407	1408	1412	1417	1413	1412	1407	1407	1410	1426	1436	1442	1459	1477	1487	1482	1471	1455	1443	1438	1446	1457	1461	1452	1437	1438	1439	1443	1439	1424	1413	1404	1409	1438	1463	1468	1468	1457	1448	1424	1430	1442	1449	1448	1445	1449	1455	1455	1449	1438	1444	1453	1467	1468	1458	1443	1428	1428	1438	1436	1431	1427	1430	1433	1437	1442	1451	1437	1437	1439	1449	1449	1450	1444	1441	1438	1441	1454	1458	1457	1449	1441	1438	1447	1449	1453	1454	1456	1461	1460	1462	1469	1492	1502	1494	1486	1483	1479	1470	1473	1477	1483	1482	1467	1453	1453	1457	1466	1472	1469	1467	1465	1465	1472	1476	1481	1481	1480	1478	1479	1493	1497	1497	1493	1488	1488	1499	1509	1518	1514	1496	1469	1446	1467	1484	1497	1491	1492	1487	1478	1465	1463	1450	1455	1467	1477	1473	1456	1458	1460	1466	1466	1462	1462	1470	1476	1483	1487	1488	1494	1489	1466	1459	1459	1465	1469	1488	1496	1498	1487	1482	1482	1485	1499	1515	1535	1545	1540	1532	1516	1494	1515	1542	1545	1533	1537	1535	1512	1518	1519	1531	1528	1531	1543	1540	1553	1560	1568	1568	1567	1553	1534	1523	1527	1528	1536	1538	1531	1532	1525	1530	1555	1586	1608	1616	1598	1591	1601	1602	1596	1596	1630	1652	1639	1612	1559	1593	1586	1584	1552	1534	1520	1523	1575	1585	1596	1603	1597	1600	1612	1616	1608	1612	1599	1608	1610	1614	1605	1607	1606	1589	1597	1560	1505	1511	1521	1525	1501	1454	1411	1424	1429	1427	1454	1436	1467	1484	1491	1485	1487	1472	1466	1474	1482	1482	1461	1439	1440	1459	1457	1461	1465	1457	1450	1443	1436	1438	1450	1450	1450	1448	1432	1425	1437	1459	1472	1473	1474	1461	1458	1455	1450	1460	1470	1476	1470	1452	1450	1483	1498	1543	1572	1613	1698	1724	1726	1747	1752	1753	1754	1763	1765	1770	1758	1753	1747	1742	1729	1721	1736	1747	1793	1799	1784	1762	1765	1766	1774	1778	1787	1784	1772	1775	1779	1786	1798	1806	1812	1809	1808	1802	1811	1805	1787	1761	1760	1768	1781	1783	1778	1769	1760	1757	1770	1773	1780	1766	1754	1748	1761	1784	1813	1830	1832	1808	1791	1793	1806	1808	1802	1813	1813	1833	1825	1815	1822	1822	1823	1814	1808	1807	1804	1804	1810	1806	1804	1811	1821	1808	1784	1796	1788	1787	1794	1807	1807	1833	1852	1850	0	0	0	0	0	0	0	0
1269	1266	1264	1255	1260	1260	1260	1276	1295	1293	1293	1275	1269	1271	1264	1254	1254	1222	1222	1242	1265	1283	1280	1280	1271	1278	1275	1263	1263	1259	1259	1250	1254	1275	1288	1285	1283	1289	1289	1292	1288	1278	1269	1261	1261	1271	1287	1287	1298	1306	1303	1295	1289	1286	1290	1291	1304	1316	1332	1332	1341	1346	1333	1321	1311	1315	1325	1336	1351	1321	1318	1309	1319	1323	1324	1322	1322	1309	1295	1293	1291	1305	1318	1335	1341	1327	1327	1321	1322	1322	1334	1328	1319	1304	1304	1302	1299	1281	1281	1288	1302	1312	1310	1312	1323	1333	1336	1335	1331	1330	1333	1342	1348	1343	1330	1327	1322	1326	1324	1320	1330	1350	1345	1340	1339	1342	1340	1327	1328	1338	1345	1347	1342	1336	1337	1342	1344	1336	1330	1331	1330	1332	1341	1350	1359	1365	1362	1338	1335	1358	1362	1352	1340	1337	1348	1352	1339	1331	1328	1340	1348	1343	1333	1325	1329	1344	1359	1368	1392	1385	1379	1380	1386	1380	1375	1376	1376	1376	1375	1382	1381	1375	1365	1353	1342	1336	1340	1352	1363	1375	1373	1375	1379	1384	1375	1362	1353	1360	1376	1381	1373	1361	1347	1344	1351	1369	1379	1382	1389	1398	1409	1395	1389	1394	1401	1435	1410	1403	1397	1392	1377	1377	1371	1383	1383	1372	1370	1381	1398	1404	1392	1387	1394	1416	1433	1442	1452	1453	1469	1465	1458	1460	1457	1449	1447	1447	1438	1430	1432	1433	1436	1414	1400	1392	1395	1403	1418	1425	1433	1440	1439	1403	1402	1408	1425	1433	1438	1438	1435	1442	1436	1430	1419	1426	1433	1444	1447	1441	1431	1417	1423	1426	1423	1420	1420	1421	1426	1434	1438	1440	1437	1429	1423	1427	1438	1444	1441	1440	1436	1437	1438	1425	1431	1439	1429	1422	1434	1447	1447	1446	1448	1453	1457	1454	1450	1449	1450	1452	1449	1444	1466	1462	1462	1468	1472	1474	1460	1446	1445	1450	1450	1447	1449	1456	1453	1452	1456	1464	1469	1476	1475	1467	1464	1457	1451	1459	1466	1470	1471	1463	1466	1474	1480	1476	1471	1471	1478	1488	1494	1497	1494	1470	1455	1448	1438	1434	1440	1448	1463	1462	1462	1460	1458	1455	1448	1450	1452	1456	1460	1461	1474	1482	1492	1488	1466	1445	1439	1459	1460	1467	1472	1474	1465	1462	1456	1447	1454	1472	1485	1486	1481	1480	1484	1483	1469	1456	1470	1496	1500	1501	1505	1505	1505	1503	1502	1507	1512	1511	1512	1532	1550	1557	1552	1533	1506	1496	1503	1518	1508	1499	1501	1492	1490	1504	1526	1560	1571	1563	1538	1539	1545	1546	1539	1533	1560	1585	1502	1504	1515	1534	1538	1537	1525	1517	1510	1511	1512	1534	1540	1525	1526	1540	1573	1587	1582	1564	1579	1595	1594	1580	1551	1542	1551	1562	1579	1553	1548	1570	1547	1509	1481	1411	1395	1422	1421	1422	1418	1438	1470	1469	1474	1474	1492	1488	1477	1467	1473	1477	1477	1470	1472	1472	1470	1462	1465	1466	1446	1445	1432	1423	1433	1443	1443	1437	1426	1425	1434	1452	1465	1471	1474	1468	1466	1466	1450	1458	1463	1472	1470	1456	1448	1470	1483	1537	1561	1591	1668	1688	1695	1696	1698	1708	1733	1744	1748	1744	1731	1724	1724	1722	1718	1715	1714	1718	1738	1749	1739	1734	1732	1726	1728	1732	1727	1719	1715	1743	1751	1750	1748	1753	1766	1766	1748	1751	1753	1760	1759	1764	1767	1766	1770	1765	1753	1738	1732	1737	1748	1749	1745	1729	1715	1710	1726	1758	1789	1810	1803	1785	1786	1784	1794	1804	1801	1783	1768	1768	1764	1786	1789	1789	1796	1797	1785	1770	1757	1749	1749	1751	1753	1750	1743	1747	1758	1783	1802	1803	1795	1791	1791	1809	1826	1833	0	0	0	0	0	0	0	0
1246	1241	1239	1243	1247	1247	1248	1255	1268	1268	1268	1256	1255	1262	1254	1237	1237	1220	1227	1248	1261	1263	1252	1252	1239	1246	1248	1251	1251	1248	1248	1244	1245	1254	1262	1264	1265	1271	1271	1278	1278	1268	1258	1250	1254	1269	1274	1274	1281	1291	1291	1283	1277	1277	1281	1285	1287	1289	1307	1307	1324	1314	1304	1296	1294	1291	1293	1274	1265	1262	1277	1288	1287	1299	1302	1302	1302	1298	1289	1290	1283	1274	1277	1279	1278	1275	1288	1286	1295	1298	1304	1311	1306	1297	1290	1281	1269	1265	1266	1271	1281	1290	1290	1294	1306	1316	1319	1318	1320	1319	1316	1317	1320	1321	1311	1303	1301	1305	1297	1296	1307	1314	1316	1329	1328	1332	1333	1318	1315	1323	1328	1330	1325	1320	1321	1323	1325	1318	1319	1317	1318	1314	1318	1326	1339	1339	1332	1320	1321	1339	1341	1339	1338	1332	1331	1324	1307	1298	1309	1316	1321	1323	1310	1308	1311	1323	1335	1329	1336	1347	1354	1342	1342	1349	1351	1355	1353	1361	1365	1381	1393	1380	1368	1345	1331	1317	1317	1329	1347	1358	1362	1364	1369	1369	1370	1354	1349	1350	1359	1355	1345	1332	1324	1318	1331	1360	1368	1360	1357	1365	1371	1360	1358	1358	1369	1387	1384	1374	1362	1359	1350	1356	1353	1358	1359	1357	1353	1355	1354	1360	1366	1368	1367	1354	1363	1367	1403	1408	1416	1437	1445	1453	1435	1422	1410	1417	1415	1417	1421	1418	1416	1412	1396	1388	1391	1395	1401	1402	1415	1419	1409	1388	1383	1389	1404	1417	1427	1426	1426	1431	1418	1417	1411	1407	1411	1421	1422	1420	1416	1412	1405	1405	1403	1404	1404	1406	1412	1413	1418	1422	1422	1424	1418	1414	1427	1440	1440	1439	1442	1435	1424	1414	1412	1409	1401	1403	1417	1433	1440	1441	1442	1447	1447	1441	1433	1430	1430	1433	1426	1414	1417	1423	1427	1428	1428	1456	1447	1445	1446	1445	1435	1435	1431	1441	1442	1441	1441	1453	1456	1456	1459	1457	1450	1447	1439	1439	1441	1446	1451	1447	1450	1451	1453	1451	1452	1420	1411	1401	1426	1443	1452	1443	1434	1429	1412	1412	1416	1424	1435	1446	1453	1454	1444	1437	1440	1440	1441	1443	1442	1447	1458	1473	1476	1469	1456	1443	1437	1445	1454	1459	1464	1466	1463	1449	1435	1426	1428	1440	1457	1462	1460	1452	1453	1460	1449	1439	1440	1469	1480	1485	1493	1489	1483	1479	1480	1479	1483	1490	1486	1481	1483	1485	1485	1474	1473	1458	1481	1489	1486	1462	1457	1459	1470	1494	1511	1523	1526	1522	1495	1485	1485	1487	1490	1496	1486	1490	1478	1465	1462	1470	1489	1493	1501	1508	1502	1504	1498	1483	1478	1484	1497	1512	1525	1546	1541	1520	1520	1526	1528	1526	1528	1522	1529	1549	1561	1555	1556	1565	1556	1507	1424	1397	1430	1443	1423	1418	1412	1437	1462	1473	1469	1472	1494	1494	1483	1461	1463	1469	1476	1482	1482	1468	1469	1462	1482	1479	1460	1449	1439	1430	1434	1442	1453	1455	1441	1440	1440	1448	1460	1471	1471	1467	1459	1461	1452	1448	1455	1446	1446	1460	1457	1459	1473	1515	1542	1581	1657	1668	1667	1663	1663	1663	1688	1716	1736	1729	1715	1709	1712	1720	1715	1705	1691	1702	1716	1722	1717	1713	1707	1704	1707	1712	1710	1701	1684	1712	1729	1712	1706	1706	1715	1717	1716	1720	1725	1733	1747	1765	1765	1751	1741	1733	1728	1724	1721	1723	1728	1727	1711	1701	1691	1693	1708	1743	1767	1782	1786	1773	1778	1782	1793	1794	1771	1743	1729	1722	1715	1711	1724	1724	1735	1730	1717	1704	1699	1717	1729	1736	1736	1732	1722	1720	1727	1753	1787	1799	1799	1791	1791	1793	1803	1808	0	0	0	0	0	0	0	0
1212	1220	1224	1228	1230	1230	1227	1229	1233	1234	1242	1242	1248	1248	1240	1224	1224	1218	1217	1225	1240	1246	1242	1242	1235	1235	1235	1238	1242	1242	1242	1240	1240	1245	1247	1247	1250	1255	1255	1263	1268	1259	1251	1247	1248	1258	1266	1266	1273	1271	1261	1260	1263	1269	1275	1275	1273	1274	1280	1280	1288	1274	1271	1273	1280	1257	1249	1242	1233	1224	1226	1252	1262	1267	1280	1278	1278	1278	1274	1278	1269	1261	1266	1267	1258	1253	1259	1243	1254	1267	1280	1289	1295	1291	1280	1267	1261	1254	1253	1258	1261	1262	1266	1280	1290	1299	1299	1301	1295	1291	1298	1291	1289	1289	1287	1286	1283	1278	1262	1257	1268	1273	1272	1292	1300	1312	1317	1314	1308	1303	1305	1305	1308	1304	1305	1305	1298	1299	1299	1295	1289	1289	1293	1300	1303	1321	1314	1306	1311	1318	1334	1327	1329	1321	1312	1300	1283	1275	1279	1282	1299	1303	1295	1283	1276	1281	1289	1302	1312	1326	1331	1327	1321	1322	1330	1340	1345	1341	1350	1364	1370	1367	1362	1343	1321	1310	1308	1319	1334	1345	1350	1356	1358	1354	1349	1335	1334	1334	1341	1335	1322	1316	1308	1307	1314	1325	1340	1344	1349	1349	1346	1340	1335	1336	1347	1367	1364	1351	1334	1337	1344	1346	1337	1332	1331	1331	1332	1336	1339	1340	1343	1345	1333	1325	1332	1351	1361	1374	1386	1392	1403	1406	1399	1388	1390	1390	1398	1403	1404	1403	1396	1396	1386	1376	1382	1386	1380	1384	1391	1395	1390	1382	1370	1375	1384	1398	1411	1416	1414	1413	1409	1397	1387	1383	1387	1395	1397	1401	1399	1400	1396	1393	1395	1387	1387	1382	1396	1397	1399	1406	1409	1415	1417	1407	1397	1400	1391	1401	1407	1402	1391	1397	1397	1396	1384	1386	1391	1411	1424	1428	1427	1430	1431	1419	1403	1406	1410	1411	1400	1398	1394	1402	1410	1409	1408	1405	1409	1418	1424	1424	1420	1403	1404	1405	1412	1418	1430	1430	1434	1432	1434	1436	1437	1435	1431	1414	1408	1408	1410	1408	1415	1419	1423	1424	1419	1404	1393	1398	1406	1413	1422	1410	1401	1392	1393	1395	1398	1400	1411	1421	1431	1435	1422	1425	1428	1423	1416	1419	1423	1412	1428	1436	1436	1447	1441	1429	1430	1437	1442	1452	1459	1456	1448	1430	1420	1418	1420	1419	1439	1443	1439	1434	1440	1447	1432	1417	1409	1409	1428	1450	1455	1448	1443	1444	1448	1455	1455	1447	1456	1452	1448	1449	1450	1455	1447	1442	1443	1460	1449	1443	1425	1428	1448	1479	1498	1501	1492	1472	1455	1449	1447	1466	1458	1466	1477	1479	1464	1461	1464	1467	1473	1475	1465	1478	1501	1513	1512	1493	1462	1452	1455	1470	1485	1516	1504	1500	1498	1501	1515	1525	1534	1536	1534	1541	1552	1555	1548	1539	1535	1543	1500	1448	1445	1438	1419	1406	1412	1430	1476	1478	1478	1473	1481	1486	1473	1458	1457	1456	1462	1468	1463	1445	1462	1482	1496	1493	1474	1454	1441	1446	1454	1466	1474	1486	1485	1475	1458	1447	1453	1467	1470	1470	1465	1461	1459	1470	1476	1473	1473	1479	1475	1460	1457	1490	1522	1586	1651	1626	1617	1613	1619	1623	1645	1634	1684	1683	1690	1703	1707	1716	1711	1680	1673	1679	1691	1694	1696	1697	1681	1678	1675	1692	1687	1666	1660	1677	1690	1685	1677	1673	1676	1683	1692	1700	1706	1717	1734	1747	1746	1729	1703	1693	1700	1722	1718	1715	1710	1703	1696	1684	1679	1689	1707	1729	1748	1764	1740	1738	1742	1756	1758	1752	1738	1725	1708	1701	1695	1689	1689	1688	1698	1701	1698	1694	1692	1702	1715	1718	1717	1709	1701	1703	1697	1709	1747	1749	1753	1753	1744	1773	1773	1782	0	0	0	0	0	0	0	0
1183	1186	1194	1203	1204	1204	1204	1201	1208	1214	1216	1216	1225	1232	1228	1223	1198	1198	1196	1208	1217	1229	1237	1237	1242	1239	1232	1230	1235	1238	1238	1234	1236	1241	1242	1237	1222	1230	1230	1254	1245	1243	1238	1237	1244	1252	1248	1248	1238	1239	1235	1239	1250	1260	1261	1258	1250	1235	1228	1228	1214	1223	1236	1231	1241	1243	1239	1232	1224	1222	1224	1226	1227	1239	1244	1256	1260	1260	1261	1254	1244	1242	1249	1251	1239	1227	1218	1222	1233	1243	1253	1249	1249	1247	1247	1244	1250	1240	1239	1247	1250	1253	1255	1263	1271	1276	1269	1260	1235	1239	1255	1273	1274	1278	1281	1279	1274	1263	1253	1231	1239	1248	1262	1267	1268	1281	1295	1310	1304	1296	1289	1284	1285	1288	1287	1291	1286	1283	1278	1277	1278	1279	1284	1286	1289	1295	1300	1303	1306	1307	1313	1313	1311	1307	1303	1292	1279	1264	1264	1273	1284	1285	1279	1276	1264	1258	1263	1279	1283	1297	1305	1312	1310	1309	1310	1299	1297	1295	1322	1344	1340	1344	1348	1340	1324	1307	1305	1313	1326	1334	1336	1333	1327	1323	1319	1314	1310	1310	1317	1322	1314	1301	1289	1294	1306	1310	1317	1322	1322	1331	1326	1325	1323	1325	1329	1349	1336	1326	1320	1332	1341	1342	1331	1319	1312	1309	1308	1313	1315	1319	1324	1319	1311	1301	1312	1328	1340	1353	1341	1325	1351	1347	1341	1365	1362	1371	1376	1383	1382	1377	1367	1362	1352	1342	1334	1338	1343	1377	1384	1378	1371	1364	1356	1359	1364	1374	1371	1376	1374	1374	1381	1377	1361	1354	1361	1371	1381	1386	1388	1388	1384	1379	1362	1358	1353	1354	1369	1377	1386	1393	1396	1404	1405	1387	1384	1356	1349	1355	1371	1367	1362	1360	1375	1380	1369	1350	1352	1383	1405	1404	1405	1399	1392	1391	1393	1393	1389	1374	1353	1359	1373	1384	1391	1392	1395	1393	1397	1405	1413	1412	1400	1382	1380	1386	1392	1398	1398	1393	1391	1386	1388	1389	1405	1410	1406	1399	1393	1392	1395	1396	1399	1397	1394	1393	1386	1377	1374	1381	1382	1388	1390	1382	1375	1371	1378	1377	1384	1387	1394	1406	1417	1415	1406	1401	1395	1394	1398	1406	1411	1412	1411	1407	1420	1425	1422	1407	1414	1429	1433	1441	1443	1441	1429	1410	1409	1405	1405	1408	1420	1425	1428	1431	1433	1431	1425	1416	1408	1404	1400	1404	1408	1416	1415	1415	1418	1427	1431	1428	1426	1430	1423	1415	1416	1434	1434	1425	1434	1444	1446	1437	1421	1422	1436	1461	1482	1484	1466	1446	1431	1430	1416	1414	1437	1447	1457	1457	1446	1451	1454	1461	1458	1432	1402	1404	1462	1500	1502	1483	1464	1448	1442	1450	1451	1461	1484	1491	1490	1481	1487	1509	1528	1536	1534	1533	1525	1523	1523	1527	1525	1526	1557	1558	1503	1473	1448	1420	1428	1450	1481	1487	1486	1479	1470	1457	1458	1463	1464	1448	1436	1431	1433	1441	1466	1489	1503	1496	1486	1471	1462	1470	1474	1494	1498	1509	1513	1493	1467	1459	1458	1464	1466	1469	1478	1477	1477	1481	1490	1495	1503	1500	1491	1474	1490	1491	1542	1629	1613	1603	1595	1594	1592	1590	1588	1578	1606	1615	1645	1644	1634	1639	1637	1629	1624	1627	1648	1672	1674	1652	1639	1625	1648	1657	1663	1653	1646	1646	1653	1641	1630	1632	1646	1659	1669	1681	1683	1693	1698	1662	1661	1661	1656	1645	1650	1669	1679	1688	1687	1681	1680	1672	1655	1664	1679	1706	1714	1696	1682	1673	1674	1679	1697	1727	1709	1689	1681	1677	1675	1671	1671	1676	1688	1691	1689	1686	1688	1697	1697	1697	1692	1689	1689	1682	1677	1676	1674	1683	1689	1689	1689	1685	1682	1738	0	0	0	0	0	0	0	0
1174	1175	1178	1187	1190	1190	1194	1197	1203	1187	1188	1188	1195	1208	1219	1214	1182	1182	1179	1184	1197	1209	1213	1213	1209	1208	1213	1219	1218	1209	1209	1227	1237	1236	1226	1207	1199	1201	1201	1195	1215	1215	1215	1216	1225	1235	1235	1231	1231	1227	1226	1222	1218	1228	1238	1243	1240	1227	1216	1216	1213	1208	1209	1210	1219	1227	1228	1221	1213	1214	1219	1219	1219	1210	1205	1224	1242	1242	1238	1232	1223	1224	1226	1224	1221	1201	1199	1209	1218	1229	1232	1236	1230	1215	1233	1236	1238	1230	1219	1216	1239	1245	1243	1234	1223	1228	1227	1212	1212	1226	1238	1248	1255	1255	1262	1263	1256	1239	1227	1221	1220	1224	1242	1255	1266	1275	1284	1320	1311	1296	1278	1269	1267	1268	1270	1272	1273	1269	1267	1269	1268	1270	1267	1271	1273	1283	1290	1290	1291	1287	1282	1282	1285	1287	1289	1284	1274	1262	1259	1263	1270	1269	1267	1261	1261	1254	1248	1245	1247	1257	1272	1295	1300	1294	1272	1267	1269	1278	1288	1289	1281	1320	1328	1328	1319	1311	1308	1310	1310	1311	1311	1310	1293	1295	1296	1298	1294	1290	1286	1293	1286	1278	1275	1273	1281	1291	1298	1303	1300	1295	1304	1310	1311	1309	1303	1305	1321	1316	1315	1330	1340	1338	1327	1311	1303	1296	1288	1284	1296	1301	1311	1312	1306	1291	1278	1285	1293	1303	1315	1312	1306	1303	1304	1305	1309	1314	1323	1329	1330	1334	1338	1324	1313	1313	1320	1325	1330	1339	1371	1362	1344	1329	1324	1329	1331	1334	1338	1341	1337	1348	1348	1346	1334	1330	1329	1338	1349	1365	1366	1347	1335	1321	1311	1314	1316	1331	1355	1364	1365	1360	1355	1355	1371	1369	1359	1345	1329	1338	1346	1342	1337	1334	1349	1357	1355	1342	1339	1347	1356	1364	1366	1371	1374	1376	1373	1358	1343	1315	1323	1344	1351	1350	1346	1345	1358	1372	1379	1386	1385	1367	1358	1363	1360	1364	1377	1378	1371	1365	1366	1363	1359	1348	1350	1365	1378	1367	1358	1341	1348	1356	1357	1352	1367	1362	1354	1350	1359	1368	1374	1371	1357	1359	1355	1359	1367	1378	1381	1386	1390	1400	1404	1404	1392	1372	1368	1373	1381	1392	1402	1402	1396	1394	1398	1403	1400	1384	1383	1383	1378	1401	1414	1415	1411	1405	1402	1397	1399	1402	1412	1417	1422	1423	1421	1414	1409	1406	1400	1388	1382	1378	1381	1384	1382	1389	1398	1402	1404	1401	1415	1418	1428	1435	1412	1395	1392	1408	1420	1434	1437	1433	1424	1423	1427	1425	1441	1464	1457	1437	1408	1397	1396	1402	1414	1424	1429	1431	1411	1410	1408	1414	1404	1393	1384	1382	1412	1430	1440	1443	1434	1432	1431	1436	1449	1444	1448	1453	1456	1462	1460	1481	1508	1516	1513	1499	1499	1504	1505	1504	1503	1497	1507	1517	1522	1497	1470	1452	1454	1457	1484	1489	1491	1476	1459	1452	1456	1484	1477	1465	1476	1476	1469	1440	1451	1477	1495	1499	1503	1504	1496	1489	1489	1496	1512	1517	1513	1490	1486	1475	1468	1469	1471	1482	1494	1496	1491	1493	1499	1509	1517	1514	1505	1501	1506	1522	1594	1593	1592	1582	1580	1576	1579	1557	1550	1556	1573	1589	1591	1590	1591	1589	1602	1616	1617	1622	1631	1642	1638	1622	1616	1613	1617	1625	1616	1614	1605	1611	1605	1602	1603	1602	1618	1626	1633	1626	1632	1628	1604	1609	1619	1633	1641	1639	1639	1641	1637	1645	1649	1631	1635	1632	1636	1640	1639	1645	1644	1647	1645	1637	1637	1643	1659	1661	1650	1642	1640	1647	1654	1655	1655	1667	1675	1680	1679	1674	1674	1675	1671	1662	1661	1661	1660	1669	1670	1666	1663	1659	1645	1645	1651	1654	1646	1645	0	0	0	0	0	0	0	0
1167	1164	1167	1172	1182	1192	1192	1197	1180	1174	1172	1172	1184	1196	1192	1189	1152	1152	1156	1166	1176	1184	1181	1181	1183	1174	1162	1164	1170	1179	1179	1193	1210	1208	1196	1185	1185	1186	1176	1176	1176	1179	1183	1196	1208	1217	1215	1217	1217	1214	1209	1205	1205	1205	1211	1221	1231	1223	1207	1201	1207	1206	1199	1193	1194	1204	1217	1218	1214	1212	1217	1219	1215	1206	1195	1189	1209	1209	1209	1207	1205	1203	1191	1181	1195	1193	1200	1209	1213	1216	1217	1214	1210	1205	1203	1229	1231	1221	1217	1209	1210	1216	1195	1189	1195	1191	1190	1197	1207	1217	1229	1234	1238	1227	1219	1215	1221	1223	1216	1209	1201	1204	1219	1238	1254	1267	1281	1287	1281	1260	1253	1244	1244	1245	1239	1228	1232	1248	1249	1251	1257	1256	1255	1255	1261	1269	1273	1272	1270	1264	1254	1255	1264	1272	1276	1271	1262	1253	1248	1250	1252	1250	1250	1254	1249	1245	1243	1243	1236	1250	1264	1277	1276	1264	1248	1240	1246	1261	1276	1279	1277	1276	1287	1294	1308	1296	1284	1265	1265	1271	1283	1280	1276	1277	1286	1290	1290	1278	1252	1258	1263	1267	1272	1270	1267	1272	1282	1283	1284	1276	1281	1292	1301	1295	1291	1287	1281	1271	1278	1307	1324	1328	1320	1306	1292	1261	1259	1263	1280	1289	1303	1306	1304	1287	1282	1277	1281	1280	1287	1295	1288	1291	1281	1283	1285	1286	1285	1290	1295	1303	1307	1301	1300	1317	1343	1342	1332	1325	1337	1315	1303	1293	1291	1294	1303	1313	1316	1323	1322	1319	1317	1302	1302	1305	1303	1298	1304	1320	1322	1321	1316	1305	1313	1319	1322	1324	1326	1326	1325	1323	1322	1328	1340	1341	1329	1323	1321	1328	1326	1323	1319	1323	1329	1339	1338	1324	1320	1326	1341	1352	1358	1360	1362	1359	1348	1327	1295	1299	1315	1333	1345	1343	1331	1329	1322	1337	1350	1348	1351	1341	1336	1335	1350	1352	1351	1357	1362	1358	1344	1335	1324	1324	1319	1326	1331	1330	1330	1334	1331	1330	1323	1314	1319	1320	1323	1333	1345	1351	1356	1350	1344	1335	1344	1353	1364	1377	1381	1385	1388	1393	1396	1392	1384	1363	1357	1362	1365	1381	1394	1394	1382	1371	1374	1372	1359	1369	1373	1376	1371	1363	1378	1390	1392	1397	1403	1400	1391	1379	1381	1384	1396	1403	1395	1390	1383	1389	1392	1382	1374	1366	1362	1360	1367	1367	1377	1379	1378	1378	1380	1387	1394	1391	1403	1384	1382	1387	1399	1417	1425	1424	1421	1423	1416	1400	1390	1404	1390	1391	1388	1387	1393	1402	1400	1396	1390	1384	1382	1384	1384	1381	1381	1380	1386	1387	1396	1404	1413	1412	1401	1396	1403	1426	1437	1424	1427	1427	1430	1430	1422	1428	1440	1469	1481	1476	1478	1480	1466	1461	1466	1481	1483	1484	1473	1466	1464	1461	1458	1463	1481	1491	1489	1481	1479	1494	1481	1491	1499	1500	1494	1487	1474	1465	1460	1467	1475	1473	1479	1486	1499	1507	1500	1497	1495	1500	1508	1517	1524	1524	1503	1489	1487	1494	1504	1504	1499	1503	1512	1524	1526	1521	1520	1522	1536	1548	1566	1567	1573	1569	1563	1569	1571	1545	1539	1544	1560	1571	1575	1577	1578	1576	1570	1578	1588	1583	1562	1561	1570	1579	1592	1606	1600	1591	1569	1567	1570	1562	1570	1579	1581	1584	1589	1607	1612	1600	1596	1587	1579	1577	1596	1613	1627	1625	1619	1616	1606	1605	1594	1592	1600	1609	1617	1620	1617	1618	1622	1628	1622	1612	1610	1620	1626	1622	1618	1622	1625	1623	1615	1615	1620	1637	1655	1659	1655	1648	1643	1637	1637	1631	1635	1641	1636	1635	1624	1624	1630	1627	1618	1618	1603	1588	1608	1606	0	0	0	0	0	0	0	0
1156	1156	1158	1157	1165	1168	1168	1164	1161	1163	1165	1165	1175	1182	1165	1150	1140	1140	1148	1152	1156	1163	1168	1163	1163	1156	1152	1155	1167	1173	1178	1178	1183	1190	1180	1165	1167	1166	1165	1165	1161	1162	1162	1173	1185	1187	1189	1195	1195	1199	1191	1190	1188	1194	1204	1208	1206	1217	1211	1200	1200	1187	1176	1166	1175	1183	1198	1216	1223	1213	1211	1201	1196	1188	1181	1177	1175	1173	1173	1177	1176	1182	1181	1175	1167	1159	1169	1194	1197	1196	1200	1208	1205	1194	1184	1174	1179	1193	1201	1197	1194	1181	1178	1177	1169	1165	1174	1191	1203	1206	1207	1198	1188	1187	1203	1199	1206	1202	1201	1203	1199	1198	1205	1214	1227	1251	1257	1247	1246	1235	1234	1233	1231	1226	1212	1207	1208	1203	1191	1178	1197	1232	1234	1234	1221	1234	1245	1253	1253	1247	1241	1249	1263	1271	1269	1264	1251	1240	1236	1241	1250	1254	1240	1237	1233	1235	1221	1212	1214	1238	1256	1262	1248	1233	1222	1224	1232	1249	1259	1254	1251	1247	1251	1250	1232	1229	1227	1246	1244	1244	1245	1243	1243	1249	1263	1280	1287	1273	1247	1235	1260	1267	1272	1261	1253	1248	1259	1265	1264	1259	1260	1272	1288	1292	1280	1280	1259	1254	1254	1263	1268	1268	1260	1257	1250	1245	1244	1248	1259	1271	1288	1292	1290	1282	1281	1277	1265	1261	1261	1258	1265	1265	1266	1266	1263	1260	1270	1265	1264	1269	1275	1285	1298	1324	1335	1334	1323	1307	1300	1303	1295	1289	1285	1281	1283	1290	1304	1310	1303	1288	1274	1276	1300	1313	1335	1316	1294	1307	1319	1319	1311	1306	1311	1314	1314	1306	1310	1315	1317	1316	1313	1309	1314	1318	1317	1317	1315	1325	1310	1306	1308	1306	1315	1320	1317	1308	1308	1312	1326	1335	1338	1345	1346	1340	1314	1295	1286	1290	1307	1324	1332	1328	1323	1319	1321	1318	1323	1327	1327	1320	1325	1322	1314	1322	1333	1337	1345	1347	1337	1317	1301	1307	1318	1323	1320	1314	1305	1301	1301	1294	1293	1290	1291	1307	1316	1327	1340	1349	1346	1334	1323	1331	1332	1346	1360	1366	1368	1372	1371	1360	1348	1340	1356	1350	1335	1330	1335	1347	1351	1353	1360	1355	1364	1357	1342	1343	1351	1347	1351	1351	1347	1352	1366	1378	1365	1355	1346	1342	1348	1348	1351	1350	1358	1361	1361	1358	1365	1373	1362	1359	1354	1352	1364	1367	1365	1363	1366	1366	1367	1368	1363	1368	1369	1368	1367	1383	1392	1392	1394	1397	1411	1415	1392	1384	1370	1370	1372	1373	1371	1380	1387	1386	1384	1378	1378	1373	1367	1366	1367	1369	1369	1375	1379	1385	1387	1392	1404	1399	1382	1370	1370	1390	1398	1400	1397	1398	1397	1400	1402	1403	1416	1432	1445	1449	1450	1460	1440	1438	1437	1458	1467	1464	1456	1443	1436	1443	1449	1456	1466	1467	1484	1490	1489	1477	1464	1463	1472	1490	1492	1479	1461	1459	1468	1475	1480	1478	1477	1483	1478	1468	1450	1428	1461	1488	1501	1502	1500	1502	1505	1502	1501	1504	1500	1508	1510	1514	1518	1517	1518	1517	1518	1517	1518	1526	1542	1558	1555	1553	1557	1565	1572	1546	1532	1537	1550	1558	1566	1572	1570	1559	1545	1546	1548	1541	1533	1531	1533	1538	1546	1565	1566	1554	1547	1552	1557	1564	1563	1557	1557	1565	1576	1584	1587	1572	1575	1567	1568	1565	1571	1593	1612	1617	1604	1587	1568	1557	1552	1559	1578	1597	1600	1597	1599	1603	1609	1608	1598	1595	1588	1593	1589	1589	1595	1602	1602	1600	1589	1589	1593	1604	1615	1615	1620	1626	1615	1611	1605	1604	1618	1621	1615	1594	1584	1587	1591	1588	1588	1582	1565	1555	1561	1577	0	0	0	0	0	0	0	0
1149	1149	1148	1146	1143	1141	1141	1142	1139	1145	1155	1155	1159	1153	1150	1141	1131	1131	1128	1142	1149	1160	1162	1159	1159	1144	1146	1157	1163	1170	1167	1167	1163	1162	1160	1156	1156	1156	1155	1155	1158	1157	1157	1158	1156	1154	1160	1167	1167	1177	1177	1173	1174	1179	1188	1182	1171	1154	1153	1167	1167	1165	1158	1145	1152	1165	1182	1197	1202	1189	1182	1171	1165	1152	1154	1155	1165	1164	1164	1160	1157	1158	1161	1158	1142	1139	1145	1151	1160	1167	1177	1181	1182	1172	1163	1155	1156	1161	1170	1169	1171	1168	1169	1167	1157	1152	1158	1176	1188	1193	1193	1184	1172	1166	1172	1184	1188	1192	1195	1193	1192	1191	1197	1201	1212	1212	1200	1215	1224	1222	1211	1191	1201	1208	1191	1183	1177	1172	1165	1166	1170	1180	1192	1194	1204	1215	1228	1233	1236	1231	1235	1246	1257	1260	1256	1251	1241	1230	1226	1225	1219	1228	1223	1206	1197	1199	1197	1196	1202	1219	1237	1237	1233	1222	1218	1223	1236	1244	1236	1223	1229	1219	1223	1218	1210	1210	1199	1201	1207	1215	1235	1236	1231	1230	1241	1249	1257	1253	1243	1230	1256	1262	1242	1236	1239	1237	1240	1248	1233	1228	1229	1243	1263	1279	1281	1267	1256	1241	1241	1238	1246	1246	1243	1244	1241	1236	1237	1240	1247	1257	1262	1259	1255	1261	1274	1269	1247	1247	1246	1243	1239	1238	1244	1247	1242	1238	1233	1230	1243	1244	1248	1266	1285	1300	1306	1302	1301	1288	1287	1289	1285	1278	1277	1275	1260	1269	1288	1298	1291	1259	1240	1248	1262	1275	1273	1299	1305	1320	1321	1308	1296	1284	1289	1293	1296	1290	1295	1303	1310	1316	1310	1303	1308	1303	1299	1295	1300	1285	1272	1282	1291	1292	1298	1303	1292	1292	1298	1300	1302	1312	1317	1324	1323	1311	1298	1285	1283	1289	1305	1310	1316	1309	1316	1314	1309	1307	1310	1310	1310	1306	1313	1304	1298	1293	1294	1293	1293	1310	1310	1300	1289	1291	1304	1309	1308	1297	1280	1272	1267	1267	1278	1278	1275	1277	1286	1292	1297	1302	1308	1311	1315	1321	1333	1348	1347	1335	1327	1319	1315	1316	1306	1300	1293	1290	1287	1293	1305	1313	1320	1329	1343	1351	1338	1336	1328	1322	1326	1323	1327	1332	1330	1327	1326	1326	1321	1310	1304	1304	1323	1329	1342	1344	1350	1344	1327	1322	1337	1341	1344	1355	1355	1351	1351	1354	1354	1352	1355	1355	1357	1352	1343	1342	1340	1336	1359	1368	1376	1380	1380	1383	1386	1387	1349	1351	1348	1347	1352	1361	1360	1367	1374	1371	1365	1363	1364	1361	1352	1351	1348	1358	1362	1368	1364	1358	1357	1361	1384	1391	1379	1361	1359	1370	1377	1376	1370	1367	1365	1370	1377	1390	1402	1406	1400	1394	1392	1411	1410	1407	1419	1430	1431	1431	1422	1418	1411	1414	1429	1419	1430	1458	1465	1465	1460	1461	1441	1442	1447	1434	1423	1423	1427	1441	1456	1461	1470	1463	1464	1477	1475	1465	1453	1423	1410	1432	1447	1467	1481	1488	1485	1477	1478	1486	1497	1509	1527	1517	1509	1508	1506	1509	1510	1509	1507	1511	1519	1535	1546	1546	1551	1552	1565	1529	1526	1528	1543	1548	1557	1560	1555	1537	1519	1515	1517	1512	1509	1510	1515	1522	1532	1541	1545	1535	1528	1535	1540	1550	1551	1544	1534	1536	1542	1548	1540	1530	1531	1550	1554	1550	1554	1576	1594	1600	1585	1562	1539	1529	1526	1533	1555	1571	1575	1575	1571	1581	1583	1582	1578	1576	1569	1560	1559	1564	1563	1568	1559	1563	1569	1569	1576	1585	1592	1598	1605	1603	1588	1574	1569	1581	1590	1595	1575	1560	1553	1554	1553	1546	1546	1536	1528	1535	1543	1553	0	0	0	0	0	0	0	0
1130	1130	1129	1126	1122	1128	1128	1125	1122	1125	1128	1136	1136	1136	1139	1128	1098	1098	1099	1112	1133	1135	1113	1118	1118	1126	1135	1146	1157	1155	1151	1151	1146	1145	1144	1148	1148	1153	1155	1155	1156	1157	1152	1142	1138	1137	1134	1141	1148	1148	1152	1156	1160	1173	1179	1171	1146	1138	1130	1120	1120	1118	1116	1127	1134	1149	1169	1181	1180	1166	1148	1144	1139	1139	1140	1146	1159	1155	1147	1147	1142	1145	1139	1136	1135	1129	1127	1134	1145	1153	1158	1160	1157	1152	1149	1145	1143	1142	1144	1153	1165	1157	1156	1153	1146	1141	1149	1161	1169	1179	1179	1171	1160	1158	1155	1158	1173	1176	1181	1177	1179	1182	1183	1186	1187	1184	1185	1191	1194	1187	1172	1180	1186	1191	1187	1187	1178	1171	1162	1153	1154	1161	1168	1173	1188	1206	1221	1222	1218	1208	1207	1233	1242	1241	1242	1234	1220	1221	1212	1206	1189	1187	1184	1185	1177	1175	1181	1185	1183	1189	1189	1196	1198	1193	1194	1219	1234	1235	1219	1202	1192	1190	1185	1185	1193	1193	1188	1188	1196	1207	1213	1204	1212	1221	1228	1229	1231	1229	1204	1197	1200	1199	1198	1211	1224	1235	1236	1232	1214	1214	1215	1219	1223	1216	1206	1202	1194	1222	1227	1230	1223	1225	1232	1239	1237	1233	1227	1229	1226	1225	1221	1216	1214	1213	1217	1220	1216	1211	1226	1216	1218	1218	1221	1229	1231	1223	1218	1216	1217	1213	1227	1240	1257	1272	1278	1277	1274	1273	1273	1272	1262	1263	1263	1242	1245	1259	1271	1270	1257	1239	1233	1237	1240	1245	1231	1233	1227	1244	1271	1270	1268	1269	1267	1267	1265	1262	1267	1276	1280	1274	1278	1277	1279	1279	1284	1273	1255	1237	1231	1247	1263	1270	1270	1278	1252	1248	1247	1262	1278	1275	1265	1264	1263	1261	1258	1261	1261	1278	1293	1288	1285	1254	1258	1269	1290	1294	1300	1306	1303	1303	1289	1288	1278	1277	1272	1273	1273	1269	1263	1257	1260	1273	1284	1287	1280	1277	1264	1255	1248	1250	1256	1260	1260	1256	1260	1262	1270	1275	1287	1293	1299	1304	1308	1325	1330	1319	1312	1301	1299	1302	1295	1288	1275	1269	1279	1289	1295	1304	1307	1309	1308	1312	1316	1318	1322	1320	1316	1309	1307	1308	1308	1311	1306	1296	1291	1289	1289	1292	1300	1310	1319	1334	1334	1320	1314	1312	1318	1323	1327	1333	1340	1341	1341	1338	1339	1342	1349	1344	1352	1346	1329	1324	1318	1317	1323	1350	1359	1349	1349	1361	1319	1312	1317	1327	1329	1331	1332	1340	1343	1359	1356	1341	1317	1314	1331	1341	1338	1329	1336	1351	1360	1365	1354	1338	1332	1334	1367	1384	1384	1373	1358	1350	1339	1342	1352	1353	1361	1363	1372	1382	1394	1394	1390	1383	1378	1378	1383	1383	1376	1369	1372	1370	1367	1367	1372	1327	1354	1365	1375	1383	1410	1412	1413	1413	1414	1419	1415	1407	1400	1402	1406	1416	1433	1441	1447	1439	1439	1441	1462	1469	1447	1426	1418	1422	1424	1434	1440	1449	1452	1446	1432	1430	1456	1486	1492	1487	1485	1479	1475	1473	1484	1491	1500	1498	1493	1503	1524	1538	1543	1541	1533	1522	1504	1505	1523	1531	1537	1544	1530	1509	1492	1487	1486	1482	1485	1492	1503	1508	1509	1510	1515	1515	1514	1520	1526	1512	1520	1520	1515	1510	1516	1522	1519	1518	1502	1508	1530	1540	1545	1552	1563	1571	1563	1537	1515	1506	1509	1515	1530	1550	1552	1549	1548	1546	1547	1548	1549	1544	1539	1536	1534	1537	1539	1537	1545	1543	1543	1549	1554	1559	1562	1566	1566	1564	1560	1543	1538	1548	1551	1549	1538	1530	1525	1520	1515	1513	1513	1508	1508	1508	1518	1525	0	0	0	0	0	0	0	0
1070	1070	1081	1083	1091	1096	1096	1102	1105	1105	1107	1113	1113	1117	1122	1118	1089	1081	1081	1093	1101	1096	1096	1094	1094	1104	1114	1125	1121	1121	1118	1118	1115	1115	1121	1131	1141	1151	1157	1157	1164	1160	1148	1137	1131	1124	1117	1116	1127	1127	1138	1145	1153	1160	1162	1114	1119	1110	1099	1097	1094	1094	1098	1107	1121	1130	1142	1161	1158	1144	1129	1121	1127	1119	1117	1129	1144	1146	1138	1138	1130	1127	1126	1131	1130	1124	1120	1124	1131	1137	1138	1126	1124	1121	1133	1142	1141	1147	1146	1149	1148	1139	1136	1140	1140	1135	1140	1150	1160	1159	1157	1159	1160	1153	1150	1149	1155	1159	1165	1158	1153	1147	1151	1155	1165	1173	1180	1185	1180	1176	1169	1170	1172	1173	1175	1181	1180	1172	1163	1149	1136	1135	1146	1159	1174	1190	1193	1192	1194	1189	1191	1210	1205	1202	1201	1190	1183	1170	1160	1165	1163	1162	1162	1163	1168	1169	1173	1182	1174	1172	1174	1176	1174	1165	1175	1197	1217	1217	1201	1173	1158	1160	1165	1175	1177	1167	1163	1162	1162	1163	1173	1189	1202	1206	1192	1211	1208	1185	1197	1200	1181	1182	1189	1199	1201	1193	1193	1198	1197	1206	1208	1210	1204	1190	1180	1182	1187	1207	1206	1192	1188	1199	1209	1216	1213	1211	1207	1216	1217	1221	1215	1210	1206	1207	1205	1206	1204	1196	1191	1189	1197	1206	1214	1221	1223	1219	1208	1207	1198	1194	1190	1192	1234	1247	1254	1256	1258	1253	1250	1247	1220	1219	1219	1225	1234	1247	1254	1242	1243	1231	1223	1224	1218	1232	1210	1214	1215	1213	1211	1217	1228	1234	1237	1246	1253	1257	1254	1252	1253	1238	1235	1240	1253	1260	1270	1266	1247	1224	1204	1230	1248	1257	1256	1251	1243	1239	1236	1238	1246	1252	1255	1252	1246	1240	1239	1237	1236	1247	1260	1254	1239	1238	1235	1232	1236	1241	1269	1287	1293	1285	1271	1264	1262	1258	1258	1254	1249	1247	1242	1238	1233	1244	1258	1265	1249	1250	1252	1246	1238	1238	1236	1235	1235	1231	1245	1253	1252	1257	1268	1274	1280	1292	1298	1297	1297	1299	1289	1282	1276	1280	1287	1266	1259	1263	1271	1266	1278	1292	1300	1298	1298	1294	1296	1310	1318	1313	1305	1288	1280	1283	1292	1297	1300	1293	1284	1280	1282	1290	1297	1297	1303	1320	1324	1307	1298	1299	1308	1315	1321	1326	1333	1334	1328	1321	1332	1334	1342	1344	1343	1340	1318	1308	1302	1300	1311	1325	1332	1332	1329	1322	1305	1291	1295	1302	1304	1309	1302	1305	1323	1337	1328	1313	1303	1298	1302	1302	1314	1324	1332	1336	1337	1346	1341	1328	1322	1323	1346	1368	1376	1364	1346	1324	1325	1339	1346	1347	1353	1357	1360	1368	1377	1379	1376	1372	1365	1368	1373	1369	1352	1352	1353	1345	1330	1321	1317	1312	1314	1315	1326	1346	1354	1360	1357	1348	1357	1378	1388	1383	1378	1379	1382	1390	1400	1403	1415	1416	1398	1383	1419	1441	1434	1395	1400	1406	1408	1408	1406	1412	1413	1421	1408	1403	1410	1466	1465	1458	1451	1442	1432	1427	1436	1446	1455	1463	1479	1490	1504	1515	1511	1484	1464	1488	1487	1475	1478	1476	1477	1470	1451	1449	1446	1445	1452	1456	1459	1469	1475	1477	1482	1480	1482	1488	1501	1490	1471	1470	1473	1475	1484	1487	1487	1493	1498	1494	1487	1490	1494	1506	1510	1515	1514	1533	1538	1509	1490	1472	1477	1492	1503	1525	1532	1524	1518	1511	1509	1517	1519	1499	1494	1489	1483	1488	1518	1521	1521	1520	1520	1518	1517	1526	1532	1536	1539	1540	1531	1513	1508	1514	1517	1510	1500	1490	1495	1497	1494	1491	1491	1491	1496	1502	1496	1482	0	0	0	0	0	0	0	0
1066	1066	1071	1075	1077	1083	1083	1093	1100	1101	1097	1096	1096	1099	1104	1091	1070	1067	1067	1073	1077	1080	1078	1082	1082	1082	1087	1100	1102	1102	1103	1103	1106	1106	1108	1110	1107	1097	1099	1116	1116	1142	1152	1150	1140	1129	1121	1118	1125	1125	1131	1135	1138	1127	1093	1087	1080	1080	1077	1081	1081	1081	1086	1089	1090	1091	1100	1107	1106	1102	1100	1103	1109	1112	1115	1116	1128	1136	1134	1134	1124	1121	1118	1126	1123	1119	1116	1114	1118	1114	1113	1106	1104	1110	1116	1132	1153	1155	1144	1127	1118	1118	1130	1137	1136	1126	1128	1141	1155	1157	1161	1166	1161	1158	1153	1147	1134	1118	1103	1100	1097	1110	1125	1141	1152	1167	1174	1182	1175	1167	1161	1158	1158	1155	1156	1150	1154	1156	1152	1150	1138	1128	1131	1145	1158	1159	1155	1160	1165	1169	1175	1175	1168	1167	1165	1160	1150	1134	1122	1127	1127	1144	1151	1149	1142	1143	1148	1157	1166	1163	1166	1169	1161	1154	1163	1177	1182	1165	1147	1146	1140	1141	1152	1159	1159	1151	1147	1149	1143	1136	1145	1179	1196	1187	1175	1168	1164	1147	1188	1174	1167	1176	1186	1191	1190	1179	1172	1162	1161	1178	1196	1203	1198	1181	1177	1173	1182	1191	1175	1174	1177	1185	1192	1191	1201	1207	1204	1210	1210	1211	1211	1207	1203	1196	1196	1191	1192	1189	1183	1187	1192	1201	1212	1220	1222	1218	1215	1204	1177	1177	1184	1191	1199	1183	1235	1240	1239	1227	1214	1213	1210	1208	1209	1212	1231	1241	1236	1222	1211	1208	1205	1206	1196	1188	1192	1204	1210	1211	1214	1220	1221	1224	1223	1217	1221	1239	1237	1224	1226	1228	1223	1226	1232	1231	1223	1220	1230	1220	1224	1227	1213	1215	1228	1242	1241	1236	1230	1236	1241	1245	1241	1236	1228	1224	1216	1220	1227	1229	1231	1227	1224	1223	1215	1214	1215	1222	1241	1254	1252	1247	1233	1231	1238	1240	1234	1230	1223	1223	1220	1220	1219	1218	1229	1234	1232	1237	1239	1233	1230	1233	1237	1237	1228	1212	1208	1217	1221	1235	1254	1262	1273	1283	1289	1280	1273	1259	1253	1252	1252	1249	1257	1260	1250	1238	1239	1241	1249	1272	1292	1296	1293	1287	1286	1282	1279	1272	1262	1258	1259	1268	1277	1285	1288	1286	1283	1278	1279	1287	1290	1300	1302	1303	1304	1292	1289	1296	1307	1316	1316	1317	1314	1305	1301	1297	1297	1298	1312	1316	1324	1325	1312	1302	1298	1297	1305	1316	1313	1313	1318	1313	1304	1287	1277	1276	1281	1291	1294	1296	1306	1305	1300	1299	1290	1283	1292	1291	1294	1301	1306	1299	1286	1288	1309	1317	1315	1316	1328	1341	1356	1348	1326	1312	1326	1338	1350	1354	1348	1349	1352	1354	1363	1366	1359	1350	1349	1361	1363	1364	1342	1342	1327	1321	1330	1324	1317	1309	1303	1308	1320	1336	1344	1344	1351	1338	1334	1354	1362	1369	1373	1380	1371	1370	1374	1372	1378	1375	1361	1362	1372	1363	1365	1374	1386	1393	1393	1385	1385	1387	1391	1389	1383	1376	1377	1416	1431	1431	1429	1423	1419	1421	1428	1430	1433	1434	1437	1448	1449	1449	1448	1436	1427	1438	1447	1458	1462	1464	1467	1465	1451	1444	1436	1433	1446	1456	1466	1459	1440	1434	1440	1439	1441	1454	1464	1465	1454	1443	1437	1433	1439	1448	1456	1461	1473	1468	1473	1473	1467	1461	1456	1457	1457	1471	1511	1492	1463	1452	1456	1468	1477	1481	1486	1483	1477	1474	1477	1478	1468	1461	1459	1461	1459	1464	1478	1483	1480	1480	1480	1488	1475	1476	1484	1497	1510	1510	1507	1491	1484	1479	1474	1464	1458	1458	1470	1478	1477	1477	1482	1484	1489	1488	1471	1455	0	0	0	0	0	0	0	0
1055	1055	1060	1064	1066	1075	1082	1082	1085	1080	1079	1077	1077	1079	1078	1077	1057	1057	1057	1060	1065	1072	1076	1076	1075	1075	1079	1084	1092	1094	1095	1099	1099	1098	1099	1092	1080	1075	1078	1087	1087	1100	1113	1132	1137	1134	1130	1126	1123	1123	1123	1114	1100	1074	1082	1076	1067	1063	1066	1067	1064	1064	1069	1073	1070	1069	1067	1065	1068	1079	1090	1096	1093	1096	1090	1096	1105	1119	1125	1121	1121	1117	1119	1123	1110	1109	1109	1110	1106	1098	1089	1094	1098	1101	1099	1105	1112	1114	1106	1102	1101	1107	1122	1122	1111	1104	1112	1123	1133	1132	1139	1141	1144	1143	1140	1138	1118	1101	1095	1092	1092	1094	1108	1119	1134	1145	1155	1164	1164	1157	1154	1152	1142	1126	1124	1128	1134	1129	1126	1134	1135	1128	1115	1108	1110	1123	1129	1136	1137	1142	1150	1162	1157	1155	1155	1156	1149	1138	1133	1123	1125	1133	1144	1150	1140	1129	1129	1134	1138	1143	1153	1162	1156	1148	1144	1150	1143	1130	1137	1137	1135	1134	1148	1147	1134	1136	1143	1147	1143	1133	1128	1132	1141	1154	1160	1150	1135	1133	1117	1123	1140	1166	1176	1180	1174	1154	1151	1154	1166	1173	1179	1177	1173	1168	1173	1173	1171	1167	1162	1159	1163	1172	1176	1179	1185	1190	1205	1159	1137	1140	1183	1192	1186	1181	1178	1176	1153	1154	1173	1193	1205	1211	1208	1208	1207	1204	1198	1186	1189	1202	1208	1203	1178	1176	1172	1172	1196	1210	1203	1195	1188	1182	1165	1162	1161	1197	1206	1209	1204	1200	1204	1200	1188	1173	1177	1189	1202	1209	1216	1217	1212	1216	1211	1204	1200	1202	1200	1205	1209	1221	1220	1211	1203	1206	1213	1208	1203	1226	1233	1229	1202	1202	1201	1211	1233	1226	1228	1242	1246	1240	1230	1218	1209	1198	1198	1202	1211	1214	1209	1213	1211	1208	1203	1202	1207	1223	1231	1242	1242	1230	1216	1206	1200	1187	1178	1188	1198	1212	1212	1211	1208	1216	1226	1226	1227	1220	1226	1229	1221	1229	1238	1237	1232	1223	1213	1209	1208	1215	1226	1237	1259	1272	1269	1254	1229	1223	1230	1227	1227	1236	1238	1229	1220	1224	1229	1234	1240	1248	1268	1270	1265	1248	1244	1244	1260	1259	1255	1250	1243	1256	1259	1263	1260	1263	1266	1278	1291	1297	1291	1283	1279	1254	1250	1269	1273	1289	1297	1305	1302	1300	1298	1291	1286	1279	1266	1251	1245	1282	1301	1299	1308	1307	1308	1306	1308	1300	1286	1285	1284	1301	1294	1279	1266	1264	1260	1266	1278	1285	1293	1293	1292	1292	1287	1270	1270	1272	1283	1291	1289	1283	1277	1280	1289	1298	1302	1302	1315	1329	1331	1325	1308	1313	1325	1342	1349	1349	1349	1337	1340	1344	1348	1350	1346	1342	1338	1341	1350	1336	1318	1318	1321	1314	1322	1329	1320	1309	1303	1306	1315	1326	1330	1338	1335	1333	1327	1349	1367	1380	1366	1345	1322	1318	1333	1335	1342	1342	1341	1345	1347	1347	1346	1347	1364	1376	1376	1372	1366	1365	1372	1380	1375	1366	1362	1387	1402	1412	1410	1408	1404	1395	1406	1408	1399	1403	1396	1401	1408	1416	1417	1414	1410	1424	1429	1429	1430	1432	1443	1443	1439	1438	1430	1430	1433	1446	1453	1436	1425	1417	1424	1428	1427	1434	1440	1439	1438	1424	1416	1412	1413	1422	1425	1425	1438	1442	1447	1453	1447	1433	1424	1425	1425	1422	1440	1442	1434	1426	1432	1441	1441	1431	1436	1431	1442	1445	1447	1450	1442	1435	1434	1419	1409	1423	1445	1460	1465	1465	1458	1476	1472	1462	1455	1455	1457	1454	1439	1429	1435	1437	1429	1435	1439	1440	1440	1453	1466	1466	1474	1478	1481	1465	1447	1441	0	0	0	0	0	0	0	0
1038	1045	1045	1051	1057	1056	1060	1060	1063	1064	1063	1064	1064	1062	1066	1066	1046	1041	1041	1047	1055	1063	1067	1071	1067	1067	1067	1076	1081	1086	1089	1092	1092	1090	1087	1084	1080	1075	1077	1083	1083	1082	1069	1071	1083	1100	1115	1121	1116	1116	1091	1066	1058	1060	1069	1069	1060	1057	1053	1051	1050	1050	1055	1066	1073	1074	1075	1069	1066	1071	1081	1088	1085	1080	1077	1075	1083	1099	1108	1112	1112	1107	1105	1098	1099	1099	1094	1083	1080	1079	1071	1065	1074	1083	1085	1091	1098	1100	1103	1099	1098	1100	1103	1100	1093	1087	1079	1081	1087	1095	1111	1119	1122	1123	1120	1116	1105	1089	1086	1086	1086	1093	1100	1108	1110	1113	1115	1118	1134	1125	1119	1118	1115	1103	1103	1108	1109	1104	1107	1112	1116	1118	1112	1105	1105	1106	1110	1117	1116	1124	1132	1147	1146	1147	1154	1156	1144	1133	1126	1115	1113	1123	1139	1147	1142	1133	1125	1119	1119	1124	1136	1142	1142	1136	1124	1109	1115	1116	1111	1118	1119	1128	1134	1128	1125	1133	1139	1142	1141	1134	1126	1119	1117	1117	1119	1118	1113	1108	1107	1121	1127	1149	1150	1164	1159	1151	1142	1147	1161	1168	1172	1166	1160	1157	1162	1167	1166	1161	1144	1146	1147	1145	1150	1157	1169	1174	1151	1134	1126	1130	1144	1165	1176	1170	1165	1156	1149	1139	1151	1173	1189	1195	1196	1194	1196	1188	1187	1182	1182	1179	1172	1165	1160	1160	1158	1166	1171	1173	1186	1179	1171	1154	1157	1152	1149	1151	1158	1164	1168	1177	1188	1195	1176	1159	1160	1173	1184	1195	1203	1203	1191	1184	1191	1178	1179	1180	1187	1190	1196	1204	1208	1204	1199	1201	1208	1206	1185	1186	1198	1202	1194	1188	1186	1189	1202	1220	1232	1235	1231	1220	1209	1192	1187	1192	1201	1208	1206	1201	1193	1186	1183	1182	1188	1186	1188	1213	1230	1232	1230	1216	1201	1190	1175	1166	1167	1173	1178	1192	1205	1202	1204	1206	1213	1213	1209	1213	1219	1222	1220	1223	1221	1219	1225	1221	1211	1206	1196	1199	1212	1220	1231	1238	1243	1225	1215	1209	1208	1218	1231	1235	1232	1222	1215	1216	1222	1229	1239	1246	1250	1254	1232	1227	1227	1226	1229	1239	1249	1247	1241	1244	1244	1242	1241	1242	1246	1252	1264	1259	1246	1238	1229	1226	1232	1241	1252	1270	1282	1290	1284	1275	1282	1283	1275	1266	1252	1236	1217	1226	1243	1249	1264	1251	1278	1296	1301	1287	1270	1254	1250	1268	1273	1259	1234	1233	1242	1255	1263	1272	1281	1280	1278	1274	1273	1264	1259	1257	1275	1280	1279	1274	1267	1275	1273	1278	1281	1280	1294	1307	1314	1308	1296	1301	1315	1320	1319	1300	1298	1289	1299	1289	1304	1329	1322	1326	1318	1288	1291	1294	1290	1297	1304	1307	1307	1309	1319	1308	1301	1300	1307	1316	1328	1329	1322	1315	1322	1335	1353	1339	1316	1289	1278	1268	1283	1280	1290	1305	1326	1339	1339	1340	1338	1339	1340	1344	1352	1347	1350	1348	1358	1367	1367	1356	1348	1369	1372	1377	1388	1394	1384	1375	1372	1374	1371	1362	1354	1370	1386	1394	1384	1390	1397	1413	1422	1413	1406	1406	1410	1417	1413	1421	1419	1414	1411	1412	1422	1414	1408	1405	1404	1402	1397	1407	1414	1416	1415	1402	1393	1388	1386	1379	1369	1371	1402	1412	1424	1418	1415	1408	1401	1395	1390	1396	1399	1405	1406	1405	1399	1404	1413	1411	1408	1401	1393	1389	1407	1420	1417	1415	1405	1388	1371	1368	1374	1389	1396	1396	1411	1436	1457	1463	1461	1459	1459	1447	1429	1398	1377	1374	1386	1395	1395	1399	1394	1416	1442	1442	1452	1462	1462	1441	1423	1418	0	0	0	0	0	0	0	0
