780	780	783	781	798	804	804	805	809	809	808	805	805	802	801	799	801	798	800	803	803	809	810	810	809	814	815	814	810	812	812	814	822	827	830	828	827	827	825	820	815	808	816	814	820	820	820	813	807	809	814	818	819	814	812	822	822	830	828	824	812	804	799	801	806	804	801	811	816	816	817	816	825	836	831	832	825	827	826	818	817	816	823	831	827	820	817	812	807	805	806	806	818	817	816	820	831	830	831	830	832	829	825	826	811	822	830	831	830	836	826	835	824	824	823	828	830	830	830	831	832	831	832	824	818	818	821	809	811	812	816	824	833	836	836	842	841	840	838	831	834	835	838	838	839	838	840	833	830	825	832	839	848	853	852	831	826	823	817	820	830	842	853	856	850	839	826	822	831	833	832	831	829	826	840	843	842	841	841	841	838	839	839	838	834	842	841	841	842	839	840	846	853	855	853	846	846	847	849	849	853	854	855	854	857	852	850	845	852	858	841	852	860	861	860	855	859	857	861	863	860	855	852	856	858	864	874	869	871	869	851	854	860	867	867	864	863	859	860	860	860	860	867	869	862	857	847	849	862	873	877	870	861	848	870	869	865	861	862	867	868	867	857	858	864	863	866	868	872	873	874	876	882	881	890	892	889	889	889	888	882	871	870	897	880	870	874	880	888	894	894	896	895	892	889	876	871	871	876	881	885	898	899	895	888	886	883	881	887	895	901	911	917	917	908	896	879	880	876	880	881	886	892	904	901	892	878	872	866	875	879	884	890	888	892	896	898	891	882	882	888	905	908	906	905	899	906	900	895	900	912	917	916	916	913	914	912	904	894	889	883	882	899	903	894	893	898	890	871	875	900	909	914	921	903	900	901	900	905	912	914	925	932	926	933	940	942	941	938	930	921	911	908	913	921	920	918	916	906	904	913	941	944	934	929	922	921	926	941	950	950	948	945	948	942	935	930	928	923	918	924	918	914	920	934	947	945	947	943	943	946	939	928	933	936	935	927	924	922	908	916	922	923	922	922	927	929	923	922	922	924	926	930	937	941	945	945	942	946	945	948	950	954	962	960	951	947	951	958	963	942	925	917	909	918	930	928	931	929	936	944	953	952	947	944	941	930	936	943	944	945	941	930	927	931	933	936	942	943	943	937	935	942	942	950	950	949	943	941	943	953	955	952	943	949	952	954	956	964	962	950	945	944	942	939	938	943	953	965	969	967	965	965	959	955	947	942	941	959	954	957	962	973	977	977	969	963	961	957	961	966	970	977	982	987	983	971	961	952	945	963	978	986	980	969	970	972	973	970	978	984	984	979	976	977	982	988	990	986	981	976	968	962	954	976	979	983	976	970	975	977	977	980	987	992	998	1006	1009	1007	996	983	971	957	963	967	967	969	971	966	961	963	966	974	973	972	962	958	958	956	960	955	966	973	979	989	997	999	995	990	991	991	991	986	0	0	0	0	0	0	0
780	780	782	789	797	801	801	801	799	797	788	784	784	784	785	790	798	790	794	795	796	802	807	809	809	811	814	811	801	804	804	803	801	809	812	809	808	809	809	809	806	796	793	787	789	801	801	802	804	810	812	812	812	807	806	812	812	819	824	820	814	803	800	792	790	793	795	802	810	810	814	817	824	828	827	822	820	814	817	811	811	816	823	828	823	814	810	806	801	792	789	791	791	801	812	818	821	825	826	821	819	815	815	812	814	818	825	829	813	810	810	813	820	827	825	819	820	821	820	820	821	831	831	826	821	814	813	800	801	799	805	818	825	819	821	829	837	833	826	827	830	832	833	835	820	832	830	822	832	832	830	840	847	848	835	824	815	811	814	819	819	831	843	846	840	829	819	807	807	818	828	827	808	814	835	843	841	841	841	838	832	835	835	835	832	827	827	834	841	847	844	841	845	829	840	832	836	843	844	845	838	835	835	837	841	842	843	833	826	826	833	843	851	850	849	850	844	847	856	856	855	851	851	852	854	858	848	855	857	854	846	843	849	853	857	857	855	857	863	863	857	855	859	860	859	853	846	842	845	848	847	840	844	850	870	866	861	858	856	860	866	872	869	867	861	860	862	863	862	868	864	869	871	871	870	866	851	844	848	853	869	863	860	857	857	861	861	866	879	885	884	879	890	883	871	848	846	852	875	880	877	880	882	877	876	882	881	880	878	888	892	900	904	901	883	873	868	870	871	868	870	878	881	879	876	879	877	874	869	870	875	879	881	884	892	894	897	889	883	883	890	904	904	901	898	906	905	902	894	887	896	900	899	896	896	899	897	896	890	882	894	891	886	881	886	882	882	884	882	888	896	908	911	905	898	893	885	886	889	900	904	904	908	909	907	901	905	906	900	897	898	912	914	926	931	923	911	899	887	880	880	889	898	914	936	929	924	921	922	922	923	929	935	935	933	915	906	905	906	900	909	917	918	921	930	936	935	934	941	955	958	953	919	925	927	921	918	918	915	907	896	913	918	924	929	934	927	925	919	922	922	917	923	930	918	924	934	937	938	938	930	933	940	948	945	924	931	945	955	959	937	913	907	900	906	911	922	917	920	935	942	944	930	931	936	939	925	930	934	931	931	934	927	925	923	922	927	928	932	927	927	910	916	930	937	938	937	933	933	935	937	940	940	937	939	940	944	949	959	954	941	935	932	926	925	936	940	951	952	956	964	966	964	957	949	942	939	936	957	962	961	966	964	967	965	962	954	954	956	959	963	968	971	978	981	979	971	956	943	935	934	950	963	960	955	959	960	962	955	974	983	975	969	962	967	984	987	984	980	980	973	960	954	952	955	959	962	956	956	947	947	957	971	980	983	985	990	993	989	974	959	953	948	946	945	952	962	960	949	945	944	951	952	956	957	956	956	954	952	948	950	954	963	973	985	994	994	984	982	985	985	986	975	0	0	0	0	0	0	0
776	779	779	783	790	797	795	795	789	787	780	773	773	773	775	781	790	787	787	791	797	808	805	807	807	811	803	798	793	792	783	783	787	798	803	809	808	806	806	802	797	788	788	780	777	781	789	789	793	804	809	809	803	801	802	804	814	814	820	823	819	807	797	794	787	783	783	798	807	813	813	817	821	821	804	796	796	797	802	808	815	819	823	823	813	808	805	800	796	786	782	777	777	783	801	804	823	827	820	815	813	809	805	804	805	810	810	807	802	795	803	807	821	820	814	805	794	814	811	806	805	810	827	826	822	821	812	790	792	794	799	807	813	810	813	817	838	836	822	821	817	821	826	827	814	823	819	816	831	833	833	837	832	825	818	817	820	823	825	820	811	816	836	840	835	823	810	796	811	815	819	819	820	820	841	845	845	839	839	841	834	829	817	806	811	814	813	825	835	844	843	840	834	821	824	822	830	838	834	825	815	812	815	827	844	846	840	829	821	825	833	840	837	838	840	838	834	846	851	850	847	847	851	851	850	849	846	843	844	850	835	838	845	844	845	847	851	858	863	859	854	851	851	853	849	852	850	837	837	839	837	839	842	847	855	848	844	840	840	842	844	850	851	849	849	851	854	856	852	851	854	862	868	863	850	844	846	850	857	859	856	856	857	851	847	841	843	847	851	872	881	882	882	872	848	843	846	850	853	868	870	871	869	872	877	880	888	888	877	873	876	882	891	891	888	888	879	865	861	868	877	883	882	875	862	863	871	874	869	869	870	870	874	885	905	909	897	880	863	859	870	883	890	903	901	904	899	891	887	876	875	878	884	890	887	881	876	874	874	874	874	886	870	874	879	868	866	869	877	869	870	895	897	890	884	883	883	884	887	890	885	890	895	896	893	880	883	889	889	886	884	891	898	908	913	912	900	892	884	870	876	881	885	892	907	924	924	903	901	902	907	910	905	905	907	886	876	883	890	892	900	893	897	901	909	917	919	915	919	923	925	918	886	900	903	904	914	915	911	908	890	887	894	899	916	919	914	918	912	911	905	904	905	906	905	911	919	935	944	939	942	922	916	913	904	906	910	912	908	907	903	904	903	905	904	913	920	923	924	921	928	924	909	910	908	914	920	915	920	918	917	920	921	922	919	918	923	927	927	916	915	909	909	918	917	915	921	928	927	931	932	931	930	929	929	930	922	926	952	947	940	922	918	916	918	920	929	929	921	920	927	940	945	952	943	938	935	924	927	955	911	917	917	921	925	930	934	934	935	943	944	940	932	932	934	932	928	925	927	923	924	928	938	941	944	949	951	946	942	947	975	964	954	950	951	961	965	961	967	968	968	955	951	950	952	955	950	937	937	928	931	937	954	953	954	947	957	967	967	961	954	949	947	945	946	946	945	943	938	923	923	929	950	957	962	963	963	960	953	949	945	946	958	964	982	990	983	973	965	970	970	976	965	0	0	0	0	0	0	0
766	770	770	776	782	781	774	774	777	776	774	772	772	766	767	774	784	789	789	794	804	807	801	798	798	791	779	779	774	772	772	772	776	784	783	791	797	797	797	796	790	787	785	781	778	776	777	777	781	791	803	801	801	793	796	801	804	804	818	824	817	807	797	792	791	787	781	786	796	801	801	816	795	793	781	774	780	786	806	823	829	824	820	820	813	801	795	791	790	785	779	776	778	778	784	798	801	805	804	807	806	804	804	803	803	802	797	791	786	787	797	794	814	813	808	798	790	789	802	794	790	790	794	812	823	820	810	794	785	784	794	804	807	806	808	813	822	830	813	805	800	793	790	798	799	802	808	811	821	823	821	820	813	812	817	816	815	817	817	809	804	805	808	803	796	795	801	810	816	808	804	805	807	805	812	815	816	814	818	831	817	808	800	801	801	801	803	814	826	836	814	800	797	806	814	822	830	837	832	826	820	815	816	810	808	814	828	822	819	820	825	836	834	833	833	832	832	832	831	847	840	841	843	845	842	827	830	844	843	838	833	829	832	836	841	842	850	853	852	846	844	821	826	833	843	842	840	838	836	836	836	838	841	842	841	835	837	833	835	833	831	842	845	846	840	843	846	849	848	847	850	859	865	854	847	845	846	850	858	859	854	852	854	852	848	843	841	826	831	839	859	861	859	850	839	839	844	848	855	859	862	858	863	868	873	878	869	871	868	861	860	856	878	889	892	888	863	861	862	863	864	876	873	855	858	858	857	860	859	852	852	855	859	863	870	871	857	853	858	855	861	863	867	863	859	860	867	878	877	866	866	868	873	886	886	882	868	858	856	863	862	856	866	870	877	872	869	868	860	861	883	885	886	884	876	874	878	880	880	879	876	884	890	881	871	878	873	874	875	875	870	863	869	877	881	884	879	876	881	869	868	869	871	868	875	883	900	897	895	895	899	902	902	883	876	870	877	880	887	891	894	896	896	897	897	896	898	907	912	919	915	910	894	879	881	887	891	895	895	897	889	884	882	882	896	900	905	904	901	899	895	898	902	903	901	906	914	917	921	914	917	906	897	893	898	906	907	902	901	902	907	910	917	914	911	916	921	921	921	916	911	894	894	901	901	909	914	910	905	903	905	908	910	914	913	912	914	916	905	906	906	899	899	899	903	906	907	912	928	927	925	922	920	920	919	919	909	914	904	910	916	924	909	909	911	913	920	917	909	910	916	916	927	926	921	913	908	910	909	912	910	901	903	911	920	927	929	931	938	930	925	923	924	928	930	928	923	918	917	918	919	923	924	925	917	914	917	931	933	947	943	936	930	930	932	932	934	934	944	955	953	949	946	947	944	946	934	934	921	923	930	937	942	941	934	939	939	941	952	952	947	947	947	946	950	943	939	925	922	919	918	916	940	954	959	959	967	963	958	954	945	943	947	957	970	983	973	966	953	953	944	953	953	0	0	0	0	0	0	0
757	759	759	760	764	759	763	763	764	766	766	763	763	763	761	771	784	788	788	791	789	782	779	773	773	765	764	762	761	765	767	767	767	774	777	776	778	784	783	783	787	780	784	781	776	776	775	775	782	789	796	796	793	786	782	791	803	803	807	808	806	796	786	793	795	794	787	782	784	785	793	776	779	778	775	771	771	779	794	806	811	810	813	814	811	799	790	784	784	780	777	774	774	782	782	789	795	795	796	793	799	800	800	805	807	804	798	785	784	789	786	786	790	807	800	795	787	785	789	784	783	786	789	800	810	816	813	809	796	787	789	799	802	799	798	795	802	802	800	798	792	792	787	790	792	797	796	795	802	808	798	797	799	809	812	790	790	789	791	784	785	793	803	808	807	810	809	806	803	802	799	801	805	805	809	815	812	792	793	806	803	805	790	797	799	801	803	807	819	815	812	803	806	809	817	821	815	824	826	826	824	817	808	801	797	801	800	818	818	816	823	810	802	799	833	830	826	827	836	841	825	816	831	824	810	823	807	824	826	824	815	820	830	822	826	833	842	845	846	839	816	813	821	828	835	833	829	825	832	837	840	832	823	823	823	822	828	831	830	825	823	826	830	831	832	830	832	837	838	836	841	841	849	837	828	841	848	851	860	854	839	822	826	831	835	832	823	822	825	828	837	850	852	850	850	850	854	852	855	860	860	859	854	855	854	861	867	869	869	848	843	844	856	859	846	854	861	861	861	861	854	851	848	837	840	848	856	861	853	853	855	859	857	857	865	867	862	853	852	854	857	857	856	873	861	862	859	864	854	856	858	860	867	877	884	876	867	858	857	852	847	843	868	867	869	869	869	870	860	856	873	877	875	872	866	857	867	877	878	877	872	871	874	876	874	868	865	870	870	866	860	860	855	864	874	874	871	870	877	880	874	866	855	855	857	863	877	882	881	886	889	876	881	893	889	885	875	878	884	890	896	900	902	890	883	884	891	898	906	910	905	894	883	869	864	868	894	897	895	893	888	884	880	878	879	884	901	887	885	886	889	891	897	901	908	911	913	904	889	882	890	887	892	892	893	900	892	894	898	899	908	913	908	899	894	893	896	901	908	909	909	907	906	902	897	901	901	906	901	897	894	895	897	903	904	905	905	906	901	901	902	894	894	897	903	902	901	905	916	919	916	911	906	904	907	898	888	890	893	899	904	906	905	902	900	899	899	893	887	889	896	911	918	918	917	912	904	911	919	914	905	898	895	913	924	930	930	933	929	924	923	918	919	922	922	917	903	907	908	903	909	920	919	912	908	906	907	912	912	912	911	921	916	916	922	921	917	916	909	915	915	916	917	923	923	916	916	918	921	926	931	934	934	926	922	923	927	932	933	938	941	942	949	949	941	929	921	918	916	917	916	914	912	926	944	944	956	955	959	961	961	954	940	947	960	954	956	958	946	946	933	942	943	0	0	0	0	0	0	0
756	752	752	750	753	756	756	756	762	762	761	754	752	752	760	769	782	787	777	777	778	775	765	756	760	760	762	760	761	759	762	762	767	773	775	775	781	777	779	779	777	773	769	772	774	775	778	783	783	792	793	793	788	776	771	768	793	792	792	787	783	782	784	794	798	797	792	785	783	781	773	773	776	774	771	768	768	774	785	796	803	803	798	803	801	793	787	784	780	778	772	772	774	776	780	780	780	781	783	779	786	792	798	802	793	788	784	786	780	782	784	785	788	794	795	790	784	785	785	785	778	783	788	789	795	803	804	798	794	791	796	801	800	793	789	786	790	793	794	792	789	787	787	789	794	799	796	783	787	794	794	797	799	800	795	788	788	787	786	778	782	784	789	789	790	794	804	799	795	790	789	796	803	808	812	808	791	792	794	809	823	807	803	811	814	815	810	803	801	801	801	804	811	807	802	801	804	804	810	818	821	815	810	799	794	795	795	799	814	810	810	805	800	796	800	805	812	823	825	822	817	817	811	808	810	811	811	812	810	814	816	826	826	822	821	816	817	821	822	819	809	808	814	820	825	824	821	817	820	824	822	818	811	803	801	809	818	830	825	819	818	823	826	825	820	821	824	828	830	830	835	849	844	845	838	838	850	856	849	822	812	815	819	827	830	835	828	825	826	829	833	843	850	852	853	854	852	840	843	840	845	848	848	830	831	855	841	851	854	852	845	841	842	837	842	858	856	850	853	855	851	844	826	826	838	837	841	851	862	856	859	858	850	839	851	856	844	850	863	857	857	856	860	855	849	853	847	852	846	844	853	861	861	868	879	875	866	857	850	845	839	837	855	865	871	869	868	864	857	851	861	869	870	867	858	851	843	864	871	869	867	869	869	869	862	856	857	858	860	861	857	857	856	859	865	863	864	866	867	875	873	865	857	853	853	871	861	850	857	863	862	862	871	858	871	871	864	862	862	864	858	858	864	879	874	878	883	884	887	888	882	881	882	877	876	891	895	895	886	883	882	882	878	872	867	876	880	900	878	876	883	900	900	904	909	893	889	877	871	869	868	862	868	874	887	888	885	888	892	883	877	870	873	867	867	871	879	888	895	889	879	872	877	891	888	882	881	878	882	885	879	877	877	876	878	886	890	892	896	897	893	891	892	897	897	898	897	900	905	908	908	902	898	892	887	878	880	883	890	891	874	880	896	899	893	890	889	882	878	881	890	900	907	909	910	901	893	911	921	924	899	890	895	904	912	929	926	925	921	916	915	915	912	913	912	906	894	886	888	896	900	897	894	895	902	898	899	907	908	909	908	907	902	904	901	912	907	901	914	916	909	902	897	897	897	906	909	914	918	926	927	932	931	915	906	919	919	916	920	923	929	935	937	932	923	917	912	910	906	906	917	916	913	909	926	926	936	934	949	948	925	922	944	936	936	933	933	926	926	919	925	931	940	0	0	0	0	0	0	0
748	744	745	745	752	753	745	748	748	753	755	749	737	737	744	764	782	763	772	772	766	751	752	754	760	760	762	760	761	760	760	764	764	768	769	769	774	777	777	777	769	758	763	768	772	771	779	784	784	789	793	785	776	772	768	764	767	776	776	781	771	770	771	779	788	795	790	784	768	765	767	768	768	767	766	762	763	768	780	790	798	798	789	785	795	788	782	780	778	771	776	776	769	769	763	767	767	775	778	779	783	780	780	782	779	775	774	777	787	798	802	797	792	788	786	786	782	779	780	783	781	779	780	777	780	790	790	785	781	780	776	780	784	783	785	783	786	790	785	783	781	781	782	783	785	785	781	782	782	782	778	779	782	785	788	789	789	795	774	778	777	772	780	780	781	787	795	797	788	783	785	787	797	807	815	796	792	792	795	803	818	817	807	805	807	790	791	789	789	792	794	796	801	800	798	797	795	796	802	807	813	812	804	799	798	800	799	804	808	814	805	795	794	792	795	798	802	808	808	817	810	810	814	807	806	810	813	811	806	811	812	809	807	803	807	810	809	806	801	811	802	801	808	813	815	814	813	817	818	807	804	810	797	794	795	801	809	823	824	814	818	816	815	809	813	801	801	806	808	810	832	839	829	831	833	827	822	808	802	808	807	808	815	821	828	830	828	824	829	833	833	834	843	839	835	833	834	835	832	830	833	833	826	828	827	831	837	843	847	851	847	841	834	833	847	844	840	836	832	834	834	824	814	808	820	833	835	835	838	855	860	856	849	830	824	829	837	851	835	837	849	848	851	847	846	842	837	828	834	837	838	849	853	848	844	837	832	829	831	829	832	830	849	860	868	868	865	855	848	846	848	856	863	850	850	845	837	837	856	855	854	853	855	855	856	851	850	853	855	857	858	857	857	854	856	859	865	863	865	874	870	863	859	858	865	865	853	847	847	852	849	846	842	848	857	863	855	855	853	850	848	851	858	874	878	884	884	879	871	857	860	867	866	866	863	872	895	889	878	873	870	868	866	863	859	864	869	878	879	876	880	890	900	879	879	883	873	870	867	855	855	858	858	860	873	876	874	867	869	863	864	864	865	861	860	858	859	863	862	860	854	849	858	875	884	871	871	871	877	876	874	871	868	868	877	884	880	874	866	882	883	886	892	891	892	892	892	893	897	902	901	897	890	883	868	875	882	883	867	859	859	870	882	893	897	886	883	886	887	888	889	891	893	894	885	884	886	869	865	871	879	882	874	870	872	895	896	899	897	895	901	897	892	885	875	865	869	884	894	894	888	884	881	881	885	888	888	888	892	896	901	900	899	889	886	879	878	884	914	912	906	891	891	885	888	895	904	909	914	919	924	929	926	910	901	905	909	908	908	910	912	908	901	906	907	909	905	901	899	895	915	914	912	915	915	912	925	925	919	916	913	909	909	941	939	927	928	926	926	928	928	926	926	0	0	0	0	0	0	0
743	737	739	739	749	747	745	739	739	736	737	731	735	735	743	750	749	763	747	747	748	749	748	749	753	753	759	759	754	756	758	755	755	753	757	758	761	770	772	769	743	748	759	765	769	775	780	783	783	782	776	772	772	769	765	761	759	763	766	766	769	761	747	746	753	759	761	767	766	761	752	747	747	751	748	748	751	758	771	778	781	792	783	775	763	754	757	764	765	770	771	771	767	756	754	766	766	777	785	804	796	789	783	781	768	768	770	774	778	784	787	794	787	783	782	781	778	773	779	783	779	774	771	773	779	758	753	754	756	759	762	764	771	772	773	771	771	771	768	765	757	738	732	766	773	771	769	771	769	765	767	765	760	779	781	784	793	795	773	761	764	770	774	775	778	784	792	793	792	783	778	777	765	780	787	797	793	791	782	789	812	810	807	800	783	781	783	786	788	793	794	797	799	780	775	791	791	792	797	801	804	801	804	803	799	798	799	800	805	807	803	792	790	792	797	792	797	801	793	797	804	805	811	811	810	811	809	810	806	802	802	798	793	794	798	803	798	794	790	797	801	798	803	810	811	809	810	803	796	790	792	796	788	789	786	793	798	798	793	797	808	813	810	805	799	798	800	806	807	804	813	809	808	808	804	799	806	803	798	800	797	808	816	822	827	827	823	817	825	834	833	819	817	819	824	827	828	828	827	826	823	819	828	827	821	824	833	838	841	852	844	839	832	828	830	832	829	825	809	815	815	811	809	804	816	827	833	826	822	832	832	834	835	828	823	821	845	822	827	831	827	839	836	833	826	820	816	823	829	832	833	829	839	836	836	831	822	821	822	822	821	822	832	850	853	857	858	846	841	840	841	845	850	840	834	829	827	828	831	830	827	821	820	842	838	842	842	840	840	849	852	852	849	844	843	853	854	855	858	868	865	859	854	861	858	856	845	833	848	850	849	841	840	852	867	861	857	848	850	846	839	834	841	850	856	858	860	857	853	858	860	865	863	864	862	860	863	874	869	867	859	852	851	852	854	861	862	872	875	868	874	874	866	867	866	866	854	853	850	851	850	853	855	852	854	858	857	850	850	852	853	856	860	862	862	858	852	854	858	858	853	852	853	858	877	872	869	864	851	859	862	865	864	867	873	876	874	860	854	842	877	881	878	875	872	878	878	876	870	868	869	854	848	844	847	862	870	855	845	843	854	867	870	871	873	874	871	872	872	872	876	884	877	879	871	867	868	851	851	857	868	871	870	868	869	877	885	881	873	885	882	881	879	872	863	863	870	880	884	889	879	872	870	871	874	880	884	885	883	884	882	885	885	873	868	861	866	882	882	893	893	897	887	881	876	880	895	903	909	912	917	921	917	909	900	897	899	902	900	900	895	889	893	896	897	899	897	890	889	888	904	909	910	915	915	906	907	913	909	906	902	901	902	913	920	920	911	914	914	917	922	923	926	0	0	0	0	0	0	0
734	727	737	737	744	745	745	745	745	741	737	739	741	738	738	740	733	740	744	744	748	749	748	745	745	750	750	751	748	741	738	737	737	733	735	738	740	742	743	743	738	741	747	766	767	770	770	768	767	767	755	752	755	759	759	756	752	752	754	754	755	754	753	754	759	761	769	768	756	750	741	737	737	735	741	747	753	756	765	767	771	774	778	773	768	764	759	755	752	756	759	757	757	752	753	764	781	781	793	792	774	768	772	775	769	763	764	768	772	773	777	779	782	780	776	777	775	771	774	783	769	761	758	757	753	745	749	753	755	757	760	762	767	768	768	767	765	767	767	761	742	735	741	748	755	761	760	763	759	758	762	765	761	756	755	764	774	769	766	763	769	771	774	774	774	772	771	769	779	775	769	769	768	777	782	788	786	775	764	768	785	794	783	776	775	777	780	780	779	781	789	788	790	776	765	767	769	780	786	787	782	787	792	794	792	790	788	792	798	803	787	775	779	783	785	786	780	778	777	793	799	801	793	791	808	801	800	800	800	796	799	792	786	785	786	789	793	792	783	788	792	805	803	808	810	804	802	797	791	786	784	788	789	787	784	787	794	792	787	784	805	809	806	796	792	787	791	803	797	801	805	806	805	802	802	803	788	794	795	796	797	800	815	823	824	821	816	813	813	816	814	804	805	809	815	817	816	817	821	822	820	813	820	823	828	828	832	828	831	832	840	837	828	812	819	822	820	798	795	801	803	808	809	809	816	822	821	816	808	824	827	829	828	821	813	805	819	817	814	813	820	824	826	820	815	810	819	815	824	827	824	820	826	822	825	824	817	814	812	807	803	821	826	828	831	837	839	838	832	836	837	839	829	824	827	825	824	824	820	820	818	818	813	815	816	817	821	827	839	845	849	846	838	835	831	834	841	848	851	862	855	850	849	850	827	831	825	826	829	849	841	838	841	852	858	858	855	852	842	838	834	831	838	844	842	840	839	848	857	856	852	852	858	856	858	855	852	854	865	859	850	848	852	849	849	850	852	859	869	865	858	847	848	853	849	847	843	843	845	847	844	842	841	840	840	837	842	842	842	844	844	847	851	859	861	853	842	840	845	855	853	851	851	852	871	866	862	846	846	847	853	860	859	867	865	864	863	853	838	838	866	869	872	867	856	850	851	851	873	879	854	846	840	831	837	847	854	848	842	848	852	852	847	844	844	850	856	857	849	848	862	869	874	864	863	858	844	843	840	844	857	861	862	863	866	872	884	884	872	864	860	857	852	847	842	840	855	873	875	874	868	864	863	868	871	875	881	889	870	865	865	865	867	872	864	861	861	866	876	877	872	872	869	873	867	868	881	887	888	899	908	916	910	904	897	895	899	898	896	890	881	881	878	878	887	889	880	883	885	886	885	889	895	895	884	888	891	900	897	894	894	895	894	894	904	906	901	901	903	906	918	917	911	0	0	0	0	0	0	0
717	713	724	724	731	737	739	740	742	742	743	746	749	746	746	741	732	735	727	736	736	744	746	742	740	741	741	741	741	732	733	734	736	736	736	739	742	739	735	738	741	741	742	742	750	750	746	748	740	740	739	740	746	749	751	746	739	742	747	747	750	752	759	762	767	770	766	761	750	747	741	734	735	735	748	742	740	741	744	745	745	751	761	765	766	762	758	749	745	753	750	751	757	752	758	765	772	778	778	762	757	757	764	756	762	756	755	759	761	763	764	762	767	765	759	758	749	748	745	742	750	752	755	757	751	754	755	752	754	755	757	767	771	762	758	756	760	770	762	755	748	747	750	755	761	756	753	753	750	745	756	760	758	754	756	760	760	761	763	766	769	763	759	753	766	770	769	764	763	769	775	768	772	776	778	781	778	765	753	756	765	771	767	757	756	771	777	774	771	759	759	769	771	778	765	768	775	777	778	776	775	773	772	771	779	781	781	785	785	778	771	773	775	778	778	776	777	773	775	776	777	777	780	780	771	763	761	792	792	795	795	794	784	778	775	781	787	786	782	777	780	796	801	807	800	800	796	796	796	790	782	784	789	789	788	789	786	786	779	772	785	800	805	791	781	781	789	802	812	800	798	798	802	797	798	796	793	782	787	790	791	797	814	821	820	793	787	810	809	813	808	799	800	805	806	800	807	811	813	812	814	813	814	816	810	810	810	804	799	803	829	832	818	811	810	814	795	791	794	798	800	801	795	792	805	810	813	805	795	806	821	810	813	810	810	806	811	808	808	808	812	818	819	817	811	807	807	802	792	786	806	811	822	820	821	817	814	812	802	808	811	812	810	809	811	813	835	835	830	824	820	822	822	823	823	823	822	816	813	814	812	812	814	817	813	813	822	832	833	836	840	840	835	832	817	809	817	844	841	841	840	833	839	839	832	824	819	815	823	824	831	831	836	823	828	828	831	838	856	841	835	836	838	839	839	838	834	827	843	848	845	844	848	848	851	846	843	839	835	832	844	843	850	843	839	839	838	842	842	845	838	841	839	836	834	831	835	834	837	840	833	829	824	820	826	826	836	833	833	837	837	840	844	847	852	846	838	837	842	849	849	847	847	845	855	858	851	843	840	842	848	847	852	857	854	853	849	840	835	833	849	853	852	833	832	839	844	850	855	872	867	845	833	836	837	840	842	839	840	845	845	844	841	841	842	844	851	853	844	843	856	857	852	847	842	840	838	835	837	841	846	850	850	852	854	857	860	869	863	863	865	865	856	844	834	832	838	842	844	846	852	855	872	873	868	867	873	870	851	842	844	844	846	854	856	861	858	852	850	850	849	848	845	849	864	873	872	865	867	874	887	888	891	891	891	889	890	890	888	877	875	875	878	878	882	874	874	878	881	885	881	875	872	872	872	875	877	885	888	883	887	891	890	886	895	895	894	894	894	898	902	901	899	0	0	0	0	0	0	0
708	711	712	717	717	719	725	725	737	737	741	746	748	745	745	733	731	732	721	723	723	728	738	735	734	737	737	732	726	723	733	735	736	736	742	747	748	742	741	741	736	736	740	740	739	740	739	735	732	732	734	737	743	746	745	740	735	737	745	751	751	754	752	749	745	744	746	743	746	744	741	742	747	747	748	734	727	727	731	738	747	754	755	754	753	748	751	741	733	724	734	739	741	739	741	748	748	748	747	747	748	745	742	745	751	750	751	752	752	757	759	757	754	745	746	747	747	743	743	736	733	744	749	735	756	760	758	750	750	748	741	747	753	757	752	752	755	758	755	748	745	741	745	756	768	761	759	743	734	735	754	758	749	750	755	760	755	757	758	766	764	750	749	751	753	761	764	760	755	754	758	770	773	777	774	772	764	759	747	745	754	757	756	756	757	759	760	759	754	751	759	768	774	771	771	771	773	771	772	760	761	767	767	764	762	769	769	779	766	769	772	769	768	771	769	761	768	772	773	772	773	772	770	765	762	758	758	762	767	794	793	789	790	782	766	762	762	772	777	786	787	786	792	794	795	794	793	792	793	791	785	790	789	788	783	782	781	777	770	769	775	791	790	784	774	781	790	795	787	781	786	791	780	788	792	793	793	780	786	785	786	792	809	816	795	793	787	783	791	795	803	796	798	796	788	791	796	806	811	810	807	806	795	789	796	804	806	805	806	804	802	816	815	799	800	807	797	791	796	786	784	785	790	795	799	799	796	791	785	777	779	791	795	801	807	810	810	806	806	804	804	813	815	814	808	806	816	816	801	794	787	784	801	802	792	789	791	798	801	799	805	813	804	806	807	812	836	813	809	806	812	816	819	821	822	820	821	814	810	804	802	807	809	807	797	805	812	817	815	824	828	831	833	822	814	802	797	811	817	816	820	825	830	833	822	819	812	808	811	816	825	826	813	819	822	821	825	830	832	834	834	828	832	830	823	816	821	814	813	835	832	834	833	846	835	830	829	829	830	829	827	817	837	838	833	828	825	824	822	828	828	824	819	815	818	825	821	820	826	836	827	819	806	804	811	814	828	821	823	832	833	834	840	844	849	842	837	835	839	841	844	845	843	841	846	832	828	825	823	818	825	835	842	844	844	842	835	830	830	827	823	827	832	830	830	835	840	844	851	860	857	850	842	839	835	835	833	828	830	835	834	834	833	835	837	839	840	839	832	831	836	837	840	834	831	830	834	831	837	841	845	847	845	845	848	849	853	851	854	858	862	861	854	841	833	828	825	826	830	823	834	836	846	846	855	853	833	830	833	839	840	841	844	840	855	843	837	843	849	852	849	843	844	859	861	867	866	867	865	865	877	872	866	863	869	868	870	872	866	861	857	867	880	880	876	875	874	876	879	882	876	871	871	865	863	863	864	867	865	864	872	884	882	876	868	880	880	870	859	874	886	895	894	0	0	0	0	0	0	0
701	707	712	713	713	709	711	712	720	720	730	733	737	742	742	731	727	722	717	719	719	724	729	723	727	730	730	726	725	727	728	735	735	735	738	744	746	739	735	734	721	721	727	734	740	740	738	735	729	731	731	733	735	736	736	732	732	736	741	750	750	744	740	739	739	737	738	739	736	734	730	729	729	725	725	721	722	719	721	729	742	745	753	739	731	736	737	738	731	721	718	731	734	736	735	741	737	740	741	741	741	735	735	740	740	741	746	742	740	750	746	747	734	732	731	743	743	740	739	737	732	725	727	725	755	759	763	757	746	727	734	739	742	744	747	743	746	750	748	744	741	736	733	734	755	761	761	755	737	737	737	740	744	754	754	756	753	755	757	753	748	745	745	743	749	754	764	760	751	748	747	740	740	753	756	763	770	759	748	745	745	747	753	755	758	759	762	762	753	751	759	764	771	774	769	763	763	767	760	758	756	751	758	758	755	756	757	752	757	768	772	772	767	761	755	753	753	755	759	769	771	767	765	757	755	752	752	755	760	761	764	766	786	777	765	763	762	769	774	784	786	786	788	790	790	788	792	788	788	788	787	791	787	781	778	775	771	764	766	764	770	780	781	781	776	778	783	780	775	780	784	786	780	786	788	793	793	792	780	774	771	765	771	779	781	784	787	784	786	785	788	789	786	784	782	784	788	791	792	788	782	779	778	779	783	794	799	805	807	803	799	798	798	794	794	803	801	800	799	789	787	782	786	788	793	796	798	797	790	771	772	784	787	793	801	812	810	808	806	804	796	808	810	811	812	806	812	803	791	799	788	795	803	810	805	798	797	799	801	795	801	805	817	812	807	818	814	806	787	797	803	810	816	819	818	817	821	816	810	798	791	792	794	789	793	793	800	808	811	811	811	815	822	820	815	802	799	801	809	810	814	819	823	818	812	808	804	800	800	801	812	803	805	808	800	804	810	818	812	806	804	804	813	816	812	806	805	791	804	818	820	820	820	820	821	817	821	823	824	826	828	820	808	809	807	812	795	799	813	809	809	807	809	812	808	812	811	814	818	819	826	810	801	797	807	817	818	816	817	819	828	831	836	842	833	826	824	821	827	829	840	838	837	834	833	828	823	822	819	820	819	816	814	832	838	829	821	813	816	820	820	820	824	824	825	832	838	843	847	848	847	843	841	837	835	832	831	832	829	823	820	816	817	830	832	833	831	830	828	826	829	830	835	830	826	828	831	831	837	842	844	844	841	841	845	849	848	848	847	852	857	857	851	842	832	822	819	817	805	829	832	833	841	845	843	838	830	834	834	836	835	834	832	829	829	830	835	841	847	850	848	845	845	851	851	856	848	852	863	865	860	853	837	841	842	841	841	854	854	857	854	857	866	872	876	872	868	866	871	872	869	865	865	857	852	850	850	855	857	850	849	874	870	866	851	855	855	844	850	854	869	867	864	0	0	0	0	0	0	0
701	712	715	705	705	707	708	712	717	717	719	724	726	730	731	731	721	721	717	717	714	714	715	717	717	723	725	725	725	727	727	728	723	732	732	735	741	736	728	723	712	712	712	715	717	727	735	738	722	723	723	723	722	723	724	727	729	722	723	726	731	731	732	733	733	727	726	733	727	724	723	725	723	718	718	714	711	712	716	722	726	722	724	727	729	728	730	726	724	721	715	720	733	733	733	725	728	728	733	733	733	733	734	733	737	735	737	734	733	736	733	729	721	718	719	726	725	724	725	725	729	726	727	729	743	746	746	730	718	717	724	730	733	737	745	742	739	738	738	739	737	733	729	730	732	734	732	728	728	727	727	727	722	724	732	750	762	758	749	738	734	734	739	744	744	744	759	761	750	744	740	742	741	739	742	743	743	743	741	743	741	744	749	755	757	758	762	764	763	758	748	750	762	777	770	769	768	763	754	755	755	747	745	747	744	742	736	747	745	753	761	768	767	760	754	753	753	756	759	757	766	765	762	747	745	746	745	753	758	760	760	761	764	764	760	764	765	768	774	775	779	784	780	776	773	772	767	763	768	779	778	770	759	758	757	755	749	756	764	763	766	774	784	778	777	772	770	771	774	773	777	781	782	780	788	789	786	785	777	774	771	769	768	770	774	779	784	785	782	776	778	776	774	774	777	783	788	791	778	771	775	770	767	770	770	781	795	802	799	783	781	781	787	787	792	802	797	793	788	782	782	781	775	779	790	795	795	794	797	786	782	781	770	774	777	781	782	780	787	795	786	784	800	801	809	796	797	796	790	799	787	788	789	789	788	790	790	792	793	789	788	794	792	790	788	788	786	791	792	794	792	785	786	789	794	792	794	804	799	792	789	785	788	789	784	783	789	796	797	805	796	800	815	815	810	805	798	797	795	789	784	785	793	798	801	800	798	793	789	786	784	791	798	798	794	791	796	802	800	797	799	796	793	799	801	794	788	788	795	792	794	790	788	787	796	798	799	793	798	805	808	813	813	815	802	800	800	801	804	806	804	803	802	803	803	800	796	796	798	810	806	792	784	789	806	812	812	810	810	816	817	808	811	821	818	803	797	799	809	815	825	824	818	830	829	825	820	816	814	820	824	822	820	814	808	802	793	796	806	814	815	813	815	818	820	826	831	834	837	840	837	838	836	835	829	826	832	831	829	823	816	814	807	808	823	838	836	820	814	809	809	814	825	843	839	830	829	831	837	841	844	833	825	822	842	842	845	844	843	840	846	849	846	836	823	814	810	799	799	823	827	829	838	839	840	838	834	834	833	830	826	824	820	817	818	820	828	834	839	848	840	833	826	825	837	832	832	843	845	828	843	837	837	840	841	836	841	841	839	837	838	837	836	840	842	846	854	848	853	856	860	860	855	854	861	863	859	855	850	847	852	852	862	856	848	839	843	839	844	863	865	861	862	0	0	0	0	0	0	0
709	716	711	703	706	706	712	716	719	720	720	716	719	719	721	721	716	714	717	708	705	705	708	704	708	719	723	723	727	726	722	717	716	716	716	716	721	725	716	713	712	710	710	710	714	719	728	731	718	712	712	709	710	716	722	720	717	718	717	717	716	716	721	723	722	722	720	720	720	717	718	720	715	715	721	721	721	721	722	721	717	713	715	724	725	724	720	714	711	711	718	721	722	723	720	721	724	724	724	727	728	728	729	729	732	730	744	749	747	738	734	729	724	717	718	722	716	716	721	721	719	720	717	717	725	735	731	731	733	734	735	726	729	734	741	749	736	732	728	732	734	730	727	727	729	732	729	727	725	722	722	722	723	727	733	733	749	739	737	737	734	734	738	740	738	737	737	750	749	748	744	743	739	735	732	735	734	733	731	730	734	738	743	750	752	756	763	756	759	760	759	757	767	765	770	773	769	759	751	754	757	756	746	741	735	732	745	749	743	750	756	764	769	762	754	754	754	754	755	760	764	761	756	742	725	729	740	755	757	758	758	754	759	758	756	761	766	768	771	774	779	782	779	773	768	767	762	758	758	765	765	761	754	746	743	753	757	757	758	761	761	765	767	770	769	766	767	769	770	774	772	787	784	780	786	781	774	774	770	766	766	769	782	779	770	766	769	773	775	774	761	756	761	770	776	779	781	785	785	781	767	762	758	763	769	779	786	778	777	767	764	774	776	788	792	793	791	785	784	779	777	770	768	776	784	793	794	789	776	768	768	766	761	765	762	773	770	768	766	767	770	778	783	791	796	790	791	788	785	784	787	786	784	785	785	780	782	786	788	781	782	782	779	779	781	785	785	787	788	790	787	779	775	776	778	774	775	782	789	787	787	788	788	793	785	779	772	768	773	776	788	797	806	819	808	800	797	793	787	783	788	798	783	780	775	785	792	793	788	786	785	791	794	793	789	783	786	794	797	797	797	796	790	793	793	793	790	794	797	791	789	786	782	782	787	791	790	791	793	798	802	799	800	802	798	792	796	794	797	798	797	796	793	787	783	774	767	768	771	781	792	796	799	804	813	813	804	798	794	795	795	802	802	808	805	807	789	790	793	813	805	796	807	823	820	818	806	805	813	821	817	817	820	813	799	790	783	777	786	789	801	810	810	811	816	819	820	822	816	800	802	815	825	829	824	821	827	828	823	814	814	811	804	807	825	833	827	811	813	801	801	805	810	812	807	801	810	820	814	819	818	816	814	816	819	836	835	836	822	828	835	837	836	830	814	806	796	796	805	819	821	824	824	828	835	837	835	833	829	821	812	808	806	807	809	813	820	825	833	841	830	820	810	807	816	819	821	835	828	822	816	824	838	835	835	836	835	827	824	827	830	830	830	832	839	839	843	842	848	850	848	848	844	840	851	848	844	840	839	841	847	850	849	843	840	840	839	843	859	858	854	854	855	0	0	0	0	0	0	0
709	715	703	701	706	706	717	723	711	705	705	709	711	711	710	710	708	712	713	695	685	685	689	691	699	706	717	717	716	712	709	708	708	713	713	711	715	712	707	710	713	708	708	706	709	713	707	708	708	708	707	707	707	717	717	715	709	712	710	705	700	700	701	701	717	712	717	713	705	707	710	712	712	706	716	716	717	717	720	723	720	714	712	704	708	714	708	704	701	704	708	708	707	709	713	717	719	715	711	728	731	730	725	726	721	722	726	721	722	724	727	729	726	722	715	719	708	711	714	715	714	714	712	712	720	720	716	723	729	731	732	730	718	730	735	745	729	728	727	727	728	727	726	726	729	728	727	726	722	717	718	721	728	728	725	726	737	733	733	733	734	734	736	736	729	726	727	729	726	733	735	737	738	730	720	718	725	726	725	722	722	734	732	733	727	737	748	750	743	744	744	744	746	750	758	771	759	750	746	750	755	747	744	739	732	736	745	748	748	745	746	745	752	754	749	745	746	746	748	759	765	759	754	727	726	739	738	740	745	749	753	754	740	724	728	735	745	755	774	768	782	780	776	773	763	761	756	752	754	756	755	753	748	737	746	751	750	755	757	758	756	757	756	760	759	757	759	763	767	765	765	760	780	776	774	770	765	762	762	757	759	762	778	778	774	763	762	762	767	769	768	759	749	746	752	760	762	760	775	772	765	763	763	763	770	774	767	767	768	765	764	769	775	779	792	795	791	781	778	781	772	767	768	771	783	792	776	771	767	766	769	762	757	755	764	767	768	768	750	749	746	755	769	784	792	790	788	781	782	778	782	780	782	786	785	776	775	776	786	790	788	782	776	778	778	781	784	787	791	777	775	764	760	769	781	781	772	771	774	787	787	788	769	772	774	773	772	775	772	778	787	793	799	803	798	787	786	785	784	781	788	795	788	778	775	774	767	771	769	771	777	781	787	786	785	779	784	791	794	795	786	785	793	787	790	787	791	788	794	786	781	787	777	780	782	776	784	784	779	787	792	796	798	796	792	783	785	790	792	789	778	780	781	776	773	779	772	767	776	792	796	798	803	806	804	786	782	782	784	783	775	784	788	790	791	787	786	777	777	789	786	777	786	803	801	797	788	788	793	797	802	807	813	806	795	786	776	774	776	783	783	786	787	792	792	788	785	785	782	781	784	787	807	818	812	813	820	817	809	805	799	795	799	804	802	801	818	811	806	797	805	804	795	785	784	781	799	797	798	798	809	804	822	824	819	814	821	816	813	819	822	816	812	809	804	800	798	803	808	814	816	812	811	815	823	832	824	819	814	806	802	795	794	797	800	808	814	815	824	831	826	814	806	801	809	813	814	823	816	817	815	819	828	835	831	829	829	827	826	825	823	825	837	841	840	834	837	836	837	837	837	835	831	829	828	827	828	830	831	828	826	827	847	845	837	837	833	844	843	854	853	852	853	0	0	0	0	0	0	0
706	699	697	698	709	709	715	709	698	693	693	695	705	705	703	704	704	702	698	679	677	677	681	687	690	709	705	701	701	710	712	710	707	705	703	703	710	708	710	712	714	709	709	706	706	704	699	701	704	704	704	704	709	716	713	706	702	705	701	689	683	681	681	688	701	692	692	687	691	699	703	702	697	695	700	708	708	706	700	709	719	715	710	709	701	701	701	698	699	699	700	705	703	703	707	713	714	710	704	701	704	710	712	720	718	718	718	719	714	714	711	716	726	719	719	716	704	709	712	712	710	713	711	710	713	708	712	718	723	723	725	721	717	719	724	708	723	724	726	714	712	705	700	697	703	712	717	719	719	716	718	725	723	724	724	720	723	721	726	733	738	731	730	728	718	708	711	718	725	725	723	720	716	716	708	706	709	721	717	715	715	726	726	727	722	722	721	720	727	720	723	724	734	747	749	750	744	738	730	747	749	741	738	735	732	736	741	744	744	736	734	737	746	745	739	736	739	742	745	758	764	758	737	732	739	738	738	736	739	743	747	749	731	730	732	736	743	747	755	757	755	743	738	744	745	756	758	758	761	759	751	747	743	733	733	737	741	750	752	754	751	749	750	749	745	750	751	754	759	739	741	753	749	752	757	764	760	756	755	752	750	757	765	772	761	754	753	754	758	763	761	750	746	746	744	755	754	752	756	752	745	749	751	750	750	754	760	762	762	763	761	761	764	777	785	794	772	770	763	760	759	760	756	752	748	747	746	746	752	763	764	763	756	752	759	761	764	764	741	740	747	750	758	772	773	767	771	769	773	774	775	779	782	789	787	778	770	765	766	771	775	775	780	775	748	741	742	761	768	766	768	762	764	769	777	777	770	755	754	768	763	759	763	766	770	770	773	778	785	777	781	785	767	770	769	755	769	782	783	783	790	788	788	777	771	766	764	764	760	766	771	778	777	776	779	780	781	785	790	786	780	776	773	784	787	788	782	783	783	779	776	774	776	779	774	776	776	776	779	783	781	773	770	767	760	772	772	783	786	773	774	777	779	772	782	783	777	769	768	774	791	791	787	786	782	785	782	787	789	784	780	768	767	764	766	768	772	769	773	776	775	775	788	789	782	776	773	775	776	784	796	803	806	788	785	778	774	774	782	780	778	772	771	779	778	775	774	775	777	776	776	780	796	800	804	794	802	805	801	802	796	793	797	799	797	793	802	807	800	803	802	795	787	783	785	783	795	800	795	793	794	789	787	801	806	805	799	797	807	810	803	796	795	796	798	801	804	808	810	811	808	805	801	809	815	817	816	810	812	802	790	794	793	794	800	807	814	816	816	831	811	811	804	799	807	810	818	815	805	810	816	820	818	817	824	823	826	822	824	822	819	820	823	836	840	839	836	834	831	831	823	818	818	819	820	826	827	826	824	818	816	817	818	824	824	825	826	837	839	840	838	838	834	0	0	0	0	0	0	0
699	691	685	685	689	689	695	695	696	699	699	699	696	693	689	691	691	695	691	680	682	688	688	686	694	689	692	695	695	698	706	706	701	695	701	701	708	713	716	716	716	710	708	708	706	701	697	697	693	698	702	698	698	704	708	702	693	690	690	687	683	682	682	682	688	689	689	685	691	697	701	697	691	685	689	698	698	690	695	701	708	706	703	697	691	686	695	699	698	696	697	699	700	702	705	709	711	705	699	700	706	707	708	708	711	711	709	709	707	704	697	692	708	719	717	705	703	708	709	704	705	708	704	698	689	693	704	709	716	715	714	711	713	714	696	711	717	723	718	711	709	707	699	697	699	710	713	715	713	708	703	704	707	711	714	715	711	721	722	723	732	726	723	717	699	692	706	715	716	719	716	715	713	693	705	706	703	719	720	716	720	722	724	723	720	719	717	712	714	715	716	720	721	741	739	730	716	716	720	726	730	733	732	731	730	731	737	738	731	729	726	723	727	727	729	729	732	738	744	748	745	741	731	733	736	737	728	720	726	736	737	724	730	730	729	728	728	732	732	724	723	724	726	717	721	727	738	740	738	741	747	750	753	741	730	733	741	743	742	744	746	744	743	741	734	729	731	745	748	745	737	738	751	752	747	755	758	754	742	737	741	746	760	767	759	748	746	747	750	749	747	741	740	746	751	752	745	745	747	737	740	741	743	743	746	747	749	749	757	757	757	755	754	755	753	756	755	762	761	755	754	750	748	743	742	743	737	730	729	738	758	761	757	750	754	758	759	744	739	738	738	743	747	753	756	761	761	758	761	763	773	777	778	776	779	768	757	760	763	766	770	767	760	759	755	753	753	753	755	755	759	758	752	748	741	739	741	748	747	751	756	751	747	742	750	768	781	785	783	779	769	763	757	762	763	754	755	758	782	783	780	778	780	771	766	763	762	760	759	762	765	770	768	769	770	774	772	771	768	761	764	766	768	766	773	773	777	779	776	773	771	768	771	764	774	772	774	775	776	778	751	745	744	747	757	756	768	775	775	768	771	771	772	771	778	778	776	765	768	778	778	786	782	782	780	781	785	795	791	786	777	768	762	761	759	766	768	768	767	766	763	759	771	777	775	770	769	769	769	767	779	790	792	790	786	782	778	777	781	777	770	767	772	777	779	776	775	775	774	772	769	773	785	794	798	800	790	795	801	802	800	797	793	787	780	770	781	783	778	774	771	769	778	781	783	783	770	784	791	791	787	783	781	777	789	792	792	799	794	793	790	790	786	788	792	800	805	807	807	806	800	796	794	805	810	811	808	810	810	795	789	790	795	797	798	802	811	813	799	803	800	799	805	802	802	816	811	799	798	803	807	810	810	812	814	819	813	817	820	817	814	817	808	812	819	821	820	807	800	800	794	794	797	802	806	819	822	825	817	814	810	806	808	814	814	819	818	824	825	833	828	825	820	0	0	0	0	0	0	0
691	691	666	672	680	685	685	689	697	700	696	696	690	680	687	694	694	692	686	680	680	683	683	683	684	680	686	691	691	691	692	691	688	691	687	687	686	695	703	710	693	696	704	704	708	699	689	685	689	688	689	696	696	707	706	694	689	688	689	686	683	682	687	687	688	691	689	688	689	689	700	676	675	679	691	688	690	690	693	700	698	693	687	680	682	683	683	691	698	696	694	692	693	700	705	710	713	715	713	694	691	697	698	701	705	706	706	699	695	695	685	683	686	706	706	705	707	707	707	693	687	682	679	685	692	694	699	705	707	704	701	703	709	693	694	697	699	703	707	710	707	705	698	694	693	694	699	710	714	708	700	700	703	704	707	706	708	716	716	717	717	716	712	701	692	692	700	709	716	715	717	715	701	696	692	704	706	710	721	720	720	721	719	719	719	718	710	705	707	708	709	713	714	711	708	703	704	708	714	720	726	727	726	724	725	725	729	725	724	723	720	718	716	717	732	735	736	737	739	743	743	736	730	721	710	718	724	714	720	724	712	718	728	726	724	722	722	718	720	728	714	711	711	717	718	713	716	721	733	732	738	740	736	730	728	732	742	727	727	709	724	726	725	717	708	712	724	739	737	731	724	733	731	736	738	748	738	723	719	722	731	731	733	741	740	732	729	729	744	743	740	734	730	744	749	749	738	735	734	745	733	734	734	736	745	747	745	745	747	750	754	749	737	733	741	750	747	753	752	752	752	750	749	749	749	747	738	729	726	729	745	749	748	746	751	753	749	741	735	737	744	748	750	750	751	754	747	745	749	751	759	770	756	754	758	759	761	761	759	755	756	766	761	757	758	756	754	753	753	754	751	751	747	743	740	741	743	743	747	743	745	734	734	749	769	772	773	772	768	769	763	752	751	755	752	750	751	754	756	751	758	757	755	754	764	760	754	755	756	757	760	765	769	763	764	765	765	763	761	755	754	759	762	761	753	768	768	769	767	765	742	746	751	757	756	767	764	761	759	757	755	750	746	747	752	758	765	770	766	764	765	768	766	764	770	769	769	769	775	767	765	765	776	779	773	773	772	775	775	773	766	759	753	753	754	766	763	762	760	759	753	760	761	762	754	756	760	758	755	766	771	776	783	790	787	772	779	776	773	774	773	769	767	771	773	774	774	774	773	770	765	767	778	786	792	784	776	781	798	802	801	796	793	790	780	770	772	768	776	774	770	768	764	767	776	774	768	774	779	783	783	781	775	773	771	778	775	773	780	786	787	784	778	775	781	792	797	794	793	791	789	783	787	800	804	804	803	800	792	789	791	796	799	797	789	787	786	788	784	787	791	790	787	791	802	799	795	790	798	798	801	805	805	805	807	805	803	805	810	813	813	808	799	787	781	782	789	788	788	788	790	790	794	800	815	821	826	825	813	810	808	802	801	801	806	808	811	819	820	826	824	824	821	0	0	0	0	0	0	0
664	664	660	665	668	671	671	682	688	697	693	693	687	682	681	686	688	688	683	678	674	677	677	680	677	683	681	680	681	681	684	686	684	681	679	682	682	680	679	684	670	679	692	692	692	685	687	690	690	687	690	698	698	706	695	688	689	688	688	684	681	683	685	685	685	686	687	687	681	675	673	668	666	671	679	691	694	694	693	689	685	683	681	681	682	680	678	681	688	694	691	689	690	689	695	700	706	707	694	690	687	684	681	685	697	702	698	694	689	685	681	683	690	690	698	705	701	698	693	687	680	671	674	683	692	695	691	695	699	703	708	703	698	693	695	696	696	697	705	706	702	702	689	684	687	691	697	703	712	714	710	702	706	706	702	701	702	706	708	711	709	705	701	684	688	690	697	707	713	715	715	712	698	694	694	694	706	705	710	715	715	700	689	688	699	698	694	694	696	698	701	706	704	704	702	699	703	709	706	702	709	718	724	726	726	726	722	722	718	720	716	714	712	715	731	736	741	740	735	731	732	732	718	714	714	710	713	716	714	704	713	723	720	718	717	717	714	715	714	716	715	711	716	713	717	716	711	702	701	707	713	728	719	718	718	724	724	722	720	726	735	726	725	717	714	710	716	722	722	720	720	729	727	733	738	740	732	713	712	713	717	710	731	732	725	723	732	732	729	724	723	724	730	741	748	741	735	728	727	724	725	721	723	732	740	738	740	738	744	746	752	748	734	732	734	727	728	730	726	728	734	734	736	740	748	743	737	731	725	724	731	739	742	746	748	749	742	737	739	742	748	748	749	750	753	753	744	736	738	739	754	740	735	738	748	748	749	745	754	753	754	754	753	755	748	750	736	733	741	751	746	742	742	743	736	737	741	738	744	747	741	731	734	748	757	764	766	767	760	750	743	739	740	745	748	748	749	751	754	754	755	755	753	747	748	756	753	754	757	758	759	764	768	771	769	756	755	749	744	740	736	752	763	758	758	751	749	761	739	738	741	746	749	750	745	756	756	754	751	750	750	750	745	746	749	755	769	766	756	748	752	752	745	742	746	754	765	771	765	765	764	769	774	779	764	766	765	762	751	754	753	742	745	749	754	751	749	743	750	757	755	758	758	748	746	749	754	752	758	763	766	765	772	770	765	764	764	768	778	782	778	769	755	760	767	768	771	770	770	767	761	747	746	747	754	754	767	775	775	779	787	793	782	777	763	762	760	763	769	771	769	765	760	756	760	760	765	767	769	777	779	778	775	772	768	769	777	777	774	773	770	766	763	767	771	780	784	774	778	780	781	773	782	794	798	793	797	797	789	788	791	796	796	776	778	780	779	771	774	780	785	784	783	782	788	793	783	789	791	796	797	798	797	797	796	794	789	794	797	801	806	802	790	781	778	779	788	789	789	788	790	789	790	797	800	801	797	792	794	795	797	793	783	783	790	792	793	798	811	804	783	789	803	0	0	0	0	0	0	0
661	661	660	657	660	663	663	673	684	698	690	690	685	680	681	680	677	677	672	670	662	664	669	669	678	679	670	672	668	668	672	677	680	679	673	674	674	671	671	658	672	671	670	667	667	668	675	681	683	685	691	691	690	690	686	686	688	689	689	680	678	681	683	683	683	684	690	688	679	672	668	664	665	671	678	691	693	689	689	688	687	689	687	684	684	683	678	678	684	689	688	685	679	686	692	696	692	693	690	686	682	683	681	680	685	685	691	689	688	689	685	682	687	699	704	692	693	693	690	682	675	666	669	673	680	686	688	688	691	697	698	696	694	691	693	693	691	688	690	693	695	691	689	691	694	697	701	708	712	711	710	700	699	703	700	693	693	697	699	702	701	687	680	683	686	689	698	703	708	715	712	698	696	691	694	692	702	704	703	704	694	687	684	682	683	686	691	690	693	693	693	703	702	701	698	696	696	707	705	695	699	705	708	719	722	720	722	720	715	714	715	708	707	710	715	734	733	735	729	719	718	724	727	721	725	721	715	713	717	711	713	716	717	710	701	709	712	715	712	710	710	712	715	715	714	710	708	698	695	699	711	707	710	723	721	722	720	720	718	717	728	722	712	709	706	708	709	719	714	711	715	719	723	729	732	733	713	711	714	715	711	711	711	718	730	728	724	728	729	726	721	725	732	737	734	721	709	698	704	709	712	722	723	726	730	733	733	732	738	741	741	738	718	715	711	708	719	725	725	727	728	731	731	736	733	734	741	740	733	723	718	717	714	721	718	723	735	738	740	744	746	735	744	744	738	734	737	730	726	723	726	725	727	732	738	739	735	737	731	732	730	741	746	731	726	725	727	721	718	726	746	741	742	735	725	729	742	741	749	750	735	730	730	731	728	730	735	744	747	742	735	732	730	729	737	744	747	751	754	761	761	757	752	745	740	743	754	757	759	757	749	748	752	756	757	765	758	750	745	743	729	746	742	753	744	747	747	749	742	741	732	745	744	743	741	739	738	738	748	751	746	748	744	744	746	762	747	761	759	748	740	741	742	743	740	744	747	750	750	749	753	769	772	776	759	750	748	753	752	744	746	734	738	746	749	746	745	742	747	750	749	754	758	746	741	733	740	751	755	760	756	750	745	741	740	741	751	763	764	768	756	746	750	762	770	768	760	757	754	752	747	747	746	747	744	747	759	761	755	752	768	774	773	766	755	749	753	757	759	762	763	750	755	756	754	746	741	748	757	763	762	761	774	762	760	769	772	772	772	770	765	763	761	761	768	771	761	762	761	771	764	762	772	783	779	772	772	775	778	781	780	777	766	761	772	777	782	781	780	775	774	780	782	779	779	777	799	790	788	794	797	787	783	781	785	780	775	783	791	794	798	790	779	773	768	770	785	785	791	791	791	788	790	790	793	790	786	782	775	783	780	776	776	773	771	785	787	786	790	778	777	774	781	0	0	0	0	0	0	0
659	658	658	660	661	664	674	674	679	682	682	683	683	680	681	675	660	660	660	660	659	671	677	677	680	678	663	656	658	658	662	667	674	673	658	648	648	648	654	669	672	669	667	662	662	669	671	677	679	685	690	685	680	680	678	679	684	690	688	685	678	679	681	683	683	689	693	687	674	665	655	660	673	680	673	675	680	688	687	687	689	688	684	683	683	684	687	683	685	687	684	681	678	680	682	677	681	685	683	681	679	675	678	672	679	683	688	689	690	687	685	680	680	687	687	682	684	684	685	675	667	665	661	666	668	669	670	673	681	687	688	688	686	687	688	687	683	682	682	683	686	688	692	697	700	700	704	712	706	693	683	680	678	678	664	688	691	690	687	673	672	678	682	686	687	694	699	699	687	687	689	690	692	692	689	700	694	698	694	692	689	691	681	678	677	682	689	693	698	698	701	703	702	699	699	691	685	691	693	692	695	698	690	693	696	700	717	716	715	711	705	703	706	708	713	718	718	719	716	707	704	716	726	725	725	722	715	714	714	716	713	712	710	706	692	703	712	715	709	706	709	712	715	716	699	701	704	693	691	692	695	698	689	697	705	705	708	720	714	715	718	719	711	710	706	706	703	703	703	710	709	711	714	719	723	724	705	708	710	711	712	718	709	709	710	711	709	715	719	726	731	732	733	726	709	707	698	703	707	705	707	709	719	723	726	731	728	735	739	741	739	731	724	720	714	714	712	717	718	720	728	732	733	730	726	720	723	732	733	722	713	707	705	706	709	712	715	719	720	718	720	731	736	735	743	723	723	720	715	710	722	721	719	721	730	728	729	728	722	718	721	723	723	715	715	716	726	725	722	719	718	720	719	712	722	728	743	751	749	742	730	728	732	727	724	724	734	742	744	743	734	732	727	727	727	730	737	743	737	745	756	757	750	741	734	734	738	741	746	744	739	741	743	740	740	748	750	747	741	727	733	738	726	728	745	743	740	736	733	718	739	727	738	739	738	734	730	731	744	747	749	744	749	736	735	741	728	732	726	734	733	732	733	730	726	730	739	741	739	743	737	742	743	752	729	733	737	744	744	744	749	745	743	746	746	732	730	733	742	746	750	748	751	747	742	733	737	744	746	745	744	741	738	735	737	741	740	753	757	747	742	740	743	761	769	769	765	753	751	746	737	738	740	746	743	747	750	752	753	752	750	750	753	751	747	743	748	747	746	745	746	747	749	752	755	746	740	743	750	754	755	752	747	747	755	759	766	767	763	761	763	762	762	759	758	756	756	754	754	761	764	762	770	782	769	767	767	773	780	776	764	754	754	765	770	773	782	781	780	769	761	763	768	766	773	776	776	774	775	782	793	775	771	770	764	762	768	768	769	793	782	782	766	764	765	770	776	776	787	790	791	789	786	785	783	781	772	766	768	770	774	770	770	764	761	764	772	779	781	777	773	765	772	772	0	0	0	0	0	0
657	657	657	659	657	660	665	665	667	671	675	667	667	658	661	659	657	657	652	653	659	672	679	679	679	672	663	665	659	663	663	669	672	672	663	645	637	637	665	673	665	662	660	660	657	657	674	674	677	676	682	679	673	672	672	674	677	679	683	684	682	683	679	683	684	684	686	666	662	657	654	661	664	659	652	649	654	666	679	679	688	684	670	672	675	681	683	683	684	685	682	678	677	677	670	667	671	679	677	673	670	671	669	669	678	683	685	689	677	668	672	672	673	674	671	675	676	682	682	675	667	664	663	663	666	667	667	668	677	681	683	684	684	684	685	683	682	679	675	677	680	680	684	697	701	708	705	694	688	692	684	678	674	674	667	684	688	688	682	673	671	677	678	679	683	683	685	686	687	686	687	688	688	686	687	690	706	692	688	684	684	680	675	671	671	673	683	693	699	698	701	703	702	699	688	695	694	692	688	683	689	695	696	694	697	704	702	696	692	691	694	697	703	706	712	706	708	711	709	706	707	707	712	712	716	716	706	706	708	711	709	709	701	697	693	706	709	707	706	704	705	704	702	710	696	695	694	693	686	686	691	690	689	693	698	700	702	704	700	714	710	715	714	713	708	702	696	694	697	705	709	709	703	704	714	694	697	703	705	708	712	716	708	704	703	700	703	708	712	716	718	709	700	705	704	701	698	702	703	702	703	705	714	720	722	723	716	714	718	728	730	726	722	712	707	710	705	712	708	715	714	711	711	709	710	708	710	719	720	719	706	700	697	701	709	708	710	702	706	709	714	720	725	724	718	716	709	709	710	705	715	717	710	710	714	708	712	719	713	713	714	717	713	710	709	714	729	724	722	716	715	717	712	714	713	724	738	741	739	727	726	728	731	727	721	724	733	740	741	742	737	728	726	726	726	726	721	727	732	735	733	729	718	709	710	722	728	727	734	732	734	736	739	735	734	733	737	741	738	726	724	723	724	733	735	739	735	734	734	722	736	719	724	731	731	725	720	724	730	739	744	744	745	737	716	718	717	727	728	725	729	719	727	730	732	735	736	735	738	739	736	731	725	721	725	729	734	727	735	740	748	745	743	739	734	730	726	732	733	742	740	733	732	729	728	730	736	732	729	724	723	731	733	733	735	737	741	743	743	740	737	736	738	752	761	761	754	753	747	737	731	724	724	742	745	749	751	750	750	747	746	746	751	752	745	741	744	744	743	745	747	748	748	749	753	754	750	740	745	746	748	745	741	739	741	755	760	764	762	758	760	762	761	761	757	755	753	751	749	756	757	756	755	756	760	763	764	773	779	776	760	748	746	755	766	770	773	778	772	759	757	759	760	757	756	766	765	759	754	767	767	764	760	754	759	757	764	770	781	780	775	770	764	763	765	769	769	774	782	786	775	788	785	781	779	772	764	764	768	778	780	780	774	755	750	759	767	772	776	772	768	763	765	765	0	0	0	0	0	0
655	659	659	659	652	657	660	660	662	667	663	654	654	652	647	644	652	656	656	661	667	672	668	670	670	665	665	669	673	668	668	669	671	661	649	641	656	656	654	656	653	653	654	655	656	656	664	673	670	674	674	671	668	667	667	665	669	671	676	671	674	673	679	659	662	662	663	663	662	660	656	657	661	654	640	636	644	648	667	668	668	666	660	667	671	675	679	677	671	677	674	674	673	670	664	663	666	670	671	669	669	669	668	666	668	678	675	669	663	664	662	665	664	668	667	667	667	673	681	681	679	675	667	663	662	663	665	668	675	677	679	677	678	679	682	683	680	679	675	676	679	680	682	685	679	682	681	682	686	688	686	680	670	670	674	683	684	681	679	676	671	672	672	672	669	675	679	685	688	689	689	687	687	686	686	696	699	695	685	683	683	676	671	666	666	669	680	682	683	684	688	691	691	690	689	690	693	692	681	682	684	690	694	695	697	700	699	698	692	688	682	679	692	696	701	699	700	707	704	697	701	700	704	704	704	696	695	699	703	695	698	698	698	690	690	707	707	704	701	698	698	694	694	696	696	693	691	685	684	682	677	689	690	695	698	699	702	697	697	710	702	691	698	711	712	711	698	694	691	706	716	709	706	698	696	692	694	701	703	704	705	711	705	704	703	699	698	700	704	710	709	703	697	696	697	697	691	687	697	694	701	705	710	715	711	706	705	705	706	714	725	725	716	707	700	699	699	695	700	696	692	687	699	700	702	704	700	703	711	702	696	695	696	700	710	705	703	700	699	703	710	713	714	700	698	704	706	709	708	697	697	703	705	707	698	701	700	712	709	708	710	712	709	707	702	703	723	717	716	708	718	717	705	706	709	719	732	733	731	719	724	727	733	722	718	719	733	735	743	742	738	730	725	721	723	719	715	724	727	725	720	717	713	716	724	729	734	733	732	732	731	732	734	733	738	735	731	727	723	720	717	716	712	718	725	732	735	735	736	736	727	711	714	720	723	718	714	719	726	735	734	724	717	723	714	716	719	723	723	725	712	724	727	732	733	737	736	733	728	733	729	730	718	721	723	724	717	723	731	736	743	741	734	730	728	729	727	725	725	725	724	729	729	725	724	727	727	732	726	723	719	717	719	719	723	733	741	738	734	730	731	733	739	752	754	735	731	741	739	734	728	721	716	720	729	741	747	748	744	744	737	732	735	739	731	735	741	739	742	746	751	751	748	749	751	750	745	736	738	739	740	740	736	735	737	744	744	740	749	748	746	746	750	759	759	758	755	753	749	743	744	737	741	748	755	757	757	757	747	744	744	743	741	747	758	765	764	765	764	755	750	753	754	747	752	752	760	760	758	748	762	760	754	743	743	747	767	773	778	774	766	771	766	765	765	765	767	772	773	763	767	765	773	780	777	763	759	761	769	773	771	771	763	755	751	761	767	770	770	771	769	765	765	765	0	0	0	0	0	0
648	652	651	651	641	642	645	645	651	655	652	651	646	646	646	644	649	655	655	659	666	657	658	661	661	662	666	671	674	675	675	670	667	658	653	656	647	649	649	644	647	650	652	649	650	650	656	657	652	668	668	669	664	662	662	659	662	668	668	666	666	663	651	655	659	659	662	662	659	656	654	656	659	658	646	640	639	636	638	643	643	648	655	662	666	671	669	666	660	656	663	666	655	660	662	664	660	665	667	665	664	668	669	663	654	653	655	652	650	657	658	659	663	664	662	661	662	667	669	672	673	667	672	667	662	662	665	669	668	662	665	666	666	666	667	672	678	677	671	676	679	683	677	671	672	676	679	682	683	677	671	662	663	671	674	679	678	676	677	677	671	671	671	671	663	657	659	670	674	681	685	686	686	683	683	690	692	693	692	686	667	661	657	659	659	663	673	674	673	679	683	687	687	685	685	688	688	687	677	679	681	682	686	686	683	687	684	694	685	685	683	680	684	685	685	689	694	702	702	694	694	699	700	698	698	689	689	681	680	685	684	685	686	684	684	702	703	699	695	693	691	691	693	694	693	685	682	679	682	680	677	674	678	686	693	701	703	698	689	683	674	683	686	688	699	688	689	691	689	693	705	702	700	698	695	691	694	699	696	694	694	693	696	703	700	684	685	692	697	700	698	697	698	688	688	689	688	686	689	698	700	700	701	705	706	703	701	701	700	700	713	713	706	698	696	695	696	695	695	695	690	686	684	691	693	695	695	699	689	691	690	693	697	700	706	704	701	699	695	698	702	701	693	691	694	696	702	706	703	695	692	695	700	694	699	699	696	696	709	708	705	706	705	701	699	699	695	712	706	701	713	714	702	702	704	702	713	712	711	709	707	726	725	720	711	708	714	716	712	711	710	711	702	701	705	716	711	714	719	725	719	716	715	713	712	722	725	729	731	729	727	729	730	718	719	730	725	710	709	714	718	719	707	708	723	730	733	735	734	729	712	712	705	706	711	709	712	715	721	727	715	712	711	707	722	722	723	723	723	726	722	717	730	737	735	723	715	713	716	725	727	718	714	718	718	718	715	719	726	731	733	734	730	728	729	725	722	722	722	717	724	727	726	722	722	721	722	722	722	719	718	713	717	722	721	724	729	728	723	729	728	730	735	732	720	719	720	721	721	723	715	709	709	708	728	733	741	729	723	717	722	727	732	734	730	728	741	742	742	747	749	747	744	738	741	742	735	733	731	730	733	736	735	733	734	732	734	735	734	738	738	735	740	750	756	759	750	745	738	738	737	733	735	739	746	746	748	749	744	738	738	741	742	744	745	745	737	734	736	745	742	744	738	740	738	736	738	755	745	737	742	750	744	726	731	728	742	745	747	742	734	758	757	754	767	767	768	769	761	764	764	763	764	764	764	757	755	760	765	763	763	764	761	758	757	761	767	765	755	769	769	771	771	758	0	0	0	0	0	0
634	638	643	643	641	632	636	639	639	642	645	646	646	646	646	647	648	653	653	659	662	646	648	652	652	657	661	667	672	673	663	663	660	661	659	655	643	646	646	644	645	648	652	653	646	641	641	642	648	657	664	661	661	656	657	657	658	660	658	663	661	660	661	664	666	663	663	651	650	650	652	656	657	655	645	642	641	636	641	645	650	650	648	654	661	668	661	657	650	648	650	654	653	655	662	666	658	661	665	657	658	657	651	648	643	642	648	650	653	653	653	656	657	661	658	657	662	664	670	671	661	677	676	669	662	661	662	655	660	660	663	658	655	656	653	651	656	661	669	672	673	678	670	664	665	667	676	681	683	675	671	656	659	669	675	675	671	663	666	669	669	668	668	662	657	657	656	660	660	664	680	683	683	679	677	677	685	688	677	671	663	657	656	657	659	660	664	669	670	675	677	679	680	679	682	684	685	682	676	676	675	675	674	680	679	684	681	680	683	684	683	682	683	682	681	678	662	663	684	679	674	676	683	685	667	664	662	664	670	673	674	674	675	676	680	684	691	698	691	686	685	688	690	692	685	680	675	674	676	675	671	667	668	686	691	689	682	677	671	671	674	679	683	682	683	678	674	673	677	692	694	692	688	686	688	690	691	694	695	691	688	685	682	687	694	679	681	684	691	695	694	696	696	686	687	688	687	682	686	695	697	699	701	705	704	700	699	697	697	692	705	703	700	695	694	694	693	694	694	689	684	678	682	687	689	689	691	690	693	690	690	695	697	700	699	699	695	691	694	693	695	693	688	686	690	698	701	700	700	695	692	686	689	701	699	697	695	698	704	710	705	700	699	699	697	693	688	684	679	677	694	697	692	690	693	696	697	696	694	694	694	695	720	708	701	698	701	710	704	697	694	694	694	695	699	703	704	705	706	711	715	711	710	708	702	706	713	716	716	700	699	693	701	702	707	708	717	709	706	708	712	704	701	699	704	726	726	727	726	723	707	693	688	691	706	713	718	713	707	705	705	709	708	706	718	724	724	722	724	723	718	715	729	730	725	713	706	707	719	719	716	712	707	710	710	710	714	714	719	721	725	721	726	726	726	716	719	715	718	716	717	722	723	720	712	712	716	720	718	716	713	711	714	720	722	722	724	721	719	716	717	718	713	715	713	713	712	715	718	718	715	708	706	710	721	731	728	726	722	710	707	715	716	711	712	730	739	739	737	730	719	729	732	735	738	740	735	732	727	723	719	727	733	727	723	725	729	725	727	727	727	737	745	745	739	741	739	741	733	732	728	727	724	730	734	728	720	726	729	723	725	731	738	742	743	734	731	728	729	728	732	719	719	734	735	735	754	753	732	726	728	734	732	727	728	714	711	715	719	723	726	730	740	742	742	749	753	759	765	763	759	754	757	760	761	754	754	754	758	760	760	760	760	757	750	744	741	740	740	750	751	751	754	762	0	0	0	0	0	0
623	621	623	623	627	623	627	632	632	636	641	642	644	644	645	646	647	649	652	652	643	646	643	645	647	647	652	647	649	649	650	650	655	656	653	647	644	644	644	644	643	647	650	649	643	637	637	639	645	646	649	648	650	652	656	656	656	647	639	662	661	659	644	648	653	655	655	655	651	647	647	644	645	644	645	644	642	644	647	655	659	659	659	648	649	650	658	654	648	644	646	647	650	654	660	663	653	660	660	657	657	655	654	651	650	646	638	640	643	647	648	645	653	656	654	653	655	659	661	661	662	672	670	662	658	657	657	652	656	658	659	662	658	647	644	643	649	661	666	661	665	666	664	660	654	655	661	666	664	659	651	651	652	674	678	674	670	668	662	663	664	663	653	646	647	646	651	655	658	660	677	677	676	665	669	671	672	668	658	661	659	657	653	655	659	661	664	667	671	672	675	675	672	676	675	677	677	679	667	667	671	667	665	666	668	666	671	682	685	684	677	683	682	675	677	675	664	660	669	672	674	673	673	666	658	655	659	663	668	669	666	668	673	676	679	681	686	687	688	684	682	684	685	686	682	677	672	674	669	667	669	669	672	679	664	665	667	668	668	668	672	673	676	674	671	669	668	667	668	668	670	676	676	682	686	688	687	688	689	670	669	678	678	682	677	667	674	682	689	685	684	675	673	672	675	676	678	682	688	692	693	695	698	699	690	687	685	690	688	696	688	680	677	693	690	691	690	692	689	683	680	671	677	682	685	686	687	688	690	693	690	688	687	685	676	677	684	687	689	692	692	675	679	683	685	690	691	693	691	686	681	673	674	683	691	691	688	691	694	704	703	696	693	688	683	680	682	692	691	674	673	674	674	674	680	689	692	691	691	692	692	694	692	690	684	686	698	700	692	686	682	684	684	686	699	708	701	702	698	702	709	710	706	703	700	701	693	692	692	698	693	690	688	687	691	691	694	696	695	690	681	681	682	686	696	699	713	714	714	714	709	697	694	694	694	702	709	703	698	702	705	707	709	706	706	708	710	700	698	705	708	709	705	705	703	696	697	707	711	711	711	705	702	703	704	706	705	711	726	726	723	721	718	724	722	714	709	708	712	716	716	717	715	711	712	714	712	712	713	711	706	705	704	711	707	714	719	719	716	716	715	714	711	711	709	707	710	710	711	712	711	707	707	712	740	734	723	716	718	715	706	704	704	708	718	729	730	716	706	702	707	708	713	720	727	733	730	729	729	728	724	711	710	711	714	721	720	716	713	723	725	733	743	742	731	730	731	732	732	730	729	725	718	720	724	724	716	710	723	726	720	724	731	735	733	727	724	722	720	714	709	707	718	730	731	735	735	735	730	724	721	721	725	734	726	718	716	716	717	718	717	725	724	732	736	744	747	752	760	758	754	749	755	761	760	753	747	745	747	747	756	756	747	745	741	736	735	734	730	742	752	752	757	763	0	0	0	0	0	0
620	615	619	619	621	617	621	626	626	632	636	639	639	641	641	641	643	644	635	635	635	640	634	634	633	633	636	636	636	633	639	643	643	648	646	643	642	642	642	642	644	648	648	644	631	629	634	634	638	639	639	640	641	645	649	643	643	635	644	645	645	640	638	640	645	651	651	651	642	642	641	640	641	642	637	636	639	642	648	655	659	656	656	643	642	644	648	651	643	643	643	644	646	644	647	657	656	652	656	656	654	654	654	650	644	639	636	632	636	643	642	644	644	652	652	649	640	642	642	651	659	664	652	655	655	654	654	651	648	651	656	657	656	654	650	645	641	639	639	654	657	658	655	650	645	644	645	647	650	641	645	647	651	667	658	663	663	660	656	657	657	657	651	645	646	648	655	659	662	664	667	668	667	661	659	658	656	653	654	656	658	655	651	653	662	663	665	668	670	674	674	666	668	669	671	666	671	671	669	663	665	650	650	655	657	655	653	663	682	679	676	683	680	674	672	670	662	662	666	672	679	664	662	658	651	651	656	660	666	669	669	669	672	675	678	679	678	679	675	674	674	680	678	679	675	669	672	672	671	666	669	671	672	664	665	659	656	660	666	667	666	663	667	668	667	665	655	654	657	661	660	659	661	677	681	684	685	678	673	671	667	674	676	677	675	673	663	659	657	661	667	660	668	668	670	673	672	678	687	687	687	685	682	681	679	679	681	680	677	675	669	675	675	670	686	679	684	685	683	685	676	666	667	674	678	680	682	686	690	688	685	683	678	676	676	675	675	681	683	685	679	671	672	671	674	683	686	688	677	673	672	673	676	685	687	685	678	677	682	684	681	669	667	671	669	672	684	682	696	694	674	668	671	671	676	681	682	684	683	687	688	692	688	681	679	678	682	686	685	681	680	681	682	681	691	706	698	696	694	699	699	692	673	681	683	689	688	686	688	690	689	682	680	680	680	680	691	693	692	697	688	677	677	685	686	690	690	698	701	702	701	697	693	690	698	699	692	690	694	697	703	707	700	696	695	695	699	696	701	705	703	703	698	693	687	694	700	707	705	699	695	696	705	701	699	700	704	703	724	723	720	714	714	711	718	708	705	700	707	711	709	710	710	711	711	709	710	707	707	707	701	700	699	700	698	704	710	713	713	712	712	712	711	709	704	702	700	701	704	707	707	708	711	733	716	700	698	696	696	697	700	701	699	706	718	726	727	723	718	712	703	707	711	715	711	702	721	724	719	711	707	705	705	704	706	718	707	704	703	708	707	702	706	713	718	721	715	720	732	732	728	724	719	715	715	714	709	709	722	723	719	717	720	724	725	722	720	717	714	711	710	715	715	710	719	728	730	727	725	721	718	715	723	725	725	721	716	710	712	717	716	715	718	724	726	733	743	749	754	754	751	742	744	745	744	731	725	722	728	728	728	733	737	739	738	734	731	730	738	744	751	751	756	758	0	0	0	0	0	0
619	613	616	613	613	617	615	623	627	627	630	632	635	636	636	640	642	637	625	625	630	635	629	627	627	627	627	631	634	633	624	633	633	634	639	642	640	638	640	640	638	640	641	632	630	631	629	629	625	624	629	634	632	634	638	635	635	645	646	645	644	639	634	636	637	642	633	633	634	636	637	641	644	638	633	630	634	640	646	650	654	646	641	641	642	645	648	650	645	644	642	634	632	636	638	646	652	652	641	640	647	647	648	648	645	630	629	632	633	635	635	641	644	641	642	635	630	632	637	639	652	655	650	653	652	654	654	652	651	648	652	652	661	661	654	643	635	636	638	644	648	650	651	646	639	638	637	638	636	636	639	647	651	664	653	653	654	653	653	653	651	650	651	647	650	651	652	664	663	663	664	659	657	656	656	655	654	654	652	653	654	652	651	651	656	665	666	654	647	659	663	664	666	667	665	664	663	668	669	661	660	646	648	653	646	646	643	642	644	648	653	658	660	655	659	670	663	662	664	664	665	656	658	657	657	657	658	658	663	667	669	670	672	670	670	671	672	669	665	669	670	671	678	676	664	664	667	672	670	669	671	673	671	666	660	657	656	659	662	664	660	656	658	665	664	655	656	656	651	653	653	649	645	649	656	666	673	667	661	664	667	663	667	670	671	670	667	656	654	655	654	660	659	666	665	668	669	670	674	678	681	678	676	679	678	676	678	677	675	672	664	663	671	666	671	674	673	675	678	682	672	674	670	675	676	678	681	686	679	678	673	673	679	678	677	674	674	671	674	673	670	663	665	665	667	668	674	670	672	669	672	672	666	665	667	669	660	655	676	678	676	666	666	665	665	670	678	695	696	694	682	670	670	676	679	679	674	675	679	682	686	688	679	674	676	676	679	681	682	678	675	678	675	676	682	701	695	693	687	684	681	676	674	673	673	685	675	662	664	675	674	677	679	680	679	678	679	696	696	686	679	677	677	677	685	685	687	688	690	691	695	693	692	692	693	690	690	687	685	696	698	703	699	696	695	692	691	695	697	700	690	690	688	687	684	687	697	697	691	693	693	691	693	694	694	691	699	701	697	691	699	693	693	696	696	699	703	688	696	700	705	703	698	702	712	713	705	696	696	696	703	696	696	696	696	703	718	717	708	706	706	711	709	706	701	699	696	697	699	702	697	694	697	705	689	687	694	692	692	692	701	705	706	706	715	721	721	717	715	715	713	713	712	707	693	693	696	692	694	699	696	695	699	700	701	713	711	704	707	704	703	701	705	712	710	701	690	693	702	707	722	723	719	715	714	715	719	719	721	719	712	709	714	716	721	723	713	709	709	711	712	715	712	712	716	717	723	721	719	716	710	715	720	721	721	717	711	703	709	712	713	713	713	712	713	717	731	741	748	749	725	721	720	727	728	728	723	720	720	721	721	726	730	732	730	727	727	723	721	722	722	723	734	750	0	0	0	0	0	0
615	611	608	604	604	606	610	618	622	622	617	617	621	622	622	632	639	641	642	632	632	627	630	631	630	627	627	623	625	621	617	613	613	632	635	637	636	635	635	635	638	641	640	634	626	619	622	622	625	632	634	635	633	631	634	639	642	642	647	645	643	640	636	633	635	627	627	630	630	632	634	638	640	637	629	623	629	635	642	649	652	644	641	641	640	644	646	645	644	634	633	626	624	628	631	628	619	628	633	633	629	641	647	645	627	624	626	624	627	624	623	630	630	632	632	633	635	634	636	636	641	644	643	644	643	642	640	647	649	649	643	646	650	649	647	644	640	635	637	640	645	647	647	643	636	629	630	630	627	634	638	646	651	650	645	644	647	648	650	649	647	648	647	645	648	651	652	654	661	662	658	654	650	651	647	649	650	650	650	650	651	652	653	652	654	657	648	656	660	657	657	659	664	666	669	667	666	668	668	665	659	648	640	640	645	641	640	638	634	637	645	650	650	648	650	654	656	654	658	658	654	651	654	658	657	653	654	646	639	639	659	660	664	665	666	667	665	660	658	663	663	665	664	661	648	640	643	655	660	663	670	673	668	660	656	654	656	655	652	633	640	644	655	661	658	655	657	655	652	651	648	647	643	644	657	664	667	667	658	655	652	655	656	657	666	668	666	657	651	650	649	653	667	669	664	663	666	667	668	668	661	661	664	675	678	679	659	651	647	650	652	657	659	664	669	670	667	667	672	677	671	674	680	688	687	679	675	670	669	668	668	672	672	676	675	670	666	666	660	662	664	663	660	660	663	662	666	665	668	668	665	663	660	661	657	657	662	657	662	674	668	666	665	664	664	676	676	678	688	687	680	676	675	682	678	668	661	679	680	681	678	677	675	673	673	673	675	675	670	669	666	671	673	678	667	663	664	668	678	679	680	677	674	676	680	680	664	660	665	672	678	680	681	681	679	677	673	674	668	665	663	664	676	679	678	680	683	684	683	679	672	671	677	684	684	683	681	681	684	691	690	697	691	689	690	691	689	682	683	684	686	688	693	683	684	679	681	685	682	686	689	688	681	678	683	686	687	689	691	684	698	694	694	703	689	688	688	691	694	699	701	700	696	687	694	697	698	691	686	675	673	682	685	684	684	684	701	696	686	687	693	695	695	694	686	690	691	695	700	702	696	690	692	698	687	688	694	692	692	698	696	697	703	708	710	700	711	712	708	705	701	683	697	696	691	692	691	690	689	690	693	695	698	698	699	705	710	707	706	703	703	704	716	707	696	687	687	688	693	697	704	709	720	714	713	714	715	715	714	714	709	707	696	702	721	723	713	708	706	703	712	718	717	713	713	713	719	716	712	709	709	716	718	717	714	711	700	700	701	709	708	708	707	707	715	713	714	736	736	730	723	718	717	724	726	726	722	717	717	716	722	724	725	724	723	719	715	719	728	714	727	711	711	720	0	0	0	0	0	0
607	606	600	601	601	604	610	616	617	617	616	610	617	628	632	632	626	640	642	638	638	630	630	629	626	618	618	610	609	613	612	602	608	608	622	627	632	635	637	638	629	634	637	631	621	620	622	621	621	625	630	627	619	623	630	638	641	641	641	638	641	637	636	634	630	620	622	625	625	628	630	634	636	627	617	616	624	632	639	642	647	639	638	636	636	640	643	644	624	611	616	621	623	627	628	624	621	620	624	622	628	636	637	631	625	619	625	623	616	618	620	624	627	629	630	629	631	631	631	631	638	638	627	632	633	634	632	632	635	636	636	635	636	642	641	644	641	640	639	643	635	637	642	639	632	626	626	626	627	635	637	642	649	646	643	642	643	644	646	647	646	645	641	641	644	644	644	646	654	657	650	631	629	641	644	650	651	652	652	648	644	641	646	651	654	656	651	656	656	653	650	651	652	658	659	660	663	665	664	646	656	649	644	646	646	640	640	636	648	648	649	649	647	643	648	654	647	644	645	647	648	653	651	654	652	648	647	648	644	641	644	645	645	665	669	664	649	650	651	650	650	651	650	645	638	641	641	645	641	641	645	649	648	648	650	649	652	645	647	648	633	635	639	644	652	655	656	656	650	649	647	646	643	644	658	659	660	662	655	653	653	650	653	655	665	664	658	643	647	649	651	655	662	662	665	662	662	658	656	650	651	657	659	663	667	665	651	643	642	642	646	651	654	660	668	660	660	661	667	673	670	671	678	679	679	674	662	658	664	661	665	668	668	662	664	659	655	654	651	653	653	658	660	655	661	663	667	665	664	666	668	662	660	659	658	665	664	661	667	666	665	664	662	662	668	670	672	674	680	679	675	674	681	683	675	659	655	661	664	673	670	670	667	668	668	663	671	667	670	670	664	663	661	665	664	663	665	667	670	673	674	672	669	667	667	663	661	667	674	676	676	675	680	682	679	668	664	664	661	660	662	664	666	669	673	677	683	683	681	676	668	670	671	676	678	675	674	672	676	682	681	697	698	685	671	670	671	677	675	680	685	687	692	680	672	670	665	669	676	681	688	682	675	674	677	683	685	686	690	687	699	693	694	698	693	685	681	686	673	694	698	689	680	682	690	697	698	684	680	667	668	675	689	691	690	685	679	675	671	673	673	674	674	672	676	680	687	693	698	698	692	684	683	688	681	683	696	696	695	688	686	683	687	696	698	697	692	702	697	683	679	689	694	699	697	696	693	690	689	692	698	703	702	702	702	701	698	695	696	697	698	703	706	699	694	684	686	688	690	692	696	698	698	697	712	714	715	712	708	712	706	697	692	690	703	719	714	703	696	695	709	711	713	711	710	705	699	706	709	707	708	716	714	709	700	697	696	697	701	713	712	712	711	705	708	718	719	727	718	718	726	716	719	719	718	720	716	716	713	714	720	723	719	715	714	710	706	698	719	719	714	722	712	713	0	0	0	0	0	0
599	603	599	597	601	601	610	614	615	612	612	607	614	613	627	627	638	626	630	628	626	626	627	612	613	610	608	608	609	610	603	621	623	623	618	618	621	625	627	629	629	617	620	623	620	618	621	621	621	623	622	620	615	617	621	629	640	636	636	631	630	633	635	632	629	623	618	620	625	625	626	625	624	619	615	612	618	626	633	629	627	625	621	619	620	620	622	611	613	617	620	623	626	629	626	624	621	619	617	619	622	626	628	625	625	624	626	621	618	618	620	623	625	628	628	625	624	625	630	631	625	623	629	623	625	630	633	628	634	629	629	630	631	632	634	632	628	624	623	630	638	634	606	623	636	641	641	639	637	632	627	626	636	637	642	641	637	633	644	646	637	641	639	638	645	645	631	638	641	634	627	627	628	639	643	646	642	644	646	643	640	640	647	650	649	647	649	655	649	645	644	640	645	647	647	658	654	658	652	656	641	662	658	657	651	647	646	646	651	652	652	649	643	642	647	638	633	637	637	640	643	648	648	649	648	643	644	643	643	644	648	645	641	649	653	655	654	649	645	639	639	637	637	638	639	639	641	642	639	639	639	641	642	645	646	645	644	644	645	645	639	636	637	637	638	641	642	645	648	647	646	646	640	639	639	640	644	653	655	653	653	653	653	652	652	653	641	639	639	640	637	634	632	632	660	656	656	652	650	643	643	648	653	652	652	653	652	648	641	639	638	643	649	644	646	664	664	660	665	670	672	672	668	663	666	663	660	655	651	651	653	658	663	659	655	652	649	649	647	646	645	653	650	655	660	664	662	660	657	654	655	668	667	663	666	672	665	664	670	665	657	646	644	645	649	647	652	655	659	666	670	669	671	663	664	651	657	658	663	668	664	666	663	663	665	655	653	654	659	662	661	661	660	660	672	673	667	667	672	672	673	669	666	665	664	663	666	674	675	673	676	674	675	680	677	660	654	651	649	658	659	657	659	667	672	678	678	679	679	665	670	669	669	666	663	663	662	663	664	672	676	677	671	669	667	668	671	672	671	670	668	676	675	675	669	662	662	667	673	679	678	675	675	676	675	677	680	681	684	690	682	673	667	692	689	686	681	685	685	677	681	681	683	690	696	703	699	690	669	664	665	672	675	680	681	685	691	692	690	673	667	677	674	674	682	681	680	675	688	687	680	682	677	670	677	682	695	699	694	689	683	680	678	685	684	688	679	676	678	682	686	689	693	691	694	692	694	693	692	693	701	701	696	689	685	682	681	677	680	683	690	694	695	694	690	686	688	686	683	684	683	691	691	692	691	684	713	699	696	697	693	694	693	696	700	700	699	684	686	689	697	702	703	701	701	699	698	707	701	704	706	711	708	704	701	697	695	696	698	709	709	708	713	703	712	713	717	715	710	711	712	713	712	707	721	714	712	712	709	712	716	720	717	710	705	703	693	693	717	717	723	719	716	714	0	0	0	0	0	0
598	602	598	596	594	594	611	609	611	611	611	607	610	622	617	617	620	618	613	615	618	618	620	610	607	606	605	605	606	606	603	623	616	616	613	612	614	614	618	622	617	605	612	618	617	615	618	622	622	622	622	621	619	622	618	617	615	631	631	626	629	620	619	615	612	609	610	612	619	619	621	618	618	614	612	609	606	612	613	625	626	624	620	615	612	612	608	606	609	613	618	618	620	627	622	620	617	612	613	615	615	622	626	629	630	624	623	625	624	621	621	622	624	625	626	623	618	621	624	626	623	626	622	616	618	629	629	628	628	626	627	629	630	631	631	630	620	620	618	630	631	627	624	618	625	631	628	624	623	622	618	617	621	629	631	640	633	624	617	623	620	628	632	623	624	631	630	635	633	633	633	628	624	624	625	639	639	635	635	639	638	640	643	646	639	640	644	641	640	637	635	633	632	632	636	643	648	645	641	642	643	636	640	641	642	644	644	645	647	651	655	650	652	641	625	625	631	635	636	633	634	640	642	642	636	641	640	638	644	649	652	650	641	635	635	643	641	637	644	636	634	628	628	633	635	636	635	628	628	633	635	638	642	643	645	645	643	643	644	645	632	630	632	632	634	637	642	648	651	651	649	647	647	635	629	628	630	644	652	652	646	637	636	636	638	635	637	638	641	639	638	632	631	641	637	634	640	651	650	644	643	643	646	647	649	654	657	655	646	642	638	644	643	646	642	650	639	637	647	665	666	666	660	649	656	654	661	657	653	647	649	653	657	658	654	649	646	644	650	647	645	643	653	649	646	644	644	646	646	642	641	647	650	652	661	668	664	662	662	660	652	650	643	641	637	639	641	644	644	659	661	657	658	655	652	654	655	654	655	652	651	650	653	654	651	651	652	655	658	653	651	656	658	663	671	673	668	666	666	670	662	656	655	656	657	659	661	661	673	668	660	660	664	671	673	659	649	648	651	655	655	654	657	666	667	671	672	679	678	672	674	675	681	677	661	654	657	661	659	659	674	676	666	662	661	661	668	663	666	663	665	659	658	665	660	660	661	666	674	672	668	670	672	674	674	674	674	676	683	684	680	673	667	687	683	683	678	673	671	669	675	680	679	682	681	684	686	674	664	664	664	668	676	676	678	683	689	693	664	663	664	669	678	678	678	677	672	677	665	681	681	681	676	667	666	676	688	695	692	687	678	679	677	680	679	674	671	673	680	688	692	686	687	680	690	690	693	689	688	698	698	696	689	681	677	675	680	681	681	681	681	677	674	685	685	690	693	690	685	683	684	684	683	684	688	691	690	687	689	691	691	692	693	693	692	691	689	688	684	685	690	689	692	694	697	694	696	703	700	700	700	708	704	700	697	696	691	690	694	694	697	700	701	696	698	705	706	707	702	702	704	711	707	701	708	705	705	701	709	710	717	710	705	698	694	693	693	704	704	713	719	716	714	711	0	0	0	0	0	0
601	601	599	602	599	599	605	609	607	605	605	610	615	615	616	604	604	602	604	604	606	606	610	600	605	603	603	603	601	601	611	608	596	591	591	594	600	605	610	609	605	602	604	604	600	600	607	613	616	616	616	608	609	613	617	613	608	608	613	613	622	610	607	602	601	598	601	607	605	604	604	602	607	603	603	603	600	605	616	620	624	622	618	610	607	605	601	603	606	613	616	615	615	616	618	611	611	610	610	608	608	621	623	627	628	621	623	625	624	624	623	623	623	622	620	614	614	615	618	612	622	628	625	620	617	619	622	621	614	621	622	630	631	629	626	620	619	619	617	619	622	626	624	612	609	616	608	623	618	616	614	614	618	611	621	617	612	610	608	609	617	623	617	617	619	620	619	619	618	618	626	627	627	624	619	618	622	628	629	630	630	640	639	630	632	633	637	634	635	630	630	628	628	627	624	629	638	642	643	642	633	632	634	635	633	640	641	640	635	640	654	649	651	640	623	630	628	630	632	628	625	629	625	627	623	635	635	632	632	631	632	647	638	632	631	633	627	629	641	636	631	626	628	631	632	626	624	622	622	625	626	632	640	643	643	645	643	646	647	646	641	631	631	630	629	633	639	647	639	630	633	635	641	639	628	627	628	629	648	647	638	632	632	632	636	635	635	636	639	641	643	638	631	639	634	634	631	629	635	633	634	641	642	644	645	650	652	652	649	644	644	648	647	639	642	620	623	633	641	644	654	655	654	642	636	639	649	656	660	659	647	647	651	662	659	648	641	634	651	653	654	649	644	645	646	645	647	648	647	640	637	640	646	649	651	650	652	652	652	649	649	647	641	640	636	642	638	643	643	649	657	655	656	653	648	642	643	636	642	649	653	649	653	649	648	649	650	652	652	650	647	646	652	659	658	657	660	664	663	649	650	650	649	649	650	653	657	659	656	658	657	650	654	659	661	661	657	651	655	652	653	651	656	656	655	664	663	664	666	670	674	675	674	671	665	658	652	649	654	653	657	656	656	657	665	654	660	661	661	657	652	657	660	661	659	663	661	663	672	665	655	658	666	668	666	664	662	660	666	671	679	684	681	680	677	677	676	672	669	668	667	672	673	672	661	654	667	668	668	668	669	669	668	664	673	679	674	656	655	655	657	661	669	674	676	674	669	666	665	666	678	675	673	667	666	672	667	669	675	680	679	680	674	678	678	676	671	675	682	687	689	681	676	674	679	678	673	677	687	692	691	689	678	674	669	671	681	684	686	687	678	673	668	672	674	672	670	674	674	675	677	678	677	678	686	685	681	677	682	682	685	687	689	684	679	681	682	683	682	685	686	683	687	692	693	681	684	688	691	693	695	693	690	689	693	692	688	682	682	687	691	691	691	695	694	688	699	701	700	703	703	701	703	697	701	703	703	696	695	708	705	698	696	694	690	687	689	693	693	700	717	714	707	701	0	0	0	0	0	0
600	600	604	605	603	606	606	608	599	602	606	606	607	610	608	601	601	598	600	598	598	599	599	600	597	596	603	601	601	600	602	591	589	589	589	590	593	596	601	603	602	601	600	600	599	600	604	610	612	612	612	605	606	606	605	608	605	602	610	610	615	605	603	602	598	597	596	601	607	610	608	608	605	598	597	597	602	610	614	614	615	622	614	605	602	601	596	596	605	604	611	607	606	609	613	608	604	600	602	603	606	609	607	605	613	614	619	617	624	624	624	620	619	618	620	611	609	608	608	610	628	629	624	618	616	618	615	611	617	616	615	624	627	625	621	614	616	610	613	613	614	611	612	608	604	614	602	606	616	608	607	607	610	605	610	615	610	609	608	612	619	615	608	603	611	615	627	629	629	623	617	619	619	616	612	616	621	626	629	624	621	611	613	617	622	617	620	625	627	625	625	617	619	617	617	619	619	621	624	626	627	629	627	629	632	618	617	620	620	625	631	636	635	636	629	628	628	629	632	633	622	627	619	618	619	621	622	619	609	609	629	631	638	632	629	617	623	631	631	626	622	618	613	631	631	631	619	618	621	621	624	626	633	638	643	638	643	644	645	646	643	636	634	632	631	630	638	638	627	628	629	631	631	633	633	631	626	640	648	642	627	626	628	629	636	634	636	633	641	640	641	635	630	637	633	630	628	628	627	631	629	634	641	641	641	634	633	632	632	631	627	631	646	638	629	621	623	630	641	644	646	649	632	634	636	639	642	644	646	646	643	645	645	647	649	636	635	647	642	648	645	646	646	646	647	644	648	645	641	637	634	635	642	646	647	644	645	648	647	635	644	640	637	634	646	642	637	647	643	643	639	638	634	638	643	637	629	632	636	643	654	651	652	653	645	644	645	645	649	646	642	640	651	652	649	646	647	649	647	644	642	641	641	642	644	650	652	655	652	652	654	647	646	646	655	658	661	653	655	651	653	647	652	651	653	657	657	656	667	672	672	670	662	657	657	656	652	650	646	653	655	654	652	651	649	666	671	665	656	645	651	658	660	664	667	665	662	664	654	654	655	659	669	668	663	658	658	668	671	661	666	667	666	672	673	674	674	668	667	661	663	670	673	665	656	657	659	670	668	669	670	670	666	664	672	676	667	645	647	650	654	658	663	663	666	670	672	671	668	662	654	658	658	666	664	663	658	666	674	680	682	678	675	675	677	666	666	667	685	680	677	673	673	671	670	676	683	684	684	681	681	678	671	665	664	671	668	671	673	673	672	671	672	670	669	669	669	669	668	668	675	674	675	675	676	677	675	670	681	679	677	675	681	677	676	674	677	680	680	682	682	683	687	691	688	686	675	677	679	683	686	685	686	685	690	690	684	678	678	681	687	682	681	681	682	679	693	697	700	701	693	702	697	696	698	698	681	676	686	689	692	700	693	691	688	686	685	685	690	689	703	709	701	698	0	0	0	0	0	0
596	596	596	601	607	607	607	605	599	596	599	599	599	601	601	600	600	596	594	593	595	598	598	599	599	596	600	603	603	593	594	590	589	589	590	590	594	599	601	601	601	592	592	593	593	596	600	602	600	598	598	598	603	603	601	600	602	604	607	607	607	599	599	598	594	594	596	599	602	604	604	604	604	599	598	598	600	597	595	601	611	613	619	602	597	598	598	598	607	601	606	604	602	602	603	606	601	598	600	603	611	613	606	603	606	609	613	614	621	621	617	615	616	613	610	607	603	606	607	603	609	628	624	619	617	612	605	612	609	600	597	605	615	616	608	607	603	598	605	610	611	609	607	604	600	597	597	602	614	606	603	601	603	609	605	606	609	606	604	609	615	607	604	604	604	607	615	619	622	622	610	618	608	608	609	612	623	628	627	616	615	614	612	612	613	613	604	602	603	606	613	610	609	607	611	617	617	619	620	622	623	622	621	624	616	615	613	615	616	619	628	635	632	630	632	631	624	629	631	630	623	619	614	617	619	621	622	623	620	610	609	624	625	618	614	613	614	626	627	627	616	613	607	627	626	626	624	624	623	623	622	623	626	621	620	630	638	638	636	641	639	636	634	639	639	627	628	628	625	623	625	628	628	629	631	636	637	642	639	625	626	628	621	626	633	632	631	633	635	635	632	630	628	630	628	622	622	621	622	627	628	624	632	640	637	633	632	631	628	625	625	626	631	626	625	626	625	624	620	619	628	635	633	636	642	641	632	633	633	633	625	637	635	633	633	644	644	643	645	645	643	643	645	647	646	643	644	642	637	633	629	631	638	640	642	640	642	635	641	630	627	626	629	640	629	633	632	648	643	638	631	633	634	635	640	638	625	626	636	641	643	642	641	638	637	635	638	640	646	641	641	639	644	647	645	644	645	645	645	647	641	638	636	639	638	648	652	648	650	650	652	648	648	649	652	654	657	656	641	640	642	647	645	647	652	656	654	648	644	641	638	636	644	647	653	654	650	645	648	650	649	651	649	651	653	655	655	655	651	645	645	645	648	658	661	661	653	647	649	651	653	657	667	668	659	654	653	669	666	661	661	661	660	666	670	672	671	668	663	657	650	649	661	662	661	658	657	644	642	643	656	661	665	669	663	666	664	639	638	644	645	652	654	658	661	663	667	669	664	658	651	650	653	661	665	661	661	660	661	665	672	666	666	667	663	662	661	664	659	659	662	666	670	670	671	674	678	683	681	677	670	669	665	656	670	668	663	663	667	665	667	671	673	672	670	669	666	664	661	662	675	674	671	673	674	674	666	670	676	676	673	673	670	676	675	676	676	677	674	673	677	681	680	684	683	679	673	670	671	670	678	680	679	683	682	683	678	678	668	668	672	676	676	675	675	674	681	689	697	698	697	692	691	690	692	692	674	682	677	679	694	694	686	687	686	685	685	685	686	686	691	690	678	676	0	0	0	0	0	0
582	586	586	592	593	592	592	594	594	594	590	590	593	598	602	594	588	588	588	590	592	600	600	600	600	599	599	597	597	592	602	591	589	589	589	589	592	595	600	598	595	587	587	588	592	594	599	599	596	597	597	599	602	601	599	597	593	597	600	601	601	593	593	593	593	592	588	591	594	596	598	597	597	592	592	594	598	595	592	590	595	599	601	608	602	604	598	596	596	598	599	601	593	592	597	602	600	600	598	606	612	611	607	599	587	588	590	595	595	602	611	611	610	608	604	602	600	597	595	598	602	608	618	617	611	604	594	593	594	592	591	591	606	611	603	599	598	592	596	601	605	608	606	599	595	592	596	607	612	605	596	597	597	596	604	600	595	591	596	609	609	607	605	604	602	604	606	615	620	618	615	603	599	598	595	598	603	618	618	614	609	616	617	608	602	604	602	602	605	605	606	605	612	603	598	605	609	615	617	620	621	617	611	610	618	615	614	627	631	631	629	615	620	624	630	627	622	627	629	623	615	614	613	617	624	625	627	623	618	613	610	612	611	608	608	612	613	614	620	620	611	608	601	598	610	619	620	617	616	613	614	610	619	615	617	623	630	628	631	631	632	634	628	632	620	623	617	616	620	615	614	625	621	620	623	629	630	630	623	630	627	627	631	619	618	620	625	627	629	626	624	625	624	627	612	611	611	611	621	623	623	625	624	629	631	627	628	629	627	626	623	625	627	629	619	622	620	616	615	617	617	636	632	619	621	614	615	615	615	617	620	620	627	629	632	635	639	636	628	616	618	623	631	627	626	629	623	624	627	627	630	633	625	625	623	621	623	627	630	634	637	630	632	623	623	618	623	625	625	627	627	632	631	629	629	632	622	622	625	626	630	636	643	642	638	626	621	625	635	637	641	635	634	645	642	641	639	631	630	635	647	639	636	625	633	641	645	645	645	639	634	632	631	632	634	635	647	637	632	632	638	642	642	646	652	650	645	639	635	639	638	635	641	645	650	652	646	647	635	644	648	647	645	644	643	641	641	640	638	642	642	643	644	644	646	646	644	642	645	648	652	660	671	663	655	649	642	642	650	656	657	655	648	647	654	659	662	642	641	647	648	647	644	659	658	656	641	640	641	638	643	658	662	659	658	660	659	642	641	638	643	640	649	649	659	660	653	653	653	653	650	649	652	658	656	656	656	659	665	671	666	664	659	663	661	659	657	655	653	652	653	656	659	665	667	667	669	674	674	670	667	661	655	653	669	666	665	659	661	657	665	671	669	664	668	666	662	658	659	660	660	663	664	663	666	664	667	667	669	669	668	669	669	673	673	677	675	672	673	672	664	669	669	674	680	677	669	661	662	663	669	669	669	664	672	674	674	672	669	673	676	677	676	675	673	670	670	688	695	693	688	685	689	691	691	678	672	669	672	681	691	693	686	685	683	681	681	681	675	674	684	685	669	665	0	0	0	0	0	0
580	582	582	578	579	581	588	588	585	590	587	588	588	590	592	590	591	591	593	588	589	601	602	602	600	582	582	583	594	594	601	602	587	588	589	589	591	594	593	592	587	584	588	588	592	595	594	589	587	592	599	599	602	602	598	589	587	590	594	593	593	593	593	592	590	583	579	586	589	591	593	595	595	587	587	592	593	594	590	585	587	593	596	601	603	606	599	599	599	599	598	594	588	589	592	597	602	598	598	602	607	601	596	587	587	589	593	594	590	591	599	602	603	603	603	600	600	596	593	593	599	604	599	597	605	601	598	593	593	591	590	588	592	593	595	597	593	591	592	596	601	604	599	597	591	589	599	601	607	597	599	592	595	595	598	601	591	587	605	606	605	608	606	601	600	599	610	618	621	621	610	600	597	593	592	595	605	615	614	608	610	614	618	615	608	602	605	601	600	600	607	609	613	612	609	609	609	607	606	619	620	607	604	601	607	609	605	608	615	618	620	614	612	623	627	624	620	621	620	609	602	612	613	617	611	610	617	617	616	612	610	608	600	607	607	615	612	610	615	614	607	602	598	594	597	610	613	612	614	617	615	616	618	614	615	617	621	624	623	624	623	620	619	615	613	616	613	614	614	612	611	612	615	617	616	620	618	621	621	628	626	624	623	622	619	630	615	615	614	612	620	619	610	608	605	602	602	604	613	619	617	617	619	624	626	623	622	624	618	618	618	620	619	619	620	624	618	618	625	617	625	629	627	628	616	615	614	611	614	617	615	616	621	628	632	631	629	623	617	617	617	618	617	619	618	618	616	618	622	621	628	635	631	622	621	618	617	621	625	633	633	622	623	620	616	613	618	618	614	617	619	625	627	630	628	620	619	618	626	629	632	635	640	642	636	627	624	626	631	637	637	636	632	637	637	632	625	620	615	623	627	623	621	626	632	639	643	643	640	636	634	635	627	627	631	635	637	637	636	630	637	636	623	631	643	643	642	637	635	639	636	632	632	639	644	646	651	642	643	647	648	640	633	640	640	639	639	638	640	647	648	646	642	635	634	631	633	640	638	644	650	654	665	668	655	647	643	643	650	652	648	644	644	643	648	644	644	642	640	639	643	645	646	635	634	635	638	643	640	639	639	638	661	647	653	652	641	646	634	633	639	637	642	648	646	654	647	650	649	648	647	645	646	650	650	655	656	658	658	658	658	658	651	654	660	657	655	651	646	643	643	646	651	652	660	660	660	668	668	666	665	658	653	650	662	662	658	657	654	654	650	647	650	663	667	664	647	640	643	649	657	662	665	663	661	657	656	659	663	661	658	658	664	673	675	673	670	670	669	662	658	657	657	668	670	672	664	655	654	645	645	650	658	666	666	666	671	668	666	671	674	676	676	671	669	671	671	669	670	670	673	679	684	684	678	681	680	668	670	674	677	687	686	683	683	678	678	671	670	669	679	672	669	659	0	0	0	0	0	0
