766	775	775	785	792	793	776	776	771	771	779	781	781	777	772	765	760	765	765	772	783	797	812	803	803	788	788	784	778	776	772	772	770	774	776	777	776	782	782	790	792	780	784	794	796	796	791	791	783	773	770	775	777	778	784	782	782	782	787	794	797	800	799	804	794	792	790	791	797	794	794	798	802	794	785	779	778	779	784	791	783	780	791	806	817	812	806	801	800	794	796	802	803	803	789	790	791	797	795	793	792	786	780	772	771	771	777	781	779	781	779	777	775	774	774	795	795	794	798	798	795	793	793	789	787	788	810	814	809	807	806	805	803	786	783	787	790	787	786	786	788	783	780	798	799	796	792	799	803	799	801	802	803	812	819	812	806	808	812	809	811	818	823	822	819	828	832	824	818	812	804	802	795	789	783	779	801	807	804	802	788	794	799	807	803	799	799	808	813	816	815	812	823	826	833	830	824	825	834	836	837	836	831	835	835	830	824	827	831	831	828	829	825	829	844	851	850	848	835	823	818	821	827	829	827	840	851	847	839	840	837	837	837	838	850	853	858	862	864	859	846	830	836	853	856	856	826	832	845	845	848	852	852	840	834	835	835	836	838	834	828	827	828	843	850	855	855	850	842	839	840	850	856	855	834	828	836	843	846	851	848	850	857	852	850	837	833	832	834	846	846	850	866	868	867	867	866	861	850	836	837	837	841	846	848	846	852	856	848	839	860	868	879	875	867	864	866	868	869	872	874	874	870	872	875	874	870	864	868	868	858	856	852	846	836	838	838	843	846	857	865	865	866	868	872	873	871	868	868	863	859	855	866	875	882	880	874	869	871	871	865	872	873	873	874	883	881	878	871	871	875	870	869	877	876	874	869	866	865	865	871	872	872	865	863	869	869	875	885	888	883	870	879	878	874	872	873	876	877	889	892	878	876	873	873	878	890	902	907	909	906	901	891	884	891	895	899	895	891	894	895	899	904	904	898	886	878	873	873	875	875	875	872	890	906	918	926	897	888	888	892	905	916	921	919	917	922	927	933	934	927	925	921	916	907	907	916	920	921	910	905	906	909	906	901	904	902	905	899	907	907	897	896	896	897	926	922	911	897	888	904	903	910	911	909	903	901	905	905	903	907	903	909	915	915	913	915	922	923	921	926	935	936	933	932	931	926	921	921	926	933	939	936	932	927	925	923	921	923	926	925	921	915	918	917	921	928	929	929	934	940	911	930	926	922	916	911	907	900	898	903	915	917	917	917	917	918	921	924	921	918	914	911	910	914	924	925	925	929	940	946	934	931	928	925	925	925	955	957	951	945	957	967	974	978	974	968	961	954	950	950	954	952	955	950	942	935	935	930	927	933	944	951	949	948	945	943	943	948	949	951	953	953	950	950	945	948	925	929	936	939	954	962	958	955	955	951	950	949	951	947	949	957	960	969	971	961	960	960	960	965	967	962	0	0	0	0	0	0	0
760	762	762	766	767	762	762	762	760	767	777	776	772	772	757	754	760	762	762	769	768	776	790	773	773	764	771	780	781	774	769	769	764	767	772	772	771	770	771	771	778	771	776	785	787	788	775	775	768	761	763	770	775	777	777	772	773	773	778	785	791	793	784	775	776	777	786	786	791	792	796	801	799	787	778	766	765	769	777	779	774	773	776	782	796	796	791	784	782	782	781	780	796	789	789	786	787	793	792	784	781	774	764	761	764	774	777	781	785	783	777	774	775	770	770	774	783	795	797	798	797	796	790	784	779	780	783	786	783	802	803	802	789	780	782	780	785	784	785	784	781	778	773	777	784	784	784	789	798	798	797	797	800	811	814	810	805	802	807	804	808	818	815	809	804	806	815	822	816	806	800	791	784	778	780	788	793	796	799	798	799	806	799	805	803	799	799	796	794	799	801	807	827	819	818	819	804	816	824	824	828	827	827	829	824	826	823	822	828	798	793	796	791	796	818	824	824	821	816	817	816	818	817	817	821	820	828	826	818	818	814	816	820	831	834	835	825	833	843	837	827	822	820	819	819	818	820	816	819	821	833	838	835	830	830	830	826	830	830	825	820	817	820	829	846	850	845	837	840	840	852	846	846	832	833	829	826	835	845	834	834	835	830	828	837	830	829	832	833	830	835	843	849	844	837	839	843	846	838	833	829	830	823	823	830	841	850	848	846	834	837	846	855	852	852	861	866	866	861	847	843	845	846	848	850	855	866	867	851	848	849	857	850	843	842	843	828	829	836	846	855	856	853	839	841	828	849	845	842	840	841	843	853	861	864	862	863	868	867	859	857	860	874	867	854	857	874	874	871	868	867	868	867	866	867	861	861	865	866	865	861	862	858	855	855	855	858	862	863	862	863	866	863	867	867	868	871	873	875	877	875	874	871	871	872	878	881	889	897	904	895	876	873	881	886	889	885	883	884	889	893	901	906	891	882	879	877	875	872	872	874	873	874	877	892	895	891	887	884	887	893	899	901	907	912	917	916	914	915	916	909	893	900	897	888	892	899	904	902	905	903	902	901	895	885	883	891	895	898	904	899	903	899	890	887	886	892	894	889	880	879	893	903	907	902	896	893	894	885	880	881	889	897	907	910	910	910	913	911	908	904	907	909	904	912	912	911	914	921	922	925	928	927	925	922	923	920	913	917	923	924	921	909	904	903	892	893	889	888	893	900	899	902	908	908	908	904	903	902	898	895	898	907	908	911	913	910	912	913	913	919	914	909	906	910	915	909	912	907	906	914	920	924	922	919	916	914	912	913	915	916	954	949	947	943	947	954	951	944	944	947	948	953	951	946	938	938	933	927	929	934	939	943	944	940	937	934	934	937	947	948	947	942	941	934	922	903	917	929	936	939	939	939	941	952	952	950	945	944	945	947	942	943	950	959	958	958	954	958	958	959	959	952	0	0	0	0	0	0	0
750	756	756	762	758	752	749	749	753	763	767	754	751	751	752	750	756	746	749	749	757	770	745	752	759	759	766	774	776	769	766	766	763	767	773	774	772	765	768	768	768	759	762	772	773	770	767	758	758	757	758	767	773	776	774	772	766	761	761	762	763	765	765	761	761	765	778	785	785	792	797	797	792	780	770	763	766	770	775	779	776	775	778	781	781	780	775	773	773	776	776	772	766	776	776	776	784	792	791	784	778	780	776	773	772	766	782	785	782	774	774	775	773	768	768	772	782	790	793	794	793	794	791	781	774	771	784	784	783	775	775	778	780	774	777	780	785	783	784	779	776	773	772	772	773	778	780	782	791	800	797	795	805	805	807	808	806	807	807	797	798	802	805	803	798	802	802	810	814	802	794	789	782	777	776	792	793	798	798	796	798	800	803	803	803	803	797	788	784	786	794	807	811	801	794	790	794	795	800	812	820	821	826	824	816	815	817	813	795	791	788	793	792	795	808	812	813	814	811	810	811	814	805	800	800	816	806	806	811	816	815	818	814	814	821	806	806	810	809	818	816	815	812	813	813	813	817	815	811	818	819	819	828	822	821	820	814	818	821	817	814	811	810	808	809	825	831	838	840	846	844	842	826	829	830	829	813	808	810	819	823	824	824	823	817	834	832	832	829	823	825	837	843	839	835	837	838	839	836	828	826	821	818	819	824	835	842	845	844	839	835	839	845	841	843	847	857	855	835	840	841	841	840	842	852	850	853	861	859	842	847	849	843	842	842	846	841	832	835	838	860	836	833	845	827	834	820	836	839	838	839	846	848	850	854	857	868	874	868	856	853	855	861	871	856	856	863	871	868	862	859	861	861	858	853	853	856	861	865	859	856	850	846	845	838	831	852	857	858	860	860	861	859	857	866	865	872	875	873	872	871	869	869	866	867	858	877	874	874	875	876	876	876	874	887	886	882	878	863	865	864	863	854	856	860	873	874	872	871	866	865	879	878	879	865	872	877	876	878	882	886	893	896	892	896	913	900	898	890	886	881	878	877	879	883	884	884	888	897	896	897	890	886	880	873	876	885	889	892	885	887	888	890	893	888	882	879	882	885	884	879	876	882	892	888	883	887	890	890	884	877	874	870	872	889	902	907	908	901	891	885	896	899	894	883	883	888	903	913	916	918	918	917	910	906	909	906	899	906	912	910	907	897	885	881	879	879	876	870	868	883	888	892	897	899	893	897	903	904	900	894	894	886	896	903	908	902	901	902	904	911	915	906	902	902	908	907	899	896	891	887	890	914	916	911	907	906	909	906	899	898	900	925	924	914	927	921	916	919	922	921	922	925	932	932	936	929	928	927	926	929	935	938	931	927	934	931	927	930	941	942	935	925	916	908	890	889	905	920	933	938	940	939	933	934	934	937	940	937	943	938	931	937	932	920	923	927	927	927	950	952	950	946	0	0	0	0	0	0	0
751	758	760	760	752	744	742	746	746	742	746	739	750	750	748	748	744	749	748	748	739	733	733	742	753	753	760	766	769	768	763	764	764	769	772	771	767	762	763	763	751	750	751	755	762	759	753	750	750	751	753	753	759	759	759	759	758	753	753	753	757	762	756	754	754	757	755	757	779	774	769	766	766	767	768	767	772	773	774	777	778	780	781	777	770	768	771	776	778	776	774	766	760	756	767	777	777	784	786	777	778	778	774	773	766	763	760	761	766	771	780	784	774	768	766	768	772	782	784	784	786	791	789	783	769	764	782	783	780	776	765	756	761	767	773	775	779	787	777	776	774	771	770	770	772	770	773	777	778	785	797	800	797	795	796	807	805	800	792	788	793	797	796	790	787	793	795	801	802	802	794	795	786	787	792	795	800	795	795	796	798	797	793	791	795	795	791	788	793	798	803	807	798	796	785	785	782	783	790	801	808	817	812	814	817	811	807	797	790	781	779	782	792	795	801	806	808	805	799	805	806	808	800	799	802	794	804	804	810	812	813	806	804	807	807	802	793	786	788	808	812	808	805	805	808	810	813	813	812	816	812	812	809	814	810	806	802	800	799	795	800	808	808	811	811	814	822	813	813	811	835	822	824	824	822	812	813	809	809	815	817	818	818	815	813	827	836	832	824	818	822	828	832	825	825	827	834	837	830	826	823	815	813	816	819	824	832	817	829	835	830	829	831	836	836	836	834	824	825	828	830	826	838	842	849	847	848	846	850	837	834	841	845	842	847	848	842	812	809	820	828	828	824	845	830	825	832	831	829	828	839	845	848	846	843	849	856	859	864	849	849	852	861	872	867	855	863	866	862	852	846	850	852	844	847	846	849	850	857	856	847	844	842	838	838	830	827	846	852	855	856	856	856	855	857	862	874	872	872	869	870	869	867	862	856	855	859	851	849	862	867	870	870	875	873	873	868	858	854	855	857	858	858	850	848	861	866	863	856	848	857	861	858	859	846	842	864	865	867	873	879	873	867	869	877	878	882	885	885	875	867	865	869	873	877	877	877	878	882	870	868	867	867	873	873	876	891	890	882	884	884	885	886	879	877	873	866	860	865	880	881	881	881	886	882	874	880	885	887	885	880	875	864	857	859	862	884	900	895	882	871	888	894	891	881	872	874	883	900	913	912	905	899	879	879	878	891	890	887	885	886	884	875	867	866	875	875	873	866	863	876	882	887	884	879	874	875	895	891	889	884	882	876	870	880	893	887	881	881	877	899	901	902	897	891	881	876	877	876	876	875	878	882	886	885	901	913	911	904	894	888	885	887	897	901	893	891	891	908	914	918	898	898	898	906	920	922	922	914	917	925	928	926	921	916	926	928	925	928	932	927	902	898	897	889	883	880	897	910	920	925	912	902	908	908	929	937	931	923	923	916	909	902	920	901	913	931	916	916	908	914	931	931	0	0	0	0	0	0	0
743	753	753	753	748	739	731	733	733	734	737	750	754	754	752	749	742	749	747	747	739	731	726	729	736	736	748	755	758	762	750	755	755	757	760	759	756	753	750	751	742	746	752	760	766	762	754	747	747	741	736	747	757	757	755	755	752	749	749	749	759	759	751	749	753	745	747	750	758	761	761	762	762	757	752	755	756	757	768	774	771	773	775	774	769	765	765	770	763	760	769	765	759	751	749	764	764	769	768	765	766	768	769	771	771	759	754	758	762	771	782	768	769	766	765	769	770	773	772	772	774	777	784	780	763	754	759	758	765	765	762	758	760	767	768	776	781	778	767	763	762	762	765	766	766	767	768	768	763	761	768	771	765	787	788	794	788	779	779	781	766	768	778	782	783	788	792	793	797	783	777	778	778	778	783	792	790	788	782	781	797	792	790	784	783	786	781	781	783	792	791	792	778	775	777	774	776	770	776	782	793	804	812	816	799	794	800	800	788	773	771	773	781	787	796	795	801	800	792	795	801	802	801	798	791	789	787	797	810	806	805	792	789	801	805	798	787	780	776	785	797	798	799	799	802	806	804	811	812	811	806	801	798	800	798	797	796	798	795	795	801	807	811	811	806	806	815	806	805	808	807	814	809	803	794	791	803	805	803	806	807	815	816	814	813	818	821	820	816	816	815	809	812	815	819	822	827	831	830	822	815	810	810	815	810	805	807	811	820	827	827	822	819	820	834	832	824	820	816	814	814	821	837	841	850	848	844	840	833	819	811	807	817	829	839	840	818	802	805	819	826	824	828	832	833	833	827	828	826	826	825	844	846	834	836	836	838	844	846	844	846	849	858	864	860	856	851	845	837	834	833	837	837	839	842	840	834	838	855	853	846	839	838	843	833	826	824	834	844	846	846	846	851	851	850	858	865	862	860	862	862	863	854	856	835	837	847	835	831	832	836	863	860	847	853	854	852	851	848	852	847	844	845	853	850	844	853	855	850	849	853	854	855	855	842	838	836	855	857	865	856	850	845	850	857	869	866	872	876	861	850	852	858	869	871	867	857	858	859	862	859	858	857	859	864	861	860	840	863	867	875	873	866	866	874	870	861	853	856	868	869	870	875	872	867	863	867	872	874	877	881	875	858	847	847	846	860	876	873	873	863	876	888	893	886	867	860	868	879	890	897	883	875	872	877	887	896	884	877	874	868	865	864	861	864	874	872	864	858	852	856	874	880	877	873	873	878	870	868	882	888	886	880	872	866	864	860	858	861	868	880	890	888	886	883	877	868	868	867	870	872	874	880	882	880	884	892	904	899	889	880	880	877	873	884	894	891	880	880	876	870	891	892	894	896	903	915	914	909	913	918	919	917	916	911	906	909	917	922	923	902	891	892	890	886	880	877	889	900	898	904	903	898	895	895	899	921	923	913	908	903	902	898	894	893	922	927	926	926	905	904	899	899	0	0	0	0	0	0	0
724	736	744	744	743	740	729	730	730	732	735	752	754	743	743	745	743	749	746	746	740	734	724	717	722	728	728	732	734	733	732	734	734	734	735	738	742	746	746	742	742	747	757	765	765	756	750	743	732	732	729	741	754	756	754	751	747	752	755	755	754	750	745	741	740	740	743	745	761	762	758	755	755	747	747	748	747	744	750	754	765	767	769	768	766	764	759	749	746	751	751	764	762	755	753	754	748	748	750	755	760	762	765	766	756	752	749	753	759	765	762	759	756	760	761	762	761	765	759	761	760	754	747	746	740	743	749	752	754	758	758	758	761	774	775	776	772	770	762	757	760	746	748	749	764	767	765	765	757	758	758	757	761	760	765	768	774	764	754	746	758	753	750	766	775	785	788	788	780	768	764	771	774	775	781	785	784	761	759	762	782	788	783	781	780	777	774	771	770	775	781	772	767	771	771	767	760	758	765	775	775	774	774	777	780	786	789	791	782	770	763	774	783	781	785	788	784	784	793	796	795	783	777	770	784	781	783	792	804	796	791	783	782	786	798	787	782	776	771	774	779	797	795	794	796	797	797	801	790	797	794	791	789	789	792	792	796	790	781	780	802	804	806	806	802	800	797	802	797	799	800	806	805	800	794	791	784	799	800	801	803	805	805	805	806	809	817	821	817	812	813	809	807	811	814	816	819	824	823	816	814	807	811	816	814	803	801	797	809	822	818	818	810	817	824	824	821	814	808	803	806	815	826	839	842	844	838	835	828	816	806	801	801	801	812	804	800	802	800	809	814	813	823	829	833	828	826	826	821	824	826	843	842	830	831	829	826	831	836	831	826	843	841	830	819	827	838	837	829	827	826	827	831	836	838	834	827	832	836	843	837	828	823	828	829	827	823	835	841	839	836	837	839	844	847	845	849	851	847	848	847	844	840	834	820	823	814	815	807	812	819	823	827	830	829	833	836	840	837	833	830	835	845	848	842	834	828	850	850	842	844	848	845	843	843	840	833	836	859	855	847	840	842	839	840	845	850	856	867	854	837	839	856	862	847	839	836	839	848	852	847	847	847	847	846	838	836	845	850	851	851	850	849	856	869	864	847	848	855	865	862	859	845	853	868	868	851	844	842	842	846	847	842	844	842	843	846	838	835	853	869	866	871	876	877	871	864	860	864	873	863	856	856	863	869	873	869	857	857	861	861	860	847	847	850	854	855	852	846	847	848	876	879	875	872	875	870	864	857	860	883	883	878	872	866	860	858	857	851	850	870	881	878	877	874	871	867	865	866	865	868	874	876	878	879	881	883	881	882	874	875	879	873	865	867	876	878	876	866	854	861	873	875	887	889	892	899	911	907	908	909	909	910	910	906	905	908	910	915	900	892	887	884	883	884	878	880	883	881	897	903	903	895	895	889	892	905	913	906	899	891	892	894	892	896	915	925	925	924	919	908	904	902	0	0	0	0	0	0	0
712	712	731	731	734	734	724	726	731	731	733	749	746	737	737	738	742	745	742	739	739	733	729	717	711	713	713	715	721	720	725	733	732	732	731	735	739	742	744	742	736	736	747	760	755	749	737	725	715	715	718	739	747	747	748	742	743	744	748	748	749	740	737	733	739	743	752	757	763	759	741	733	726	726	736	733	731	734	734	740	747	762	764	761	761	742	743	742	743	743	744	748	749	754	742	739	742	744	744	751	757	756	759	753	749	753	748	750	755	758	748	749	748	742	753	755	744	738	738	743	746	746	744	738	730	727	740	748	751	754	748	751	757	759	757	749	747	746	741	737	734	737	738	736	747	759	757	753	747	738	748	746	748	754	757	759	750	745	744	738	737	734	737	747	747	767	784	783	779	775	765	763	773	775	778	780	759	765	768	766	756	769	773	768	771	774	770	767	758	752	755	758	758	762	766	762	761	759	762	769	769	769	771	774	774	772	772	773	764	764	762	772	775	778	781	778	780	779	782	784	783	777	770	760	767	771	775	776	787	790	783	779	777	779	791	784	781	767	764	770	775	789	791	789	787	784	792	791	789	788	776	790	791	792	792	794	790	785	787	786	785	799	793	800	793	791	791	788	782	774	783	792	799	799	795	792	790	799	802	793	794	793	796	798	792	802	802	815	815	812	812	807	806	810	812	812	815	815	818	816	814	810	817	817	798	787	783	785	803	806	817	807	800	802	813	814	812	810	809	803	804	807	818	821	815	825	828	827	824	810	808	799	798	794	796	797	799	797	797	806	810	804	802	822	825	824	817	814	813	815	838	842	841	828	822	812	810	806	811	813	812	803	797	793	791	800	836	831	826	817	820	822	824	834	834	830	824	825	830	832	828	817	811	822	819	807	802	817	831	832	827	824	827	815	834	829	813	838	836	835	836	816	821	822	820	810	812	809	805	806	811	819	823	820	821	823	827	832	829	827	831	840	844	844	836	830	825	817	832	831	827	835	837	836	837	831	821	815	815	822	832	835	837	835	832	835	838	844	849	835	829	850	855	849	840	836	835	835	837	836	832	834	838	838	843	836	849	847	847	842	836	835	831	835	842	836	837	843	853	860	856	845	840	836	852	859	852	841	838	840	844	847	846	841	840	839	840	837	830	828	858	861	855	851	849	847	846	846	847	864	863	851	845	843	849	862	861	854	848	848	847	844	847	847	845	847	848	838	835	838	851	862	860	860	872	855	856	849	850	841	851	876	870	861	855	854	855	852	845	840	836	854	851	850	851	855	855	856	863	863	863	874	876	877	878	880	867	867	862	868	889	871	857	845	854	863	868	866	851	851	853	852	853	847	851	876	884	893	899	901	897	897	891	897	902	903	904	908	899	891	884	880	881	885	885	876	878	875	881	893	897	894	878	878	875	884	891	895	901	884	879	889	889	887	893	910	903	903	917	915	916	916	910	0	0	0	0	0	0	0
712	711	714	725	725	722	718	721	725	725	730	745	747	734	734	734	738	741	721	726	726	732	731	717	712	714	714	713	713	714	725	730	729	729	728	729	734	737	739	736	730	730	734	739	724	719	713	708	707	707	724	730	732	737	735	735	732	734	738	741	741	738	735	736	738	747	757	739	736	731	720	718	718	718	721	722	728	730	726	727	733	738	735	733	737	737	736	736	738	736	738	740	737	737	735	727	734	740	747	747	751	750	748	747	746	747	750	752	752	750	741	746	745	738	735	732	738	733	735	733	741	742	732	718	722	726	731	747	749	743	740	734	734	736	736	737	738	738	738	736	736	739	739	736	731	741	750	757	750	720	721	736	740	742	743	746	743	741	732	729	724	723	731	737	741	740	745	762	758	754	750	762	764	772	772	763	756	759	757	756	751	747	762	763	765	765	770	763	747	747	752	759	758	755	765	760	759	752	758	762	763	763	765	769	771	771	768	767	763	763	760	771	766	774	775	775	769	772	777	777	773	764	759	761	763	766	778	779	761	767	775	774	776	777	782	780	776	765	762	773	784	786	785	778	775	776	783	788	786	784	785	791	792	791	791	783	778	782	787	786	781	786	781	784	785	783	786	786	781	779	780	786	781	779	792	791	787	790	801	795	775	770	787	786	784	793	793	788	790	812	812	801	807	809	810	810	811	810	811	815	812	812	813	806	791	777	778	784	794	802	804	801	800	797	800	808	810	808	808	793	792	796	801	808	803	798	806	807	813	807	806	797	795	795	794	798	800	794	792	801	804	803	797	793	818	819	817	816	815	816	812	814	808	800	793	808	815	822	804	801	794	796	791	789	788	794	808	817	814	811	816	818	822	827	827	824	817	813	821	823	815	806	803	813	824	815	809	808	813	815	814	804	806	807	827	826	817	799	803	803	806	809	812	826	815	807	807	807	802	803	811	820	821	823	818	817	823	827	830	824	824	835	840	833	827	822	819	814	811	818	814	818	827	829	828	826	821	818	817	817	820	818	829	831	830	831	829	835	832	851	858	860	857	848	839	836	830	832	839	834	827	828	827	834	841	841	848	842	839	817	826	824	823	823	830	833	834	838	847	845	841	838	833	832	829	834	835	844	837	836	842	843	843	840	830	832	835	831	826	820	827	841	848	851	847	844	842	840	842	843	852	848	837	816	813	828	843	846	839	831	828	839	847	847	843	843	836	830	831	835	842	848	847	848	847	850	849	836	834	835	838	847	852	846	845	845	849	848	842	833	833	833	836	840	845	844	840	845	849	859	863	868	874	857	839	832	838	850	863	875	871	838	843	849	841	849	853	848	838	838	836	838	837	832	842	852	856	874	884	879	881	882	881	879	882	883	893	899	895	885	879	881	883	884	877	870	864	867	873	883	888	874	874	869	871	870	874	883	878	869	872	876	882	882	884	895	895	893	889	878	878	881	881	0	0	0	0	0	0	0
707	709	712	718	718	710	706	712	721	721	722	733	735	728	728	726	726	724	715	722	722	731	728	721	716	715	715	716	714	718	721	727	725	725	726	726	729	730	731	729	722	722	725	719	716	710	709	706	707	718	718	721	722	719	727	728	725	724	728	732	732	722	721	729	734	741	742	728	728	726	726	723	725	729	729	733	730	729	727	734	742	730	724	722	729	733	733	731	730	733	732	731	731	727	720	727	728	728	739	742	742	749	746	744	740	740	745	744	738	730	726	729	730	730	732	731	728	723	724	731	739	742	734	718	716	726	732	734	742	740	738	733	733	734	738	738	741	742	739	736	734	733	738	735	732	735	741	748	739	727	720	717	723	727	734	738	736	731	717	714	712	717	726	737	744	741	730	729	725	729	735	739	742	752	751	751	754	755	752	748	740	733	747	760	762	755	752	747	739	741	746	751	751	755	759	753	748	744	756	759	759	754	759	763	764	767	761	769	773	748	741	741	758	772	770	772	769	770	774	775	772	761	763	757	759	764	768	771	763	753	759	767	772	772	778	772	771	768	763	773	776	775	777	773	771	772	775	780	783	784	784	794	786	772	764	763	771	778	782	781	777	775	780	772	777	778	782	780	774	775	779	784	780	780	789	787	772	767	781	780	776	774	778	775	777	775	782	781	778	784	790	810	807	803	787	783	784	795	801	804	803	805	791	788	770	776	778	785	792	798	794	787	780	774	778	795	798	788	781	779	782	787	798	793	796	797	804	809	809	805	793	796	797	800	799	800	789	782	781	784	796	796	794	788	792	809	812	813	811	811	796	793	794	792	793	793	791	795	795	791	794	791	791	788	790	792	793	795	800	804	807	806	810	815	807	809	814	815	820	822	806	793	797	809	823	820	811	809	810	806	798	796	798	797	789	794	791	794	794	797	799	802	820	826	812	806	804	801	801	803	807	814	820	817	809	802	816	820	821	791	794	811	827	822	818	815	815	811	798	806	809	811	812	813	824	818	815	816	818	822	822	818	808	810	820	825	803	809	834	827	823	817	818	831	833	831	825	828	836	829	822	820	824	831	841	842	841	832	823	812	815	816	817	822	830	833	833	838	845	838	834	825	827	822	824	820	818	824	826	830	830	828	834	834	829	832	832	822	818	812	822	835	846	848	845	841	839	837	838	838	837	829	822	815	816	824	837	832	824	819	827	834	842	842	839	838	831	826	825	828	830	832	840	840	842	844	842	832	826	827	835	843	843	840	837	842	843	843	839	836	834	833	832	838	841	841	838	830	828	833	838	852	859	853	844	836	831	837	845	843	840	835	831	838	842	844	842	843	836	834	828	828	825	824	824	846	856	859	866	866	868	866	861	845	843	841	854	875	865	862	859	859	866	873	872	857	852	858	864	871	873	867	867	864	859	855	855	855	858	859	858	861	868	873	871	885	885	881	854	864	870	877	875	0	0	0	0	0	0	0
700	705	708	701	701	693	697	707	712	712	713	719	712	715	718	718	713	714	715	717	716	716	725	722	715	716	715	715	715	718	721	724	725	726	726	720	723	725	724	724	718	718	717	709	708	707	704	705	707	711	711	716	716	714	713	720	722	721	724	719	716	716	717	722	733	734	722	724	730	728	721	717	707	713	713	719	731	722	722	724	727	726	723	726	730	731	730	725	721	724	734	733	725	718	717	719	727	727	723	728	732	732	734	733	726	735	735	726	721	719	720	723	717	718	721	727	723	720	720	717	720	729	734	724	713	707	719	718	729	733	733	735	731	732	735	740	742	743	743	734	731	731	731	730	731	738	742	739	730	714	712	711	712	717	724	733	732	722	723	723	720	721	724	729	728	731	733	724	722	721	724	731	736	740	743	740	739	738	735	739	731	729	745	747	756	752	733	725	725	724	723	721	732	747	757	751	745	745	754	756	755	753	752	755	752	750	754	747	763	756	750	745	748	765	770	768	768	769	771	765	763	759	759	751	747	748	761	761	753	746	752	763	760	755	751	766	767	762	765	767	773	774	767	768	769	774	779	777	774	775	777	773	765	753	745	743	744	765	780	781	775	773	772	776	776	775	771	771	769	768	774	780	777	775	770	765	762	758	780	780	776	777	777	774	770	763	762	763	767	778	790	796	788	783	775	774	777	780	782	778	775	770	768	772	767	767	776	777	778	793	791	787	776	775	777	791	787	783	777	772	776	784	788	790	795	796	800	801	806	803	802	806	800	785	785	782	779	774	772	776	775	781	787	785	786	791	798	802	797	795	791	788	789	791	785	785	785	790	791	792	788	787	792	795	786	780	784	788	800	801	796	788	784	784	792	794	797	813	815	810	793	791	795	803	810	816	810	810	810	806	798	791	781	778	778	781	782	782	785	787	791	797	810	808	809	804	800	800	801	797	802	809	814	808	801	798	799	801	782	783	788	790	796	790	790	790	801	810	797	796	800	810	798	801	805	804	805	804	801	798	795	792	781	790	787	788	789	793	815	821	812	789	788	810	817	822	820	822	822	821	819	814	815	823	836	839	835	826	818	805	806	811	813	817	818	822	822	823	824	814	815	818	808	822	820	816	815	819	824	829	830	828	825	822	823	827	816	811	813	807	815	829	840	843	839	836	833	834	835	834	831	828	819	815	814	818	820	814	817	813	812	820	827	831	831	828	824	817	819	819	822	824	827	840	842	831	828	826	821	822	831	840	838	827	820	828	835	836	836	836	834	829	828	825	824	830	834	829	829	831	834	845	844	842	839	835	832	841	839	836	833	828	826	828	835	833	824	825	832	832	829	828	823	821	821	828	842	845	852	856	853	835	832	835	834	826	822	850	857	854	854	862	865	861	853	841	842	845	848	855	858	858	856	854	848	848	847	848	855	858	861	859	857	856	858	846	869	851	859	863	867	871	867	0	0	0	0	0	0	0
696	700	699	692	685	685	684	687	698	700	700	701	704	709	711	711	708	706	712	695	707	707	712	711	708	708	712	712	717	719	719	722	726	728	728	720	713	713	716	719	712	708	708	705	706	703	702	706	710	716	716	714	711	709	708	710	715	716	713	712	711	711	716	720	725	728	713	712	713	713	708	704	706	709	713	713	714	726	718	722	722	711	713	721	720	722	723	715	708	706	709	716	715	711	714	719	723	724	721	718	722	711	715	715	720	712	713	720	715	709	710	709	710	710	712	719	719	715	711	711	713	723	728	717	709	713	715	715	721	723	728	729	730	732	733	737	736	739	724	725	728	732	727	728	737	739	739	736	721	712	710	709	708	711	718	725	725	723	724	724	721	719	722	728	729	731	728	726	722	723	723	728	733	739	736	733	734	736	735	725	725	726	718	744	739	732	721	731	741	743	741	736	733	736	750	747	740	740	746	751	753	751	753	753	752	746	748	744	759	755	750	743	747	764	762	762	764	757	752	759	759	757	752	744	736	733	735	732	734	741	748	754	754	747	750	753	753	765	761	763	771	764	763	765	768	772	775	770	769	769	770	765	755	746	741	737	744	747	748	749	753	757	763	770	769	765	765	762	760	763	769	777	775	770	765	756	752	754	757	773	773	774	773	766	759	755	753	763	767	758	754	750	749	769	765	766	774	776	776	772	772	771	767	767	764	762	767	771	777	777	778	775	770	771	774	776	775	767	769	768	772	780	779	783	788	790	791	790	786	775	770	772	772	777	772	775	774	773	765	765	760	763	758	758	769	772	780	790	789	789	786	789	789	788	780	775	781	786	788	787	788	785	784	780	776	776	782	787	788	787	782	782	780	778	783	783	778	776	806	791	781	784	791	797	800	789	777	778	785	791	788	786	781	776	776	776	779	779	794	800	803	801	798	800	792	792	782	780	783	795	789	787	803	803	797	789	786	781	779	784	789	791	794	793	790	793	810	802	794	788	788	786	784	790	792	793	796	797	798	796	794	789	786	787	783	772	773	777	793	798	786	781	784	792	802	799	804	809	811	810	808	805	807	809	816	821	828	824	812	801	789	784	788	793	798	807	795	793	794	805	809	803	811	814	814	814	814	818	821	825	806	811	817	821	820	788	787	784	803	796	800	814	832	835	832	829	826	829	830	825	823	819	816	812	811	810	812	813	811	808	809	813	819	828	828	821	817	809	807	808	812	814	820	824	822	818	818	819	809	817	822	828	822	820	820	815	820	827	832	834	832	829	823	819	817	822	830	825	826	829	826	823	826	829	833	835	839	837	830	825	818	817	819	824	827	830	813	809	814	822	824	827	825	820	819	817	820	829	844	842	836	837	840	833	830	830	823	819	834	846	847	850	850	848	841	839	837	830	838	843	849	849	856	848	838	837	838	844	847	854	856	854	844	839	840	840	846	849	857	858	862	863	860	0	0	0	0	0	0	0
696	703	697	690	685	685	681	682	683	687	687	691	695	701	704	704	703	705	694	685	695	695	698	699	699	694	698	698	704	706	707	719	721	724	724	704	702	704	710	717	702	698	698	697	698	699	697	701	710	716	716	716	712	702	698	704	706	707	708	709	708	708	714	715	722	703	697	701	710	710	707	702	704	707	709	709	706	704	712	715	713	704	705	703	705	709	707	702	699	701	706	709	710	705	703	712	714	716	713	709	706	706	707	712	707	708	708	706	706	704	703	703	705	709	708	716	715	715	716	709	710	717	721	713	711	710	709	707	713	714	717	722	723	727	714	718	721	718	720	723	714	717	713	712	717	723	735	725	721	714	710	707	707	709	709	711	720	718	720	720	719	716	718	723	729	732	734	730	723	724	720	721	728	737	732	727	724	722	723	725	726	723	713	708	710	714	718	729	744	743	738	733	726	720	721	741	727	733	741	741	745	738	741	744	743	739	741	738	737	734	737	744	748	751	755	760	760	755	747	749	752	750	753	743	733	735	733	730	729	729	738	744	740	737	746	750	741	739	739	743	754	757	755	753	745	743	747	756	759	762	761	759	754	740	735	735	738	744	745	743	745	748	747	750	754	759	761	758	756	754	761	774	772	760	757	752	745	746	750	762	766	767	767	765	759	755	751	764	763	758	755	751	750	748	755	760	763	767	776	770	765	765	764	759	758	755	761	761	757	764	775	760	764	759	769	774	764	760	748	750	748	752	773	775	780	781	782	778	773	769	766	764	767	767	767	767	770	771	762	757	754	748	743	751	755	750	757	770	783	778	773	784	788	784	779	773	772	776	775	771	765	770	778	772	758	757	758	760	758	760	769	771	776	776	773	773	776	766	776	774	774	777	766	767	768	769	773	777	785	785	786	782	776	772	770	767	776	776	785	792	794	793	792	789	788	780	775	777	779	780	777	779	781	787	783	776	778	779	780	782	785	790	794	792	791	787	788	795	791	784	781	777	779	784	785	783	787	787	790	793	792	785	782	781	766	765	770	781	783	782	778	780	786	795	804	809	800	796	789	787	784	794	797	795	791	807	807	802	789	781	771	770	768	770	766	767	787	773	777	786	791	781	791	801	802	809	807	792	792	792	802	801	810	821	785	781	778	779	781	786	779	778	801	807	807	809	811	815	817	821	801	799	793	797	802	801	799	797	800	804	804	808	824	826	819	825	823	807	811	808	811	812	805	799	805	793	795	790	789	799	810	809	805	812	816	815	816	820	823	830	829	826	823	818	814	826	819	822	823	819	812	812	816	821	822	828	829	830	823	812	807	801	808	822	823	822	806	801	803	811	812	812	818	821	821	817	814	818	829	829	826	824	823	829	824	821	819	815	812	830	836	843	840	838	834	834	826	824	826	832	832	841	847	838	822	814	823	831	840	838	844	843	840	835	831	831	830	848	848	848	852	855	853	0	0	0	0	0	0	0
699	697	688	683	689	689	691	690	686	678	678	678	691	693	696	694	694	689	683	687	686	686	677	679	680	685	690	687	687	690	690	701	700	697	696	696	695	696	696	696	680	690	690	688	689	693	690	699	710	714	709	709	701	697	698	701	694	692	697	699	702	704	704	705	706	693	695	700	707	709	707	702	702	702	706	703	703	696	705	704	706	696	698	700	699	696	686	697	698	700	702	712	710	700	696	695	698	701	705	705	702	698	698	701	703	703	705	709	709	709	705	702	700	706	713	716	715	714	714	713	712	719	720	714	713	710	707	700	706	707	703	702	701	701	698	705	707	709	714	714	712	708	707	707	708	711	712	717	719	724	710	706	707	706	703	706	706	710	714	715	714	713	713	718	722	729	730	725	723	717	714	715	724	722	729	725	721	720	722	723	721	717	706	701	704	711	732	737	738	738	734	730	722	715	715	718	722	729	735	736	736	733	732	735	738	738	735	730	731	726	729	741	746	750	751	746	740	733	727	744	748	750	747	744	736	733	729	730	729	731	736	738	731	732	736	735	736	736	733	732	733	733	732	736	736	736	745	751	754	753	751	748	747	730	729	732	732	738	738	738	739	738	740	745	745	755	751	740	742	744	745	758	758	755	748	745	742	742	748	744	749	758	761	762	754	747	748	752	753	754	751	748	750	751	746	750	744	747	757	754	740	740	741	745	742	749	750	751	747	749	750	749	753	759	759	756	754	748	753	764	762	759	755	747	740	737	743	748	763	764	763	760	762	762	762	761	764	769	766	757	753	747	747	744	742	748	758	761	771	772	769	767	765	775	775	768	762	760	755	759	768	773	766	770	766	772	775	765	758	759	767	762	765	764	765	770	764	759	773	772	770	763	757	759	760	767	781	785	786	784	779	770	764	766	767	767	776	776	776	779	782	781	783	780	780	776	776	778	780	779	778	778	774	773	774	769	768	770	776	781	784	786	787	788	786	784	784	790	791	784	779	777	775	777	779	784	788	792	795	783	783	778	775	774	775	766	770	783	782	779	777	772	773	767	774	780	787	791	785	784	780	780	774	771	774	778	785	786	785	778	776	776	778	779	783	769	768	767	770	771	775	783	787	791	791	788	784	779	777	777	781	799	810	770	774	773	776	775	781	773	767	761	774	793	795	793	792	794	791	790	787	788	786	788	787	794	793	795	795	801	802	804	820	822	817	822	819	816	816	814	812	806	789	786	783	783	788	789	788	788	798	796	787	792	802	812	811	810	806	796	787	793	801	800	803	807	811	815	818	817	810	808	810	811	810	817	814	815	807	806	795	800	807	812	819	809	804	801	799	802	799	804	814	818	819	817	813	812	817	819	821	820	819	817	818	817	815	809	808	810	826	842	845	837	834	833	829	821	820	820	818	815	812	809	805	819	821	824	827	827	831	833	829	824	824	823	828	833	838	837	835	827	829	0	0	0	0	0	0	0
697	688	687	685	677	677	679	681	679	670	670	670	675	687	691	689	689	686	685	683	676	675	675	674	676	678	683	680	680	683	687	690	690	691	686	686	685	685	686	683	673	668	674	674	687	684	688	696	704	704	694	689	689	691	695	698	694	692	693	697	700	699	699	697	688	686	687	698	701	700	700	700	697	692	687	688	688	688	689	702	698	689	691	698	708	698	683	673	694	698	701	704	705	699	693	683	685	692	695	699	691	686	694	696	702	705	710	710	715	714	711	708	704	710	715	717	712	710	712	692	700	705	705	709	711	713	705	700	696	694	692	693	693	693	700	698	698	700	702	707	707	706	704	706	706	710	710	715	721	719	718	718	713	708	702	703	703	711	712	712	708	708	708	712	713	706	712	717	712	714	712	715	719	714	709	713	719	717	717	718	716	711	701	699	701	708	716	733	735	730	730	720	712	711	713	727	728	729	730	733	731	734	731	732	733	734	729	722	719	720	722	724	727	728	730	735	737	736	730	731	733	736	739	738	733	733	729	729	730	732	738	734	718	718	718	721	727	722	722	714	716	717	721	724	719	732	737	735	734	732	733	737	739	739	724	725	730	733	736	734	730	730	730	734	738	736	724	723	724	722	724	737	737	741	743	745	741	740	731	730	739	741	753	759	750	743	744	746	745	742	739	738	742	748	749	748	743	742	745	743	736	734	738	743	741	741	738	737	739	742	744	745	744	747	748	749	744	745	758	760	755	750	738	738	736	736	743	753	749	757	763	761	762	756	752	755	760	773	773	759	756	751	747	750	746	754	755	758	766	767	766	763	761	756	757	756	757	762	754	758	763	767	770	771	760	760	762	759	750	747	743	733	733	745	764	758	751	754	758	770	767	754	752	754	759	771	773	770	770	762	757	759	761	764	765	769	772	768	767	770	771	766	761	766	767	771	775	778	778	775	772	771	768	767	763	763	762	765	765	771	770	782	785	784	786	784	783	787	787	782	778	775	774	746	747	751	768	770	771	766	776	769	771	773	775	769	775	782	780	775	777	769	769	764	769	776	786	785	785	769	772	772	769	770	770	766	775	781	780	776	774	777	781	785	781	772	767	760	761	762	764	764	768	782	787	782	776	767	767	770	771	772	770	769	768	772	773	775	772	764	759	771	775	775	782	795	797	792	786	781	779	779	790	790	784	780	784	780	782	787	793	799	802	804	813	825	811	801	802	800	798	795	794	781	781	778	784	785	790	791	788	782	777	778	783	795	801	809	792	785	779	789	797	798	799	801	806	813	817	816	813	809	806	803	800	799	806	808	798	800	795	795	808	815	813	808	803	802	800	797	791	794	801	813	815	813	810	813	815	814	808	800	796	792	801	815	813	811	811	805	814	817	817	817	814	814	806	800	795	795	791	785	786	789	791	801	807	811	816	821	819	811	818	819	819	819	820	828	829	833	835	835	835	0	0	0	0	0	0	0
688	688	682	677	672	672	672	672	670	666	672	672	675	679	687	689	689	686	681	683	676	674	674	674	677	675	671	676	676	684	686	687	688	688	687	687	683	682	677	673	671	672	675	675	679	686	691	690	689	688	687	687	687	693	697	693	692	690	692	695	691	686	687	687	685	682	679	678	676	674	677	678	678	676	674	674	681	681	685	690	688	686	691	697	699	699	689	677	679	692	699	701	705	706	686	682	687	696	701	694	690	684	683	688	699	701	707	707	707	707	709	710	709	710	712	712	708	698	690	693	695	697	700	701	703	698	698	699	705	706	707	703	703	705	697	690	693	696	695	692	699	701	703	704	704	705	710	712	700	713	716	718	703	700	699	701	699	709	709	707	706	702	702	697	696	701	707	706	709	707	710	711	715	710	711	704	700	700	703	701	700	700	699	700	704	707	724	712	713	714	714	715	709	711	717	725	726	728	728	730	732	734	735	733	733	724	722	716	716	718	716	719	720	710	709	713	729	731	731	728	731	732	735	732	732	734	732	727	730	736	730	725	719	716	719	721	723	716	714	715	714	717	711	712	712	721	722	738	739	739	738	736	733	723	712	716	728	726	718	702	714	718	719	720	720	717	718	720	719	720	726	727	728	721	720	721	722	736	729	722	718	732	738	734	730	720	718	723	728	729	727	725	724	742	748	746	738	736	740	743	729	729	734	741	741	739	734	732	733	736	736	735	737	738	740	747	744	744	746	750	752	748	733	736	736	740	748	751	749	750	763	763	763	752	750	749	755	764	757	754	748	744	747	744	742	743	745	750	757	758	762	759	757	752	752	752	758	766	764	753	758	763	767	759	755	749	753	755	748	741	733	731	734	740	750	760	754	751	743	748	745	747	752	758	759	767	767	767	766	762	762	759	759	760	761	762	757	757	761	760	755	748	743	753	759	759	771	772	769	766	764	765	764	763	761	757	758	761	763	764	771	776	777	756	756	771	785	781	779	776	765	751	746	745	739	738	740	743	751	755	758	771	768	772	769	766	767	774	774	775	774	770	768	763	767	770	779	780	765	765	765	764	764	761	768	766	767	775	778	776	774	770	776	780	779	778	758	756	751	754	753	761	763	764	759	767	766	759	762	767	776	774	766	768	765	758	769	767	760	765	769	770	767	771	777	792	796	791	782	775	770	768	773	785	783	779	783	786	774	776	778	772	771	777	785	782	785	785	782	780	780	779	778	779	773	772	779	780	780	783	784	779	770	765	772	759	767	777	781	781	779	779	786	798	798	801	810	810	810	815	809	805	800	794	786	780	785	785	787	793	796	800	808	815	813	807	800	797	795	789	787	784	788	794	795	796	801	805	816	814	808	800	794	791	790	792	811	811	809	811	810	808	805	801	797	792	790	792	792	788	786	790	793	792	796	801	801	804	809	810	811	809	808	808	809	815	815	822	822	822	820	822	823	0	0	0	0	0	0	0
684	684	670	667	661	660	660	666	667	678	678	678	681	681	681	679	674	674	674	673	671	673	673	676	672	662	659	673	675	675	675	690	692	689	683	679	679	675	674	673	673	674	673	673	675	677	684	681	679	676	678	683	683	683	685	688	690	690	691	689	682	677	683	683	680	681	678	675	673	670	675	677	676	674	673	670	677	677	679	682	682	686	687	687	691	689	684	683	683	686	692	696	706	688	688	682	682	693	691	689	687	687	686	683	689	694	693	694	695	699	701	699	703	703	703	703	686	687	687	687	688	688	692	697	700	691	693	688	689	695	701	700	704	701	685	686	688	692	692	688	690	694	697	693	695	700	704	709	700	690	702	705	700	701	698	700	699	706	705	704	699	695	689	688	688	696	702	704	703	703	705	709	709	707	707	706	704	699	699	695	690	694	698	700	700	699	694	697	701	706	709	701	699	698	707	715	718	714	715	706	709	709	724	723	719	716	709	707	705	711	710	710	700	704	711	712	712	710	715	724	733	731	730	721	727	728	721	734	735	739	734	725	718	715	720	721	715	710	706	708	711	705	703	703	702	704	711	698	709	722	717	716	708	705	710	720	726	720	715	710	710	719	722	720	720	714	707	705	718	719	726	730	730	727	727	725	727	725	718	716	717	727	737	737	734	727	723	718	712	697	706	712	716	733	744	736	730	725	720	719	723	723	729	730	742	738	732	725	724	724	733	732	732	729	734	735	733	737	725	731	734	734	738	743	747	749	748	744	741	739	743	750	750	750	746	745	746	748	745	736	739	740	743	742	738	736	737	739	749	752	759	756	749	748	750	750	746	737	734	743	746	741	742	756	745	743	727	730	747	739	731	727	732	737	741	749	750	744	739	729	731	735	736	737	742	747	754	761	758	757	756	755	743	743	749	750	756	755	756	754	747	737	739	742	742	763	768	769	765	764	763	770	768	764	753	753	756	758	762	770	760	750	745	734	737	750	765	762	743	761	755	748	741	743	739	738	738	734	739	749	755	756	766	763	762	755	764	760	752	752	758	762	763	739	739	766	778	777	766	761	764	761	759	759	755	763	760	768	770	773	774	759	761	771	774	747	748	745	749	755	760	760	755	747	746	747	752	761	769	772	774	774	770	763	755	748	747	756	759	768	775	772	767	765	777	787	797	789	781	771	766	762	777	786	789	789	790	792	785	767	765	766	765	771	769	771	770	771	774	774	775	773	772	770	773	772	774	771	770	776	778	782	776	774	770	766	759	761	766	767	766	778	783	788	783	783	776	771	778	791	803	800	795	789	781	766	779	781	781	789	792	798	804	806	789	778	775	780	785	785	792	787	775	769	774	778	785	793	801	811	806	792	790	792	789	794	790	803	805	804	804	804	803	799	796	793	787	788	788	788	786	785	789	796	800	803	811	815	815	813	799	793	795	795	804	813	812	803	803	800	800	805	810	0	0	0	0	0	0	0
673	673	670	655	654	653	653	660	669	683	679	679	672	667	665	657	655	655	661	669	665	667	669	669	660	658	659	674	675	675	676	680	688	686	680	675	675	671	669	669	663	664	666	671	671	674	672	678	679	673	669	670	668	668	668	669	678	685	689	683	678	678	681	682	682	677	671	663	662	677	682	683	683	681	667	666	673	675	675	676	679	683	683	682	684	683	673	672	677	677	672	669	676	687	689	685	675	680	682	682	682	684	686	681	685	686	686	684	682	681	687	674	678	681	685	684	684	684	679	681	681	678	681	685	684	686	685	677	686	691	696	696	695	683	680	682	682	687	690	686	688	688	684	685	689	694	701	706	697	690	694	692	691	690	693	700	702	702	698	695	695	696	693	686	686	693	696	698	696	695	698	700	703	700	703	704	704	702	696	690	687	692	695	696	697	694	697	689	690	690	690	696	694	692	693	698	704	714	715	705	696	698	694	701	710	703	704	703	699	701	702	691	691	695	702	711	698	702	706	717	724	728	715	721	725	724	723	712	717	721	722	718	714	708	713	715	711	708	703	703	704	695	703	704	702	700	691	694	702	711	713	710	705	701	711	707	720	715	710	708	710	715	720	717	714	711	698	697	713	716	726	729	730	726	724	725	726	716	718	718	716	721	727	733	729	732	729	720	711	696	696	699	714	722	730	725	711	703	693	707	722	723	725	725	731	734	727	719	710	711	714	718	713	715	720	727	731	720	723	729	730	733	738	743	743	741	733	723	721	723	726	727	726	729	725	729	733	735	733	727	731	732	739	736	721	722	726	727	727	728	732	735	736	737	737	728	724	720	721	727	725	741	742	737	721	721	728	729	734	736	732	728	730	733	735	743	746	739	730	730	728	727	730	733	729	731	731	735	735	734	735	735	733	733	738	745	749	749	750	745	741	735	736	736	739	733	729	730	742	750	754	758	756	740	739	743	746	748	746	732	747	756	757	749	738	736	732	731	738	739	745	741	734	734	734	730	732	731	735	735	745	756	764	752	760	757	751	750	738	730	734	736	738	735	730	729	730	751	764	762	760	758	754	752	749	758	755	749	758	760	759	753	734	740	736	744	748	748	750	751	759	763	754	746	746	743	748	757	765	769	772	766	767	762	747	740	736	745	750	761	764	763	751	752	749	761	759	759	754	750	749	749	752	763	774	778	774	778	775	773	753	753	760	764	758	759	761	764	767	767	765	762	762	760	756	756	765	766	761	762	766	773	774	773	770	766	761	761	763	770	771	775	775	776	778	765	755	757	761	775	791	790	787	787	770	769	774	776	773	772	770	770	776	778	776	773	775	779	788	785	782	780	784	791	790	787	779	774	779	781	774	778	781	781	781	781	783	790	790	788	794	793	796	793	790	784	783	783	779	782	783	785	787	795	798	801	791	775	780	785	781	787	787	788	801	803	801	784	788	780	792	789	800	0	0	0	0	0	0	0
654	659	659	655	655	658	664	664	669	675	672	666	666	657	659	662	654	654	659	664	659	661	660	660	656	654	659	664	673	673	675	677	681	683	676	667	667	661	656	665	663	663	664	667	667	669	669	668	669	667	667	664	662	662	664	666	670	677	677	673	670	673	681	675	675	679	675	674	675	682	681	679	679	679	678	672	670	668	673	673	676	675	679	681	680	670	670	672	675	678	675	668	672	679	687	672	669	669	669	673	675	675	679	679	684	684	683	677	676	682	681	675	675	679	677	672	673	677	674	670	667	671	676	683	683	677	672	675	680	685	688	690	690	679	679	680	679	680	679	683	681	681	682	681	686	692	695	696	692	689	682	690	688	689	690	691	699	698	692	691	695	696	695	692	693	694	695	694	687	685	693	695	694	693	691	687	693	693	692	687	683	686	687	689	692	693	694	687	685	689	691	693	692	690	694	698	705	716	714	688	684	686	688	685	688	689	701	702	698	693	682	695	702	706	706	690	692	696	695	692	699	707	707	698	697	697	696	701	716	717	719	717	709	702	706	709	698	695	699	695	691	695	711	713	705	707	695	694	695	705	704	696	693	692	695	697	697	712	704	704	709	716	716	710	701	692	684	686	695	705	712	723	723	719	717	720	715	714	714	713	705	705	726	729	732	729	720	714	710	704	699	698	704	711	717	712	703	698	698	699	701	715	719	717	726	727	721	705	705	711	715	718	713	712	712	712	726	717	720	724	731	733	733	725	720	721	720	723	721	722	724	725	726	722	711	711	719	736	735	739	737	733	723	715	719	713	718	717	724	722	725	729	731	732	724	725	723	719	712	715	716	716	723	724	721	721	727	729	734	730	726	723	722	719	729	728	734	730	728	726	724	721	734	733	731	734	735	733	729	725	732	733	731	728	730	734	742	739	733	733	734	734	739	739	741	730	727	727	730	732	730	733	732	738	739	733	730	733	730	747	753	757	754	748	737	734	734	732	728	731	736	733	722	723	729	726	727	727	729	732	737	747	752	750	743	739	734	731	732	731	735	733	732	727	724	723	724	735	732	736	742	740	743	747	753	751	750	746	737	730	734	737	736	733	732	743	746	749	752	753	762	758	753	745	742	745	751	758	755	756	759	761	762	763	764	759	742	735	743	747	755	741	742	743	745	748	749	749	747	742	741	742	744	757	769	764	761	765	760	757	750	744	744	751	752	753	754	756	758	754	755	751	747	752	753	751	760	759	756	753	752	759	762	762	766	766	762	761	762	771	774	770	772	772	769	760	754	749	761	770	770	782	786	772	771	776	777	772	770	771	771	763	762	769	770	769	777	780	782	781	778	780	781	780	777	774	767	763	758	762	760	761	762	755	749	766	772	779	782	785	786	786	783	782	780	778	774	774	771	774	779	782	786	792	793	788	772	768	766	775	776	776	776	779	799	800	797	789	778	780	789	785	783	783	0	0	0	0	0	0
649	653	653	655	657	659	660	660	661	663	659	655	655	651	657	657	658	658	658	658	659	653	655	655	651	649	650	656	661	672	672	673	675	673	673	661	661	661	662	664	662	659	657	662	661	661	670	669	663	663	659	659	659	661	661	663	668	669	673	673	660	668	669	665	662	662	665	667	671	665	661	658	655	655	658	669	671	670	666	666	666	674	673	680	674	671	669	672	677	680	677	673	674	676	671	666	662	662	661	662	664	667	668	671	677	679	676	670	670	674	669	670	660	661	669	671	672	673	665	660	665	669	674	678	676	672	673	675	680	685	688	690	682	678	679	680	679	676	676	679	680	679	676	670	671	674	680	684	685	682	682	687	682	685	687	686	692	691	688	685	687	691	692	693	690	695	694	687	684	685	685	687	686	684	688	681	682	683	687	677	679	681	679	679	680	685	690	691	687	692	695	694	693	692	688	687	693	694	693	688	690	689	688	687	689	689	684	680	679	687	687	691	706	699	688	685	687	690	691	697	700	699	697	690	694	692	694	696	697	706	715	718	713	702	706	701	698	698	702	703	705	709	708	710	714	707	700	693	686	688	698	692	692	688	690	692	694	698	704	708	710	714	713	702	695	707	709	699	695	690	690	695	697	707	701	703	705	711	712	702	697	697	721	723	704	700	704	700	696	696	698	697	700	709	711	707	700	693	698	698	694	705	709	711	706	701	691	695	696	707	712	712	712	712	706	706	703	700	703	701	701	703	712	714	715	714	714	711	711	713	718	721	721	716	706	706	710	716	727	730	731	726	719	710	710	713	714	712	715	712	716	724	714	716	718	718	714	700	702	711	710	711	718	719	721	721	722	718	721	725	722	718	711	716	719	724	728	726	723	721	720	720	729	732	734	736	734	730	721	719	718	730	723	723	726	728	728	730	722	723	722	721	723	725	733	734	735	734	736	727	725	723	721	716	732	726	727	725	735	754	757	756	750	737	734	733	734	730	727	728	726	723	716	717	722	720	720	722	725	728	729	732	740	734	732	731	732	733	732	732	737	743	743	736	732	737	740	731	731	720	715	723	727	734	730	731	737	733	734	732	729	737	738	735	739	738	725	727	738	737	749	740	736	729	732	739	753	752	750	750	753	760	762	761	758	758	753	733	737	740	744	733	733	733	739	743	745	742	742	738	735	734	734	734	747	759	763	756	750	746	742	739	735	744	747	746	749	748	747	748	747	737	738	742	751	754	742	755	750	744	743	748	751	756	760	765	761	760	762	768	771	768	767	767	762	760	752	748	751	763	765	764	768	783	782	777	772	767	771	770	762	758	765	768	769	766	766	772	776	776	772	770	763	762	758	752	746	745	742	756	759	766	772	768	751	751	762	766	771	774	782	781	775	775	776	774	774	769	767	768	774	780	787	789	788	777	764	764	764	772	775	775	772	769	789	794	796	795	780	780	782	778	776	776	0	0	0	0	0	0
648	652	652	655	642	646	651	651	652	645	649	656	656	658	660	656	659	657	657	656	655	647	649	646	646	645	648	656	661	668	668	666	662	660	656	654	664	664	665	663	657	652	650	649	646	646	657	661	660	656	653	654	655	658	658	663	667	667	668	668	667	668	668	656	652	652	644	647	653	658	656	653	655	659	662	655	654	653	657	655	655	661	667	673	673	669	669	672	674	674	671	672	677	653	651	660	661	660	657	656	658	659	659	657	660	664	665	663	665	650	648	652	655	656	663	665	670	673	670	667	670	676	665	677	666	661	670	674	672	681	682	678	675	677	681	682	678	673	675	677	680	679	664	654	662	678	681	685	683	678	675	676	674	673	676	682	684	683	679	678	679	684	688	680	675	677	675	676	679	680	678	678	678	676	670	670	677	679	683	680	675	666	663	673	677	681	682	684	688	690	685	673	679	684	688	687	687	690	688	693	692	690	689	689	690	683	678	671	677	682	687	689	701	686	682	676	685	688	687	689	691	694	690	687	687	690	693	693	693	695	699	704	707	706	703	704	703	699	700	701	702	703	701	697	686	676	682	680	678	678	678	678	677	683	688	695	698	697	704	707	705	678	671	692	693	707	699	699	696	692	692	690	688	687	697	692	702	708	708	696	695	696	703	714	704	698	697	694	692	693	696	702	704	705	701	700	693	688	692	690	694	695	700	698	689	683	682	682	684	695	708	710	708	706	700	697	697	697	683	682	681	685	689	705	711	714	710	705	705	710	715	719	718	702	700	703	704	708	714	716	720	717	719	713	707	709	709	709	706	708	706	701	700	713	709	707	709	706	693	709	709	709	706	712	715	712	711	712	714	713	715	712	705	710	716	724	725	718	718	713	717	720	730	727	728	734	733	728	718	715	715	716	719	716	715	714	721	727	723	713	714	711	718	722	724	728	733	733	733	735	717	715	715	710	712	722	708	706	703	713	725	727	722	721	722	730	730	729	735	732	726	716	712	712	716	714	714	719	724	725	719	713	712	714	721	729	734	736	734	734	737	739	726	733	737	737	738	740	729	722	720	721	722	722	714	715	719	724	731	732	727	726	722	725	733	727	717	718	720	724	731	724	717	713	715	727	733	742	740	739	739	743	755	756	754	751	740	736	731	733	734	727	725	729	733	739	742	744	739	735	735	736	736	731	725	721	747	750	751	749	741	736	725	733	743	742	743	739	744	744	736	731	731	739	749	752	739	740	744	739	738	741	743	748	752	753	755	757	758	763	763	763	761	758	760	750	748	747	748	749	750	747	742	740	742	746	746	748	752	750	746	743	749	763	768	763	757	750	751	749	751	758	754	743	742	743	746	750	759	762	764	768	766	760	761	749	760	770	772	770	761	777	773	775	783	783	779	769	762	768	770	770	775	784	774	757	764	765	769	768	764	764	759	759	778	787	794	795	791	780	774	774	774	773	0	0	0	0	0	0
647	651	645	645	630	631	631	631	636	639	647	654	658	658	661	657	657	656	656	653	650	643	641	641	641	640	652	661	664	660	660	652	649	648	647	648	663	664	664	660	651	648	647	642	643	643	647	651	652	653	653	651	653	652	652	656	661	664	664	665	665	665	651	646	642	642	641	647	657	657	657	655	654	657	657	660	654	643	643	641	641	648	651	651	644	664	665	668	666	662	660	656	649	647	645	644	656	660	659	652	649	650	649	645	645	648	656	663	664	660	652	653	656	655	656	658	665	660	661	666	671	671	669	664	662	657	664	659	666	663	662	666	674	677	681	679	676	672	670	673	678	677	665	655	652	650	675	682	682	677	675	674	676	673	672	672	674	684	680	674	670	666	663	664	665	666	665	663	668	673	676	672	669	669	666	669	674	677	678	676	672	667	661	662	669	675	678	680	683	687	678	673	671	680	680	681	682	681	687	686	689	686	685	685	673	672	671	669	672	679	683	687	686	682	678	679	675	679	681	682	687	684	682	684	685	687	690	684	679	681	684	689	703	699	694	686	697	698	696	698	699	697	692	688	677	673	678	674	675	676	678	679	678	675	683	685	692	693	688	688	679	675	674	674	680	688	695	695	696	697	690	682	683	683	681	690	697	702	704	703	694	693	709	715	711	693	689	687	687	690	695	698	698	694	693	692	691	692	691	694	695	694	691	689	683	683	682	682	683	684	696	699	701	699	694	692	688	689	682	677	679	682	686	696	707	709	708	702	699	706	711	701	700	696	694	700	701	700	709	702	707	694	698	699	707	708	706	705	700	697	699	701	701	699	709	711	695	688	678	688	705	704	701	703	708	705	702	704	704	702	707	706	700	703	709	712	709	701	701	706	716	715	719	719	718	716	714	714	710	715	719	726	713	712	718	719	716	716	716	714	703	703	708	702	713	727	733	728	725	713	710	712	712	719	722	719	710	708	707	715	715	716	710	714	713	713	715	724	730	730	727	725	712	709	715	709	714	717	724	724	717	712	711	711	704	721	734	735	732	736	738	736	726	732	732	730	730	717	718	722	723	719	707	705	703	707	714	718	718	722	723	722	723	729	730	728	720	707	710	711	722	717	711	708	713	719	724	727	733	734	730	729	734	737	736	741	725	725	729	727	726	723	720	723	727	732	739	741	735	729	735	736	734	729	715	715	731	747	744	747	740	732	725	729	733	738	739	733	735	732	730	725	725	730	740	752	739	737	735	735	736	737	741	744	748	749	749	748	752	758	761	758	756	749	748	748	746	748	749	755	758	750	746	740	741	743	741	745	737	732	729	743	737	750	752	753	753	755	751	753	750	743	738	734	733	733	735	736	744	756	756	760	761	759	756	753	749	749	749	748	745	765	770	774	780	780	777	752	756	760	765	766	769	764	754	761	768	773	768	765	765	760	757	752	759	773	772	775	770	779	772	778	778	774	0	0	0	0	0	0
623	625	628	628	630	629	631	631	631	633	639	650	656	656	658	655	653	654	654	650	642	641	639	637	637	639	648	651	654	652	645	645	640	641	641	646	650	658	658	657	648	646	646	643	643	644	644	645	645	645	645	645	645	643	649	649	653	654	653	654	654	653	637	635	635	636	636	646	649	652	653	654	653	655	658	658	656	649	648	646	649	649	650	649	649	646	658	663	659	657	652	651	637	638	640	637	634	651	647	642	642	644	644	645	648	652	651	652	659	657	654	654	652	654	652	653	653	658	660	662	664	664	662	659	658	646	642	641	651	657	658	658	660	672	677	679	675	670	664	666	669	671	666	654	650	655	659	666	670	669	672	666	665	662	665	666	669	678	673	669	664	658	661	662	662	662	662	663	665	663	663	662	658	653	651	667	671	669	659	673	674	670	667	664	665	667	671	670	674	671	671	668	673	674	677	678	677	676	678	680	681	681	680	680	672	672	672	676	677	677	678	678	678	678	675	672	675	680	681	683	685	679	680	680	679	684	683	676	675	677	681	685	683	681	675	675	681	682	684	687	688	691	688	681	672	667	672	671	670	674	674	674	674	672	676	681	682	673	668	663	664	674	675	677	680	676	675	674	676	687	687	686	677	676	677	684	694	694	696	695	687	675	686	693	702	687	683	682	685	689	693	693	688	684	687	691	695	692	692	694	691	691	689	688	684	681	681	681	683	682	689	688	692	694	692	687	684	683	680	678	681	679	684	694	699	702	701	700	696	696	695	693	692	687	693	694	695	688	691	688	689	687	688	698	701	709	703	700	697	695	697	697	700	713	712	693	688	690	672	675	683	685	693	700	705	700	699	685	681	679	684	687	686	684	685	691	695	693	687	695	689	701	707	707	704	706	707	707	710	714	707	701	689	691	696	709	715	719	711	698	701	694	692	694	695	697	704	708	716	697	696	686	687	688	691	698	718	712	706	701	696	683	683	690	696	712	714	718	717	722	729	725	720	716	713	713	712	717	721	723	714	711	709	706	702	705	727	730	734	731	735	734	733	734	720	718	710	710	722	719	715	711	704	701	698	702	710	711	713	715	716	704	717	723	725	720	719	710	704	702	703	713	716	717	712	714	715	719	727	727	723	723	729	734	735	733	718	718	712	711	712	719	723	722	720	721	724	733	735	738	736	730	718	712	712	725	726	727	718	717	736	733	731	731	730	718	719	727	726	724	720	718	719	734	746	742	733	728	729	731	735	735	739	740	741	732	738	738	741	743	733	730	733	732	730	734	746	749	749	753	754	754	748	744	746	749	739	741	735	731	728	739	732	738	743	731	737	744	754	751	736	730	730	729	729	728	728	727	732	738	736	736	737	734	726	729	732	733	735	742	746	735	739	738	738	739	739	746	749	750	755	760	752	749	745	744	747	760	766	764	764	759	755	750	746	758	767	765	765	771	774	774	775	776	0	0	0	0	0	0
623	621	621	621	625	628	626	624	624	624	630	636	639	639	641	644	647	638	639	639	640	641	642	633	639	639	642	647	647	644	637	637	637	634	637	643	649	649	649	651	646	646	648	646	644	642	642	643	643	645	633	625	630	640	647	647	648	643	645	647	646	643	638	631	630	634	634	648	646	646	644	645	647	649	651	652	652	652	652	651	650	650	653	650	648	645	645	640	652	648	644	636	636	636	640	637	628	629	631	634	636	640	641	640	639	645	646	633	638	650	648	650	650	653	652	647	642	645	656	656	650	653	653	653	652	650	636	642	644	648	649	650	657	662	666	669	668	664	656	660	664	667	661	657	653	659	664	666	666	665	661	655	651	651	653	658	661	663	670	662	658	649	651	656	661	663	666	671	668	659	661	656	654	650	646	647	649	650	658	669	671	671	667	665	661	650	649	652	664	669	669	674	671	672	675	678	675	673	662	666	677	668	672	654	657	668	675	676	675	674	674	672	672	675	669	666	667	683	689	687	684	683	681	679	674	671	672	669	671	676	680	681	681	675	669	666	672	675	678	671	656	656	662	671	667	668	667	659	660	663	669	670	666	669	675	674	676	674	667	661	661	658	671	674	675	673	673	672	672	675	678	683	680	676	675	675	684	687	685	677	673	676	687	688	677	675	676	675	673	673	674	672	669	668	672	679	691	693	693	689	684	686	675	666	665	667	672	676	680	680	675	680	671	686	685	684	681	680	671	675	677	675	681	685	691	695	692	689	687	686	684	681	684	682	682	682	683	682	682	682	680	677	681	691	694	694	693	691	682	671	666	665	667	684	682	680	686	683	680	676	676	681	702	702	701	701	694	683	679	674	670	677	680	674	676	677	678	681	689	687	688	690	689	686	682	687	694	694	697	694	686	695	692	690	691	692	715	711	711	706	688	683	683	689	690	691	691	692	694	697	683	679	675	679	684	698	708	712	711	694	686	686	680	691	701	714	714	715	712	714	720	722	718	718	713	711	711	709	713	721	710	706	710	705	701	697	696	701	703	703	704	705	707	720	729	709	717	722	721	717	713	705	701	697	696	700	705	705	691	685	689	692	698	713	717	715	709	705	700	699	701	707	715	718	716	713	711	712	722	721	717	717	724	727	729	712	713	712	711	711	713	721	716	712	710	710	721	727	736	731	719	703	702	714	724	722	721	716	713	712	714	714	710	707	702	699	699	708	713	713	717	721	728	731	736	733	722	720	718	720	723	720	715	724	726	727	721	720	716	722	723	727	730	730	721	727	743	746	743	750	754	752	746	741	744	747	746	734	729	729	726	725	729	729	721	728	732	743	744	735	728	723	719	722	721	721	722	721	722	730	730	727	726	726	732	735	718	714	718	724	744	740	731	729	725	725	725	727	742	744	745	743	744	741	738	735	735	741	754	754	758	757	755	751	749	750	752	754	755	769	772	772	775	768	0	0	0	0	0	0
616	611	622	622	631	603	610	619	619	620	623	629	634	637	637	636	628	628	632	632	636	643	644	638	636	636	644	644	639	627	633	631	631	629	629	630	635	645	646	646	636	635	642	647	645	640	638	638	633	630	625	620	624	632	642	644	644	648	649	646	643	642	628	627	627	641	645	645	643	637	636	635	638	649	649	646	645	646	646	648	650	649	649	640	642	644	642	636	634	635	635	653	663	665	648	638	631	641	650	649	643	638	630	629	634	640	635	631	626	634	641	643	645	645	645	643	644	649	648	647	645	643	646	648	650	647	646	643	644	644	646	646	651	651	648	647	644	639	646	648	654	658	654	655	655	657	662	663	662	656	657	652	650	648	651	654	656	655	647	660	644	645	643	644	655	665	671	669	665	659	652	651	647	645	645	648	650	652	657	659	665	665	663	664	658	649	644	649	658	664	668	670	670	674	673	667	663	661	668	662	666	672	671	652	652	659	671	670	666	668	668	670	666	659	659	660	662	684	683	672	667	669	668	667	663	661	656	665	669	674	678	680	678	668	666	661	657	670	673	670	665	651	649	653	658	672	662	662	661	660	654	659	658	668	674	670	671	667	662	662	660	657	655	667	670	670	663	664	668	671	674	674	680	671	669	669	670	678	676	674	671	672	674	673	671	671	669	665	663	665	668	668	668	662	661	664	661	661	673	671	678	663	666	665	665	666	669	674	675	679	679	680	682	672	674	677	675	670	670	674	665	666	667	678	681	685	682	683	672	666	666	669	671	671	677	676	675	673	671	673	673	674	676	675	684	694	692	686	682	671	668	667	657	666	671	676	680	675	663	676	683	680	696	693	690	683	678	678	673	671	665	666	675	675	678	677	676	682	682	680	679	683	681	673	675	678	684	687	692	691	684	686	694	695	695	701	704	699	695	693	686	684	689	693	693	692	693	693	695	692	682	672	672	675	683	691	709	708	698	691	682	685	685	687	699	709	711	712	712	708	707	705	715	711	713	708	689	689	696	703	703	705	707	700	697	694	691	688	695	700	700	703	701	695	692	695	698	712	711	701	695	704	702	697	696	696	697	696	690	680	680	687	696	701	705	707	702	699	692	695	699	711	714	719	717	705	705	707	710	718	714	712	717	718	718	711	706	707	707	707	712	716	716	711	710	709	715	719	723	728	714	703	701	706	703	708	704	700	703	706	710	708	705	704	697	691	697	707	719	715	716	718	720	726	729	725	715	719	716	719	722	715	714	718	709	712	711	704	704	715	719	720	718	716	715	721	729	745	742	746	748	737	737	735	727	733	739	730	722	721	722	721	724	720	717	722	733	741	739	734	726	708	713	713	715	715	716	716	719	723	729	729	727	736	734	721	712	704	705	714	718	735	726	731	721	721	725	729	729	728	731	730	735	739	735	731	728	734	739	739	744	744	745	748	745	746	741	745	751	763	763	763	763	764	0	0	0	0	0	0
606	617	620	616	616	603	596	599	608	608	615	622	625	626	626	629	633	637	638	638	639	642	629	624	623	623	624	624	625	627	628	628	628	624	623	623	625	634	636	636	622	630	623	627	628	627	629	629	629	626	624	628	632	638	646	646	646	645	651	645	643	639	622	622	631	637	641	641	638	633	627	629	635	645	644	638	638	637	639	638	640	641	629	629	625	629	632	632	632	625	634	644	651	648	642	641	632	635	647	648	647	635	629	632	633	633	630	628	622	626	628	630	636	637	637	630	641	644	645	644	641	640	644	646	642	642	642	646	649	640	635	634	637	635	641	627	630	633	637	644	650	654	655	650	650	653	650	655	651	652	652	651	646	642	644	647	650	649	645	650	650	645	645	645	640	643	652	659	657	652	650	643	644	645	647	647	650	652	652	654	655	656	657	656	657	653	652	656	656	651	654	666	677	678	674	669	663	664	668	657	656	658	652	643	646	654	665	667	666	659	656	647	636	631	629	633	640	662	665	660	659	663	668	667	656	651	647	649	657	666	665	663	664	664	664	657	652	656	664	669	655	649	644	656	656	667	666	664	658	657	649	651	652	667	672	670	668	663	658	652	650	645	652	659	660	657	655	655	660	663	647	660	657	658	660	669	669	667	663	673	669	668	669	668	666	663	656	659	659	659	665	666	665	658	652	656	655	657	660	659	664	660	666	667	669	669	663	662	669	675	679	676	673	670	668	674	673	670	670	671	662	662	665	667	671	673	671	669	659	662	663	662	665	666	666	668	666	665	662	664	666	668	670	671	674	678	682	682	684	676	671	661	661	661	668	674	671	663	662	663	681	680	683	683	682	678	678	676	673	667	664	659	669	684	681	675	681	671	668	670	670	673	672	670	676	679	683	684	684	684	685	689	689	690	690	692	693	685	677	675	671	670	678	693	690	690	695	696	690	680	671	668	670	677	684	689	698	698	685	678	679	679	687	688	698	698	704	706	707	706	704	698	698	694	691	691	686	694	693	694	696	696	701	703	701	693	688	686	689	694	684	683	691	690	688	690	692	693	693	700	693	694	701	700	694	688	682	688	685	678	679	680	679	681	693	709	698	694	691	693	699	706	708	708	709	708	701	704	707	707	710	710	711	713	717	711	707	705	696	699	704	709	707	707	707	709	704	702	703	703	702	697	692	691	697	704	701	696	695	692	702	704	704	703	701	691	695	705	711	712	709	709	715	713	716	714	716	715	713	719	712	711	711	710	711	702	696	695	696	696	700	705	709	707	710	699	705	704	739	736	724	725	728	728	725	714	713	714	715	719	718	717	717	713	713	718	727	737	731	725	707	699	707	705	708	710	712	715	718	723	725	728	721	725	727	718	706	700	703	706	711	726	726	727	716	716	723	727	727	724	723	726	729	732	731	726	721	731	731	737	736	738	735	735	737	733	732	731	736	746	746	743	739	746	0	0	0	0	0	0
617	611	605	599	599	596	595	597	600	600	606	612	619	620	620	624	630	633	639	637	637	633	613	613	617	621	621	621	621	621	626	625	625	623	619	613	614	615	617	617	608	617	623	624	623	626	630	630	627	623	621	624	631	638	643	645	644	644	642	639	635	628	620	617	627	635	638	636	636	631	627	624	625	629	629	625	625	627	629	631	635	641	632	632	625	628	633	633	631	618	628	635	640	640	633	630	623	619	616	627	634	639	636	631	627	625	623	620	618	619	625	626	629	629	628	628	631	637	636	631	634	635	646	644	639	635	639	642	631	631	627	631	636	631	631	620	621	626	632	643	650	653	657	648	650	649	645	648	643	647	648	649	645	640	638	642	648	650	644	647	647	642	644	645	640	642	652	655	652	647	642	642	639	643	639	636	636	640	646	649	635	635	638	641	643	644	639	642	642	642	644	653	660	664	663	660	669	666	664	653	648	643	639	635	640	647	659	663	661	653	641	636	634	630	631	639	647	657	650	655	655	661	666	653	654	649	647	642	641	641	661	663	664	664	662	656	652	660	648	664	653	648	644	646	651	649	663	661	657	652	645	647	663	666	664	663	662	649	644	644	647	647	647	651	651	650	650	650	649	653	644	645	649	653	663	667	668	665	661	666	670	668	664	663	661	661	653	648	644	650	660	660	666	653	654	646	654	653	658	658	653	655	659	662	662	661	657	654	660	663	667	661	670	676	675	674	670	669	670	666	663	662	663	665	663	658	656	653	654	658	659	661	659	661	663	662	659	660	658	657	660	662	664	665	674	673	674	670	672	679	672	664	664	666	666	668	667	664	663	673	674	677	681	682	678	677	678	673	672	662	654	654	676	683	680	676	669	662	661	664	664	667	674	673	674	679	680	680	679	675	679	683	687	687	679	679	679	680	678	675	670	668	673	674	688	687	681	687	684	674	665	665	668	678	683	689	690	681	675	675	671	663	678	688	691	689	688	688	703	700	697	695	693	688	687	683	686	695	690	689	690	690	690	690	697	691	687	681	675	678	683	688	690	688	685	688	689	688	689	685	689	688	694	692	690	692	689	685	681	676	677	679	683	687	687	688	697	687	690	693	698	700	696	694	703	703	703	707	704	690	691	700	699	696	695	691	691	686	681	680	691	701	700	703	698	695	692	695	697	698	695	691	688	688	688	691	697	694	691	691	691	698	702	700	696	688	689	694	700	704	702	703	703	701	703	712	703	700	698	699	701	703	710	712	710	702	699	692	692	695	699	703	701	699	692	703	704	702	699	697	699	716	721	722	723	712	704	701	700	709	711	713	710	711	709	707	703	724	720	706	693	698	699	701	703	706	709	714	718	720	717	718	721	724	721	711	700	698	697	702	706	706	707	721	726	723	714	711	711	715	725	723	726	729	726	720	719	718	718	731	730	731	733	734	734	729	724	726	712	723	742	740	736	730	0	0	0	0	0	0
610	608	603	600	600	597	595	594	597	597	602	613	616	621	618	618	620	628	614	613	613	613	613	615	625	627	627	625	620	621	623	621	618	618	610	607	602	603	603	608	611	606	609	615	622	628	632	632	632	627	624	618	610	613	623	643	640	640	634	634	632	621	620	617	616	618	623	630	630	628	623	619	620	621	621	622	623	626	626	624	620	614	619	634	634	635	638	629	618	614	620	628	633	633	630	626	619	616	615	617	626	628	631	626	620	618	617	617	619	619	620	627	628	628	626	628	631	625	625	626	622	637	637	632	626	627	629	626	627	626	624	629	634	636	635	625	614	617	626	633	644	648	645	641	646	645	645	639	641	643	642	642	641	636	635	639	649	651	647	634	635	638	641	644	643	642	640	636	641	643	642	636	634	633	632	626	630	637	642	642	634	635	638	641	641	632	633	639	641	641	640	641	650	652	648	653	659	665	655	649	640	640	637	635	636	639	648	652	655	642	637	636	634	632	637	639	636	636	638	638	641	644	643	648	652	650	647	642	638	647	650	645	644	652	657	655	655	656	642	642	650	646	647	643	643	649	658	656	647	644	643	643	645	653	653	656	650	635	636	641	645	644	643	644	644	649	648	646	644	642	645	642	646	652	659	658	659	659	657	663	668	668	661	652	645	642	632	628	636	651	654	661	661	661	652	646	646	650	655	660	659	659	659	658	657	654	646	647	652	650	655	666	655	674	674	671	669	661	664	659	663	662	657	656	657	657	656	653	653	654	657	657	654	648	652	651	652	656	660	655	647	649	656	665	672	674	672	665	666	668	666	664	663	663	660	660	659	662	664	666	669	672	677	677	676	677	678	676	664	659	656	648	654	672	672	664	662	661	656	655	655	657	664	667	668	667	674	678	677	675	674	668	674	676	674	673	675	675	675	673	671	668	666	669	670	671	675	671	667	667	662	659	664	674	679	682	678	675	677	678	665	670	677	683	684	684	684	686	683	681	680	679	688	684	680	684	685	689	684	685	683	688	685	684	677	681	681	681	674	678	683	691	695	695	685	674	676	679	678	675	674	683	683	690	690	691	688	685	681	675	676	679	683	686	689	686	678	681	689	693	695	692	684	677	684	680	678	690	692	685	683	681	687	686	686	689	698	693	687	687	677	674	672	684	698	693	692	693	694	694	690	674	673	679	684	689	694	693	689	692	692	694	693	689	686	682	685	692	699	702	703	700	698	700	703	710	701	698	695	699	696	700	703	708	711	708	702	696	696	696	690	687	691	691	692	697	700	699	696	697	697	703	707	711	720	705	699	691	702	697	711	708	703	698	705	703	701	700	690	684	686	690	693	697	701	704	704	712	717	715	704	716	720	723	710	702	696	696	696	699	709	709	712	710	707	708	702	697	703	708	716	722	725	724	718	717	716	716	716	727	725	725	732	734	733	729	721	711	715	715	723	727	726	728	0	0	0	0	0	0
601	603	604	600	596	596	594	590	594	603	603	607	614	609	609	609	605	603	602	605	609	609	614	609	610	613	615	615	619	619	614	611	605	605	600	608	611	614	613	611	611	602	604	609	624	628	622	623	623	621	614	606	606	610	619	626	631	628	628	627	624	623	620	614	612	610	610	614	621	621	621	618	618	617	616	615	622	623	626	624	619	614	611	614	616	616	618	607	611	615	620	624	617	609	612	619	614	610	608	612	617	623	629	629	629	628	626	625	624	623	623	620	621	623	623	625	627	623	621	621	628	631	629	625	628	626	629	622	624	623	619	624	625	629	629	624	618	618	623	627	634	637	636	636	637	631	628	626	625	627	625	626	628	619	629	631	632	630	625	628	639	636	635	637	638	637	634	633	633	638	646	637	632	631	629	623	623	633	640	638	630	635	637	638	627	625	628	632	642	642	640	643	641	645	653	655	665	659	652	648	629	638	636	637	639	642	648	649	647	638	635	634	634	634	633	627	631	631	633	633	634	643	643	646	648	650	649	643	636	636	640	637	633	633	633	637	633	638	651	637	648	647	649	640	641	641	649	649	641	640	638	645	646	650	647	644	641	637	628	630	646	641	640	638	638	638	637	638	635	637	640	642	642	645	651	655	655	655	656	659	666	668	652	623	625	628	635	631	630	635	644	649	649	647	657	648	653	657	662	659	659	659	659	658	654	649	644	644	647	644	641	654	663	668	670	666	662	650	648	649	648	650	653	656	653	659	660	655	653	653	659	659	650	646	646	646	647	653	662	658	643	647	653	658	662	664	664	664	664	662	664	662	659	656	654	651	649	655	659	664	653	661	663	661	648	646	663	664	658	660	656	653	656	659	660	647	651	655	649	654	653	655	662	665	667	665	667	668	671	662	655	656	665	670	667	668	668	666	666	667	664	663	661	660	660	657	660	664	666	659	657	656	660	667	671	671	670	670	669	664	662	657	662	677	683	678	673	676	678	677	670	670	671	677	675	673	670	674	679	683	681	666	669	674	676	678	677	678	676	676	681	696	696	673	672	672	671	677	676	674	674	675	677	685	690	691	688	684	680	674	664	661	679	687	692	689	679	670	677	677	698	694	684	679	671	669	688	680	678	670	670	678	678	680	695	690	691	690	689	685	677	674	672	676	681	690	693	693	693	690	669	664	662	662	668	673	680	687	689	693	690	689	688	686	682	677	678	683	692	697	697	695	695	699	704	702	700	699	700	695	695	698	699	699	706	699	691	695	697	695	681	674	675	689	687	693	696	692	691	693	692	700	701	700	704	696	694	687	688	697	700	702	698	697	697	698	699	697	691	677	683	686	690	696	700	702	705	707	709	703	709	697	700	704	701	698	697	697	698	711	711	711	714	707	703	701	696	692	692	694	708	717	717	712	715	713	711	711	712	717	725	726	732	733	732	725	717	711	711	711	715	716	718	723	0	0	0	0	0	0
596	605	609	608	593	593	590	590	592	599	599	604	600	600	595	595	597	595	598	604	611	611	611	607	603	609	610	610	612	611	604	607	599	599	594	593	601	609	613	609	602	602	607	608	607	605	606	607	605	605	604	602	602	606	617	623	624	619	619	618	622	621	611	609	608	607	606	610	616	616	621	621	613	608	608	613	613	617	617	616	617	612	609	611	612	612	607	606	609	613	616	618	610	618	607	609	606	605	603	602	606	611	619	626	626	626	623	624	625	626	620	614	614	615	616	619	621	621	619	622	622	626	621	625	634	639	628	629	615	616	618	618	618	619	617	615	614	618	621	623	642	645	644	632	621	608	613	620	622	623	623	627	626	626	623	625	623	619	616	618	620	623	625	627	627	635	634	628	621	621	628	625	622	624	628	628	629	635	638	636	629	629	631	622	620	621	628	641	645	645	639	639	630	626	630	642	641	664	653	632	626	630	632	637	633	640	642	644	639	634	631	631	639	640	636	629	625	622	629	631	632	637	642	645	650	652	650	645	633	633	635	633	631	629	629	629	634	637	638	641	647	645	647	652	647	647	640	632	628	631	634	640	642	647	644	644	639	637	628	628	635	634	636	635	636	638	638	638	638	640	642	644	642	640	643	644	642	652	652	654	651	646	628	628	630	629	633	631	628	633	644	650	649	645	642	636	641	650	649	660	657	656	658	656	653	650	648	643	642	644	643	648	649	650	651	652	655	647	642	642	644	650	652	655	653	653	660	658	652	652	655	654	648	648	651	647	642	645	657	653	648	643	641	647	648	652	647	643	656	662	655	658	654	651	649	645	645	647	653	654	652	653	645	643	638	636	635	651	651	652	656	656	658	649	648	646	646	645	645	654	655	657	659	660	658	659	659	662	666	656	656	655	656	662	663	663	660	657	656	655	655	652	651	654	657	657	660	661	664	653	652	654	657	661	666	663	664	664	662	659	656	657	661	671	674	677	665	664	661	658	668	668	669	669	676	674	670	666	663	661	665	666	663	667	670	677	671	669	670	674	673	665	663	665	668	670	672	673	673	667	657	661	677	684	690	690	686	677	677	672	663	665	673	684	688	687	680	667	668	671	679	677	669	662	654	657	668	672	669	663	662	663	677	682	684	681	684	686	680	680	675	673	672	676	682	683	686	684	683	672	667	663	662	665	666	670	677	683	684	682	679	683	687	685	682	676	676	679	685	692	693	693	693	696	699	697	696	697	693	694	694	689	693	687	683	681	688	693	697	691	677	673	673	674	682	689	694	693	692	689	690	690	694	693	694	691	688	682	682	692	701	700	697	693	692	694	696	698	692	679	673	682	688	693	698	701	703	701	701	700	694	694	694	695	699	697	698	699	702	702	713	715	712	699	699	697	690	691	695	695	697	713	710	704	712	701	701	697	697	707	719	727	730	730	727	722	709	704	704	701	717	716	714	714	0	0	0	0	0	0
602	602	603	607	594	594	590	590	588	587	587	593	591	589	594	594	594	593	594	600	602	602	606	598	600	602	607	607	608	600	603	602	594	589	589	593	598	604	607	602	602	601	606	607	605	604	603	603	603	603	602	602	603	607	615	621	618	617	622	622	624	612	607	605	604	602	600	602	603	614	614	618	616	607	607	607	605	608	608	605	607	610	608	610	607	606	606	602	599	613	609	609	609	610	608	603	605	604	604	603	606	608	613	619	617	614	614	619	624	624	613	611	605	608	608	608	614	613	618	616	617	614	623	631	631	637	636	621	610	613	615	616	610	606	606	609	610	609	616	617	621	629	633	617	604	609	612	612	615	618	617	620	628	627	620	622	623	622	619	618	619	622	616	616	620	618	616	614	610	608	617	618	620	622	624	626	629	636	636	629	621	626	619	620	620	622	633	641	643	642	639	634	627	623	624	626	632	632	631	626	626	626	628	633	625	633	632	632	629	629	628	630	633	643	638	633	622	626	627	629	628	633	643	625	630	636	638	638	635	634	632	630	629	626	626	626	629	630	635	630	631	632	645	647	650	647	636	628	621	621	626	632	637	643	647	640	639	639	633	630	629	632	634	631	632	636	635	634	637	642	650	644	639	639	638	639	640	640	646	642	632	627	626	626	628	631	632	625	630	635	641	646	645	642	638	633	633	634	634	633	641	641	642	642	644	651	648	643	642	643	647	648	648	641	641	634	637	634	629	634	644	651	652	654	652	653	654	657	654	650	646	646	647	646	651	638	643	634	645	642	641	638	636	638	647	651	647	642	641	647	651	652	648	646	645	641	644	641	641	648	649	647	643	641	633	633	632	637	649	650	652	653	652	647	643	641	639	645	648	651	654	653	657	659	657	654	651	647	651	655	657	656	657	660	661	661	658	653	649	647	649	650	650	650	653	658	662	662	659	658	649	648	655	662	659	655	655	651	657	651	647	654	662	667	668	669	666	658	657	662	667	669	669	668	669	664	658	654	649	650	658	666	665	660	662	669	666	663	663	669	665	663	662	655	661	656	661	672	672	659	656	656	660	680	687	683	680	676	669	668	661	663	664	671	673	673	670	670	673	675	670	669	663	663	658	657	659	661	663	658	658	661	666	671	669	663	661	672	672	671	663	661	666	675	678	676	674	671	669	666	664	665	665	667	667	669	670	675	676	677	677	678	683	683	678	676	674	677	679	679	681	684	683	684	692	688	681	682	674	676	675	674	677	676	675	678	682	688	692	689	678	675	672	661	675	680	688	690	689	688	682	671	661	657	659	660	663	673	677	677	699	698	684	684	682	687	693	693	689	679	673	673	684	687	690	693	697	698	695	694	693	687	688	690	696	695	695	697	697	703	706	711	710	697	699	693	687	690	695	697	692	706	703	697	698	684	684	686	685	685	692	701	707	707	704	694	696	693	693	687	693	706	702	701	0	0	0	0	0	0
589	589	592	594	595	594	594	591	581	584	587	587	584	585	595	592	592	591	590	591	593	594	594	598	599	598	604	597	597	597	600	603	594	591	591	594	601	605	605	602	601	598	604	604	603	598	595	596	598	606	606	601	602	606	610	614	614	613	614	614	615	606	603	602	601	598	595	599	605	611	612	612	609	608	599	599	598	600	600	601	602	607	611	612	612	606	602	602	598	602	604	605	606	609	612	607	606	608	609	606	606	610	610	610	611	610	614	616	619	614	614	610	608	606	603	602	605	613	611	610	613	612	620	624	628	631	613	610	610	617	619	622	613	609	604	605	608	613	604	608	612	615	613	608	605	604	610	610	612	611	610	602	603	621	621	621	621	622	620	618	615	611	611	613	617	613	614	610	605	595	607	615	616	618	621	627	630	633	634	625	615	604	607	611	618	622	632	639	641	637	636	629	625	622	618	615	609	611	618	620	623	626	623	624	618	615	615	621	622	622	626	629	627	623	627	629	628	629	629	629	626	620	621	623	629	630	635	636	640	635	632	624	621	625	612	611	610	613	617	631	631	630	629	623	622	622	623	617	613	613	615	625	633	638	642	636	638	638	630	628	628	631	630	628	624	616	617	623	632	646	647	643	634	637	635	636	636	634	631	631	627	625	623	626	627	630	630	627	628	630	639	636	639	637	629	629	629	632	631	632	638	646	640	641	639	634	636	637	640	644	645	639	645	637	628	629	630	630	629	629	632	643	643	650	653	649	646	644	645	646	646	645	640	644	645	645	638	642	638	640	642	641	640	643	648	650	644	638	637	636	634	636	645	644	645	646	644	642	640	646	645	644	640	634	635	632	631	631	643	651	651	651	646	644	643	639	633	644	648	651	653	652	653	655	653	644	638	639	648	649	649	655	662	659	662	661	660	660	657	651	647	645	645	649	653	657	659	657	654	652	649	647	652	656	657	655	650	648	656	650	646	651	657	662	663	660	652	656	657	662	665	666	663	670	670	659	655	652	645	641	644	654	654	651	651	649	663	654	664	661	654	652	652	657	649	651	658	668	660	656	654	654	654	658	657	652	657	654	645	653	659	656	655	665	671	672	667	667	667	670	667	661	665	666	653	658	666	665	664	658	658	660	664	668	664	659	661	666	663	657	654	661	667	667	668	673	667	665	661	660	660	665	665	669	667	664	667	672	675	674	674	674	679	679	677	674	670	671	674	671	676	677	677	674	674	675	674	672	674	676	675	669	668	668	669	673	675	676	678	676	669	660	651	661	664	667	666	664	663	669	670	656	665	662	661	659	657	662	675	675	674	669	672	678	683	684	683	687	683	676	673	672	676	681	685	685	689	680	682	673	668	670	676	692	696	695	694	697	697	695	691	696	702	703	698	690	684	682	686	684	683	681	700	687	684	684	687	686	684	683	686	691	694	692	690	691	691	691	684	681	685	688	691	695	0	0	0	0	0	0
586	586	586	591	592	590	590	587	581	584	585	585	580	585	586	579	579	576	583	588	590	595	595	598	591	594	590	591	591	593	594	593	595	594	596	596	600	604	603	601	598	592	592	603	602	600	595	592	596	602	602	598	597	599	605	606	608	609	609	609	609	603	599	598	597	593	594	595	599	603	599	599	597	595	595	593	590	593	598	601	602	607	608	613	611	601	598	598	598	597	598	598	594	593	601	610	609	610	611	606	610	611	608	606	609	616	618	612	609	612	609	609	607	602	597	596	599	604	604	605	609	610	615	613	613	604	603	603	604	606	616	610	605	605	600	607	609	609	601	605	608	609	606	607	608	610	611	605	604	604	606	601	602	606	616	614	617	621	614	611	612	607	607	606	607	613	612	607	605	607	604	610	609	602	603	620	632	624	615	613	605	601	598	611	616	618	613	609	606	607	618	622	623	618	614	610	605	607	610	617	626	620	619	619	605	604	602	608	616	619	626	627	621	618	618	620	627	629	631	630	621	618	620	623	624	623	620	618	615	614	622	618	613	609	612	610	608	611	618	627	627	625	625	621	620	620	618	616	612	608	612	619	626	628	627	632	635	637	623	624	630	630	624	617	615	612	613	616	638	640	635	639	637	636	635	632	628	630	628	627	623	622	620	622	627	631	633	633	627	631	630	630	633	629	626	626	626	627	631	633	634	633	649	640	633	629	628	634	639	640	638	631	629	619	621	623	621	617	614	623	630	623	629	612	612	623	623	627	629	635	641	641	635	629	629	641	643	642	638	642	642	640	640	642	646	650	641	636	632	632	626	623	624	643	644	645	644	641	638	631	630	630	633	637	639	638	633	631	637	643	643	644	643	643	642	643	636	637	646	652	653	650	647	643	638	630	628	635	643	647	647	647	648	650	657	656	655	656	646	651	645	642	640	643	650	651	651	646	648	647	643	638	644	649	654	660	654	649	651	645	641	637	642	654	654	649	648	650	651	652	649	647	657	667	666	658	650	646	639	638	642	644	644	640	640	643	643	648	650	659	653	651	647	652	652	650	660	666	658	653	648	647	648	654	654	651	655	651	645	646	650	656	655	664	666	666	665	666	661	664	652	652	656	652	651	650	651	659	661	656	657	658	662	666	654	664	664	666	649	646	645	658	664	664	663	658	657	654	655	657	661	669	669	674	670	665	666	667	660	653	650	647	657	667	667	660	664	664	665	666	670	670	671	670	671	670	667	669	674	678	673	666	665	662	665	668	671	671	672	673	661	657	648	648	660	665	664	661	658	662	664	660	655	660	663	661	662	663	670	672	665	665	668	674	678	678	677	680	678	667	669	671	673	673	677	679	682	683	679	677	676	676	676	680	688	702	690	690	681	680	683	685	687	682	677	677	671	674	677	674	675	675	673	667	654	654	658	677	684	680	677	677	679	683	686	686	685	685	679	681	678	683	689	693	0	0	0	0	0	0
584	584	584	588	578	573	573	579	575	582	580	580	574	575	573	574	576	576	579	581	590	594	594	594	579	583	584	586	586	589	588	586	582	584	594	594	598	591	597	596	592	587	587	591	600	595	599	599	595	596	596	596	592	596	598	600	602	603	602	603	603	593	592	593	592	586	589	594	596	602	597	593	593	589	589	587	589	592	596	599	601	603	604	615	617	592	592	594	594	595	598	596	590	588	593	596	611	608	604	599	601	606	602	603	604	607	608	607	604	603	606	607	604	598	593	591	597	599	600	602	603	609	611	611	597	596	600	606	604	597	588	594	597	595	586	591	605	591	595	598	601	603	604	605	609	610	604	597	602	599	598	602	599	607	600	605	614	612	609	601	598	598	599	601	602	601	597	599	601	604	604	609	604	598	599	604	609	612	612	610	600	596	596	600	609	613	612	610	607	605	604	607	617	613	610	611	600	599	605	614	622	618	614	612	614	592	594	605	613	617	610	610	607	610	613	615	625	627	625	608	617	614	612	612	611	613	617	615	613	609	607	603	600	600	608	610	608	610	619	627	625	620	622	620	619	620	622	617	605	602	606	609	619	615	623	624	627	619	617	618	627	630	619	610	610	612	617	620	620	628	625	638	636	620	619	615	620	625	621	620	620	621	622	618	617	631	636	633	620	621	624	628	628	625	618	619	619	627	628	629	629	629	627	623	629	631	628	629	630	628	624	626	624	620	613	613	610	610	602	611	615	613	613	608	612	610	619	625	627	626	631	631	639	634	632	633	635	637	636	627	636	640	636	627	617	613	615	621	626	629	625	625	625	626	626	627	627	629	626	621	627	630	635	638	638	630	631	631	628	634	640	638	641	638	636	640	641	643	644	627	637	636	642	644	643	628	623	619	618	619	627	636	634	642	639	642	647	643	644	643	641	638	632	638	637	641	639	639	639	638	634	631	632	638	641	641	645	643	641	638	636	643	642	643	642	641	636	635	639	642	644	639	640	644	647	653	648	630	636	652	642	641	641	641	640	639	640	646	649	653	650	646	645	649	649	647	654	654	652	647	646	642	651	659	659	661	652	642	643	643	643	645	647	650	653	652	654	647	647	645	645	652	656	654	651	658	659	658	645	643	642	641	662	661	652	663	665	660	649	643	643	646	660	659	660	652	653	647	651	657	661	660	669	675	675	669	664	659	652	647	647	647	643	659	659	659	661	661	663	662	663	662	665	667	668	666	663	668	678	676	659	661	659	652	656	662	671	671	670	661	659	655	649	649	654	660	662	658	654	655	655	654	658	659	664	661	651	662	666	662	664	660	655	658	673	672	671	672	668	667	669	669	670	669	672	672	677	682	684	682	681	681	681	688	693	696	696	684	679	678	676	681	681	676	675	675	670	670	671	673	674	674	665	653	653	661	659	663	669	668	672	678	671	674	674	670	670	680	680	681	678	686	688	691	0	0	0	0	0	0
580	580	580	570	569	560	567	567	574	578	571	565	565	567	572	573	572	572	575	578	580	588	580	580	579	577	574	575	577	577	579	583	579	582	591	591	584	584	582	585	585	584	595	595	592	596	595	591	586	589	592	592	592	588	587	588	587	588	594	595	595	586	588	588	589	583	583	584	584	583	582	583	583	584	584	583	584	589	594	595	596	599	597	596	594	587	586	589	592	592	593	601	589	587	595	595	594	594	590	587	587	594	596	598	597	602	603	600	597	596	595	597	591	586	584	587	593	593	586	586	598	608	603	606	592	593	596	598	603	594	588	592	595	594	588	583	583	582	586	591	595	598	602	602	608	588	591	601	600	601	596	596	595	597	599	592	599	603	598	590	588	592	593	596	596	590	589	593	594	599	601	610	603	595	597	600	608	611	610	608	600	597	596	608	613	610	610	608	605	601	600	605	610	614	613	612	607	598	603	601	602	599	599	609	609	607	602	606	606	602	607	608	609	606	612	618	629	624	609	604	607	596	607	609	603	599	609	611	609	599	603	606	602	604	605	605	603	603	605	602	593	594	599	608	607	600	599	594	595	599	604	607	604	604	603	614	613	613	613	618	622	624	621	611	610	613	614	619	617	616	616	618	617	609	609	616	624	619	614	615	617	619	620	624	627	631	630	619	618	621	622	620	619	615	611	612	613	625	622	626	628	628	624	620	614	628	627	623	620	620	622	623	621	609	609	612	614	614	610	603	610	610	616	615	613	615	618	627	627	625	626	627	630	633	631	628	624	622	619	623	624	634	633	616	611	609	613	619	623	627	629	625	621	622	623	623	625	626	624	621	622	626	629	635	630	627	626	625	621	624	628	633	636	634	628	628	629	636	631	626	631	636	639	640	638	625	620	618	618	619	616	637	632	630	631	634	635	637	635	633	639	634	630	633	633	634	635	638	637	633	631	627	627	631	637	643	646	644	644	644	648	647	644	643	639	634	634	636	636	641	641	637	636	634	641	645	638	639	650	654	658	643	639	645	641	645	644	644	644	643	640	639	642	641	634	630	631	648	642	647	647	647	647	658	659	659	658	647	643	641	637	640	642	642	642	628	631	635	645	644	644	650	656	659	660	661	658	650	642	641	639	635	643	652	653	651	661	656	639	638	642	642	643	652	652	646	643	644	645	652	654	653	663	667	668	665	669	661	653	648	647	642	637	646	662	658	658	657	652	650	651	658	661	664	665	657	655	676	665	664	658	653	648	647	655	662	670	671	673	671	661	659	654	650	656	652	661	652	647	650	653	657	658	658	662	657	646	649	657	658	658	652	650	652	653	670	671	662	661	662	664	664	667	673	669	673	674	678	682	682	682	680	675	674	677	677	677	673	679	676	670	664	668	677	678	677	669	669	672	673	670	664	660	660	663	661	661	658	657	656	658	668	675	670	669	674	674	671	670	675	684	682	689	690	0	0	0	0	0	0
561	561	561	558	558	563	568	568	572	578	559	560	560	564	567	568	569	569	571	571	578	574	578	578	576	577	574	572	576	576	580	582	581	580	580	580	580	578	575	576	582	584	581	581	586	586	584	581	580	583	588	588	585	580	576	575	575	582	586	588	586	583	586	585	583	583	581	581	581	581	576	576	579	579	578	581	584	589	591	592	592	585	590	591	584	581	582	582	581	584	584	585	593	597	596	597	595	594	590	588	584	589	592	593	594	593	595	592	588	589	590	586	586	587	589	584	593	587	588	582	585	584	583	593	591	589	591	595	587	587	588	591	592	591	579	576	574	576	576	585	590	595	597	601	590	587	587	593	597	592	588	589	595	597	591	584	587	595	593	589	586	590	590	590	592	587	587	587	591	602	597	609	598	595	599	603	611	613	608	605	598	594	597	603	603	608	602	601	599	597	596	603	612	608	605	603	601	602	606	603	602	599	597	598	600	604	598	597	597	599	599	598	608	609	612	613	611	608	603	599	588	595	608	607	605	604	598	597	597	598	596	606	606	602	601	604	604	598	598	599	598	593	596	597	590	589	594	593	592	596	603	603	601	603	602	601	602	606	608	618	616	620	621	621	610	607	608	613	614	612	613	612	609	606	608	610	613	609	604	608	611	617	620	626	629	630	627	618	613	620	623	620	620	616	608	608	607	610	612	621	625	626	625	616	610	608	623	620	618	618	619	618	615	598	603	604	608	612	609	603	610	610	621	620	622	626	626	626	620	619	622	627	628	630	628	624	619	617	615	616	620	621	618	620	618	616	613	613	621	630	626	621	618	619	619	612	616	621	624	624	623	623	616	619	625	625	616	599	603	607	614	625	627	625	624	624	626	636	629	628	626	623	630	632	631	627	618	618	618	618	624	636	633	628	623	629	630	630	631	631	630	631	630	621	627	630	634	638	634	633	632	624	625	632	638	644	645	642	641	642	642	644	637	632	630	630	629	626	629	629	629	631	633	633	633	638	643	634	653	658	647	649	650	648	650	644	644	643	642	640	638	637	634	631	632	632	634	645	644	645	647	645	644	648	647	647	647	644	640	636	631	632	636	639	640	624	624	626	636	637	640	650	648	647	652	655	652	647	637	634	635	641	649	634	636	646	643	639	625	629	634	637	640	638	641	642	638	638	638	643	645	644	653	654	665	663	667	661	649	647	646	642	640	651	652	666	659	657	653	649	652	656	661	660	660	651	652	655	665	664	658	643	642	646	654	661	667	671	669	669	667	668	661	654	653	661	661	662	648	648	653	657	656	653	652	647	647	655	657	659	654	650	649	650	652	652	651	652	655	658	663	664	665	662	667	670	667	670	670	664	664	664	664	659	659	659	669	666	672	673	667	663	664	668	673	663	661	659	661	663	665	664	667	667	663	662	659	657	659	664	658	653	655	663	672	672	672	667	660	668	676	675	672	673	0	0	0	0	0	0
561	560	561	561	562	565	570	570	570	563	557	558	558	561	566	567	567	567	567	568	573	571	576	576	578	577	573	569	571	569	569	581	578	572	574	575	575	574	569	567	571	576	567	565	565	565	567	572	574	581	585	585	585	581	576	575	576	576	581	585	583	585	580	576	574	571	580	581	583	577	575	576	577	577	582	582	584	589	591	590	579	582	585	587	580	580	578	575	576	578	578	582	593	596	595	596	598	595	587	587	590	586	581	578	573	574	587	587	585	587	582	584	586	587	587	589	585	587	590	580	575	579	583	586	584	581	580	580	581	582	580	581	581	579	577	581	579	576	572	583	586	590	590	588	581	586	585	582	576	571	578	581	586	587	585	587	590	590	592	586	587	586	589	589	590	590	594	596	587	596	598	594	594	598	599	607	606	611	611	604	591	589	592	595	593	594	597	594	593	592	593	594	596	596	593	588	591	595	595	600	600	598	598	596	595	591	589	593	596	597	597	598	601	597	596	595	602	609	600	595	593	593	598	609	597	603	600	594	591	592	599	604	598	599	599	603	596	593	599	603	597	592	590	591	592	591	591	593	600	607	603	601	598	594	595	597	600	601	601	603	602	603	610	613	608	605	606	613	614	613	603	603	601	604	607	609	609	607	603	603	609	606	609	613	614	616	618	611	609	610	615	613	608	612	606	600	593	600	610	621	622	619	609	616	607	607	608	615	616	617	614	613	612	605	594	596	598	599	604	605	609	614	616	619	621	625	624	616	619	615	622	625	628	626	622	618	615	614	612	613	616	616	620	617	612	613	611	608	607	612	617	620	614	612	606	606	616	619	624	624	626	615	610	612	619	617	603	602	614	614	616	624	625	622	616	615	614	626	626	630	627	627	624	623	625	621	617	616	613	608	622	622	629	623	618	620	623	628	629	629	628	624	620	622	627	635	633	637	633	630	626	625	624	623	634	630	637	633	632	627	636	636	630	625	626	624	625	623	625	625	626	629	630	632	633	631	632	636	632	639	642	643	643	642	646	645	643	640	636	635	631	635	631	631	633	630	627	644	646	646	642	639	638	637	643	641	640	623	628	624	627	630	634	635	633	623	622	624	629	631	630	635	644	645	648	650	648	642	634	631	635	642	639	633	636	634	632	630	626	624	631	631	629	633	633	638	637	632	632	633	633	636	643	647	652	650	646	649	651	646	644	641	638	642	655	653	663	658	655	652	652	652	651	650	650	651	654	656	659	660	666	661	637	636	646	657	658	664	663	659	658	655	654	650	654	659	662	662	648	648	653	657	657	652	651	648	648	648	655	654	650	645	645	650	653	648	644	632	648	655	662	662	664	658	659	661	657	661	662	657	657	655	654	654	654	653	656	657	657	671	655	649	653	658	659	654	650	649	655	660	661	663	663	666	664	661	658	655	660	664	666	657	656	659	660	660	665	653	652	653	662	664	668	666	0	0	0	0	0	0
558	558	558	558	559	561	561	562	562	561	557	565	568	568	569	566	563	562	562	565	566	565	572	576	576	577	568	560	561	571	571	573	573	573	576	578	578	578	578	572	567	568	566	564	564	564	566	569	574	576	581	580	580	580	575	575	574	577	578	582	585	575	575	566	569	570	574	578	577	575	576	579	581	584	584	586	589	590	588	574	576	577	583	577	569	572	572	569	570	567	567	567	573	580	582	583	582	594	585	590	592	586	584	584	574	576	576	576	577	579	582	582	582	585	585	583	587	582	573	572	573	573	577	577	579	576	577	577	576	580	579	579	579	577	578	581	581	577	574	577	581	584	585	586	582	580	584	576	565	563	565	570	572	579	587	589	587	586	579	584	586	586	585	585	583	588	592	585	587	586	587	587	587	590	599	599	600	605	602	587	588	589	587	587	586	587	589	592	591	590	587	587	594	593	588	590	591	592	592	588	596	597	596	594	592	589	589	590	590	593	594	596	596	594	591	591	593	597	600	597	596	596	601	589	591	597	593	584	585	590	596	600	596	597	594	595	597	587	590	597	607	607	595	594	592	593	593	599	602	608	602	602	595	592	593	590	594	594	596	595	596	596	600	608	610	604	603	605	608	604	602	601	602	603	606	607	608	607	599	596	599	604	604	610	608	614	617	610	605	606	606	604	600	597	600	599	591	597	606	614	615	608	607	598	604	603	609	601	615	614	613	613	612	603	596	594	595	597	600	601	603	602	610	615	617	620	618	615	608	613	608	608	611	621	616	614	613	612	609	607	603	613	610	609	602	597	605	605	601	610	611	614	608	602	601	609	614	618	620	622	625	616	613	611	616	605	598	601	615	617	620	618	614	609	608	603	604	615	620	618	616	613	610	608	614	622	615	609	607	608	620	619	619	619	617	618	621	623	626	626	625	622	622	620	633	636	634	632	628	626	627	626	625	615	615	625	631	627	626	621	620	624	624	622	625	623	620	617	618	619	620	625	627	630	629	625	625	622	624	624	621	620	620	619	631	638	637	637	630	630	628	628	627	628	633	630	630	645	630	631	625	633	631	622	621	618	620	619	617	621	621	626	629	631	623	623	621	623	626	630	631	628	628	636	635	635	643	634	627	629	631	637	638	625	633	637	636	636	630	626	627	624	626	627	631	631	641	645	627	627	628	628	637	643	642	643	642	646	646	644	642	637	631	635	644	650	651	653	650	657	648	647	643	644	645	647	637	655	660	659	655	648	636	640	641	648	650	645	644	629	626	640	643	651	652	656	656	653	648	646	648	655	657	652	647	646	652	651	649	647	634	630	627	632	639	644	642	635	636	629	641	648	653	658	661	660	659	661	658	653	648	646	648	648	647	648	650	653	657	638	644	646	651	652	651	652	651	652	650	653	656	656	656	659	664	662	657	655	657	654	655	661	657	655	655	653	650	648	648	646	655	658	663	660	660	0	0	0	0	0
