800	800	793	784	794	797	797	796	796	797	797	796	796	795	800	810	807	794	793	790	790	791	793	793	798	812	816	813	809	807	807	805	816	824	824	824	825	825	825	822	816	809	808	806	819	825	825	827	828	829	825	824	819	812	805	802	802	803	805	808	810	819	810	806	810	810	806	817	821	821	823	823	825	827	823	820	813	812	808	809	815	819	822	827	822	809	804	805	811	815	817	817	820	828	826	819	819	824	827	828	832	832	825	813	800	807	824	831	827	826	827	828	814	813	820	822	825	829	836	842	843	838	827	822	828	842	845	821	823	830	836	844	841	833	830	830	826	827	829	813	818	815	814	822	831	836	847	838	832	831	837	837	835	833	842	852	831	823	817	840	851	851	850	845	844	848	852	855	852	845	850	849	849	841	847	848	845	841	836	834	836	838	828	821	832	832	836	840	847	849	840	841	845	848	853	865	866	866	860	858	859	863	856	845	845	849	852	852	863	873	863	860	861	866	867	864	864	859	865	865	868	878	882	886	885	869	868	870	871	873	873	875	870	865	866	866	859	859	863	864	865	863	863	862	863	867	865	863	858	855	847	838	833	836	863	863	858	857	860	867	874	875	880	880	877	873	873	868	868	876	876	882	891	886	879	879	877	883	885	886	868	866	872	891	885	870	871	871	870	875	884	883	888	890	890	888	884	883	895	899	899	899	892	886	884	887	888	887	888	882	882	893	901	912	912	908	900	895	889	885	882	889	898	895	873	869	871	871	884	897	902	901	899	895	897	900	904	918	920	919	921	921	920	917	918	920	923	922	916	911	906	901	904	911	916	924	931	921	916	915	924	933	937	935	927	930	938	938	934	938	934	931	924	925	917	909	900	893	896	912	922	935	931	918	916	922	928	935	941	944	951	947	940	935	936	934	938	936	926	918	920	932	935	952	959	962	954	945	924	926	931	937	937	945	948	950	951	945	942	927	934	940	935	930	931	941	946	947	947	943	944	938	931	936	937	941	941	940	928	929	943	939	933	932	933	933	929	926	926	931	934	940	942	944	938	944	945	935	930	930	940	936	928	932	933	934	937	937	934	938	933	928	929	922	923	946	947	948	945	943	938	939	938	932	925	932	945	947	940	941	937	935	939	948	946	948	952	954	954	948	949	953	958	958	957	950	949	946	946	954	962	961	958	954	957	952	954	960	965	972	971	973	979	979	986	985	983	977	972	973	972	975	976	975	974	974	976	967	937	933	942	960	980	994	997	992	994	991	970	967	961	965	964	962	961	962	970	975	983	991	996	1008	1012	1006	996	993	986	979	977	982	988	989	985	979	979	980	986	990	990	985	981	987	992	990	989	989	982	959	957	966	974	974	984	988	989	994	992	993	1002	1013	1014	1015	1007	1009	1004	999	986	975	976	978	983	983	993	995	994	989	980	980	978	993	993	998	1004	1000	995	999	1009	1018	1022	1026	1026	1037	1037	0	0	0	0	0	0	0
784	784	778	788	796	795	795	790	790	795	791	790	790	792	793	799	794	786	782	781	783	787	790	793	793	800	802	801	795	801	801	806	813	809	807	805	802	803	803	807	804	808	809	812	820	819	819	820	826	828	829	830	819	808	803	801	801	794	793	796	804	804	801	798	801	803	802	808	813	813	818	819	821	823	825	817	809	799	809	811	811	812	816	821	821	810	806	809	813	813	814	816	816	811	817	813	810	809	816	818	813	808	813	812	808	807	818	826	822	814	817	813	814	819	820	817	816	819	823	829	834	830	823	821	826	830	831	810	814	825	836	842	838	834	832	832	832	827	817	810	810	808	804	819	828	836	837	826	825	823	825	837	836	834	837	843	829	817	815	838	847	851	841	837	834	838	844	845	843	843	847	844	829	828	841	843	839	835	832	831	830	833	822	818	828	829	829	833	834	835	836	840	847	849	849	853	858	864	855	854	854	859	852	841	843	846	852	849	862	848	844	848	850	853	855	853	844	845	851	852	856	861	870	876	875	867	864	865	865	864	866	865	859	858	859	858	858	859	857	856	856	857	860	858	860	861	861	861	858	845	837	834	842	847	855	848	846	850	850	854	854	862	871	873	868	865	862	861	860	860	869	871	875	875	868	861	861	861	863	849	856	858	862	867	863	867	868	866	860	868	877	875	876	877	876	868	868	877	900	902	898	893	886	888	888	887	888	888	885	878	874	883	891	896	900	895	882	877	872	873	876	888	894	898	895	888	882	876	880	888	898	901	897	893	890	889	889	909	917	917	915	910	905	904	903	908	911	904	893	893	891	889	893	894	900	907	909	904	900	888	892	916	930	929	918	908	905	889	884	908	914	910	914	917	915	903	897	894	898	902	908	912	923	914	916	903	910	925	928	931	944	947	940	914	920	922	924	919	916	910	902	902	905	916	942	956	950	926	928	932	937	933	933	934	932	934	925	927	926	922	925	936	937	929	922	928	936	936	928	934	941	943	933	926	929	930	908	911	919	921	929	936	934	928	923	921	916	919	917	922	922	927	939	928	932	936	938	928	921	918	923	924	919	909	913	919	928	930	932	932	912	908	914	912	916	915	935	935	930	926	925	929	925	920	914	926	944	941	941	936	938	936	935	938	937	934	931	935	947	946	949	952	956	955	953	948	943	936	942	944	943	943	945	941	940	939	942	948	959	957	967	965	955	960	964	965	968	967	957	950	948	971	976	973	971	970	972	963	947	937	941	952	963	968	972	975	969	961	963	961	954	951	949	950	949	950	957	964	972	981	981	995	1000	991	983	984	982	975	968	969	977	978	976	971	971	971	977	980	982	979	973	972	975	980	986	979	971	956	959	967	967	978	982	984	978	970	971	971	980	980	978	984	984	978	974	972	973	976	975	976	973	971	967	968	970	966	966	962	961	965	981	994	994	990	987	990	1002	1008	1014	1012	1012	1011	1017	0	0	0	0	0	0	0
776	778	778	786	792	791	787	787	790	794	791	790	790	791	790	789	786	781	781	778	781	787	791	791	791	791	791	794	788	791	791	791	797	798	796	793	792	798	798	803	808	805	808	797	803	807	808	808	811	820	819	812	804	794	795	794	793	793	791	794	796	793	794	794	794	797	792	797	801	811	811	814	802	806	798	795	802	808	813	812	814	816	819	822	822	817	813	808	809	809	813	809	809	807	798	803	796	786	786	788	786	786	783	799	800	800	795	806	801	801	809	813	813	819	818	813	807	810	814	809	805	819	821	820	819	814	812	805	810	820	827	830	830	825	823	823	828	830	822	824	818	811	802	804	825	830	825	823	820	819	820	827	827	830	831	823	822	823	827	837	838	839	841	836	832	825	823	823	821	825	832	832	819	810	833	835	826	819	821	824	823	821	820	817	822	823	819	818	821	825	832	835	845	850	838	839	843	844	837	822	821	823	820	820	829	846	844	835	829	838	839	842	842	849	849	847	841	835	837	844	849	852	859	860	860	860	844	848	856	856	849	849	847	850	854	857	859	858	855	851	850	852	855	855	853	855	859	862	859	849	839	841	852	854	849	844	849	846	846	839	836	843	858	866	862	851	854	854	855	857	858	864	872	869	858	848	846	847	848	850	859	867	871	871	861	859	859	861	857	845	854	866	860	860	861	856	858	868	877	889	890	887	877	876	883	891	889	884	880	874	867	863	881	880	878	875	863	861	860	865	860	868	878	883	882	879	880	881	881	890	896	900	896	891	891	888	877	873	873	887	888	878	875	884	889	894	897	887	882	875	885	880	875	879	880	891	895	896	886	883	887	882	877	878	882	882	890	894	884	904	901	895	895	904	902	889	879	880	888	894	893	898	903	904	901	891	883	875	870	879	896	908	898	892	904	913	913	914	911	904	898	895	888	892	913	927	922	924	934	940	939	929	927	918	907	904	911	914	918	916	928	899	905	907	922	928	931	931	930	934	939	941	914	914	900	894	895	892	905	913	920	926	917	899	895	899	897	900	900	901	905	909	921	924	925	927	929	927	923	911	907	915	906	898	896	906	914	918	915	913	896	902	908	916	914	915	907	910	910	907	910	913	899	901	897	900	937	934	929	924	927	928	928	930	927	922	930	938	942	944	945	949	947	947	947	942	935	932	935	939	941	940	936	931	928	929	931	937	944	936	935	931	933	938	938	941	947	934	937	937	938	943	953	969	966	965	968	964	952	946	923	921	919	922	929	933	938	938	940	952	947	952	948	947	947	937	929	933	940	963	974	978	983	978	961	965	967	966	961	953	964	965	963	965	968	970	970	971	966	967	965	967	968	970	969	965	963	955	955	956	962	970	982	969	960	962	954	951	948	948	956	958	959	962	962	968	974	983	984	970	964	953	951	955	956	957	957	960	962	965	974	984	985	978	975	976	978	990	998	997	997	984	982	0	0	0	0	0	0	0
771	777	777	783	782	779	778	778	784	783	791	793	793	792	784	782	782	773	773	773	777	782	788	793	793	789	782	779	769	773	785	785	785	789	788	785	785	790	790	801	803	794	784	786	789	794	799	799	800	802	808	810	808	797	791	790	789	789	787	786	784	783	783	788	791	789	790	791	797	799	799	804	772	766	770	773	785	789	794	799	806	813	816	800	802	806	800	796	795	803	806	809	803	803	797	797	800	803	798	787	781	777	776	775	795	791	777	774	780	801	804	803	809	808	805	806	801	794	800	794	791	789	791	797	806	807	796	789	811	818	817	821	823	816	810	807	806	803	794	790	788	785	800	797	806	810	813	815	816	820	825	828	819	824	820	809	803	804	811	829	835	837	820	818	819	815	812	809	807	805	806	812	818	815	823	822	817	808	808	809	809	813	815	816	814	812	809	810	810	810	810	813	825	826	823	824	826	824	816	812	813	816	816	816	820	830	834	831	829	831	837	842	839	837	840	843	837	831	829	831	841	843	845	846	843	831	829	843	844	846	840	846	849	844	847	850	858	853	849	845	844	846	850	851	843	841	846	856	867	848	844	848	853	843	840	841	841	843	837	833	838	846	847	843	845	846	848	850	851	850	853	859	874	871	847	840	839	841	843	849	854	858	865	859	853	850	851	847	834	833	829	839	845	856	856	855	855	850	868	863	873	865	865	870	877	886	884	879	857	860	864	862	869	869	868	865	866	862	862	866	867	864	868	870	869	862	864	878	879	884	891	872	858	867	869	865	846	845	849	851	858	860	861	862	874	880	883	871	863	850	851	877	870	868	868	874	878	880	873	868	873	869	859	867	869	875	878	892	897	898	890	886	885	891	889	874	869	874	880	886	883	880	896	896	879	876	872	865	866	873	881	880	871	877	882	886	890	889	896	900	894	886	885	885	889	899	905	908	908	901	894	896	902	889	880	870	876	881	870	879	878	883	886	890	894	897	900	905	906	914	915	910	897	886	881	889	894	897	898	898	895	897	900	900	899	897	899	899	897	895	895	899	914	913	903	902	901	907	911	910	910	917	915	909	895	897	902	919	922	896	896	900	915	930	925	926	912	902	903	900	899	892	893	893	894	905	915	924	919	916	915	917	914	915	914	910	909	924	932	938	938	936	930	926	924	928	920	921	929	935	935	936	932	925	921	920	923	934	933	928	921	915	916	919	919	926	929	941	943	943	940	935	930	921	921	925	929	925	918	915	915	925	925	922	919	916	913	918	932	933	935	931	919	916	915	921	923	925	928	934	937	932	934	929	933	937	946	957	950	945	943	944	947	953	956	963	963	961	956	958	956	955	952	955	955	955	951	951	958	964	965	964	959	950	938	934	935	942	946	951	956	956	953	947	948	952	957	956	952	949	952	950	955	956	955	955	955	958	962	965	967	977	974	967	963	963	965	974	978	978	979	976	977	0	0	0	0	0	0	0
762	768	768	766	767	767	769	769	767	770	762	767	770	770	771	781	778	770	770	770	770	764	775	781	781	782	783	785	776	774	779	779	781	784	785	781	779	775	787	787	797	775	775	782	787	790	790	790	788	791	800	807	807	802	792	788	781	781	773	772	776	776	778	786	786	785	787	789	795	788	782	784	771	764	765	769	775	782	791	797	800	804	805	795	781	780	786	782	781	781	778	786	799	794	794	796	799	812	813	803	786	779	775	772	773	778	781	783	791	798	794	800	804	800	792	785	780	786	791	790	787	786	788	791	793	801	800	795	795	802	808	815	807	796	795	793	795	788	788	783	779	778	777	785	791	788	788	799	814	822	825	809	812	814	813	799	794	793	798	801	809	813	812	803	796	809	811	806	804	800	799	801	805	810	815	811	810	813	813	805	794	803	806	815	812	811	809	804	804	805	804	803	812	817	813	812	814	806	802	805	810	811	813	814	819	822	824	823	826	825	816	809	802	801	839	836	830	824	822	835	838	835	833	824	820	820	822	832	839	838	828	824	840	838	837	837	821	824	832	832	831	835	836	831	833	834	834	831	831	827	826	827	829	831	834	839	834	833	825	820	821	832	836	837	836	840	844	846	845	844	850	830	838	850	843	841	840	841	844	844	847	837	841	840	839	829	826	828	830	828	831	836	844	850	850	849	847	842	839	856	854	853	851	855	863	874	861	854	855	844	855	860	858	842	842	848	855	859	861	862	861	862	862	852	852	848	849	857	867	869	859	852	858	845	850	856	846	844	845	846	853	857	861	865	862	861	851	849	842	836	840	844	854	863	863	863	864	865	848	855	860	855	860	853	851	871	875	876	893	875	879	878	879	878	870	868	868	872	882	883	874	870	867	867	868	867	868	886	889	877	871	872	871	863	878	885	877	879	886	890	889	884	877	877	874	878	882	905	903	895	885	878	878	884	885	880	869	866	865	867	867	867	875	877	885	892	895	894	895	889	885	878	878	871	872	900	910	909	899	890	888	891	894	900	912	915	917	911	904	895	893	899	902	901	899	897	899	908	911	907	903	908	907	898	893	893	902	913	918	875	873	893	905	918	932	930	915	904	900	905	903	896	890	890	889	900	908	921	915	912	914	905	900	899	900	898	894	895	925	929	928	924	918	911	910	906	901	908	921	925	925	924	924	919	917	917	926	921	913	910	907	908	909	909	907	911	924	920	914	914	921	931	928	918	913	915	920	917	911	909	905	910	920	918	913	907	906	916	932	937	943	935	923	911	909	914	913	917	918	924	928	925	920	910	924	931	935	933	925	918	914	926	931	937	938	932	928	928	933	944	946	946	941	940	942	943	943	947	959	965	965	949	933	923	915	922	934	941	947	952	954	953	949	942	940	945	944	940	936	934	934	940	954	951	946	946	951	955	957	955	954	962	968	963	958	954	956	958	960	960	961	961	963	0	0	0	0	0	0	0
755	747	747	751	754	760	760	760	757	753	758	764	771	771	776	774	774	768	762	762	754	763	765	766	771	771	779	783	778	772	774	774	779	785	785	781	777	766	769	769	774	765	771	776	779	782	781	784	784	792	794	802	802	767	767	773	781	776	776	770	773	779	785	787	786	787	790	789	788	784	782	782	776	766	769	774	779	784	786	791	793	794	790	780	774	770	768	770	770	767	779	782	787	786	787	787	795	806	808	810	809	806	797	786	773	776	780	786	790	793	795	799	799	793	785	777	775	779	785	791	785	786	785	787	784	784	793	789	788	786	791	799	796	793	792	787	786	778	782	782	778	776	774	776	783	788	793	796	807	823	807	794	793	795	797	792	786	778	789	790	799	776	788	795	802	806	807	802	798	797	795	799	803	807	813	809	803	807	806	798	787	794	798	808	813	815	819	818	813	806	797	798	810	807	805	798	794	790	794	798	806	809	814	814	816	816	816	813	812	808	810	806	800	797	811	814	811	811	813	814	822	823	816	814	814	822	826	831	827	829	825	816	805	812	813	808	805	808	810	820	819	819	817	820	824	829	823	821	822	819	826	822	829	832	832	832	826	821	821	814	815	823	830	837	832	832	837	843	843	844	829	833	838	842	847	841	842	840	840	838	829	824	826	828	823	823	823	827	830	830	834	838	842	843	847	847	841	833	836	845	859	861	865	863	855	850	844	845	843	837	840	840	835	833	835	844	849	855	856	857	858	854	846	842	838	834	844	852	857	856	854	851	845	841	841	846	845	837	839	847	854	857	852	839	858	866	850	845	842	838	832	835	850	862	862	855	843	835	840	848	848	847	845	846	848	852	865	880	876	861	867	871	872	857	862	868	867	867	871	869	862	866	866	865	859	854	863	881	884	875	869	867	863	861	872	865	871	872	872	870	865	869	872	870	872	881	874	868	857	879	874	871	873	879	882	874	863	861	862	865	869	874	871	869	868	870	874	882	886	885	880	885	886	892	902	902	899	898	887	880	874	883	891	892	897	906	908	909	902	893	882	879	886	894	893	890	899	904	907	907	901	891	892	894	888	887	897	906	900	886	883	879	899	906	911	910	907	898	894	900	906	902	889	887	885	891	900	914	916	915	908	899	896	891	889	885	884	885	913	923	926	913	907	908	895	886	880	881	894	905	910	913	914	913	911	910	906	898	902	900	893	893	889	888	894	901	908	906	899	901	913	920	918	913	905	906	904	909	902	900	895	902	907	905	898	898	902	917	923	926	933	941	927	914	907	906	908	910	909	912	909	899	897	901	911	928	930	925	913	907	908	908	911	905	899	908	906	901	917	921	930	928	929	932	932	933	940	945	950	954	951	932	923	910	910	920	929	936	944	947	949	949	945	942	941	935	929	928	924	923	925	934	938	934	923	923	944	948	949	947	940	934	962	952	946	944	944	937	937	944	951	952	951	0	0	0	0	0	0	0
743	737	738	738	747	759	758	756	756	755	761	761	764	764	766	770	768	752	756	756	757	756	755	755	763	763	769	774	773	771	768	767	767	774	780	776	769	765	761	761	765	763	762	762	765	765	771	778	778	787	793	795	760	755	756	762	770	769	769	763	767	773	777	783	786	791	786	786	782	758	756	756	756	766	778	778	784	776	776	777	787	785	782	777	774	768	765	767	772	780	781	781	781	785	781	774	774	781	787	789	785	782	773	762	760	770	782	787	793	795	791	795	791	787	780	775	772	776	782	785	781	781	782	780	777	769	782	785	782	780	780	777	781	783	786	780	778	779	781	783	782	778	774	774	776	779	779	777	775	778	781	776	773	784	793	786	781	772	775	783	771	774	784	790	796	801	798	799	793	793	798	797	797	803	809	795	788	794	797	797	789	791	794	796	801	811	812	810	810	805	800	801	785	790	790	788	784	784	785	788	795	799	804	810	806	794	795	793	796	796	800	794	794	790	806	807	805	803	795	800	798	808	813	812	811	818	832	831	819	816	812	798	800	793	801	808	802	802	812	813	814	810	810	811	816	822	822	815	802	816	813	822	820	830	833	826	824	817	805	800	805	805	800	801	818	820	820	819	820	821	830	831	843	843	843	833	826	815	818	821	822	822	821	819	818	820	824	826	831	830	830	832	832	833	831	828	828	830	831	837	842	844	835	836	831	831	836	839	840	839	834	832	827	827	831	831	834	838	844	845	849	842	834	833	835	833	833	838	846	857	851	850	849	842	840	841	838	814	812	821	840	841	828	853	853	855	846	842	829	830	832	831	840	838	848	845	838	838	835	835	839	840	842	843	842	846	852	864	858	852	848	862	850	854	852	862	866	860	859	858	860	860	863	857	856	850	851	864	874	870	866	861	855	851	857	859	869	865	862	858	858	858	862	866	870	876	866	845	844	843	852	859	863	874	878	882	879	864	858	856	858	860	869	868	860	860	873	880	886	884	889	894	889	887	881	871	891	883	875	865	861	859	862	865	874	863	873	884	892	885	874	870	873	879	879	878	866	870	890	876	868	861	867	883	883	886	895	894	881	883	885	882	875	874	871	871	874	885	881	879	878	873	870	880	880	871	871	874	881	888	894	898	894	888	881	876	874	879	895	915	920	913	910	903	897	886	877	875	875	888	897	900	898	902	903	891	887	884	874	872	872	879	884	882	887	892	894	898	890	893	902	908	908	898	891	882	876	863	862	866	877	882	890	888	893	899	904	912	912	907	915	919	931	916	908	901	900	894	883	879	883	889	894	894	901	918	921	917	906	893	892	893	895	895	891	891	896	899	909	911	913	912	912	915	921	937	936	935	936	936	925	916	910	905	905	912	923	933	935	939	940	941	941	942	926	921	916	916	916	914	919	919	906	921	921	922	922	933	938	923	926	928	943	940	945	925	922	918	918	928	937	941	941	0	0	0	0	0	0	0
737	732	731	731	745	744	749	752	752	753	753	754	758	758	761	751	745	752	746	746	748	751	750	747	751	751	761	766	768	763	753	754	754	757	764	768	764	764	765	765	750	754	756	754	755	761	769	773	773	774	774	754	758	761	759	756	754	753	757	757	765	765	759	762	771	768	769	773	771	747	753	759	759	761	769	780	771	766	771	773	774	774	771	773	772	772	782	779	768	765	770	771	779	770	764	766	766	768	771	777	766	758	755	749	753	760	773	785	793	788	782	781	783	780	776	774	775	774	774	774	774	776	777	774	770	754	773	775	778	773	758	757	768	769	772	776	781	782	786	788	786	773	771	770	773	774	774	770	765	762	768	777	783	787	791	796	782	777	772	764	766	769	775	784	795	797	794	787	782	781	784	784	778	766	767	771	784	785	781	785	788	790	791	785	794	799	804	804	803	803	801	789	782	784	784	787	785	782	785	782	780	788	805	800	788	787	788	788	784	783	793	791	789	787	794	802	802	799	787	786	790	789	806	808	805	812	827	830	810	798	798	794	789	791	796	804	798	794	801	813	808	806	805	809	813	818	807	800	799	806	810	817	816	817	824	819	801	798	791	791	798	799	800	802	795	800	810	810	810	794	805	802	804	818	807	814	816	814	812	812	812	823	820	815	815	818	823	826	821	826	826	820	823	825	827	826	824	824	825	828	831	828	820	823	815	817	829	832	835	839	837	832	830	826	810	815	826	835	840	834	828	832	823	823	833	831	832	829	833	832	825	842	846	834	834	829	825	824	825	822	828	835	829	835	837	860	842	831	828	823	819	838	836	833	841	839	833	835	832	829	827	826	832	842	843	844	848	852	857	854	849	850	842	846	849	851	849	842	843	845	845	843	855	859	851	845	850	857	857	852	843	842	844	841	848	857	861	858	856	850	848	850	849	859	855	861	855	847	837	838	848	851	856	862	871	869	864	863	853	852	850	851	850	850	850	857	864	876	871	858	856	863	860	859	859	862	859	863	855	855	850	851	851	854	858	863	869	877	879	876	871	869	869	867	856	857	857	858	871	873	867	863	858	853	861	880	880	862	867	873	878	879	877	864	862	861	868	868	870	866	860	859	856	857	867	869	870	870	863	859	865	879	883	883	881	876	873	877	886	889	887	888	897	898	897	892	885	880	878	874	872	853	864	873	879	884	883	866	854	858	867	884	889	885	882	880	884	878	873	874	888	895	897	892	886	872	862	847	857	868	878	876	871	867	874	896	904	894	883	888	897	897	900	893	880	877	882	893	899	897	893	891	892	892	890	892	892	891	882	875	868	882	895	907	905	890	896	890	890	889	888	900	902	905	901	908	918	923	920	918	913	908	904	901	903	900	910	921	923	924	925	907	908	905	905	905	907	911	912	913	909	897	897	901	901	910	914	916	921	913	913	914	917	941	939	924	911	911	911	916	926	925	927	0	0	0	0	0	0	0
732	728	727	727	731	733	737	743	743	745	742	745	745	741	741	732	732	741	739	739	743	746	746	744	745	750	750	753	748	746	750	752	752	750	751	750	754	759	755	750	739	739	747	749	753	759	765	759	754	754	751	751	756	760	758	752	747	752	768	768	772	771	765	766	760	756	751	746	736	734	739	762	762	769	767	761	757	750	754	760	769	774	772	771	773	778	768	763	754	750	759	760	758	745	743	752	761	761	768	766	757	755	750	748	747	757	769	779	786	775	770	768	768	772	771	765	765	771	764	769	761	765	752	746	746	756	763	769	769	772	758	754	756	759	764	770	772	780	780	777	771	759	758	759	761	762	770	764	759	762	770	767	767	754	762	764	774	771	766	762	762	767	773	777	778	774	773	771	771	774	774	774	773	764	764	767	783	783	781	779	785	782	782	788	788	788	795	795	796	798	794	774	774	783	791	795	796	793	787	779	776	782	791	790	784	781	782	773	775	777	769	780	784	778	783	791	793	790	784	787	791	794	797	791	804	805	804	803	801	794	794	787	787	789	791	797	791	786	784	801	806	805	804	806	809	801	796	791	795	800	812	815	811	809	799	797	798	796	798	796	796	796	797	796	794	789	791	797	788	793	791	800	802	800	800	801	798	799	807	808	811	818	826	817	813	817	822	821	820	818	819	818	822	823	827	827	826	821	817	817	816	812	804	805	807	812	818	818	828	833	837	838	832	817	811	813	824	830	827	823	820	818	816	822	825	823	823	824	824	824	815	816	824	827	819	811	822	824	821	819	824	830	833	832	833	829	827	826	820	821	813	809	833	834	835	831	819	818	828	830	819	812	815	824	833	837	832	843	845	850	847	842	836	842	840	835	832	830	826	833	833	837	838	848	850	852	850	839	834	827	838	842	841	844	840	845	851	851	845	844	843	845	840	834	828	838	831	831	828	825	836	836	836	848	852	858	858	850	840	847	851	829	828	829	841	846	850	860	851	841	850	853	855	849	845	840	830	843	855	852	852	852	856	857	860	865	866	868	875	876	870	866	862	853	843	849	847	846	863	869	866	863	858	851	844	847	849	842	840	861	867	870	865	858	860	859	861	863	864	865	857	852	849	849	867	865	863	851	853	847	855	862	863	866	861	866	867	865	862	864	859	853	856	861	871	872	872	863	873	872	865	859	858	865	869	871	866	852	850	857	868	880	884	881	876	869	859	853	858	856	853	868	873	881	873	868	855	850	857	865	875	872	866	865	865	866	870	868	848	861	869	873	878	879	872	872	878	887	890	890	889	889	886	887	884	882	881	885	887	880	877	885	906	904	908	897	888	884	883	881	879	877	878	890	892	882	880	903	907	904	903	900	897	896	893	894	894	904	909	903	898	900	897	895	899	897	902	906	899	899	897	897	897	897	899	899	895	905	906	905	904	904	905	908	917	905	902	902	914	924	928	919	912	0	0	0	0	0	0	0
722	720	718	718	716	720	726	735	737	737	733	734	738	732	732	730	733	737	732	738	738	739	741	742	741	741	741	737	738	741	745	744	742	742	742	741	741	741	739	739	735	734	735	747	751	754	744	750	748	748	746	748	745	744	740	736	733	737	746	746	751	771	771	764	755	744	742	739	746	734	730	728	735	735	735	740	748	756	755	751	752	764	768	763	760	761	763	746	741	744	760	764	761	749	751	755	762	762	762	748	752	744	741	741	742	750	758	769	772	760	751	742	756	756	754	755	757	756	751	744	740	740	739	738	747	752	758	761	762	761	755	754	761	748	752	763	765	764	746	748	752	758	761	761	756	759	754	755	756	753	754	754	750	751	756	762	768	765	763	762	764	764	770	759	773	769	771	767	763	761	772	771	770	763	763	770	779	773	779	785	783	788	789	789	784	777	784	780	778	757	762	764	765	770	782	789	794	790	792	774	767	771	775	778	778	778	774	773	768	758	772	778	782	780	777	778	784	777	772	775	783	790	788	783	790	790	793	794	797	795	789	784	787	787	789	790	789	777	776	779	790	804	805	804	795	791	789	782	783	785	798	807	799	798	794	793	792	793	792	788	793	789	792	791	788	785	789	792	798	791	797	798	800	798	794	790	784	787	794	801	807	813	831	832	814	811	817	818	815	816	818	821	823	827	827	820	812	806	802	801	803	796	794	794	800	799	796	794	796	801	829	833	823	817	816	819	820	822	824	822	815	810	812	812	811	812	815	813	799	794	800	806	815	812	807	810	813	810	811	814	822	831	832	833	828	819	820	817	819	816	811	808	828	830	833	824	819	818	827	831	823	808	809	818	825	831	831	836	841	826	823	826	829	835	831	827	826	811	817	818	824	817	819	837	841	836	834	830	820	819	828	837	841	838	822	826	842	847	841	838	832	816	817	814	820	828	839	837	820	811	811	814	826	839	836	835	832	827	831	828	827	829	826	833	840	845	845	840	838	836	846	849	848	839	835	831	816	831	837	842	849	853	857	859	858	858	854	865	869	868	861	845	837	833	837	839	841	839	841	862	864	859	850	841	837	831	832	837	835	834	847	861	854	849	846	840	836	837	849	860	850	845	843	844	855	857	857	857	857	854	853	856	862	861	860	855	851	850	849	850	860	859	857	844	833	834	841	850	857	865	860	856	850	855	864	865	862	845	839	843	847	848	852	855	855	853	859	859	857	852	851	858	867	866	863	857	836	846	857	864	867	863	854	854	854	859	866	868	861	857	854	855	866	867	864	852	848	858	881	881	880	879	878	879	879	878	873	874	869	872	879	882	891	894	897	888	888	881	880	878	873	866	861	861	878	871	871	870	892	900	897	895	891	888	888	885	880	882	887	887	890	891	893	896	896	893	894	890	889	891	891	892	895	895	888	880	881	890	898	897	895	897	901	904	904	891	893	893	904	915	919	915	906	0	0	0	0	0	0	0
720	718	711	708	708	709	713	716	723	723	725	724	729	729	729	728	729	730	722	731	731	736	734	732	732	731	731	730	733	731	739	735	737	737	731	729	731	734	734	735	730	730	730	732	737	738	742	743	741	741	739	740	739	734	729	725	724	725	735	739	739	738	737	737	736	736	741	744	745	742	734	730	725	725	732	738	753	752	747	743	739	748	756	753	756	756	751	743	738	741	747	762	761	756	749	746	748	743	742	742	741	728	729	734	733	739	743	753	744	743	735	732	732	734	748	752	754	752	750	742	739	735	733	737	748	752	753	756	755	751	748	746	733	734	735	735	733	724	723	727	734	740	742	754	757	750	749	748	745	747	750	751	750	754	758	757	758	758	757	760	759	758	754	756	756	756	761	762	759	756	750	768	768	761	764	764	764	765	765	767	770	770	773	767	761	763	754	752	747	752	763	768	771	765	774	782	785	784	767	761	762	767	770	771	773	773	770	769	754	768	772	776	785	780	774	770	773	770	766	766	773	776	773	776	781	786	790	787	782	784	788	782	772	772	783	780	776	770	771	783	792	792	791	788	785	785	781	774	767	763	774	776	783	785	786	787	789	788	787	787	793	782	779	778	782	784	804	811	813	806	789	787	787	787	789	787	784	778	786	791	796	799	817	819	807	795	793	806	810	807	816	819	826	824	813	800	796	790	783	782	781	782	784	790	800	789	787	786	784	785	799	825	816	811	816	821	822	820	819	801	796	797	800	804	807	808	802	801	794	794	797	803	807	807	808	804	801	798	803	812	819	828	827	819	819	814	812	812	818	826	805	800	796	796	811	827	826	828	824	818	808	807	808	809	811	802	819	821	821	811	812	817	824	826	825	821	810	807	809	807	799	801	816	818	824	826	830	819	813	812	816	831	834	819	823	823	822	820	820	818	819	819	821	817	818	823	828	828	816	814	815	815	809	818	820	821	825	820	812	811	818	823	830	833	837	840	838	829	828	831	835	837	837	830	827	807	809	828	834	837	829	824	850	848	848	847	842	853	856	834	834	833	831	830	829	831	830	833	840	846	856	851	834	828	831	834	833	837	834	831	832	851	845	829	824	824	826	833	840	847	842	842	837	835	834	840	846	855	861	858	855	854	859	858	856	853	850	849	847	841	830	837	835	835	834	834	839	842	846	840	848	844	838	836	835	856	857	838	834	833	834	837	844	849	850	853	856	855	854	848	848	856	851	853	851	838	833	844	852	856	847	843	842	845	846	844	847	858	865	858	852	848	844	844	845	843	840	846	852	857	858	852	844	860	865	863	852	855	854	857	857	829	830	862	883	885	874	873	878	877	863	863	861	862	868	871	871	874	876	883	890	894	895	891	885	879	873	873	878	883	886	888	888	890	892	888	883	879	880	877	883	886	886	880	879	872	867	876	882	878	883	892	898	900	892	890	890	886	891	894	895	895	894	0	0	0	0	0	0	0
714	715	711	709	709	709	708	705	709	709	714	713	713	722	722	722	719	720	708	714	714	722	723	725	726	723	723	726	726	727	725	726	726	726	728	726	728	730	730	732	722	722	719	717	721	729	734	738	730	731	731	731	731	731	728	722	718	721	727	734	734	732	730	731	731	732	744	736	732	723	732	732	728	723	723	728	738	743	736	729	732	737	744	749	752	749	739	735	733	732	738	741	754	740	729	733	734	740	739	736	736	725	728	730	729	730	733	728	727	726	719	725	726	725	726	747	750	738	736	738	735	734	733	731	750	756	756	750	747	734	726	728	731	736	737	730	730	731	737	739	741	740	732	741	747	747	746	735	731	735	739	747	753	755	756	756	751	750	752	753	756	751	752	744	747	748	755	755	753	748	743	740	739	748	750	753	761	765	764	764	762	754	749	758	742	746	748	747	743	749	765	768	771	773	771	765	767	762	759	758	758	759	767	765	764	769	772	769	772	773	773	773	774	769	764	764	773	777	772	771	767	763	764	766	765	773	780	785	778	769	757	759	772	773	777	776	767	763	762	776	786	788	785	781	778	785	779	770	762	760	761	772	777	781	786	783	783	780	783	786	781	781	780	780	791	796	807	805	798	780	781	781	782	781	787	788	785	778	778	780	781	780	785	793	790	783	789	794	798	795	798	802	804	800	790	782	786	786	781	774	771	771	779	791	783	786	786	783	781	780	782	794	798	798	797	809	816	805	800	790	786	781	793	797	801	801	810	797	796	795	797	802	800	801	800	799	790	791	794	804	812	815	816	813	807	807	808	809	801	802	796	793	791	789	792	812	807	806	804	792	808	800	800	797	794	802	805	807	812	807	809	811	816	820	822	817	810	803	806	796	785	794	807	815	823	826	812	806	802	804	804	810	825	815	795	803	804	810	816	816	817	821	823	816	816	813	813	811	812	815	815	807	808	811	812	814	823	816	811	807	807	811	828	833	835	832	825	803	823	826	829	828	828	823	807	804	805	817	831	833	830	812	808	822	827	830	821	828	835	815	817	819	823	816	814	817	821	830	835	835	841	833	822	822	832	836	838	832	829	822	823	843	839	828	822	822	826	831	843	843	836	834	833	827	822	822	828	831	832	837	838	840	847	851	851	850	849	847	842	816	822	826	832	835	834	832	828	833	829	828	829	829	828	831	831	830	832	823	818	815	821	822	831	835	844	850	851	848	844	842	845	847	845	846	842	838	838	847	847	846	844	844	846	849	845	846	847	854	862	862	852	847	837	836	836	837	837	836	838	849	852	852	850	858	860	857	849	849	840	836	835	839	833	838	861	867	861	849	848	852	856	860	855	858	855	860	861	854	852	852	854	857	862	866	878	873	867	870	877	884	880	876	873	875	881	877	867	854	851	852	868	877	877	875	867	864	860	860	861	864	872	877	882	886	886	886	886	879	879	872	874	867	873	0	0	0	0	0	0	0
700	705	708	710	710	707	700	699	702	702	707	703	701	704	712	712	706	709	708	705	718	718	720	723	722	718	718	718	719	722	719	718	716	722	722	723	725	726	726	726	721	721	717	710	711	714	718	718	713	716	716	721	727	729	728	722	720	718	728	726	725	725	726	727	725	726	722	725	720	726	727	725	718	712	712	708	706	710	716	724	733	735	733	737	732	728	727	731	730	728	728	730	729	724	723	720	730	731	739	738	740	740	740	733	731	725	722	720	717	720	732	731	723	722	722	730	732	731	731	733	735	726	725	732	739	731	733	735	732	729	726	729	732	735	737	731	731	734	736	739	738	734	733	730	726	724	728	727	729	727	730	732	745	759	764	755	746	744	735	734	732	732	733	737	740	744	749	746	739	726	729	729	734	746	742	743	740	737	730	761	754	748	742	745	728	730	735	741	745	751	752	754	758	774	749	748	752	762	760	759	755	752	749	748	756	755	755	759	767	764	761	758	760	764	765	764	771	773	765	766	765	759	759	755	755	760	774	778	772	763	756	753	762	771	767	772	765	759	763	773	768	775	777	774	773	773	775	779	776	760	756	756	765	765	766	763	756	769	771	780	789	793	793	799	798	792	790	790	775	770	769	777	775	780	787	788	784	776	780	780	784	786	786	785	780	777	773	773	767	782	789	789	788	785	782	781	784	792	788	781	777	770	768	776	774	780	783	781	767	770	785	777	785	787	789	796	797	798	793	782	783	780	779	790	794	794	794	801	796	793	796	791	775	776	792	792	790	789	790	797	792	801	798	800	802	802	804	799	797	798	796	793	793	791	792	801	800	800	798	793	793	797	799	801	803	802	796	799	811	799	795	803	810	811	804	808	806	797	791	786	788	800	808	813	811	812	816	800	795	798	793	789	788	785	784	788	797	801	811	815	817	819	821	811	809	806	808	805	803	813	804	801	803	799	801	805	812	812	804	794	795	799	816	815	813	806	788	794	824	825	824	816	808	802	803	799	798	805	812	815	815	811	796	799	812	828	832	832	811	813	813	816	820	820	814	812	812	811	826	822	827	819	818	820	829	826	820	817	817	817	817	819	832	829	825	832	837	839	840	834	830	830	825	819	819	822	828	833	835	833	835	833	831	818	813	821	829	840	833	814	808	820	827	836	835	828	821	819	820	821	825	827	825	823	821	821	822	817	809	801	799	809	820	824	838	847	846	844	840	839	840	841	838	839	838	831	833	850	850	849	848	848	855	855	851	843	844	850	854	848	849	838	831	826	825	824	831	831	835	842	847	848	845	851	855	855	850	845	841	835	837	836	832	825	825	840	856	850	839	844	852	845	849	852	851	850	843	838	845	852	853	850	842	836	841	844	847	849	849	866	858	863	867	866	862	858	849	839	838	842	850	850	866	873	868	858	855	855	855	857	860	860	863	866	863	854	874	864	868	869	872	874	871	0	0	0	0	0	0	0
689	693	700	700	693	693	694	695	703	704	704	697	696	699	701	701	696	693	701	710	712	712	713	715	714	711	705	705	705	707	710	710	716	722	722	721	717	720	722	723	718	714	714	705	707	711	713	714	715	714	714	711	722	727	729	721	718	729	730	729	725	725	718	718	713	716	710	713	721	724	725	720	715	709	707	707	704	705	713	721	724	722	729	727	725	722	720	720	725	726	726	724	718	714	715	720	725	729	727	731	732	730	730	730	721	718	718	735	741	742	744	739	734	721	720	724	727	728	727	722	719	719	716	713	719	718	717	722	733	732	728	730	733	734	732	728	732	732	728	727	735	735	735	732	728	731	729	729	729	727	730	734	743	737	742	744	741	738	736	733	729	727	730	731	734	740	742	742	735	729	727	735	742	741	739	735	738	733	725	719	719	729	730	736	719	726	728	732	732	737	739	743	761	758	759	748	750	757	754	746	741	739	746	744	745	744	753	755	760	757	755	756	755	763	765	760	751	750	755	759	759	757	752	748	733	731	733	765	737	745	747	753	749	745	767	765	768	766	768	768	763	772	773	771	769	769	773	775	774	765	756	750	755	753	755	749	747	747	763	766	765	770	777	782	780	778	774	770	767	764	759	765	768	765	760	757	755	761	775	779	780	785	785	785	767	762	759	758	761	768	769	767	766	772	774	776	780	785	786	778	770	767	764	768	772	772	779	768	775	778	782	783	776	781	786	784	789	785	784	780	772	774	775	785	788	790	790	789	786	789	776	772	766	763	762	775	786	790	788	788	780	780	777	781	798	799	791	796	785	785	797	794	787	781	784	780	789	786	792	790	792	795	798	797	797	796	790	793	794	805	804	787	789	796	792	795	794	803	788	786	783	789	797	796	791	791	778	775	775	780	786	795	792	793	780	788	792	793	791	790	787	784	786	799	797	805	806	803	796	797	799	798	795	794	795	798	802	796	793	792	792	793	796	806	795	790	786	814	812	805	804	809	801	798	789	789	792	798	805	810	813	789	797	804	802	803	805	806	807	810	810	812	815	817	815	804	792	788	791	791	797	799	807	811	814	811	805	804	806	805	791	788	814	820	821	826	801	796	800	810	810	809	817	816	818	822	826	829	830	831	809	800	799	795	792	800	799	809	815	805	800	807	824	833	832	826	819	816	816	814	819	820	821	808	799	801	817	811	802	795	799	814	827	831	832	823	814	807	813	815	817	816	817	821	820	825	846	853	844	851	851	851	849	842	841	838	836	839	838	835	835	833	828	825	820	819	822	824	830	835	838	836	837	841	849	852	847	844	837	829	831	829	826	824	826	832	850	845	840	838	820	821	821	826	830	828	829	833	837	832	823	838	839	832	830	828	825	823	824	836	840	847	858	859	853	840	839	837	839	842	847	847	852	867	863	856	852	851	845	843	842	839	843	848	846	846	854	853	859	858	861	865	865	0	0	0	0	0	0	0
689	691	695	690	688	688	691	701	701	696	696	693	691	692	695	695	690	693	700	706	706	706	707	707	700	699	705	705	709	708	700	707	711	720	720	720	719	716	718	720	713	703	703	697	702	709	710	710	712	711	711	711	712	724	723	718	724	722	725	719	708	708	706	700	702	697	705	709	703	705	707	712	711	707	707	707	703	703	709	718	718	715	715	716	715	712	710	711	717	722	721	715	707	708	711	717	720	720	720	722	720	719	720	717	714	710	724	728	728	726	726	729	730	722	715	716	718	723	724	720	714	713	711	711	714	710	711	716	732	730	727	727	723	725	717	719	721	721	721	720	724	734	736	735	732	731	729	727	727	727	727	731	731	736	735	733	738	738	740	730	726	723	722	722	726	732	737	737	729	730	729	735	739	732	725	730	742	732	723	717	720	728	716	712	714	722	728	724	728	731	731	733	734	736	743	748	746	745	739	740	748	747	746	744	742	739	749	749	749	749	747	745	750	758	754	749	746	747	752	756	755	752	749	738	728	735	730	729	730	734	740	744	755	748	743	741	741	740	743	742	769	770	758	756	754	759	764	767	762	758	746	747	746	742	745	746	743	749	747	748	751	748	750	767	771	769	765	762	763	758	757	761	765	759	752	746	742	739	747	774	773	772	773	776	771	762	755	755	753	756	756	754	750	745	751	754	756	749	782	777	766	762	760	763	764	766	767	765	770	774	776	776	771	776	782	781	784	780	777	781	769	771	776	778	784	786	788	787	780	776	772	767	763	758	762	774	779	775	782	780	771	764	757	761	772	781	786	778	781	778	796	791	776	778	773	767	768	776	775	767	765	775	783	793	789	785	784	787	791	793	785	775	776	776	780	781	784	781	780	777	778	791	790	790	787	783	778	774	772	769	770	782	787	797	797	787	791	790	788	790	796	799	778	775	777	785	792	797	792	783	775	776	780	788	791	791	791	785	783	786	784	782	786	793	789	787	793	812	810	802	789	789	788	786	782	779	787	792	792	793	792	783	790	795	799	797	798	799	801	805	808	811	813	813	808	797	781	761	758	774	778	798	804	802	795	775	775	790	790	783	775	778	789	795	795	793	791	792	795	799	796	792	805	812	813	809	818	785	793	809	810	806	803	800	799	800	796	794	789	792	790	791	803	808	814	813	812	811	811	807	807	805	821	805	798	798	809	801	796	799	802	812	825	827	828	825	815	800	803	802	800	798	795	792	807	810	810	805	805	806	833	838	840	836	827	821	825	829	828	828	825	824	826	825	819	816	815	818	821	824	825	827	829	833	843	843	841	837	829	819	816	814	819	826	826	833	842	840	835	818	812	812	816	818	820	817	814	822	824	829	820	817	823	832	825	824	823	816	814	823	842	846	848	844	835	829	826	824	826	832	832	835	843	851	846	843	838	835	836	838	826	838	838	836	835	835	827	851	852	852	855	856	856	0	0	0	0	0	0	0
685	694	688	685	690	690	698	701	698	688	688	687	691	693	690	691	691	695	705	693	691	691	695	697	694	695	702	701	701	694	688	688	685	687	695	695	704	713	717	716	703	696	696	694	698	704	704	707	708	704	697	697	701	707	711	706	707	714	709	702	702	703	703	707	697	702	700	698	700	687	685	685	699	702	703	700	700	699	700	701	711	708	704	710	709	701	698	700	708	712	715	716	705	700	701	710	714	716	715	715	712	709	707	709	709	709	709	721	721	716	709	718	719	718	717	709	709	715	714	717	712	715	713	711	709	707	708	712	720	723	723	722	719	709	703	697	705	708	708	705	709	714	715	719	720	721	721	723	723	722	725	726	727	727	729	725	725	729	732	726	724	718	714	713	713	708	713	716	726	727	727	730	726	717	728	724	725	729	723	720	719	716	713	710	713	714	716	725	725	728	732	728	721	734	737	740	739	731	731	735	742	743	738	733	736	733	742	746	749	738	738	740	744	754	753	747	745	746	748	750	751	748	746	734	733	734	732	729	729	734	740	742	751	734	732	728	727	726	720	720	724	721	718	725	747	757	761	757	751	743	741	733	734	736	739	742	742	749	751	749	746	743	747	754	761	763	759	754	752	742	746	742	752	755	750	741	734	732	739	762	763	763	761	761	757	751	752	750	749	752	750	745	745	751	746	756	749	745	747	751	750	746	742	747	735	747	755	761	765	767	768	766	765	770	772	774	770	761	757	754	758	759	756	755	759	758	752	746	730	761	764	764	761	757	761	768	756	757	763	776	772	760	756	755	762	766	767	770	775	774	772	771	774	775	770	763	760	760	758	760	764	770	772	770	778	786	786	783	781	767	769	770	777	775	772	772	780	774	773	778	770	770	771	775	781	783	774	769	764	764	764	770	780	788	786	775	782	785	786	792	800	798	797	774	775	782	786	793	794	790	785	783	785	788	791	789	782	770	769	768	778	777	767	772	782	784	800	807	807	785	779	774	781	779	774	775	775	775	779	786	790	784	778	774	775	780	787	796	797	797	781	782	784	781	788	784	779	771	769	776	781	780	779	779	780	786	787	786	790	789	791	789	792	791	789	784	782	793	796	791	796	797	793	794	777	773	777	780	786	791	796	802	797	785	789	791	792	788	785	789	792	788	794	799	803	804	803	800	788	787	781	788	801	810	805	804	802	802	797	801	804	806	813	816	816	808	808	802	796	799	801	800	798	794	785	788	803	806	798	796	811	811	807	815	813	812	816	822	818	817	817	820	823	825	822	813	806	803	812	813	816	817	822	826	830	836	820	814	815	813	805	811	816	819	825	828	828	823	816	808	802	804	803	805	802	803	807	813	816	820	820	818	810	808	823	821	817	810	812	816	822	828	830	830	830	827	824	824	822	822	825	830	844	849	842	828	826	833	842	828	823	823	826	835	835	839	835	828	839	846	846	847	848	0	0	0	0	0	0	0
694	686	674	672	673	673	682	691	695	690	690	693	695	695	692	693	693	697	697	682	682	687	687	689	689	687	683	682	682	687	689	687	685	683	687	687	699	720	716	707	700	694	695	695	700	701	702	701	691	685	687	695	695	700	696	700	696	695	694	697	700	703	703	705	701	698	698	697	695	685	682	681	689	696	698	697	697	689	690	692	698	699	700	695	697	691	693	694	699	707	711	712	706	699	695	696	697	701	707	707	700	703	706	704	705	704	703	703	706	702	701	701	708	712	713	707	707	711	704	692	709	720	711	706	704	703	710	709	709	706	707	703	700	694	688	691	699	699	701	703	695	709	711	714	717	719	720	721	717	715	711	717	718	717	715	714	717	725	722	718	711	708	706	705	697	691	708	712	711	705	705	709	711	712	710	725	722	726	727	723	725	714	712	711	713	715	716	712	717	720	717	715	713	727	728	732	737	729	727	726	731	731	727	722	720	723	735	739	737	735	732	728	736	738	738	734	731	736	745	744	744	744	740	726	727	729	726	729	732	736	741	740	728	726	725	723	723	725	736	721	723	721	720	724	725	732	743	747	746	744	732	717	711	731	735	739	746	749	750	747	744	743	746	748	753	757	746	746	739	734	740	740	752	756	748	747	735	735	743	752	752	749	748	749	751	749	749	745	745	742	742	738	740	747	747	750	745	741	737	745	747	744	739	735	732	736	748	754	761	765	761	760	760	761	760	755	747	747	749	749	748	748	748	746	748	746	740	741	734	727	751	760	760	760	760	764	750	749	753	769	770	760	754	754	760	765	765	766	767	767	766	769	772	771	763	760	753	754	763	769	768	765	765	764	764	762	761	760	761	760	762	758	754	757	754	750	752	768	770	771	768	767	767	771	777	775	767	767	766	757	757	761	756	756	763	768	767	777	782	789	794	802	800	775	775	777	780	780	782	781	779	778	778	778	783	785	781	768	765	761	772	773	761	754	766	783	792	787	775	773	771	765	767	773	772	773	775	780	783	785	776	767	766	773	777	777	784	791	784	779	775	777	780	779	778	772	773	770	771	779	781	775	775	776	773	768	771	780	787	786	787	792	792	790	785	780	784	787	781	782	776	764	757	761	762	764	772	778	781	782	784	781	770	770	776	785	786	783	782	787	786	787	788	795	787	784	782	780	781	781	780	784	794	804	809	810	790	788	788	799	800	802	805	811	810	804	805	794	795	797	801	799	793	786	782	785	802	804	802	800	799	797	790	789	805	818	818	807	803	802	803	810	818	820	818	811	803	802	802	807	811	812	820	821	823	821	809	803	807	811	802	801	813	820	819	820	818	815	807	797	785	789	793	796	798	801	802	817	813	817	815	810	803	800	802	820	812	808	807	810	814	814	815	823	827	827	825	819	815	815	820	831	840	838	835	830	823	834	836	831	824	818	821	833	833	838	835	828	825	826	821	816	830	0	0	0	0	0	0	0
686	686	663	658	667	678	678	688	684	684	685	685	689	689	690	692	692	691	687	682	681	683	683	684	682	676	674	676	676	685	686	683	682	677	684	684	705	699	698	702	693	697	699	699	692	687	686	684	676	677	679	686	686	688	693	688	692	685	686	690	695	695	699	699	690	688	684	682	688	690	689	685	686	695	689	685	684	684	684	689	696	698	697	695	679	689	683	686	696	704	707	707	705	695	690	694	696	700	699	698	688	689	693	697	701	698	695	692	696	696	698	700	702	709	709	708	709	694	689	697	701	704	698	689	688	685	697	696	695	695	701	697	695	691	688	691	693	697	699	701	692	696	703	698	695	698	704	717	710	713	709	710	710	705	704	709	713	715	710	709	699	696	696	700	700	692	694	700	704	702	706	710	709	707	712	716	720	709	717	719	716	714	709	714	715	716	711	707	712	712	712	712	703	703	703	709	720	728	727	725	731	728	723	717	714	714	719	735	730	730	727	726	723	718	720	728	742	742	744	743	740	739	729	720	720	721	722	727	732	737	721	718	720	720	719	716	718	722	728	730	727	720	724	724	707	704	705	722	734	735	733	727	724	726	718	719	725	731	732	729	730	733	729	726	736	738	742	739	732	722	718	720	723	724	730	744	741	732	727	732	712	713	739	737	738	741	738	736	738	740	737	732	729	737	740	743	735	730	727	723	744	740	737	733	733	736	744	750	751	757	754	752	751	752	751	746	739	745	748	752	749	748	746	748	750	748	743	740	738	730	741	752	756	758	759	760	746	746	751	755	765	754	749	747	746	756	762	759	757	760	760	762	767	765	760	760	757	762	764	768	768	766	759	758	759	745	747	747	756	760	753	756	756	751	755	755	752	750	745	752	758	762	765	769	759	758	759	759	769	768	765	754	749	748	756	760	760	756	752	758	765	773	778	780	776	776	774	778	778	776	773	767	767	767	766	771	778	780	778	777	778	763	758	747	746	766	778	774	767	767	760	759	766	761	755	760	769	770	776	771	756	760	760	768	771	771	766	774	773	774	770	773	774	774	755	763	766	765	776	768	775	770	775	778	762	756	752	770	782	785	784	789	790	788	783	783	775	773	763	756	754	760	750	750	757	762	766	775	777	780	785	778	768	768	769	773	778	771	768	782	786	779	790	793	786	778	776	775	777	779	782	782	786	790	805	804	786	781	782	785	793	793	772	753	757	795	803	793	791	792	791	787	779	777	775	772	795	799	795	790	788	791	797	794	787	814	810	801	800	802	797	796	807	814	815	809	810	804	801	802	805	807	813	814	812	806	803	797	803	807	794	792	801	811	815	813	812	810	798	791	787	783	783	786	791	799	813	806	809	812	813	811	803	800	799	793	805	803	801	808	806	809	809	808	826	831	834	812	812	808	805	803	813	820	826	834	836	836	832	826	822	819	817	817	825	829	830	833	830	838	819	812	818	0	0	0	0	0	0	0
673	673	656	655	659	668	668	680	678	683	688	688	697	691	688	686	686	686	680	674	679	684	684	681	677	674	667	662	671	671	671	669	672	673	676	687	687	691	690	689	677	682	682	682	676	672	676	679	680	684	687	685	685	685	680	684	683	681	682	680	686	688	683	683	681	678	679	681	686	687	683	681	679	680	683	687	684	684	682	685	699	701	697	687	678	677	681	681	685	694	700	684	681	691	693	696	697	701	697	695	692	686	685	691	694	692	682	686	690	696	696	697	696	696	697	697	686	685	688	694	699	696	689	691	691	691	688	685	686	703	700	698	692	687	688	688	689	692	692	695	695	696	690	691	695	699	701	705	704	696	699	700	701	700	697	702	705	707	701	695	688	689	691	695	695	693	694	697	700	701	706	709	705	707	710	712	714	710	707	710	700	701	704	700	704	704	697	689	691	704	709	712	712	708	704	704	714	722	720	712	719	713	710	706	701	707	715	724	724	728	714	722	720	713	716	722	731	737	737	746	739	733	720	709	702	708	709	708	709	703	710	712	713	713	713	712	714	718	722	729	728	710	704	700	699	699	705	709	712	716	716	728	717	715	702	705	712	720	720	724	727	721	722	719	721	735	739	732	729	722	717	720	720	719	721	725	733	731	722	723	723	727	731	737	728	728	732	730	733	734	732	731	727	730	728	731	727	722	718	703	706	722	727	726	732	733	735	737	732	745	744	747	747	745	742	727	730	728	736	741	745	746	746	750	751	748	751	747	741	741	741	748	753	757	757	756	746	746	740	742	742	734	732	736	742	746	754	754	754	756	755	756	749	751	755	752	755	756	754	761	764	760	757	744	746	740	741	747	749	754	744	738	740	747	751	752	739	732	740	739	741	746	759	759	756	752	752	752	752	748	750	747	743	742	751	755	757	753	751	757	757	755	748	735	768	771	762	773	773	772	764	759	755	747	754	749	768	779	779	781	778	764	756	752	757	750	761	759	760	750	749	752	747	752	745	747	749	763	765	759	755	740	750	757	761	761	762	756	752	759	768	771	770	751	745	755	750	757	766	774	775	775	771	774	760	748	746	751	765	769	769	771	775	785	785	757	755	751	758	756	755	754	755	744	768	768	764	760	760	760	767	778	773	772	775	764	765	766	757	764	769	782	790	794	782	772	771	769	773	775	778	778	780	780	779	788	783	781	779	778	770	761	747	746	765	780	769	770	780	770	772	774	774	771	773	766	780	787	780	783	786	792	801	798	785	781	778	776	777	780	784	789	796	804	808	811	807	797	790	792	798	802	808	807	804	789	792	792	795	792	780	777	785	799	801	801	800	799	796	789	796	794	780	768	769	780	784	794	797	806	812	813	805	798	791	781	780	796	800	803	797	804	803	796	797	800	797	787	787	799	798	804	806	810	813	821	822	820	816	813	804	798	796	796	813	822	819	808	821	802	797	793	804	0	0	0	0	0	0	0
665	665	656	650	656	666	666	672	672	684	691	691	690	691	688	680	672	672	668	674	672	677	681	681	678	669	653	665	669	669	670	666	664	666	673	681	681	674	672	671	664	671	670	666	666	663	671	681	684	685	676	665	659	659	665	669	678	676	675	673	678	684	681	668	668	672	676	678	681	672	673	674	679	682	685	685	679	684	684	693	697	701	697	686	679	679	677	683	686	686	682	677	678	678	677	680	679	687	691	692	688	686	683	686	689	678	675	679	685	686	680	677	679	681	685	686	684	684	687	694	696	693	686	680	690	691	687	685	685	695	701	696	693	687	687	687	688	687	689	693	691	689	691	693	697	699	701	705	697	693	694	696	696	693	694	698	699	702	697	690	684	686	691	695	696	695	694	694	696	699	703	706	702	705	709	713	715	709	690	689	697	700	698	697	693	693	695	690	692	697	704	712	710	709	707	707	710	717	719	714	692	685	680	690	699	710	720	724	723	716	711	716	714	707	707	718	720	724	739	736	729	723	702	704	701	700	701	698	695	686	693	699	706	704	702	706	710	715	717	716	716	707	703	701	702	704	713	715	710	710	713	712	710	710	705	706	713	718	718	718	719	722	722	719	716	714	717	721	723	725	720	719	718	717	719	726	731	726	720	715	714	720	722	724	720	719	710	718	726	732	730	726	725	726	731	730	724	716	693	697	711	716	719	726	725	730	730	725	730	738	744	735	732	727	728	729	726	721	723	731	738	742	744	748	747	741	746	744	739	734	740	743	741	743	743	745	744	740	741	741	738	723	721	725	737	736	736	745	739	724	722	727	737	740	744	738	739	739	736	741	756	757	753	738	728	732	735	742	744	743	745	736	741	750	747	733	730	728	731	737	735	736	730	743	741	744	744	751	749	740	739	737	736	735	742	745	751	754	755	758	758	752	747	740	730	750	764	772	775	769	764	754	739	735	736	744	746	751	755	758	760	750	742	745	749	747	755	765	767	762	755	751	746	743	740	741	744	746	748	748	741	742	731	745	755	756	753	735	738	740	744	749	752	749	746	745	743	746	754	763	775	763	760	768	759	742	739	749	761	758	754	748	748	754	756	750	750	747	746	756	757	760	756	759	765	761	762	759	753	754	763	762	766	771	769	768	758	765	765	767	766	761	769	776	767	758	756	757	757	761	767	772	773	750	751	763	768	772	775	769	762	754	747	758	764	768	765	764	762	754	754	755	758	758	750	749	774	773	772	774	781	792	791	788	775	769	767	764	762	762	770	784	794	795	799	800	791	785	785	787	786	790	793	802	792	780	783	786	788	788	774	770	779	786	788	786	788	786	786	792	789	787	781	776	779	778	783	773	782	796	806	808	800	786	778	777	778	787	793	798	791	786	788	786	785	786	789	789	784	788	790	791	796	795	799	801	804	804	801	804	795	790	790	785	797	802	803	797	799	796	780	778	802	0	0	0	0	0	0	0
658	652	652	655	661	663	656	656	667	682	686	673	673	679	674	668	662	662	669	670	664	673	678	678	672	655	654	660	667	667	666	666	663	661	649	656	656	665	669	660	663	666	667	661	661	659	661	670	672	673	669	664	659	659	662	668	676	678	674	673	674	676	675	662	662	664	669	673	669	657	657	659	665	671	667	668	669	673	687	687	693	692	691	681	676	676	677	676	685	686	682	681	677	674	672	667	669	676	680	684	682	676	677	680	684	675	673	673	680	682	681	674	672	667	673	677	677	680	686	690	688	686	678	674	674	682	681	680	680	684	686	688	686	687	687	688	687	688	689	689	688	688	686	693	697	698	699	693	685	687	673	668	674	690	686	691	690	685	682	682	679	682	691	697	697	694	692	693	694	693	693	698	702	706	709	705	714	707	699	699	697	699	691	690	691	692	692	692	693	699	697	703	707	700	703	702	702	711	714	709	703	698	689	687	697	701	718	721	721	718	714	711	708	705	702	713	708	709	706	701	699	713	712	703	710	709	703	703	702	698	692	691	699	698	700	702	704	707	711	712	710	702	701	704	706	714	716	710	705	704	704	710	709	710	713	707	704	719	705	717	716	721	721	720	712	708	711	715	726	730	717	715	713	711	716	724	724	720	715	711	712	710	718	717	701	701	701	712	724	730	731	723	725	731	726	720	718	701	697	698	698	715	720	722	724	726	725	727	732	737	739	731	727	721	720	721	717	718	717	718	723	731	734	731	731	736	726	727	728	732	735	737	739	739	710	718	729	734	737	737	737	737	725	727	728	721	719	717	723	720	723	741	736	743	737	731	730	726	728	728	725	725	731	713	710	722	727	733	739	736	734	735	736	735	737	730	729	731	728	733	730	730	734	730	728	730	743	746	747	744	740	737	732	731	730	736	744	750	757	757	755	749	743	735	734	733	749	757	759	758	757	747	743	737	737	742	746	740	740	743	744	738	737	740	739	740	746	750	753	764	757	752	749	743	738	737	733	734	739	740	740	732	730	728	737	745	741	740	738	737	739	742	745	745	742	738	735	734	732	747	757	756	755	757	740	732	728	729	745	755	740	738	743	747	747	747	744	742	742	750	762	763	754	751	746	743	759	760	746	747	752	755	753	752	754	754	766	769	765	764	758	757	764	771	770	768	753	750	746	737	734	731	732	737	741	754	756	755	758	762	768	765	762	764	764	764	762	755	751	741	744	746	751	753	748	740	747	753	754	766	774	782	780	775	767	762	760	759	763	764	769	776	785	788	792	785	780	777	773	780	776	777	780	778	774	781	777	778	778	779	781	780	776	777	775	769	774	773	776	778	770	771	771	780	780	780	773	766	765	770	782	777	778	777	774	778	780	779	781	783	786	780	775	775	779	778	781	781	779	781	784	785	776	780	792	792	790	785	784	790	788	777	777	775	782	789	791	796	795	796	789	782	782	782	0	0	0	0	0	0
657	653	653	656	655	649	651	651	672	676	671	658	658	648	652	650	650	650	652	658	664	670	667	667	664	657	657	660	667	663	663	659	654	652	651	656	660	660	654	655	659	663	664	660	650	650	658	665	664	663	664	663	659	661	661	663	672	677	675	674	674	674	670	668	659	659	662	661	652	652	645	652	657	661	658	662	661	669	669	669	684	682	669	674	676	676	674	673	673	681	681	678	675	670	662	660	660	665	667	668	668	665	662	673	673	670	668	673	674	671	674	674	670	670	665	668	673	673	675	678	681	675	671	669	671	674	675	674	675	677	678	681	686	686	686	683	683	684	685	687	686	686	684	683	683	686	685	683	682	684	672	667	671	689	680	675	681	680	680	677	677	684	689	692	692	691	692	691	693	694	699	703	698	698	702	701	695	701	700	696	696	689	687	685	687	690	691	692	687	693	691	686	691	691	694	687	685	683	686	695	698	696	692	684	685	690	700	702	699	706	705	704	708	710	713	705	705	702	700	696	692	696	698	696	706	705	698	700	702	700	694	691	693	693	697	696	695	700	700	701	701	700	696	701	708	708	709	709	703	700	704	705	707	703	706	710	698	703	696	693	705	716	720	720	710	705	704	716	718	725	723	715	712	714	717	712	715	717	713	713	710	711	702	705	725	696	694	694	702	705	707	710	717	718	709	716	715	703	700	698	697	716	721	723	722	723	727	728	727	727	728	726	723	718	713	716	715	715	711	711	715	704	702	702	707	728	727	726	725	717	726	727	729	711	711	705	717	722	721	724	726	731	732	721	717	719	713	711	714	720	733	734	740	735	730	724	725	724	722	716	711	716	723	708	704	714	714	722	740	742	735	735	731	733	728	728	729	730	725	728	730	729	726	725	720	728	735	743	742	740	737	733	733	733	738	738	739	749	756	735	742	735	729	713	716	721	726	724	723	725	725	724	726	722	723	725	733	734	735	732	731	730	736	736	734	734	727	739	757	757	744	743	748	752	736	730	728	726	732	730	732	730	732	728	732	737	738	738	737	737	735	735	732	732	730	726	726	732	732	731	730	736	738	735	729	727	726	728	734	733	732	732	739	740	743	751	752	739	739	757	761	758	752	744	736	735	748	738	738	743	742	741	748	748	739	747	750	766	763	759	755	755	754	762	764	764	762	747	740	735	731	730	732	740	747	752	754	750	752	754	750	748	748	756	757	759	758	749	743	735	736	741	747	749	745	744	744	747	754	760	764	771	769	764	759	758	758	761	762	763	766	765	769	778	780	777	773	769	763	766	771	765	767	768	778	779	781	782	782	777	776	773	774	770	769	763	762	769	771	768	765	764	774	772	772	769	776	766	769	775	778	772	774	766	766	760	768	771	776	776	783	775	770	771	771	763	763	762	770	774	777	776	775	778	785	785	783	777	772	775	776	776	775	768	774	780	782	788	799	797	792	781	776	776	0	0	0	0	0	0
662	655	655	656	648	651	673	673	674	669	659	643	643	638	638	637	642	646	646	651	656	660	660	661	661	659	659	664	667	668	668	654	652	649	655	656	655	655	653	654	655	657	660	660	653	653	650	655	655	659	659	653	654	658	658	662	668	669	674	669	676	678	675	656	654	654	655	658	646	646	651	652	656	664	668	662	659	654	658	669	669	671	669	679	674	674	672	672	670	669	670	670	672	666	660	657	652	655	655	656	658	660	660	665	668	667	666	668	670	672	666	672	669	667	668	668	672	672	673	671	668	668	666	668	671	673	674	673	674	671	673	680	683	685	686	682	680	678	678	678	678	681	680	679	682	682	682	681	679	679	679	679	679	671	668	670	671	676	676	677	677	680	688	691	689	686	687	693	696	700	704	688	689	691	693	687	689	688	696	687	683	683	682	688	690	687	686	685	685	677	672	672	678	676	682	687	687	682	684	687	688	689	688	685	685	687	693	689	687	683	688	691	696	696	704	705	699	695	685	687	683	687	692	690	689	689	693	696	700	701	699	695	690	695	693	688	691	694	696	699	694	688	688	687	690	695	707	704	702	698	699	705	703	701	704	709	700	692	690	690	688	692	699	707	704	702	698	692	689	699	707	709	711	707	706	709	712	711	711	709	706	708	696	682	713	691	690	691	694	698	699	699	698	699	705	708	704	697	697	694	697	699	721	724	711	700	701	702	721	723	723	723	720	713	709	703	700	699	702	705	703	701	699	697	704	709	723	717	717	706	705	708	709	708	702	703	703	714	711	715	723	724	721	712	708	713	711	711	708	708	725	724	725	712	715	717	721	709	709	699	702	707	716	705	704	706	709	713	720	719	722	731	728	730	727	728	727	728	728	725	728	729	726	720	714	718	729	739	734	723	719	725	731	729	730	728	733	740	734	731	725	722	717	722	724	725	725	718	717	723	722	722	723	720	723	722	718	723	725	727	728	727	732	712	709	712	715	722	725	727	737	735	741	742	727	723	721	721	727	719	724	727	728	735	735	732	734	736	734	722	717	716	716	732	727	727	729	735	733	729	725	723	727	732	733	732	729	729	732	733	726	727	729	736	741	733	732	731	734	741	751	743	736	728	725	728	728	728	726	728	729	730	736	736	735	734	738	761	756	754	749	748	748	750	754	755	752	747	737	731	728	731	735	744	746	748	752	747	750	751	748	742	740	741	735	736	742	739	737	734	735	740	744	749	743	740	744	749	750	758	757	759	757	750	753	760	764	772	771	766	761	761	763	770	775	773	769	763	758	749	748	748	750	750	750	750	749	753	755	754	754	752	757	764	765	762	756	757	761	759	755	761	769	771	761	757	752	750	756	762	769	775	774	764	757	751	768	776	776	767	761	768	769	769	761	761	757	758	767	781	783	780	776	778	772	772	772	769	770	759	764	764	760	762	772	777	777	780	777	790	780	778	778	775	0	0	0	0	0	0
664	656	654	654	646	664	664	664	664	661	648	643	639	639	639	639	641	642	642	644	650	649	651	653	653	654	658	666	665	654	654	651	648	652	651	653	654	654	654	653	648	651	653	657	650	650	645	648	651	649	657	653	655	659	659	664	666	668	667	663	661	663	658	657	659	659	657	650	652	653	654	653	655	662	664	664	658	644	641	643	643	653	665	671	670	670	667	668	668	665	662	662	653	655	656	656	650	647	646	649	651	656	656	659	661	657	653	657	652	655	664	668	663	669	668	668	671	672	668	662	661	659	662	669	668	671	673	671	670	678	681	681	681	687	686	681	676	674	666	667	671	674	676	676	677	678	679	678	680	679	680	677	677	670	664	667	667	673	673	672	673	679	689	689	683	678	674	671	675	679	683	683	683	683	682	684	684	682	678	672	662	672	677	683	687	686	684	683	684	681	678	674	671	677	682	683	682	683	682	685	686	685	685	686	679	676	675	688	681	681	679	683	685	687	686	691	694	688	684	676	677	681	684	686	685	683	684	688	693	698	690	686	685	683	683	682	685	688	691	692	687	687	688	691	693	701	702	697	697	696	693	693	694	696	702	695	693	690	689	679	678	679	680	686	693	687	691	684	682	687	697	703	706	705	702	700	700	700	704	702	700	690	682	691	680	686	686	687	690	692	695	697	697	695	700	698	694	695	692	699	701	700	699	699	696	699	698	700	701	713	718	718	716	710	705	698	693	693	694	689	699	696	696	695	704	710	714	718	705	708	703	704	704	705	700	699	700	705	707	705	712	711	709	708	708	708	712	712	703	700	704	705	707	707	708	711	706	705	703	693	695	697	704	700	698	700	706	710	712	714	717	721	718	724	720	717	720	723	728	732	731	730	721	718	712	709	720	714	698	699	699	711	720	722	726	719	720	732	730	725	720	718	719	718	727	727	727	730	723	719	722	721	720	713	708	705	708	711	713	716	715	714	711	704	706	708	712	713	712	720	716	721	723	720	720	716	719	720	717	707	706	710	713	707	720	727	730	733	726	722	717	712	717	732	730	731	727	732	728	727	724	715	722	732	732	729	726	729	728	731	733	727	724	726	726	724	724	724	729	740	741	735	732	725	722	720	725	724	722	719	720	719	720	723	709	726	731	749	751	748	739	738	735	731	738	736	736	740	732	734	733	732	739	744	747	747	752	750	744	743	737	736	736	730	733	739	743	741	737	735	732	735	741	741	736	737	743	745	748	746	748	746	742	740	743	753	763	766	771	771	767	761	756	759	766	770	759	746	740	741	742	741	749	749	750	750	745	741	744	743	743	741	743	749	755	757	761	755	749	745	745	754	749	743	742	742	742	750	753	756	765	769	770	768	762	750	750	755	751	752	757	760	765	766	760	760	755	758	774	786	787	780	775	770	767	761	763	762	748	749	749	754	755	756	769	773	775	772	770	774	771	771	771	773	0	0	0	0	0	0
645	646	647	647	646	652	654	659	659	647	645	642	640	640	641	641	642	643	643	643	646	646	646	646	646	648	652	652	648	645	640	640	646	648	649	652	653	651	651	649	643	646	644	649	646	639	639	633	637	654	659	658	657	654	659	659	664	659	649	655	660	661	664	665	659	653	653	648	650	652	654	655	658	660	663	661	655	642	638	637	643	643	653	664	663	663	660	664	664	666	660	653	649	648	651	651	649	644	646	654	656	650	648	651	652	646	648	648	647	646	653	660	657	664	663	665	661	654	651	648	650	653	654	653	662	664	662	659	664	660	673	664	667	677	675	675	671	666	664	664	667	668	669	670	673	675	675	667	677	681	681	674	667	663	664	654	655	662	665	668	671	667	658	662	656	650	656	663	668	670	674	677	677	677	676	677	677	676	672	659	662	666	672	679	681	675	678	682	685	684	679	674	674	679	680	678	684	684	680	683	684	682	685	686	678	672	668	666	677	681	678	682	684	685	685	680	675	673	671	672	679	683	689	688	687	684	680	680	684	683	681	676	676	678	679	680	672	679	683	686	685	687	689	689	695	696	694	689	685	685	685	687	685	675	677	679	672	679	679	680	681	680	681	682	680	686	680	675	670	676	681	688	699	700	699	697	697	694	693	694	686	676	671	677	670	683	681	682	685	690	693	694	692	695	696	694	689	686	692	700	694	689	699	701	696	696	696	695	697	693	710	708	705	707	699	692	687	689	695	684	681	687	692	697	704	706	710	707	704	706	700	700	704	699	695	695	696	692	693	692	697	689	685	709	711	709	706	706	702	699	700	705	709	716	710	704	699	695	695	695	691	698	697	694	693	693	696	696	694	695	705	709	714	705	696	688	692	695	698	690	687	707	718	716	705	700	700	695	687	702	702	702	706	706	707	715	721	727	726	715	716	715	716	718	725	725	720	719	722	703	702	695	703	702	696	701	703	708	708	713	713	707	685	689	701	709	712	710	708	718	714	715	708	707	709	719	720	721	721	707	708	720	708	701	705	723	728	728	729	725	716	716	717	719	724	730	729	733	718	713	713	714	723	729	726	724	722	723	725	725	725	721	718	715	717	718	720	718	722	732	732	728	726	720	707	709	719	722	719	716	714	717	723	726	725	725	720	724	732	734	733	717	717	727	731	733	729	731	732	733	734	731	725	730	747	751	751	738	726	731	730	731	730	729	724	728	733	734	733	736	726	723	719	721	732	738	740	742	744	743	739	736	735	732	732	735	738	754	757	756	753	750	744	749	741	743	745	744	737	734	734	741	743	743	746	747	745	739	742	742	741	736	735	735	737	755	754	738	741	735	734	740	738	734	737	736	742	745	747	744	746	758	755	746	741	742	730	726	724	728	733	747	772	756	756	750	742	755	775	783	784	776	766	760	757	754	754	749	747	751	751	755	750	753	754	749	751	751	752	771	770	770	769	769	0	0	0	0	0	0
640	643	642	642	652	641	630	636	636	639	641	639	639	639	640	642	643	643	644	644	642	646	647	641	639	639	642	638	636	633	637	637	644	646	648	653	652	646	646	645	641	643	638	638	638	636	636	636	647	658	659	651	651	654	658	658	660	649	646	652	656	658	643	645	646	649	649	644	647	651	651	653	655	657	657	655	650	646	644	646	654	654	657	649	649	649	653	661	662	660	652	646	645	645	646	646	642	648	651	654	659	659	655	649	647	646	636	637	644	645	646	652	652	660	658	643	638	638	640	643	642	649	649	649	650	656	654	646	650	663	668	664	664	663	661	659	671	665	666	665	665	664	663	665	668	670	665	660	658	663	666	665	656	648	648	652	654	655	665	666	667	663	652	657	653	646	645	657	664	664	663	670	671	672	673	671	673	665	658	659	662	667	667	668	673	670	673	675	682	683	681	677	677	677	677	675	670	675	674	677	678	674	673	683	677	671	665	664	666	670	674	675	675	674	678	674	673	664	668	670	676	686	686	681	679	677	677	675	676	677	678	671	676	676	678	678	665	664	667	672	678	683	684	684	688	692	690	676	655	654	659	665	670	674	670	663	657	658	673	672	673	678	678	677	675	673	671	669	667	669	671	675	676	689	691	691	692	689	684	677	674	675	686	687	666	665	676	675	674	679	686	690	687	687	685	681	679	681	689	692	689	687	695	701	702	699	694	691	688	686	702	683	699	703	694	688	684	683	683	680	672	673	684	689	687	693	697	698	697	697	704	705	705	696	683	678	677	681	681	689	688	679	682	683	707	701	694	690	683	694	696	702	707	709	701	692	690	690	688	674	683	696	695	691	691	692	694	681	675	677	685	692	695	682	685	685	689	692	691	689	688	691	700	705	700	693	680	681	694	687	689	691	703	702	700	706	715	714	714	703	711	713	713	714	713	712	702	703	702	703	689	691	691	693	697	711	713	710	707	702	695	694	679	683	695	706	710	709	707	709	719	717	715	715	711	709	710	715	715	715	710	716	699	699	710	723	723	727	722	720	717	717	711	711	710	715	710	714	712	711	712	713	721	717	720	719	717	718	712	717	718	715	702	703	701	713	713	715	715	716	719	716	714	710	708	710	711	716	713	711	711	713	722	724	723	721	723	725	722	723	719	717	712	718	724	725	726	725	726	728	727	725	721	721	734	749	733	718	714	712	715	713	710	709	709	712	720	728	729	726	724	723	720	721	732	739	734	734	730	729	724	725	719	714	719	720	720	726	732	748	747	746	725	717	709	718	731	735	730	730	732	731	728	735	735	737	742	739	744	746	740	731	733	733	734	747	744	738	719	726	719	722	722	726	728	732	738	740	736	737	733	739	738	736	719	720	719	719	717	717	717	751	750	756	758	753	746	749	767	775	774	760	750	747	747	746	746	748	751	751	756	757	754	746	746	747	749	749	744	753	762	762	765	760	0	0	0	0	0	0
634	639	634	634	643	627	627	631	631	634	633	632	631	634	634	639	640	635	634	634	643	652	640	642	641	641	638	635	628	621	632	641	641	644	647	642	641	641	639	639	636	633	633	630	633	637	639	639	643	643	650	643	645	646	653	652	652	643	637	640	646	646	640	639	641	641	639	639	639	647	648	648	638	637	639	645	644	644	645	650	652	653	653	641	644	645	642	639	658	656	640	638	640	636	638	642	646	648	650	654	656	658	658	654	647	635	647	634	642	657	652	646	645	642	642	638	639	639	637	638	642	643	642	643	644	643	642	643	650	664	667	662	663	663	662	658	657	660	664	661	661	658	655	656	662	659	656	655	654	654	659	661	662	658	654	649	651	654	661	663	658	657	649	643	641	644	648	652	665	663	657	660	664	669	672	673	668	658	657	657	664	665	662	663	668	670	670	671	674	677	677	676	674	672	668	665	661	661	665	660	666	666	661	665	662	647	643	643	658	664	670	674	670	669	672	669	667	662	662	660	661	661	659	660	664	668	671	676	676	676	678	674	677	675	675	670	658	659	664	668	669	678	679	679	681	672	664	661	655	651	659	666	672	672	669	663	651	651	663	665	667	669	676	676	674	672	670	668	666	668	673	675	672	660	658	663	670	682	672	667	664	677	688	687	657	663	665	666	669	673	681	680	678	678	675	670	668	674	684	686	685	688	695	688	692	694	690	690	689	689	679	683	686	692	685	683	682	681	681	678	669	665	663	682	682	686	688	692	693	682	679	689	690	683	681	676	675	674	674	682	679	679	676	678	682	696	688	684	682	683	682	682	687	691	693	690	682	679	678	670	665	674	682	684	685	686	688	681	674	676	680	682	684	682	681	681	685	685	691	691	687	691	691	687	690	681	674	673	676	684	689	690	688	686	689	707	710	705	700	704	697	700	682	685	690	692	694	693	695	691	683	676	678	696	697	698	693	690	687	686	684	679	683	685	691	700	705	703	697	700	706	712	710	704	703	698	698	699	704	702	704	708	692	687	703	713	719	711	709	712	712	720	716	709	708	710	710	710	708	708	709	710	723	718	722	722	718	711	708	704	707	707	706	689	700	699	700	706	706	708	705	707	706	711	708	704	706	709	709	708	711	712	713	716	716	720	715	716	718	712	712	706	705	710	714	714	713	711	718	720	721	718	714	708	711	710	706	706	705	709	710	709	708	706	706	706	707	709	712	706	712	709	709	713	729	731	730	733	732	725	718	710	706	706	714	715	721	721	722	731	732	725	715	707	700	711	711	725	726	729	729	727	723	718	731	734	738	743	743	743	738	721	719	725	729	736	732	724	714	706	708	711	718	716	722	726	735	736	729	728	727	729	727	725	724	721	719	715	715	718	720	721	742	750	753	750	747	744	748	765	765	745	744	745	742	733	735	746	749	749	755	754	752	749	747	744	741	746	743	750	754	754	756	756	0	0	0	0	0	0
628	620	634	633	633	627	627	630	630	630	630	628	629	625	625	624	626	627	624	624	636	639	625	628	632	632	628	625	624	623	631	637	637	632	633	633	636	636	631	631	622	624	624	626	627	631	638	638	637	634	635	639	638	638	647	637	637	632	632	637	645	645	631	635	635	636	635	635	634	635	636	637	635	635	638	640	640	640	641	644	648	636	637	637	642	644	642	636	631	622	625	633	634	629	637	644	650	653	652	647	646	650	653	654	654	644	631	633	635	640	644	644	641	641	642	643	639	638	635	633	637	640	640	640	639	642	647	650	657	661	666	666	665	662	656	654	652	653	654	657	654	650	651	652	653	652	652	653	648	649	651	658	662	661	656	649	648	650	661	662	658	656	649	641	637	641	647	660	663	660	663	661	662	662	667	668	667	659	655	656	664	663	663	661	664	665	666	647	653	656	658	653	658	659	658	657	655	659	663	659	660	661	658	657	651	644	638	635	637	642	650	655	650	640	651	656	659	659	660	657	660	662	663	659	659	658	658	674	673	672	670	671	674	673	670	665	658	656	659	663	666	668	676	675	667	654	656	659	653	649	660	671	677	677	672	661	649	646	649	659	663	662	667	676	677	671	667	665	659	659	662	663	662	663	660	660	664	665	660	659	661	668	668	665	657	663	664	667	668	676	677	675	671	667	656	657	658	663	674	680	679	680	690	686	690	693	688	687	687	686	690	683	685	689	689	684	684	683	681	681	667	664	664	663	665	669	680	688	682	669	664	667	683	683	678	674	672	669	670	673	672	671	671	676	677	679	681	687	689	677	680	680	683	682	683	680	678	666	666	663	662	663	654	678	679	681	677	678	675	673	680	682	678	676	676	677	681	685	685	687	685	687	683	667	677	678	677	674	675	681	690	690	685	682	681	703	704	702	688	687	686	686	688	682	681	683	684	685	689	690	688	681	684	689	690	690	687	683	682	687	692	682	682	687	691	698	699	694	691	694	699	703	703	699	697	698	697	703	700	703	702	701	689	689	701	708	707	705	705	711	713	711	708	704	704	705	703	699	701	694	704	704	704	716	728	732	727	718	708	702	694	694	697	694	690	703	703	703	699	696	695	701	707	709	709	710	705	707	707	707	707	706	706	709	711	714	714	714	708	703	701	705	704	705	704	704	704	709	713	713	713	708	706	704	707	706	702	699	701	702	708	706	705	704	704	705	706	715	708	709	697	701	701	712	714	714	716	728	732	727	718	701	700	703	709	717	719	717	716	715	710	711	706	704	696	690	689	693	721	724	730	738	738	714	709	728	735	743	737	740	733	713	707	709	718	722	720	715	707	702	704	706	712	712	719	725	731	730	725	728	728	729	730	726	721	720	717	716	720	717	715	720	720	734	739	745	741	738	733	737	741	736	736	734	729	726	728	732	732	742	736	733	730	734	742	738	734	731	727	743	743	743	741	749	0	0	0	0	0	0
607	619	623	626	626	629	625	625	624	624	617	613	615	612	612	617	620	623	629	624	624	623	622	624	626	623	623	620	621	621	624	620	620	624	626	632	633	631	627	627	618	621	620	621	625	629	634	634	634	630	627	628	630	640	633	633	630	630	627	628	630	626	625	626	631	632	632	632	632	632	632	632	634	633	631	631	631	633	635	639	647	638	639	639	641	643	639	633	626	608	612	619	626	628	638	639	635	638	633	636	631	643	652	652	639	643	631	636	636	636	636	636	622	625	630	636	625	636	633	630	630	632	635	635	639	647	651	653	649	641	646	647	644	640	643	646	651	652	652	649	647	650	651	647	646	645	645	648	645	646	648	658	663	659	651	647	646	648	659	660	657	656	648	641	639	642	648	663	669	663	659	660	653	655	654	655	651	650	647	652	657	663	663	667	674	670	645	635	650	658	653	657	652	654	660	660	658	657	660	659	655	652	649	650	648	646	642	642	644	647	651	645	642	641	645	658	658	663	659	659	660	664	668	667	662	655	655	656	665	659	672	674	673	672	666	662	658	652	654	664	662	661	661	661	648	644	644	654	650	648	659	673	678	673	670	660	650	648	652	643	647	651	664	673	672	665	663	662	657	658	658	659	660	665	664	665	663	658	652	656	654	655	657	660	659	659	665	668	671	673	672	666	668	656	643	639	649	650	659	662	662	670	673	680	684	687	666	660	657	662	664	683	685	678	676	682	682	675	678	674	670	667	667	665	666	665	666	665	662	662	662	664	667	675	671	670	667	663	663	662	665	664	667	670	674	672	676	677	677	677	674	674	674	675	678	677	676	674	667	663	660	664	653	658	660	674	672	671	674	674	676	680	669	673	673	675	670	663	662	681	680	675	672	677	678	678	678	675	674	678	683	687	686	684	680	683	689	689	685	683	681	683	685	685	684	684	683	685	689	685	681	681	681	690	688	685	679	679	683	690	695	688	683	685	691	690	684	681	681	685	700	701	695	689	688	694	699	701	698	703	697	693	686	689	692	695	698	681	691	689	691	690	702	699	698	699	697	690	676	685	704	701	697	692	693	695	694	704	698	681	683	687	704	714	715	712	699	691	682	683	688	691	694	708	708	709	710	709	698	699	706	700	700	701	705	702	700	695	690	687	701	702	699	700	696	695	698	702	706	707	707	707	709	705	704	704	705	705	696	690	687	695	700	702	698	697	704	715	705	705	705	692	706	710	706	703	699	696	697	703	700	698	695	698	700	714	716	715	715	714	711	711	705	704	692	698	685	699	708	712	723	737	734	711	707	707	708	709	713	718	705	696	701	705	712	713	712	707	705	702	700	705	704	706	711	717	726	719	722	723	723	730	727	725	725	718	718	720	720	719	717	717	718	720	734	724	722	731	727	729	732	734	733	731	724	721	724	725	725	730	730	729	727	724	722	719	722	722	721	715	727	730	731	733	0	0	0	0	0	0
601	611	617	624	624	626	625	620	616	616	615	614	608	612	614	614	619	621	622	621	621	620	622	615	623	624	624	623	622	621	621	619	620	620	623	625	626	622	618	618	617	620	620	622	628	631	635	633	633	621	618	615	614	622	627	629	626	626	623	626	625	623	622	624	625	626	629	628	628	631	631	632	631	627	626	626	627	626	617	619	626	626	621	622	622	626	632	626	609	608	613	622	635	635	635	635	631	627	622	621	623	636	638	636	637	630	631	634	633	630	626	620	613	618	622	624	630	623	625	632	631	632	635	636	636	638	638	637	637	638	640	639	637	635	636	639	642	644	647	646	641	640	648	644	639	637	638	639	641	644	647	653	660	653	647	645	645	645	655	656	655	653	644	640	641	639	643	657	665	661	649	648	636	634	633	635	645	643	643	648	656	662	666	666	665	635	629	632	645	658	658	655	650	664	664	660	655	655	645	649	651	651	648	650	655	650	657	648	652	651	651	644	639	636	638	653	643	649	659	659	656	667	666	668	662	651	651	651	660	659	656	655	648	667	665	659	653	651	650	653	655	652	652	645	643	642	646	655	639	642	646	655	662	665	664	661	659	658	655	654	650	654	658	664	664	663	659	654	652	659	660	659	658	662	660	657	656	651	650	653	652	654	653	656	659	658	655	658	656	668	669	667	662	656	646	635	641	646	652	651	652	653	663	669	672	667	661	658	655	659	663	667	661	675	669	675	676	674	676	671	666	666	663	667	663	658	657	659	660	663	664	667	663	660	662	658	658	659	657	655	655	656	660	663	667	665	666	673	670	670	664	667	665	668	673	677	677	673	667	665	664	656	659	663	667	669	668	668	669	669	665	668	670	672	670	665	655	660	667	662	664	668	671	671	671	673	676	674	677	678	675	680	679	668	668	669	675	684	685	682	682	682	682	679	685	678	676	680	678	690	680	678	680	686	684	681	680	678	673	672	679	682	682	680	680	680	677	676	679	681	690	687	693	687	689	697	698	697	696	700	690	687	685	684	676	670	669	670	676	686	689	684	692	695	678	675	669	666	675	689	686	692	683	681	683	688	690	687	679	669	673	681	686	686	684	689	696	676	678	680	685	686	690	697	703	704	705	693	681	683	686	691	686	684	681	684	686	683	678	687	684	676	671	673	675	682	696	699	698	698	701	706	709	700	703	706	705	703	687	681	681	680	685	692	693	690	699	708	703	701	694	697	700	703	702	697	696	701	699	695	696	691	696	691	697	710	715	711	712	712	712	711	714	706	703	690	688	698	703	711	713	710	708	704	709	708	708	705	702	698	687	676	692	699	709	714	713	707	704	698	701	702	706	707	710	712	712	721	727	722	721	728	728	727	718	717	719	722	724	720	718	718	715	712	714	718	718	720	721	720	728	731	732	727	720	718	721	721	718	723	729	729	727	725	721	720	721	721	716	716	715	716	716	717	0	0	0	0	0	0
596	605	613	613	620	620	621	612	613	615	615	611	607	608	613	613	617	618	612	612	614	614	614	608	610	616	618	618	619	617	619	621	617	617	609	607	608	611	615	617	617	620	622	627	629	631	631	633	633	633	610	607	610	614	623	626	624	619	619	623	624	610	608	612	616	620	624	625	628	628	630	627	627	623	622	621	622	621	625	623	619	615	609	614	615	615	615	608	608	612	621	625	628	632	629	629	626	621	619	617	623	625	624	623	626	629	632	631	630	626	623	618	611	609	613	616	620	620	625	630	633	634	631	630	630	631	639	636	634	632	632	631	629	627	625	627	633	635	637	635	636	620	617	624	629	630	628	627	623	622	622	627	635	637	638	640	642	642	640	639	645	645	645	642	640	637	634	638	640	644	641	636	633	633	635	649	647	641	640	642	652	659	663	665	639	628	623	630	647	656	655	651	650	650	652	650	649	641	636	644	646	646	644	647	652	656	648	644	647	647	647	636	631	626	643	637	642	648	648	646	647	656	661	663	658	648	647	643	639	638	640	640	642	646	652	652	648	645	649	645	648	647	642	640	641	640	646	651	637	635	636	636	638	650	649	650	654	657	654	649	650	653	657	660	658	657	653	651	654	657	661	660	651	652	653	652	651	646	647	648	648	649	650	651	652	652	648	648	650	655	658	661	657	650	651	630	630	634	644	642	647	650	648	656	658	662	659	659	656	655	657	665	657	660	657	673	675	672	669	665	657	657	664	661	644	652	652	653	655	662	669	672	671	654	650	653	655	657	657	655	653	654	654	655	658	659	662	658	654	651	651	653	658	658	665	668	670	670	664	671	665	653	655	658	664	662	664	664	663	661	658	661	665	668	671	650	655	656	668	668	670	675	676	661	663	659	662	671	671	670	666	664	662	662	664	668	670	680	683	683	682	677	673	672	674	674	676	676	674	670	674	675	680	685	684	678	674	668	664	671	667	665	671	677	677	679	678	677	678	680	682	682	685	686	696	692	692	693	690	688	688	667	667	665	665	666	670	671	674	675	684	687	684	680	678	676	677	688	693	696	682	670	665	668	673	677	682	680	674	669	673	679	684	683	679	671	674	670	663	678	684	679	682	687	688	689	682	671	665	669	677	684	683	678	673	670	668	672	676	688	689	681	674	674	677	681	688	695	693	693	681	697	690	700	703	704	702	691	679	680	680	681	681	689	688	690	693	706	699	690	688	694	695	695	697	683	702	704	704	698	692	688	677	674	673	683	688	686	687	690	715	717	712	709	703	693	689	693	695	704	699	700	691	687	698	701	705	701	697	692	683	688	692	694	710	716	717	710	706	702	699	702	704	708	707	705	703	706	706	720	719	721	723	724	721	718	717	719	721	715	715	701	695	694	708	706	706	720	721	717	718	724	723	717	715	712	709	709	714	714	722	726	725	727	723	721	719	719	735	735	734	729	727	719	0	0	0	0	0	0
596	597	609	616	616	616	613	607	610	614	614	612	600	602	613	613	618	617	608	608	611	611	611	606	607	611	614	614	614	612	617	619	612	612	607	602	603	608	613	618	620	605	613	616	618	620	625	624	621	621	613	607	607	612	614	618	619	617	617	618	619	610	610	612	613	617	622	621	622	622	626	624	623	619	618	619	619	622	623	628	618	618	615	615	614	614	611	606	607	609	613	619	616	618	621	621	621	617	613	615	618	620	623	628	630	630	625	626	624	624	621	614	607	604	607	615	617	618	621	638	638	633	624	622	620	633	632	635	633	634	626	624	621	621	624	626	625	628	628	623	621	615	613	613	622	621	621	619	617	619	621	623	626	623	624	637	632	633	630	630	635	622	623	622	625	643	634	639	632	632	628	622	621	631	640	645	643	634	632	636	628	644	655	651	632	631	628	635	638	639	647	645	639	637	638	643	640	636	638	639	635	636	638	637	633	632	630	634	640	642	641	642	641	642	637	637	642	643	642	635	639	643	646	645	643	643	643	642	636	632	636	639	636	635	634	638	644	643	654	641	645	640	638	641	639	641	642	635	634	633	632	631	632	638	643	646	646	649	647	642	640	643	652	654	654	655	649	633	631	632	637	642	647	649	650	646	644	645	641	643	643	642	649	656	653	648	647	648	649	651	657	656	653	643	633	628	634	644	649	645	646	646	648	648	651	651	653	655	653	652	652	658	657	658	657	665	672	672	669	663	660	658	654	640	640	643	648	649	651	658	661	671	669	652	657	658	657	653	657	657	656	654	650	648	650	654	650	651	649	652	649	650	651	653	654	659	662	664	659	663	663	654	655	657	657	661	662	658	655	652	655	655	659	653	653	649	656	657	661	675	677	665	663	661	655	656	660	667	671	670	665	656	655	659	667	674	678	679	681	680	669	663	662	665	667	671	668	666	662	664	668	671	668	677	682	670	668	665	666	666	664	663	666	674	675	676	681	679	679	680	679	680	686	687	686	684	683	682	669	667	661	661	665	667	667	669	675	672	671	671	673	665	666	673	671	671	674	681	689	684	674	669	663	665	671	675	672	670	663	658	666	673	673	669	668	667	666	670	664	656	660	667	665	685	682	679	673	669	665	666	670	673	678	678	675	677	669	674	677	683	689	683	674	672	672	676	685	686	689	687	687	681	684	699	695	690	686	682	685	682	680	681	681	686	688	690	692	691	681	682	685	687	689	684	674	677	700	711	707	699	684	681	678	673	675	685	692	688	689	688	690	695	701	702	700	691	689	692	693	691	690	684	683	688	685	686	697	687	685	685	687	690	692	694	691	690	691	699	701	700	698	699	701	701	701	699	695	695	696	701	701	707	708	710	714	713	713	713	713	713	707	697	699	694	700	707	712	710	709	717	713	713	713	707	710	699	699	702	702	705	711	715	720	723	723	721	709	708	708	726	729	727	725	722	0	0	0	0	0	0
597	597	598	612	615	615	613	607	606	606	606	596	592	600	611	615	615	613	613	604	605	605	607	601	601	605	607	607	606	616	619	616	607	604	604	603	603	604	606	604	605	601	612	616	618	620	622	621	618	618	608	603	604	607	611	613	614	618	621	621	617	610	610	610	611	612	612	623	622	618	618	614	614	614	617	617	610	618	617	621	613	618	612	620	614	609	610	611	614	610	613	615	614	610	611	611	610	610	607	609	613	615	622	626	627	628	621	617	620	619	615	612	613	612	612	612	616	615	620	634	623	612	609	607	620	629	624	626	627	628	619	618	616	617	620	624	623	622	618	618	611	607	607	616	617	613	608	608	609	612	619	621	622	617	615	617	620	620	622	623	619	615	603	601	608	623	629	632	631	628	618	615	621	633	638	641	628	626	626	627	625	637	638	629	629	630	630	629	629	630	633	640	633	627	628	629	636	628	625	638	635	634	633	629	630	626	625	626	631	634	639	642	641	642	637	638	638	637	641	633	631	636	637	632	632	636	641	642	638	631	630	636	634	628	628	632	639	638	645	629	621	619	640	639	640	639	635	632	631	630	631	628	631	634	628	638	639	644	643	642	633	635	643	650	654	653	641	637	638	629	628	636	643	646	646	635	632	634	637	641	638	641	644	654	650	647	645	647	646	643	646	646	650	635	632	626	621	630	637	639	632	645	645	647	645	650	647	644	641	642	649	653	652	652	653	650	646	645	638	653	658	654	650	640	638	635	643	648	647	645	652	660	665	659	655	656	649	646	651	650	648	643	642	644	646	648	649	648	647	651	654	652	652	652	651	653	657	658	649	655	653	652	650	648	643	649	651	659	652	651	651	651	646	643	644	645	649	654	656	653	653	655	662	660	655	653	654	655	656	654	649	653	646	659	666	672	676	676	675	661	658	657	657	657	661	659	660	661	654	657	643	666	667	674	660	660	659	662	652	649	658	662	666	670	670	669	676	677	681	676	670	669	668	668	666	662	656	658	664	666	670	673	674	670	671	672	680	675	672	671	662	660	659	669	663	662	665	673	679	671	669	668	665	664	663	664	662	660	658	660	666	674	672	663	666	667	665	669	669	666	664	664	665	669	673	675	676	674	674	670	669	669	671	671	673	674	671	674	677	678	678	682	672	669	669	669	675	680	680	683	682	681	682	681	683	686	682	678	689	685	682	680	678	684	689	691	684	679	675	678	682	681	680	675	663	672	702	704	695	682	680	678	677	675	679	685	688	686	684	683	685	696	694	694	686	686	684	684	682	680	674	673	679	684	689	683	679	676	668	661	683	683	690	692	688	684	683	691	695	695	695	694	690	694	693	691	688	686	688	695	698	697	698	695	697	697	706	708	708	705	701	702	701	695	694	696	706	705	700	707	712	710	706	701	696	695	695	692	695	697	696	694	698	703	702	699	701	709	709	716	724	723	713	704	0	0	0	0	0	0
597	597	603	613	612	609	609	605	595	591	589	589	588	594	604	606	606	612	611	604	599	601	601	601	597	594	602	604	604	610	617	608	607	605	605	603	603	597	595	598	601	597	600	608	615	617	618	616	613	607	607	598	601	604	603	608	614	619	621	621	615	603	606	607	608	606	602	605	615	621	614	614	610	608	607	605	612	614	611	609	604	615	610	620	612	610	608	608	613	615	611	608	607	607	607	603	603	604	608	606	606	606	609	614	621	624	618	611	611	609	610	604	614	612	610	611	615	614	613	626	617	610	608	608	615	612	617	617	616	617	615	613	614	618	614	610	608	607	603	604	604	610	617	616	613	611	603	602	606	609	614	616	619	616	615	615	612	613	616	615	608	603	603	605	609	607	618	625	624	620	620	621	624	627	632	633	628	627	619	611	615	618	622	620	623	625	627	627	627	624	628	627	624	625	625	622	624	625	616	617	628	630	622	619	623	612	613	620	625	632	617	613	618	629	640	634	628	633	640	641	633	636	634	629	622	623	626	630	634	626	625	628	635	631	633	638	640	641	636	626	618	615	618	629	633	637	634	632	630	629	630	629	632	625	623	630	634	636	638	635	632	630	632	638	652	651	644	644	633	630	627	633	631	644	643	639	632	642	635	633	635	638	635	629	627	627	643	641	638	638	641	640	641	637	626	623	620	621	627	632	633	633	641	640	630	626	631	637	642	643	640	645	652	649	645	641	636	636	626	635	646	651	636	640	635	633	631	630	636	645	645	647	641	634	645	646	642	652	645	645	642	645	644	643	644	646	647	645	644	647	655	659	653	653	647	647	651	656	652	651	653	650	646	640	644	647	649	648	648	646	645	640	642	642	643	642	636	631	637	641	642	643	654	659	654	651	652	654	653	650	647	646	648	655	659	660	661	662	665	661	653	650	650	651	653	651	651	649	643	640	649	639	644	647	649	652	651	655	647	647	651	652	658	662	664	662	660	659	667	666	665	663	657	658	661	658	658	654	654	650	656	657	660	672	672	669	678	675	670	667	656	647	652	668	659	657	660	666	660	656	660	664	670	674	669	660	653	645	654	666	668	662	657	672	674	669	668	669	667	664	664	666	671	676	671	667	672	675	668	667	658	658	663	666	671	671	668	664	673	669	667	665	665	666	658	659	660	664	666	671	676	679	674	680	681	681	676	672	676	684	682	679	678	679	685	684	674	671	671	675	677	678	677	674	674	671	689	670	673	674	677	675	673	674	677	683	683	683	682	682	695	671	665	668	670	676	679	682	680	676	680	684	689	689	690	687	677	663	661	659	666	676	686	689	686	684	680	682	683	686	692	687	681	677	670	676	683	682	684	688	690	687	691	690	691	691	692	693	693	696	690	687	701	699	692	683	698	696	695	701	704	703	704	697	695	695	689	686	691	691	689	693	691	689	687	685	685	685	687	692	715	710	703	700	0	0	0	0	0	0
594	594	597	599	598	598	598	600	595	584	583	583	584	590	597	602	602	600	601	597	600	599	599	599	593	590	597	603	603	607	611	607	605	604	603	603	600	597	594	597	597	593	593	599	601	612	614	611	608	602	602	595	599	600	600	602	608	600	598	598	599	598	601	601	602	594	594	600	609	606	603	603	599	602	600	599	599	600	603	602	602	602	609	608	608	599	606	606	611	608	609	603	602	605	607	605	602	604	606	604	603	603	606	608	610	609	605	601	599	605	603	604	609	612	613	613	612	611	609	601	604	605	608	608	609	612	606	604	602	604	607	606	608	603	609	603	600	588	595	604	603	606	610	614	612	606	601	601	604	609	613	615	617	620	614	612	610	610	612	606	603	604	608	610	611	607	606	608	615	617	611	618	618	619	622	623	620	617	605	607	612	617	620	619	620	619	613	608	607	611	616	620	621	623	624	621	620	620	617	615	621	620	615	611	607	607	609	617	623	625	617	613	614	614	618	619	628	631	645	645	637	629	628	622	620	620	619	624	630	625	621	624	633	637	643	630	628	631	633	624	618	617	618	622	626	632	626	624	621	628	628	629	628	624	621	629	634	635	633	633	625	622	625	633	636	637	633	635	632	628	625	628	631	632	640	640	641	635	628	629	622	631	628	626	625	627	627	633	634	637	639	637	636	636	633	624	620	620	621	628	632	630	628	622	621	625	628	632	637	639	637	633	633	633	635	634	629	622	634	623	623	633	644	637	628	629	625	625	626	631	637	637	635	633	639	644	647	638	641	641	641	640	641	640	644	647	647	643	638	642	651	656	657	655	645	644	650	661	659	640	639	638	629	634	639	644	645	647	648	647	637	633	634	637	634	634	632	628	636	633	634	634	638	656	655	646	647	651	649	648	648	646	646	648	645	644	645	649	651	649	651	649	643	647	649	648	646	641	642	638	633	627	630	633	639	643	644	648	647	647	649	653	650	654	657	659	658	654	655	650	646	644	655	655	653	654	655	650	651	649	650	656	656	656	656	669	665	666	662	660	635	636	637	650	657	656	657	661	653	655	657	664	670	675	669	661	652	650	650	649	667	668	662	672	677	677	669	668	665	663	666	669	675	679	678	675	671	673	667	664	658	656	660	664	667	660	659	655	655	661	656	655	660	659	660	656	660	662	663	663	662	669	668	679	678	681	672	667	673	685	673	660	657	668	672	670	665	661	659	668	674	675	676	675	673	673	666	665	668	672	674	674	672	671	675	676	678	680	682	683	673	668	660	662	663	666	670	678	676	675	675	679	684	687	688	685	669	667	663	660	665	673	679	676	674	675	681	681	679	679	684	681	676	668	669	673	679	680	678	675	675	674	672	680	689	689	692	692	692	687	682	690	690	693	686	678	679	687	692	696	698	697	694	692	689	689	686	682	682	687	698	696	691	683	683	682	683	683	682	682	708	707	700	698	0	0	0	0	0	0
584	590	590	591	588	587	587	590	582	582	581	581	583	589	600	602	596	596	597	595	592	596	596	597	576	581	585	597	597	601	604	594	599	592	587	587	589	590	592	593	595	591	591	591	597	600	610	609	603	598	598	591	591	596	594	591	592	592	593	593	593	593	594	594	594	587	588	596	604	602	598	594	594	597	599	599	601	603	603	596	601	602	602	608	607	599	603	607	607	605	589	592	596	601	602	603	600	604	600	599	599	597	597	596	600	603	604	601	595	598	603	606	609	612	612	608	604	598	596	595	596	599	600	608	608	609	607	604	603	602	600	598	606	602	591	594	584	586	594	603	602	604	615	614	608	605	606	606	609	600	609	611	612	611	614	611	607	604	601	599	602	605	608	612	611	608	604	606	611	614	610	604	608	609	618	620	619	612	607	608	609	616	615	614	613	610	606	607	609	611	615	615	611	610	610	612	598	610	610	614	616	615	612	611	606	606	608	618	619	618	616	611	607	609	614	614	625	633	642	630	625	625	619	616	621	622	623	623	624	623	619	622	625	629	625	626	623	625	630	627	620	617	620	621	623	623	621	613	611	608	612	619	626	620	619	623	630	633	628	625	619	618	626	625	621	618	621	610	624	616	617	622	628	628	631	631	632	622	622	618	616	616	629	623	621	624	626	630	636	631	630	632	633	627	625	622	619	619	621	627	628	628	627	628	625	620	619	622	625	624	623	624	621	620	629	633	631	635	626	623	623	637	627	620	616	607	613	618	626	630	634	634	636	634	632	633	640	631	625	622	628	648	641	637	619	621	622	624	623	619	620	639	643	647	647	648	649	643	630	632	630	629	631	635	639	634	643	645	643	635	630	627	626	624	624	628	621	634	634	626	626	628	634	633	632	630	630	632	637	641	637	637	643	647	644	643	644	644	648	649	648	644	645	643	641	639	641	636	639	635	624	619	620	624	634	637	644	636	637	642	648	645	643	648	652	648	653	647	646	642	636	632	640	643	649	653	646	645	652	654	649	650	649	646	643	646	654	653	647	644	638	638	645	650	645	653	646	649	651	652	656	658	668	651	667	659	651	647	648	647	653	662	665	663	675	676	670	661	663	662	660	664	663	663	666	665	664	661	659	664	667	665	658	659	662	645	650	650	654	655	652	649	658	659	658	664	667	662	662	662	661	659	659	675	676	665	657	656	663	671	653	652	654	660	663	663	661	661	662	663	673	673	671	670	670	668	663	664	665	672	676	674	672	671	670	672	674	674	675	673	673	670	662	658	663	665	667	668	672	671	667	674	678	683	685	681	672	670	666	668	670	670	673	673	672	669	675	679	679	679	679	676	674	670	672	673	679	677	676	672	674	675	678	670	669	668	668	673	674	676	682	689	687	682	678	673	670	686	691	695	696	695	691	684	684	677	672	675	682	690	696	698	686	685	680	678	678	681	682	684	683	687	684	682	0	0	0	0	0	0
576	575	575	574	572	573	578	578	580	581	582	586	586	599	599	577	577	577	582	591	589	590	584	584	576	589	585	586	594	594	593	591	578	580	581	581	585	588	590	590	591	589	588	588	592	599	600	598	591	586	585	585	587	586	587	588	587	588	588	588	588	588	590	592	584	583	583	586	596	599	595	593	593	596	601	601	599	599	595	593	597	599	596	592	601	599	589	589	588	588	586	586	587	598	598	597	598	601	599	591	592	586	584	591	597	602	604	601	597	598	601	605	611	612	610	607	603	596	587	588	592	593	594	599	606	606	606	601	603	601	597	595	595	595	591	583	584	587	591	601	602	603	610	610	606	609	602	601	600	599	600	601	605	606	608	608	604	602	593	597	598	601	605	610	611	605	599	601	607	610	597	601	603	608	616	619	621	608	607	608	607	609	612	610	604	600	601	604	606	608	614	612	608	608	606	602	599	598	606	612	615	610	609	609	610	612	611	608	611	616	621	608	604	602	604	610	616	626	628	614	609	601	603	606	613	618	623	621	618	616	616	614	615	612	607	618	618	616	626	626	624	619	621	621	617	613	610	605	606	607	608	612	614	613	616	622	627	629	624	622	618	617	623	621	619	616	613	610	614	610	613	616	621	619	616	616	615	616	609	612	611	610	608	611	610	619	626	626	625	627	631	631	620	620	622	615	616	613	607	611	615	621	618	620	626	621	618	616	617	622	624	627	626	622	621	623	619	616	616	624	625	627	623	622	618	609	610	617	625	628	630	628	629	618	622	622	624	623	622	626	632	636	629	620	623	621	623	621	622	620	622	618	618	619	621	624	631	629	625	618	620	627	631	636	637	636	640	639	638	634	626	621	617	616	618	617	621	623	624	626	633	628	631	630	627	625	624	630	635	636	630	635	641	643	643	641	640	640	639	633	641	646	641	635	624	624	624	628	629	632	626	619	620	625	631	634	634	634	638	648	648	646	631	637	640	645	645	644	642	640	635	631	639	641	645	643	644	648	653	651	647	643	637	639	640	643	645	646	643	640	635	636	640	643	645	640	641	646	644	653	659	660	648	650	652	654	649	646	643	642	651	649	652	651	653	653	645	646	659	659	657	653	651	652	650	651	648	647	653	645	646	640	659	655	658	641	641	645	643	649	652	652	653	654	652	661	659	658	658	659	657	655	652	653	651	651	653	659	662	649	649	652	652	662	662	661	660	659	660	658	666	668	665	666	665	662	659	663	662	666	680	673	670	665	665	669	671	671	669	669	671	672	666	660	663	663	666	669	668	665	667	671	676	676	674	676	666	666	667	664	664	666	667	667	667	673	674	677	675	675	677	676	675	676	671	677	679	679	674	670	673	675	678	677	673	673	668	666	665	668	665	681	684	679	673	668	657	678	690	690	687	680	676	676	674	672	671	671	674	679	684	698	694	686	681	677	677	680	695	696	688	688	675	678	0	0	0	0	0	0
