601	601	601	601	600	600	600	607	607	634	634	634	631	631	634	634	608	608	608	609	609	613	613	613	614	614	616	616	621	621	621	622	622	619	619	618	618	619	619	619	622	622	624	624	635	635	647	647	647	649	649	650	650	649	649	647	647	645	645	645	643	643	644	644	646	646	647	647	643	643	637	637	639	639	640	640	648	648	648	648	648	647	647	645	645	647	647	644	644	635	635	632	632	630	630	631	631	635	635	635	635	642	642	655	655	655	655	655	655	654	654	652	652	658	658	661	661	667	667	667	667	668	668	663	663	662	662	661	663	663	669	669	655	655	657	657	647	647	665	665	673	673	669	669	665	665	663	663	664	664	664	665	665	669	669	668	668	667	667	664	664	662	662	662	662	663	663	670	669	669	664	664	664	664	665	665	666	666	668	668	670	670	673	673	673	670	670	673	673	673	673	679	679	681	681	673	673	672	672	676	677	677	679	679	684	684	690	690	692	692	652	652	657	657	668	678	678	676	676	673	673	677	677	668	668	679	679	682	682	683	683	679	679	679	679	679	676	676	670	670	686	686	692	692	700	700	701	701	700	700	698	698	679	679	679	679	678	681	681	687	687	690	690	692	692	688	688	686	686	685	685	687	687	688	688	693	693	690	690	689	689	687	687	683	683	686	686	691	691	694	694	701	701	697	697	689	687	687	697	697	697	697	688	688	688	688	689	689	686	686	686	686	687	687	700	700	703	703	686	686	684	684	689	689	694	694	695	695	695	695	694	694	693	693	693	693	693	693	694	694	698	698	702	702	712	712	705	705	680	680	682	682	689	689	693	693	695	695	695	695	695	695	693	693	697	697	699	699	700	700	699	699	698	698	697	697	695	695	695	695	695	695	697	697	699	703	703	702	702	704	704	703	703	701	701	700	700	701	701	701	701	701	701	698	698	697	697	697	697	703	703	720	720	717	717	715	715	707	707	706	706	706	706	708	709	709	715	715	718	718	709	709	709	709	703	703	707	707	729	729	715	715	712	712	714	714	720	724	724	726	726	725	725	728	728	718	718	716	716	713	713	707	707	706	704	704	703	703	707	707	721	721	722	722	725	725	725	725	722	722	719	716	716	716	716	718	718	720	720	722	722	722	722	720	720	723	721	721	710	710	712	712	721	721	731	731	731	731	733	718	718	715	715	733	733	741	741	722	722	723	723	722	722	722	721	721	722	722	721	721	724	724	727	727	735	735	747	747	748	748	749	727	727	721	721	723	723	723	723	720	720	719	719	717	717	719	719	717	717	711	711	746	746	745	745	743	741	741	735	735	734	734	734	734	737	737	740	740	741	741	739	739	740	740	742	742	739	739	740	740	739	739	734	734	727	727	726	726	725	725	726	726	725	725	741	741	756	756	756	754	754	751	751	738	738	738	738	733	733	733	733	741	741	748	748	744	744	744	748	748	749	749	0	0	0	0	0	0	0	0
599	599	598	598	598	598	598	597	597	598	598	598	629	629	632	632	608	608	608	609	609	613	613	613	614	614	616	616	621	621	621	622	622	619	619	618	618	619	619	619	622	622	624	624	635	635	647	647	647	649	649	650	650	649	649	647	647	645	645	645	643	643	639	639	612	612	610	610	638	638	633	633	635	635	636	636	639	639	639	642	642	642	642	643	643	639	639	636	636	628	628	629	629	629	629	629	629	630	630	630	630	630	630	629	629	641	641	646	646	653	653	645	645	634	634	633	633	630	630	633	633	650	650	656	656	658	658	653	656	656	645	645	643	643	645	645	643	643	646	646	638	638	664	664	660	660	660	660	660	660	661	663	663	664	664	664	664	663	663	661	661	660	660	661	661	661	661	662	662	662	663	663	661	661	661	661	662	662	665	665	664	670	673	673	673	670	670	673	673	673	673	679	679	681	681	673	673	672	672	676	677	677	679	679	684	684	690	690	692	692	652	652	657	657	668	668	678	676	676	673	673	677	677	668	668	679	679	682	682	683	683	679	679	679	679	679	676	676	670	670	664	664	658	658	656	656	654	654	659	659	657	657	666	666	667	667	670	670	665	663	663	668	668	680	680	679	679	679	679	678	678	677	677	674	674	667	667	663	663	671	671	672	672	676	676	676	676	675	675	693	693	690	690	679	679	671	676	676	680	680	681	681	682	682	680	680	681	681	684	684	685	685	678	678	686	686	679	679	677	677	677	677	682	682	684	684	687	687	689	689	691	691	692	692	691	691	691	691	691	691	689	689	687	687	682	682	677	677	678	678	679	679	687	687	689	689	692	692	693	693	691	691	690	690	691	691	697	697	698	698	694	694	691	691	688	688	687	687	690	690	691	691	694	694	696	699	699	701	701	698	698	695	695	696	696	698	698	699	699	696	696	697	697	692	692	697	697	691	691	695	695	699	699	706	706	706	706	704	704	701	701	705	705	705	707	707	709	709	704	704	701	701	700	700	699	699	700	700	710	710	715	715	712	712	714	720	720	724	724	726	726	725	725	728	728	718	718	716	716	713	713	707	707	706	704	704	703	703	707	707	721	721	722	722	725	725	725	725	722	719	719	716	716	716	716	718	718	720	720	722	722	722	722	720	723	704	701	701	699	699	700	700	710	710	715	715	717	717	714	708	708	709	709	714	714	713	713	713	713	716	716	720	720	719	719	719	720	720	715	715	713	713	711	711	711	711	708	708	711	711	714	718	718	719	719	719	719	719	719	713	713	716	716	714	714	711	711	712	712	711	711	715	715	739	739	738	737	737	730	730	728	728	728	728	729	729	731	731	737	737	729	729	736	736	736	736	735	735	735	735	733	733	730	730	725	725	724	724	723	723	724	724	724	724	723	723	733	733	733	744	744	744	744	729	729	726	726	726	726	726	726	731	731	740	740	737	737	737	737	737	737	737	0	0	0	0	0	0	0	0
599	599	598	598	598	598	598	597	597	598	598	598	629	629	632	632	604	604	604	608	608	611	611	611	613	613	614	614	614	614	614	616	616	616	616	616	616	619	619	619	620	620	620	620	621	621	619	619	619	618	618	616	616	617	617	617	617	629	629	635	635	635	639	639	612	612	610	610	638	638	633	633	635	635	636	636	639	639	639	642	642	642	642	643	643	639	639	636	636	628	628	629	629	629	629	629	629	630	630	630	630	630	630	629	629	641	641	646	646	653	653	645	645	634	634	633	633	630	630	633	633	650	650	656	656	658	658	653	656	656	645	645	643	643	645	645	643	643	646	646	638	638	664	664	660	660	660	660	660	660	661	663	663	664	664	664	664	663	663	661	661	660	660	661	661	661	661	662	662	662	663	663	661	661	661	661	662	662	665	665	664	664	666	666	668	668	668	666	666	664	664	663	663	656	656	662	662	654	654	666	659	659	660	660	662	662	650	650	651	651	652	652	652	652	653	653	664	666	666	664	664	667	667	658	658	652	652	653	653	664	664	671	671	674	674	672	670	670	667	667	660	660	656	656	656	656	654	654	659	659	657	657	666	666	667	667	670	670	665	663	663	668	668	680	680	679	679	679	679	678	678	677	677	674	674	667	667	663	663	671	671	672	672	676	676	676	676	675	675	693	693	690	690	679	679	671	676	676	680	680	681	681	682	682	680	680	681	681	684	684	685	685	678	678	686	686	679	679	677	677	677	677	682	682	684	684	687	687	689	689	691	691	692	692	691	691	691	691	691	691	689	689	687	687	682	682	677	677	678	678	679	679	687	687	689	689	692	692	693	693	691	691	690	690	691	691	697	697	698	698	694	694	691	691	688	688	687	687	690	690	691	691	694	694	696	699	699	701	701	698	698	695	695	696	696	698	698	699	699	696	696	697	697	692	692	697	697	691	691	695	695	699	699	706	706	706	706	704	704	701	701	705	705	705	707	707	709	709	704	704	701	701	700	700	699	699	694	694	695	695	704	704	710	710	696	691	691	689	689	693	693	717	717	722	722	711	711	707	707	706	706	704	704	703	702	702	703	703	703	703	708	708	706	706	711	711	705	705	714	712	712	711	711	711	711	711	711	710	710	713	713	706	706	708	704	704	701	701	699	699	700	700	710	710	715	715	717	717	714	708	708	709	709	714	714	713	713	713	713	716	716	720	720	719	719	719	720	720	715	715	713	713	711	711	711	711	708	708	711	711	714	718	718	719	719	719	719	719	719	713	713	716	716	714	714	711	711	712	712	711	711	715	715	739	739	738	737	737	730	730	728	728	728	728	729	729	731	731	737	737	729	729	736	736	736	736	735	735	735	735	733	733	730	730	725	725	724	724	723	723	724	724	724	724	723	723	733	733	733	744	744	744	744	729	729	726	726	726	726	726	726	731	731	740	740	737	737	737	737	737	737	737	0	0	0	0	0	0	0	0
596	596	596	596	590	590	590	592	592	593	593	593	595	595	599	599	604	604	604	608	608	611	611	613	613	613	614	614	614	614	616	616	616	616	616	616	616	619	619	619	620	620	620	620	621	621	619	619	619	618	618	616	616	617	617	617	617	629	629	610	610	610	606	606	605	605	606	606	606	606	627	627	623	623	636	636	637	637	637	638	638	634	634	633	633	618	618	623	623	626	626	627	627	627	627	628	628	628	628	629	629	628	628	629	629	620	620	620	620	627	627	628	628	626	626	626	626	625	625	623	623	623	623	617	617	619	619	649	644	644	640	640	639	639	637	637	635	635	633	633	638	638	656	656	658	658	659	659	658	658	648	660	660	660	660	660	660	659	659	659	659	658	658	656	656	650	650	649	650	650	651	651	654	654	654	654	654	654	656	656	659	659	661	661	661	661	661	666	666	664	664	663	663	656	656	662	662	654	654	666	659	659	660	660	662	662	650	650	651	651	652	652	652	652	653	653	664	666	666	664	664	667	667	658	658	652	652	653	653	664	664	671	671	674	674	672	670	670	667	667	660	660	656	656	656	656	654	654	655	655	657	657	659	659	666	666	666	666	661	660	660	661	661	664	664	667	667	671	671	671	671	666	666	663	663	661	661	660	660	660	660	664	664	671	671	661	661	659	659	660	660	660	660	662	662	671	671	676	678	678	675	675	677	677	678	678	678	678	676	676	677	677	674	674	672	672	672	672	673	673	673	673	675	675	680	680	687	687	689	689	689	689	688	688	687	687	663	663	678	678	679	679	675	675	674	674	674	674	674	674	677	677	679	679	688	688	689	689	690	690	679	679	662	662	660	660	660	660	660	660	667	667	669	669	669	669	672	672	675	675	684	684	687	687	681	690	690	699	699	698	698	695	695	693	693	693	693	693	693	693	693	692	692	690	690	689	689	691	691	692	692	699	699	697	697	696	696	692	692	694	694	696	699	699	700	700	701	701	701	701	699	699	697	697	698	698	694	694	695	695	704	704	710	710	696	691	691	689	689	693	693	717	717	722	722	711	711	707	707	706	706	704	704	703	702	702	703	703	703	703	708	708	706	706	711	711	705	705	714	712	712	711	711	711	711	711	711	710	710	713	701	697	697	695	698	698	695	695	695	695	692	692	697	697	702	702	705	705	705	706	706	708	708	707	707	709	709	711	711	713	713	713	713	713	713	713	711	711	710	710	705	705	708	708	703	703	704	704	709	709	711	713	713	715	715	717	717	716	716	691	691	709	709	709	709	710	710	710	710	709	709	709	709	708	708	719	724	724	713	713	717	717	708	708	702	702	705	705	710	710	700	700	704	704	728	728	732	732	725	725	717	717	712	712	715	715	715	715	715	715	715	715	714	714	715	715	713	713	713	715	715	724	724	712	712	717	717	720	720	718	718	724	724	728	728	730	730	730	736	736	736	736	0	0	0	0	0	0	0	0
596	596	596	596	590	590	590	592	592	593	593	593	595	595	599	599	601	601	601	604	604	606	606	607	607	607	607	607	606	606	607	607	607	611	611	612	612	613	613	613	614	614	613	613	612	612	612	612	612	613	613	614	614	615	615	616	616	614	614	610	610	610	606	606	605	605	606	606	606	606	627	627	623	623	636	636	637	637	637	638	638	634	634	633	633	618	618	623	623	626	626	627	627	627	627	628	628	628	628	629	629	628	628	629	629	620	620	620	620	627	627	628	628	626	626	626	626	625	625	623	623	623	623	617	617	619	619	649	644	644	640	640	639	639	637	637	635	635	633	633	638	638	656	656	658	658	659	659	658	658	648	660	660	660	660	660	660	659	659	659	659	658	658	656	656	650	650	649	650	650	651	651	654	654	654	654	654	654	656	656	659	659	661	661	661	661	661	659	659	652	652	652	652	650	650	653	653	650	650	651	650	650	650	650	650	650	649	649	649	649	650	650	650	650	652	652	651	647	647	642	642	650	650	649	649	648	648	647	647	650	650	651	651	666	666	666	666	666	655	655	656	656	653	653	652	652	652	652	655	655	657	657	659	659	666	666	666	666	661	660	660	661	661	664	664	667	667	671	671	671	671	666	666	663	663	661	661	660	660	660	660	664	664	671	671	661	661	659	659	660	660	660	660	662	662	671	671	676	678	678	675	675	677	677	678	678	678	678	676	676	677	677	674	674	672	672	672	672	673	673	673	673	675	675	680	680	687	687	689	689	689	689	688	688	687	687	663	663	678	678	679	679	675	675	674	674	674	674	674	674	677	677	679	679	688	688	689	689	690	690	679	679	662	662	660	660	660	660	660	660	667	667	669	669	669	669	672	672	675	675	684	684	687	681	681	690	690	699	699	698	698	695	695	693	693	693	693	693	693	693	693	692	692	690	690	689	689	691	691	692	692	699	699	697	697	696	696	692	692	694	694	696	699	699	700	700	701	701	701	701	699	699	688	688	687	687	686	686	679	679	681	681	687	687	682	684	684	683	683	682	682	684	684	691	691	705	705	701	701	700	700	692	694	694	693	693	690	690	696	696	696	696	694	694	695	695	694	694	692	686	686	679	679	697	697	696	696	705	705	701	701	697	697	695	698	698	695	695	695	695	692	692	697	697	702	702	705	705	705	706	706	708	708	707	707	709	709	711	711	713	713	713	713	713	713	713	711	711	710	710	705	705	708	708	703	703	704	704	709	709	711	713	713	715	715	717	717	716	716	691	691	709	709	709	709	710	710	710	710	709	709	709	709	708	708	719	724	724	713	713	717	717	708	708	702	702	705	705	710	710	700	700	704	704	728	728	732	732	725	725	717	717	712	712	715	715	715	715	715	715	715	715	714	714	715	715	713	713	713	715	715	724	724	712	712	717	717	720	720	718	718	724	724	728	728	730	730	730	736	736	736	736	0	0	0	0	0	0	0	0
594	594	592	592	590	590	590	588	588	591	591	592	592	592	597	597	601	601	601	604	604	606	606	607	607	607	607	607	606	606	607	607	607	611	611	612	612	613	613	613	614	614	613	613	612	612	612	612	613	613	613	614	614	615	615	616	611	606	606	603	603	603	604	604	604	604	602	602	599	599	602	602	601	601	602	602	603	603	604	604	604	608	608	615	615	616	616	617	617	622	622	623	623	624	624	623	623	623	623	622	622	620	620	621	621	609	609	613	613	620	620	621	621	623	623	624	624	624	624	622	622	616	616	617	617	619	619	633	630	630	632	632	633	633	632	632	632	632	626	626	623	623	619	619	616	616	616	616	617	617	620	622	622	623	623	625	625	628	628	645	645	630	630	630	630	634	634	637	639	639	642	642	643	643	641	641	640	640	629	629	628	628	649	649	656	655	655	654	654	641	641	641	641	650	650	653	653	650	650	651	650	650	650	650	650	650	649	649	649	649	650	650	650	650	652	652	651	647	647	642	642	650	650	649	649	648	648	647	647	650	650	651	651	666	666	666	666	666	655	655	656	656	653	653	652	652	652	652	653	653	656	656	657	657	659	659	659	659	659	659	658	658	658	658	658	662	662	657	657	657	657	662	662	661	661	659	659	659	659	653	653	658	658	658	658	652	652	653	653	653	653	654	654	655	655	653	653	666	638	638	674	674	674	674	672	672	671	671	670	670	667	667	663	663	663	663	662	662	666	666	665	665	663	663	659	659	658	658	678	678	653	653	653	653	654	654	655	655	663	663	666	666	673	673	672	672	671	671	669	669	663	663	661	661	659	659	659	659	657	657	658	658	657	657	657	657	658	658	660	660	662	662	664	664	666	666	670	670	673	673	677	677	679	675	675	672	672	669	669	670	670	677	677	682	682	690	690	691	691	683	683	679	679	676	676	678	678	677	677	674	674	692	692	692	692	681	681	680	680	680	680	680	685	685	693	693	693	693	691	691	690	690	688	688	687	687	686	686	679	679	681	681	687	687	682	684	684	683	683	682	682	684	684	691	691	705	705	701	701	700	700	692	694	694	693	693	690	690	696	696	696	696	694	694	695	695	694	694	692	686	686	679	679	697	697	677	677	674	674	687	687	691	691	692	693	693	691	691	691	691	691	691	696	696	689	689	686	686	688	704	704	703	703	704	704	704	704	705	705	705	705	707	707	707	705	705	708	708	698	698	694	694	700	700	701	701	701	701	702	702	695	698	698	711	711	704	704	693	693	691	691	694	694	703	703	704	704	704	704	706	706	707	707	706	706	710	707	707	700	700	699	699	698	698	698	698	697	697	696	696	691	691	693	693	691	691	694	694	701	701	703	703	707	707	709	709	699	699	695	695	693	693	699	699	700	700	700	700	700	706	706	704	704	711	711	699	699	713	713	713	713	717	717	719	719	715	715	715	721	721	729	729	0	0	0	0	0	0	0	0
594	594	592	592	590	590	590	588	588	591	591	592	592	592	597	597	597	597	597	600	600	601	601	601	601	601	600	600	596	596	601	601	601	604	604	602	602	600	600	600	601	601	602	602	603	603	608	608	611	611	611	612	612	613	613	611	611	606	606	603	603	603	604	604	604	604	602	602	599	599	602	602	601	601	602	602	603	603	604	604	604	608	608	615	615	616	616	617	617	622	622	623	623	624	624	623	623	623	623	622	622	620	620	621	621	609	609	613	613	620	620	621	621	623	623	624	624	624	624	622	622	616	616	617	617	619	619	633	630	630	632	632	633	633	632	632	632	632	626	626	623	623	619	619	616	616	616	616	617	617	620	622	622	623	623	625	625	628	628	645	645	630	630	630	630	634	634	637	639	639	642	642	643	643	641	641	640	640	629	629	628	628	649	649	656	655	655	654	654	641	641	641	641	650	650	642	642	641	641	642	644	644	638	638	646	646	649	649	649	649	646	646	644	644	642	642	639	637	637	636	636	636	636	637	637	645	645	646	646	646	646	645	645	648	648	646	636	636	638	638	643	643	649	649	649	649	649	649	650	650	650	650	657	657	659	659	659	659	659	659	658	658	658	658	658	662	662	657	657	657	657	662	662	661	661	659	659	659	659	653	653	658	658	658	658	652	652	653	653	653	653	654	654	655	655	653	653	666	666	638	674	674	674	674	672	672	671	671	670	670	667	667	663	663	663	663	662	662	666	666	665	665	663	663	659	659	658	658	678	678	653	653	653	653	654	654	655	655	663	663	666	666	673	673	672	672	671	671	669	669	663	663	661	661	659	659	659	659	657	657	658	658	657	657	657	657	658	658	660	660	662	662	664	664	666	666	670	670	673	673	677	677	679	675	675	672	672	669	669	670	670	677	677	682	682	690	690	691	691	683	683	679	679	676	676	678	678	677	677	674	674	692	692	692	692	681	681	680	680	680	680	680	685	685	693	693	693	693	675	675	672	672	674	674	677	677	673	673	678	678	676	676	675	680	680	682	682	679	679	679	679	672	672	672	672	691	691	692	692	681	681	669	676	676	677	677	676	676	679	679	681	681	688	688	692	692	689	689	684	682	682	679	679	678	678	677	677	674	674	687	687	691	691	692	693	693	691	691	691	691	691	691	696	696	689	689	686	686	688	704	704	703	703	704	704	704	704	705	705	705	705	707	707	707	705	705	708	708	698	698	694	694	700	700	701	701	701	701	702	702	695	698	698	711	711	704	704	693	693	691	691	694	694	703	703	704	704	704	704	706	706	707	707	706	706	710	707	707	700	700	699	699	698	698	698	698	697	697	696	696	691	691	693	693	691	691	694	694	701	701	703	703	707	707	709	709	699	699	695	695	693	693	699	699	700	700	700	700	700	706	706	704	704	711	711	699	699	713	713	713	713	717	717	719	719	715	715	715	721	721	729	729	0	0	0	0	0	0	0	0
585	585	587	587	585	585	585	583	583	585	585	589	589	589	593	593	597	597	597	600	600	601	601	601	601	601	600	600	596	596	601	601	601	604	604	602	602	600	600	601	601	601	602	602	603	603	608	608	611	611	611	612	612	613	605	597	597	599	599	601	601	601	600	600	599	599	598	598	595	595	596	596	596	596	599	599	601	601	602	602	602	603	603	606	606	606	606	609	609	615	615	616	616	619	619	617	617	616	616	615	615	609	609	606	606	601	601	601	601	608	608	615	615	616	616	616	616	615	615	614	614	611	611	610	610	615	615	619	619	619	614	614	619	619	624	624	624	624	623	623	619	619	615	615	614	614	614	614	615	615	617	617	617	618	618	617	617	619	619	625	625	628	628	626	626	628	628	635	635	637	639	639	642	642	641	641	640	640	627	627	625	625	624	624	627	638	638	640	640	630	630	628	628	628	628	626	626	631	641	642	642	644	638	638	646	646	649	649	649	649	646	646	644	644	642	642	639	639	637	636	636	636	636	637	637	645	645	646	646	646	646	645	645	648	648	646	646	636	638	638	643	643	649	649	649	649	649	649	650	650	650	650	652	652	654	654	654	654	653	653	651	651	651	634	634	653	653	653	653	655	655	654	654	653	653	651	651	650	650	651	651	650	650	650	650	649	649	651	651	651	651	651	651	650	650	647	647	646	646	638	631	631	669	669	670	670	668	668	664	664	647	647	656	656	656	656	657	657	654	654	650	650	645	645	643	643	647	647	646	646	648	648	650	650	652	652	653	653	655	655	657	657	667	667	664	664	663	663	663	663	655	655	658	658	656	656	654	654	653	653	654	654	654	654	656	656	656	656	658	658	661	661	663	663	663	663	666	666	668	668	670	671	671	671	671	666	666	664	664	664	664	663	663	662	662	663	663	662	662	660	660	662	662	664	664	664	664	662	662	662	662	662	662	662	662	663	663	668	668	674	668	668	668	668	684	684	687	687	675	675	672	672	674	674	677	677	673	673	678	678	676	676	675	680	680	682	682	679	679	679	679	672	672	672	672	691	691	692	692	681	681	669	676	676	677	677	676	676	679	679	681	681	688	688	692	692	689	689	684	682	676	676	676	673	673	672	672	674	674	677	677	673	673	679	679	679	680	680	665	665	681	681	679	679	675	675	675	675	674	672	672	702	702	702	702	687	687	685	685	675	675	698	698	698	683	683	678	678	679	679	684	684	688	688	690	690	690	690	686	686	684	681	681	682	682	680	680	684	684	687	687	691	691	695	695	697	697	699	699	700	700	701	701	701	701	695	687	687	692	692	693	693	696	696	696	696	695	695	692	692	688	688	687	687	686	686	687	687	692	692	692	692	705	705	671	671	678	678	682	682	683	683	685	685	690	690	690	690	690	693	693	690	690	680	680	677	677	675	675	677	677	686	686	702	702	702	693	693	673	673	679	679	0	0	0	0	0	0	0	0
585	585	587	587	585	585	583	583	583	585	585	589	589	589	593	593	593	593	593	595	595	596	596	596	596	596	595	595	593	593	594	594	594	593	593	593	593	597	597	599	599	599	600	600	602	602	603	603	605	605	605	606	606	605	605	597	597	599	599	601	601	601	600	600	599	599	598	598	595	595	596	596	596	596	599	599	601	601	602	602	602	603	603	606	606	606	606	609	609	615	615	616	616	619	619	617	617	616	616	615	615	609	609	606	606	601	601	601	601	608	608	615	615	616	616	616	616	615	615	614	614	611	611	610	610	615	615	619	619	619	614	614	619	619	624	624	624	624	623	623	619	619	615	615	614	614	614	614	615	615	617	617	617	618	618	617	617	619	619	625	625	628	628	626	626	628	628	635	635	637	639	639	642	642	641	641	640	640	627	627	625	625	624	624	627	638	638	640	640	630	630	628	628	628	628	626	626	631	631	632	632	635	624	624	618	618	641	641	611	611	613	613	642	642	628	628	629	629	631	631	631	630	630	625	625	636	636	644	644	644	644	636	636	634	634	631	631	632	632	632	636	636	644	644	645	645	645	645	644	644	645	645	646	646	647	647	654	654	653	653	651	651	651	634	634	653	653	653	653	655	655	654	654	653	653	651	651	650	650	651	651	650	650	650	650	649	649	651	651	651	651	651	651	650	650	647	647	646	646	638	631	631	669	669	670	670	668	668	664	664	647	647	656	656	656	656	657	657	654	654	650	650	645	645	643	643	647	647	646	646	648	648	650	650	652	652	653	653	655	655	657	657	667	667	664	664	663	663	663	663	655	655	658	658	656	656	654	654	653	653	654	654	654	654	656	656	656	656	658	658	661	661	663	663	663	663	666	666	668	668	670	671	671	671	671	666	666	664	664	664	664	663	663	662	662	663	663	662	662	660	660	662	662	664	664	664	664	662	662	662	662	662	662	662	662	663	663	668	668	674	668	668	668	668	658	658	658	658	659	659	664	664	667	667	671	671	671	671	671	671	671	671	670	671	671	673	673	672	672	671	671	662	662	659	659	657	657	659	659	662	662	665	668	668	674	674	670	670	671	671	672	672	680	680	688	688	688	680	680	676	676	676	676	673	673	672	672	674	674	677	677	673	673	679	679	679	680	680	665	665	681	681	679	679	675	675	675	675	674	672	672	702	702	702	702	687	687	685	685	675	675	698	698	698	683	683	678	678	679	679	684	684	688	688	690	690	690	690	686	686	684	681	681	682	682	680	680	684	684	687	687	691	691	695	695	697	697	699	699	700	700	701	701	701	701	695	687	687	692	692	693	693	696	696	696	696	695	695	692	692	688	688	687	687	686	686	687	687	692	692	692	692	705	705	671	671	678	678	682	682	683	683	685	685	690	690	690	690	690	693	693	690	690	680	680	677	677	675	675	677	677	686	686	702	702	702	693	693	673	673	679	679	0	0	0	0	0	0	0	0
565	568	568	568	572	572	577	577	577	578	578	579	579	579	585	585	593	593	593	595	595	596	596	596	596	596	595	595	593	593	594	594	594	593	593	593	593	597	597	599	599	599	600	600	602	602	603	603	605	605	605	606	595	595	595	592	592	593	593	595	595	595	595	595	593	593	592	592	590	590	592	592	595	595	598	598	600	600	600	600	600	598	598	596	596	593	593	600	600	594	594	596	596	602	602	608	608	608	608	601	601	599	599	598	598	599	599	600	600	601	601	605	605	603	603	603	603	602	602	604	604	602	602	608	608	611	611	615	616	616	612	612	612	612	612	612	615	615	616	616	616	616	614	614	612	612	612	612	613	613	615	616	616	616	616	608	608	608	608	610	610	618	618	622	622	624	624	628	628	630	609	609	608	608	623	623	612	612	616	616	619	619	621	621	625	628	628	627	627	628	628	626	626	620	620	617	617	621	621	627	627	631	618	624	618	618	641	641	611	611	613	613	642	642	628	628	629	629	631	631	631	630	630	625	625	636	636	644	644	644	644	636	636	634	634	631	631	632	632	632	636	636	644	644	645	645	645	645	644	644	645	645	646	646	647	647	648	648	647	647	646	636	636	634	634	645	645	646	646	646	646	646	646	638	638	636	636	639	639	643	643	643	643	641	641	644	644	644	644	644	644	643	643	634	634	638	638	634	634	631	626	626	625	625	624	624	628	628	629	629	630	630	635	635	647	647	644	644	639	639	637	637	638	638	635	635	638	638	642	642	646	646	648	648	648	648	649	649	645	645	649	649	643	643	637	637	659	659	657	657	654	654	653	653	652	652	651	651	651	651	650	650	649	649	650	650	651	651	653	653	655	655	659	659	657	657	658	658	661	661	663	664	664	661	661	663	663	662	662	662	662	660	660	660	660	655	655	654	654	654	654	654	654	655	655	662	662	661	661	659	659	657	657	655	655	657	657	654	654	665	666	666	659	659	658	658	658	658	659	659	664	664	667	667	671	671	671	671	671	671	671	671	670	671	671	673	673	672	672	671	671	662	662	659	659	657	657	659	659	662	662	665	668	668	674	674	670	670	671	671	672	672	680	680	688	659	660	658	658	669	669	669	669	669	669	668	668	667	667	664	664	661	660	660	660	660	658	658	652	652	664	664	674	674	672	672	674	673	673	671	671	670	670	669	669	669	669	670	670	675	675	677	677	676	672	672	672	672	673	673	671	671	675	675	673	673	678	678	680	680	680	674	674	672	672	672	672	674	674	679	679	679	679	676	676	679	679	683	683	697	697	692	692	687	687	683	681	681	686	686	688	688	690	690	691	691	692	692	689	689	687	687	684	684	684	684	684	684	675	675	673	673	667	667	671	671	673	673	680	680	681	681	676	676	674	674	674	682	682	691	691	679	679	677	677	672	672	672	672	672	672	677	677	679	679	679	677	677	673	673	675	675	0	0	0	0	0	0	0	0
565	568	568	568	572	572	577	577	577	578	578	579	579	579	585	562	591	591	591	592	592	594	594	592	592	592	583	583	582	582	579	579	579	576	576	577	577	588	588	589	589	589	596	596	595	595	595	595	595	595	595	595	595	595	595	592	592	593	593	595	595	595	595	595	593	593	592	592	590	590	592	592	595	595	598	598	600	600	600	600	600	598	598	596	596	593	593	600	600	594	594	596	596	602	602	608	608	608	608	601	601	599	599	598	598	599	599	600	600	601	601	605	605	603	603	603	603	602	602	604	604	602	602	608	608	611	611	615	616	616	612	612	612	612	612	612	615	615	616	616	616	616	614	614	612	612	612	612	613	613	615	616	616	616	616	608	608	608	608	610	610	618	618	622	622	624	624	628	628	630	609	609	608	608	623	623	612	612	616	616	619	619	621	621	625	628	628	627	627	628	628	626	626	620	620	617	617	621	621	627	627	631	618	618	610	610	612	612	611	611	613	613	615	615	624	624	626	626	627	627	627	626	626	621	621	618	618	617	617	619	619	619	619	623	623	623	623	625	624	624	618	618	619	619	617	617	636	636	635	635	635	635	637	637	636	636	633	633	616	616	620	646	636	634	634	645	645	646	646	646	646	646	646	638	638	636	636	639	639	643	643	643	643	641	641	644	644	644	644	644	644	643	643	634	634	638	638	634	634	631	631	626	625	625	624	624	628	628	629	629	630	630	635	635	647	647	644	644	639	639	637	637	638	638	635	635	638	638	642	642	646	646	648	648	648	648	649	649	645	645	649	649	643	643	637	637	659	659	657	657	654	654	653	653	652	652	651	651	651	651	650	650	649	649	650	650	651	651	653	653	655	655	659	659	657	657	658	658	661	661	663	664	664	661	661	663	663	662	662	662	662	660	660	660	660	655	655	654	654	654	654	654	654	655	655	662	662	661	661	659	659	657	657	655	655	657	657	654	665	657	658	658	655	655	653	653	652	652	652	652	657	657	655	655	655	655	661	661	662	662	663	663	650	659	659	657	657	664	664	660	660	660	660	659	659	655	655	654	654	658	658	661	664	664	666	666	666	666	665	665	658	658	661	661	659	659	660	658	658	669	669	669	669	669	669	668	668	667	667	664	664	661	660	660	660	660	658	658	652	652	664	664	674	674	672	672	674	673	673	671	671	670	670	669	669	669	669	670	670	675	675	677	677	676	672	672	672	672	673	673	671	671	675	675	673	673	678	678	680	680	680	674	674	672	672	672	672	674	674	679	679	679	679	665	665	665	665	666	666	668	668	668	668	668	668	673	678	678	680	680	688	688	690	690	691	691	692	692	689	689	687	687	684	684	684	684	684	684	675	675	673	673	667	667	671	671	673	673	680	680	681	681	676	676	676	674	674	682	682	691	691	679	679	677	677	672	672	672	672	672	672	677	677	679	679	679	677	677	673	673	675	675	0	0	0	0	0	0	0	0
560	561	561	561	562	562	564	564	564	562	562	558	558	558	562	562	591	591	592	592	592	594	594	592	592	592	583	583	582	582	579	579	579	576	576	577	577	588	588	589	589	589	596	596	595	595	595	595	595	595	579	590	590	588	588	586	586	588	588	589	589	588	588	588	588	588	586	586	586	586	586	586	587	587	593	593	593	593	593	593	592	592	592	586	586	589	589	589	589	589	589	591	591	593	593	594	594	598	598	599	599	598	598	596	596	595	595	594	594	594	594	594	594	601	601	598	598	601	601	599	599	601	601	602	602	605	605	610	611	611	611	611	610	610	610	610	605	605	610	610	609	609	608	608	607	607	607	607	608	608	608	608	608	607	607	605	605	603	603	602	602	606	606	616	616	614	614	604	604	601	601	601	604	604	605	605	606	606	604	604	604	604	611	611	615	615	617	617	617	618	618	619	619	609	609	603	603	599	599	600	600	604	608	608	610	610	608	608	611	611	613	613	615	615	624	624	626	626	627	627	627	626	626	621	621	618	618	617	617	619	619	619	619	623	623	623	623	625	624	624	618	618	619	619	617	617	636	636	635	635	635	635	637	637	636	636	633	633	616	616	620	620	635	638	638	642	642	639	639	643	643	630	630	632	632	641	641	640	640	639	639	629	629	637	637	631	631	634	634	631	631	629	629	624	624	625	625	626	626	623	623	622	621	621	621	621	623	623	628	628	629	629	626	626	623	623	630	630	631	631	633	633	632	632	632	632	635	635	642	642	643	643	641	641	642	642	643	643	643	643	639	639	632	632	630	630	629	629	636	636	650	650	644	644	644	644	637	637	640	640	642	642	643	643	643	643	643	643	636	636	637	637	647	647	644	644	641	641	643	650	650	659	659	660	660	655	655	656	656	656	656	654	654	654	654	654	654	652	652	653	653	653	653	653	653	653	653	653	653	653	653	652	652	652	652	654	654	654	657	657	658	658	655	655	653	653	652	652	652	652	657	657	655	655	655	655	661	661	662	662	663	650	650	659	659	657	657	664	664	660	660	660	660	659	659	655	655	654	654	658	661	661	664	664	666	666	666	666	665	665	658	651	651	651	654	654	652	649	649	653	653	663	663	662	662	658	658	653	653	654	654	650	649	649	648	648	648	648	649	649	659	659	664	664	670	670	671	666	666	668	668	667	667	666	666	668	668	669	669	671	671	673	672	672	672	672	668	668	669	669	664	664	662	662	663	663	668	668	669	669	667	659	659	668	668	667	667	666	666	664	664	664	664	665	665	665	665	666	666	668	668	668	668	668	668	673	678	678	680	680	682	682	686	686	688	688	647	647	652	652	653	653	673	673	680	680	676	676	669	669	665	665	663	663	666	666	669	669	671	671	668	668	669	669	669	664	664	665	665	665	665	674	674	670	670	670	670	670	670	668	668	668	668	669	669	669	669	669	671	671	668	668	0	0	0	0	0	0	0	0
560	561	561	561	562	562	564	564	564	562	562	558	558	558	562	555	564	564	558	558	558	562	562	567	567	567	567	567	568	568	568	568	567	567	567	570	570	569	569	570	570	570	568	568	570	570	576	576	579	579	579	590	590	588	588	586	586	588	588	589	589	588	588	588	588	588	586	586	586	586	586	586	587	587	593	593	593	593	593	593	592	592	592	586	586	589	589	589	589	589	589	591	591	593	593	594	594	598	598	599	599	598	598	596	596	595	595	594	594	594	594	594	594	601	601	598	598	601	601	599	599	601	601	602	602	605	605	610	611	611	611	611	610	610	610	610	605	605	610	610	609	609	608	608	607	607	607	607	608	608	608	608	608	607	607	605	605	603	603	602	602	606	606	616	616	614	614	604	604	601	601	601	604	604	605	605	606	606	604	604	604	604	611	611	615	615	617	617	617	618	618	619	619	609	609	603	603	599	599	600	600	604	608	608	610	610	608	608	610	610	609	609	612	612	615	615	619	619	620	621	621	618	618	615	615	612	612	613	613	611	611	611	611	616	616	620	620	617	617	612	611	611	611	611	611	611	618	618	622	622	616	616	615	615	611	611	607	607	607	607	608	608	615	617	617	642	642	639	639	643	643	630	630	632	632	641	641	640	640	639	639	629	629	637	637	631	631	634	634	631	631	629	629	624	624	625	625	626	626	623	623	622	621	621	621	621	623	623	628	628	629	629	626	626	623	623	630	630	631	631	633	633	632	632	632	632	635	635	642	642	643	643	641	641	642	642	643	643	643	643	639	639	632	632	630	630	629	629	636	636	650	650	644	644	644	644	637	637	640	640	642	642	643	643	643	643	643	643	636	636	637	637	647	647	644	644	641	641	643	650	650	659	659	660	660	655	655	656	656	656	656	654	654	654	654	654	654	652	652	653	653	653	653	653	653	653	653	653	653	653	653	652	652	652	652	647	647	649	649	649	651	651	650	650	649	649	650	650	650	650	650	650	645	645	644	644	644	644	643	643	635	636	636	643	643	645	645	646	646	647	647	647	647	649	649	639	639	653	653	653	657	657	658	658	660	660	658	658	657	657	651	651	651	651	654	654	652	649	649	653	653	663	663	662	662	658	658	653	653	654	654	650	649	649	648	648	648	648	649	649	659	659	664	664	670	670	671	666	666	668	668	667	667	666	666	668	668	669	669	671	671	673	672	672	672	672	668	668	669	669	664	664	662	662	663	663	652	652	652	652	655	659	659	661	661	662	662	662	662	660	660	660	660	657	657	660	660	664	664	662	662	660	660	662	662	665	671	671	674	674	677	677	638	638	650	650	647	647	650	650	651	651	651	651	669	680	676	676	669	669	665	665	663	663	666	666	669	669	671	671	668	668	669	669	669	664	664	665	665	665	665	674	674	670	670	670	670	670	670	668	668	668	668	669	669	669	669	669	671	671	668	668	0	0	0	0	0	0	0	0
0	555	555	555	558	558	557	557	557	558	558	557	557	557	555	555	564	564	558	558	558	562	562	567	567	567	567	567	568	568	568	568	567	567	567	570	570	569	569	570	570	570	568	568	570	570	576	576	579	569	579	579	579	576	576	578	578	577	577	581	581	581	581	581	581	581	580	580	579	579	576	576	573	573	573	573	577	577	582	582	580	580	580	582	582	583	583	586	586	587	587	589	589	589	589	592	592	591	591	590	590	591	591	589	589	589	589	589	589	590	590	592	592	569	569	596	596	596	596	594	594	595	595	597	597	598	598	605	608	608	608	608	606	606	604	604	603	603	602	602	597	597	595	595	602	602	602	602	602	602	601	601	597	593	593	596	596	597	597	595	595	597	597	596	596	592	592	593	593	597	599	599	600	600	601	601	601	601	602	602	597	597	595	595	599	599	604	599	599	608	608	607	607	594	594	595	595	596	596	598	598	599	601	601	604	604	604	604	604	604	605	605	612	612	615	615	619	619	620	620	621	618	618	615	615	612	612	613	613	611	611	611	611	616	616	620	620	617	617	612	611	611	611	611	611	611	618	618	622	622	616	616	615	615	611	611	607	607	607	607	608	608	615	617	617	607	607	608	608	608	608	611	611	609	609	607	607	614	614	604	604	605	605	606	606	616	616	621	621	617	617	618	618	619	619	623	623	622	622	618	618	616	617	617	618	618	621	621	624	624	625	625	624	624	623	623	623	623	628	628	628	628	627	627	622	622	619	619	610	610	621	621	637	637	636	636	636	636	635	635	634	634	629	629	627	627	626	626	626	626	626	626	635	635	625	625	626	626	628	628	629	629	629	629	635	635	633	633	628	628	630	630	630	630	631	631	636	636	633	633	633	650	650	652	652	628	628	635	635	634	634	627	627	628	628	640	640	643	643	644	644	644	644	644	644	642	642	641	641	646	646	647	647	647	647	647	647	649	649	649	651	651	650	650	649	649	650	650	650	650	650	650	645	645	644	644	644	644	643	643	635	636	636	643	643	645	645	646	646	647	647	647	647	649	649	639	639	653	653	653	657	657	658	658	660	660	651	651	648	648	643	643	647	647	650	650	647	639	639	643	643	642	642	641	641	644	644	644	644	645	645	648	647	647	643	643	645	645	644	644	644	644	639	639	642	642	637	637	637	641	641	664	664	656	656	656	656	658	658	668	668	669	646	646	642	642	658	658	658	658	659	659	657	657	655	655	652	652	652	652	655	659	659	661	661	662	662	662	662	660	660	660	660	657	657	660	660	664	664	662	662	660	660	662	662	665	671	671	674	674	677	677	638	638	650	650	647	647	650	650	651	651	651	651	669	669	662	662	658	658	661	661	661	661	662	662	661	661	664	664	660	660	661	661	661	661	661	659	659	658	658	658	658	662	662	664	664	664	664	665	665	665	665	665	668	668	666	666	668	668	665	665	0	0	0	0	0	0	0	0
0	555	555	555	558	558	557	557	557	558	558	557	557	557	555	553	549	549	549	549	549	551	551	559	559	560	560	560	565	565	563	563	563	563	563	566	566	565	565	565	565	565	567	567	568	568	568	568	569	569	579	579	579	576	576	578	578	577	577	581	581	581	581	581	581	581	580	580	579	579	576	576	573	573	573	573	577	577	582	582	580	580	580	582	582	583	583	586	586	587	587	589	589	589	589	592	592	591	591	590	590	591	591	589	589	589	589	589	589	590	590	592	592	569	569	568	568	582	582	586	586	588	588	583	583	583	583	585	577	577	577	577	603	603	596	596	595	595	602	602	597	597	595	595	602	602	602	602	602	602	601	601	597	593	593	596	596	597	597	595	595	597	597	596	596	592	592	593	593	597	599	599	600	600	601	601	601	601	602	602	597	597	595	595	599	599	604	599	599	608	608	607	607	594	594	595	595	596	596	598	598	599	599	601	604	604	604	604	604	604	605	605	597	597	605	605	611	611	609	609	607	604	604	604	604	606	606	606	606	603	603	600	600	602	602	610	610	611	611	609	608	608	606	606	603	603	606	606	603	603	603	603	604	604	603	603	605	605	605	605	605	605	604	604	604	607	607	606	606	606	608	611	611	609	609	607	607	614	614	604	604	605	605	606	606	616	616	621	621	617	617	618	618	619	619	623	623	622	622	618	618	616	616	617	618	618	621	621	624	624	625	625	624	624	623	623	623	623	628	628	628	628	627	627	622	622	619	619	610	610	621	621	637	637	636	636	636	636	635	635	634	634	629	629	627	627	626	626	626	626	626	626	635	635	625	625	626	626	628	628	629	629	629	629	635	635	633	633	628	628	630	630	630	630	631	631	636	636	633	633	633	650	650	652	652	628	628	635	635	634	634	627	627	628	628	640	640	643	643	644	644	644	644	644	644	642	642	641	641	646	638	638	638	642	642	639	640	640	643	643	642	642	640	640	642	642	642	642	643	643	643	643	643	643	642	642	635	635	634	634	635	636	636	641	641	641	641	640	640	638	638	637	637	637	637	639	639	644	644	647	647	647	653	653	652	652	651	651	648	648	643	643	647	647	650	650	647	639	639	643	643	642	642	641	641	644	644	644	644	645	645	648	647	647	643	643	645	645	644	644	644	644	639	639	642	642	637	637	637	641	641	664	664	656	656	656	656	658	658	668	668	669	646	646	642	642	643	643	644	644	648	648	649	649	646	646	643	643	638	638	640	656	656	657	657	657	657	656	656	655	655	654	654	654	654	654	654	656	656	657	657	657	657	658	658	658	665	665	668	668	645	645	638	638	641	641	645	645	647	647	650	650	644	644	643	643	641	641	645	645	652	652	653	661	662	662	661	661	664	664	660	660	660	661	661	661	661	659	659	658	658	658	658	662	662	664	664	664	664	665	665	665	665	665	668	668	666	666	668	668	665	665	0	0	0	0	0	0	0	0
545	552	552	552	553	553	555	555	555	555	555	555	555	555	553	553	549	549	549	549	549	551	551	559	559	560	560	560	565	565	563	563	563	563	563	566	566	565	565	565	565	565	567	567	568	568	568	568	564	564	567	567	567	566	566	565	565	566	566	568	568	570	570	570	573	573	571	571	573	573	572	572	571	571	570	570	570	570	571	571	575	575	575	575	575	577	577	578	578	579	579	580	580	582	582	582	582	585	585	585	585	581	581	582	582	582	582	581	581	579	579	575	575	569	569	568	568	582	582	586	586	588	588	583	583	583	583	585	577	577	577	577	603	603	596	596	595	595	590	590	587	587	587	587	593	593	595	595	596	596	595	595	591	585	585	585	585	584	584	590	590	585	585	585	585	586	586	588	588	593	595	595	596	596	595	595	595	595	592	592	592	592	591	591	589	589	588	585	585	584	584	586	586	588	588	592	592	594	594	596	596	597	597	598	596	596	592	592	592	592	591	591	597	597	600	600	601	611	609	609	607	604	604	604	604	606	606	606	606	603	603	600	600	602	602	610	610	611	611	609	608	608	606	606	603	603	606	606	603	603	603	603	604	604	603	603	605	605	605	605	605	605	604	604	604	607	607	606	606	606	606	605	605	605	605	603	603	602	602	602	602	602	602	606	606	608	608	608	608	608	608	610	610	614	614	616	616	614	614	611	611	611	611	611	607	607	612	612	620	620	622	622	621	621	620	620	620	620	622	622	621	621	620	620	617	617	614	614	610	610	608	608	621	621	627	627	627	627	626	626	617	617	622	622	623	623	624	624	624	624	622	622	621	621	617	617	619	619	623	623	623	623	623	623	627	627	627	627	625	625	624	624	625	625	627	627	629	631	631	623	623	623	623	623	623	623	623	624	624	624	624	624	624	626	626	628	628	631	631	630	630	631	631	631	631	634	634	638	638	638	638	638	638	642	642	639	640	640	643	643	642	642	640	640	642	642	642	642	643	643	643	643	643	643	642	642	635	635	634	634	635	636	636	641	641	641	641	640	640	638	638	637	637	637	637	639	639	644	644	647	647	647	646	646	650	650	648	648	635	635	629	629	635	635	635	632	632	634	634	633	633	635	635	636	636	639	639	642	642	642	642	641	641	641	640	640	640	640	639	639	637	637	636	636	635	635	635	635	635	635	635	636	636	637	637	637	637	639	639	638	638	638	637	637	642	642	643	643	644	644	648	648	649	649	646	646	643	643	638	640	640	656	656	657	657	657	657	656	656	655	655	654	654	654	654	654	654	656	656	657	657	657	657	658	658	658	665	665	668	668	645	645	638	638	641	641	645	645	647	647	650	650	644	644	643	643	641	641	645	645	652	652	653	653	654	654	655	655	656	656	657	657	657	657	657	656	656	655	655	654	654	652	652	654	654	655	655	655	655	656	656	657	657	657	664	664	658	658	662	662	659	659	0	0	0	0	0	0	0	0
545	552	552	552	553	553	555	555	555	555	555	555	555	553	553	545	544	544	543	543	543	549	549	556	556	558	558	558	559	559	559	559	559	559	559	558	558	563	563	564	564	565	565	565	566	566	568	568	564	564	567	567	567	566	566	565	565	566	566	568	568	570	570	573	573	573	571	571	573	573	572	572	571	571	570	570	570	570	571	571	575	575	575	575	575	577	577	578	578	579	579	580	580	582	582	582	582	585	585	585	585	581	578	576	576	570	570	569	569	568	568	567	567	567	567	568	568	570	570	574	574	575	575	575	575	574	574	574	575	575	577	577	581	581	581	581	585	585	584	584	583	583	584	584	579	579	572	572	567	567	583	583	584	585	585	585	585	584	584	590	590	585	585	585	585	586	586	588	588	593	595	595	596	596	595	595	595	595	592	592	592	592	591	591	589	589	588	585	585	584	584	586	586	588	588	592	592	594	594	596	596	597	597	598	596	596	592	592	592	592	591	591	597	597	600	600	601	601	600	600	599	596	596	598	598	595	595	593	593	593	593	598	598	598	598	602	602	602	602	602	595	595	593	593	597	597	598	598	597	597	597	597	603	603	600	600	601	601	601	601	599	599	598	598	604	604	604	604	604	605	605	604	604	603	605	603	603	602	602	602	602	602	602	606	606	608	608	608	608	608	608	610	610	614	614	616	616	614	614	611	611	611	611	611	607	607	612	612	620	620	622	622	621	621	620	620	620	620	622	622	621	621	620	620	617	617	614	614	610	610	608	608	621	621	627	627	627	627	626	626	617	617	622	622	623	623	624	624	624	624	622	622	621	621	617	617	619	619	623	623	623	623	623	623	627	627	627	627	625	625	624	624	625	625	627	627	629	631	631	623	623	623	623	623	623	623	623	624	624	624	624	624	624	626	626	628	628	631	631	630	630	631	631	631	631	634	630	629	629	630	630	622	622	619	619	619	616	616	621	621	626	626	627	627	633	633	628	628	628	628	635	635	634	634	634	634	633	633	632	631	631	632	632	635	635	636	636	637	637	636	636	636	636	635	635	633	633	631	630	630	625	625	646	646	650	650	648	648	635	635	629	629	635	635	635	632	632	634	634	633	633	635	635	636	636	639	639	642	642	642	642	641	641	641	640	640	640	640	639	639	637	637	636	636	635	635	635	635	635	635	635	636	636	637	637	637	637	634	634	632	632	635	636	636	639	639	641	641	642	642	635	635	635	635	639	639	634	634	630	628	628	627	627	626	626	654	654	653	653	646	646	644	644	643	643	634	634	643	643	643	643	647	647	647	647	637	629	629	632	632	632	632	633	633	636	636	640	640	642	642	642	642	640	640	638	638	636	636	637	637	638	638	642	642	644	644	642	642	656	656	657	657	657	657	657	656	656	655	655	654	654	652	652	654	654	655	655	655	655	656	656	657	657	657	664	664	658	658	662	662	659	659	0	0	0	0	0	0	0	0
545	550	550	550	551	551	525	525	525	528	528	549	549	545	545	545	544	544	543	543	543	549	549	556	556	558	558	558	559	559	559	559	559	559	559	558	558	563	563	564	564	565	565	565	566	566	568	562	561	561	562	562	562	562	562	563	563	557	557	556	556	557	557	560	560	560	560	560	566	566	567	567	567	567	567	567	567	567	569	569	569	569	569	569	569	568	568	562	562	561	561	564	564	567	567	573	573	574	574	577	577	578	578	576	576	570	570	569	569	568	568	567	567	567	567	568	568	570	570	574	574	575	575	575	575	574	574	574	575	575	577	577	581	581	581	581	585	585	584	584	583	583	584	584	579	579	572	572	567	567	583	583	584	583	583	582	582	582	582	580	580	579	579	581	581	584	584	586	586	588	588	589	589	589	586	586	586	586	582	582	586	586	587	587	583	583	584	580	580	580	580	582	582	585	585	587	587	589	589	591	591	592	592	592	591	591	584	584	583	583	589	589	590	590	592	592	594	594	594	594	591	596	596	598	598	595	595	593	593	593	593	598	598	598	598	602	602	602	602	602	602	595	593	593	597	597	598	598	597	597	597	597	603	603	600	600	601	601	601	601	599	599	598	598	604	604	604	604	604	605	605	604	604	603	603	601	601	600	600	600	600	601	601	601	601	600	600	601	601	604	604	603	603	603	603	601	601	600	600	604	604	604	604	605	604	604	601	601	599	599	593	593	591	591	611	611	617	617	616	616	616	616	613	613	608	608	607	607	602	602	603	603	608	608	608	608	609	609	610	610	612	612	615	615	618	618	620	620	619	619	619	619	615	615	614	614	614	614	612	612	611	611	619	619	621	621	621	621	619	619	618	618	612	612	617	617	618	615	615	620	620	619	619	620	620	621	621	622	622	619	619	622	622	624	624	626	626	627	627	628	628	624	624	627	627	630	630	629	629	630	630	622	622	619	619	619	616	616	621	621	626	626	627	627	633	633	628	628	628	628	635	635	634	634	634	634	633	633	632	631	631	632	632	635	635	636	636	637	637	636	636	636	636	635	635	633	633	625	622	622	622	622	620	620	621	621	623	623	624	624	625	625	625	625	623	625	625	626	626	630	630	630	630	625	625	628	628	634	634	635	635	635	635	635	634	634	634	634	634	634	633	633	633	633	634	634	634	634	634	633	633	633	633	636	636	634	634	634	634	632	632	635	636	636	639	639	641	641	642	642	635	635	635	635	639	639	634	634	630	628	628	627	627	626	626	654	654	653	653	646	646	644	644	643	643	634	634	643	643	643	643	647	647	647	647	637	629	629	632	632	632	632	633	633	636	636	640	640	642	642	642	642	640	640	638	638	636	636	637	637	638	638	642	642	644	644	642	642	627	627	641	641	641	631	631	645	645	646	646	647	647	647	647	647	647	640	640	638	638	638	638	638	638	638	639	639	639	639	637	637	643	643	0	0	0	0	0	0	0	0
545	550	550	550	551	551	525	525	528	528	528	549	549	545	545	538	542	542	541	541	541	544	544	548	548	553	553	553	554	554	553	553	552	552	552	544	544	553	553	541	541	561	561	561	564	564	562	562	561	561	562	562	562	562	562	563	563	557	557	556	556	557	557	560	560	560	560	560	566	566	567	567	567	567	567	567	567	567	569	569	569	569	569	569	569	568	568	562	562	561	561	564	564	567	567	560	560	558	558	561	561	567	567	569	569	568	568	568	568	567	567	566	566	565	565	566	566	568	568	572	572	573	573	573	573	569	569	568	571	571	574	574	574	574	577	577	577	577	577	577	580	580	576	576	570	570	567	567	567	567	570	570	573	575	575	576	576	575	575	576	576	578	579	581	581	584	584	586	586	588	588	589	589	589	586	586	586	586	582	582	586	586	587	587	583	583	584	580	580	580	580	582	582	585	585	587	587	589	589	591	591	592	592	592	591	591	584	584	583	583	589	589	590	590	592	592	594	594	594	594	591	570	570	592	592	591	591	589	589	590	590	592	592	594	594	595	595	595	595	585	585	586	590	590	591	591	594	594	595	595	595	595	594	594	595	595	596	596	595	595	595	595	593	593	591	591	578	602	602	600	600	599	599	599	599	598	598	597	597	597	600	601	601	601	601	600	600	601	601	604	604	603	603	603	603	601	601	600	600	604	604	604	604	605	605	604	601	601	599	599	593	593	591	591	611	611	617	617	616	616	616	616	613	613	608	608	607	607	602	602	603	603	608	608	608	608	609	609	610	610	612	612	615	615	618	618	620	620	619	619	619	619	615	615	614	614	614	614	612	612	611	611	619	619	621	621	621	621	619	619	618	618	612	612	617	617	618	615	615	620	620	619	619	620	620	621	621	622	622	619	619	622	622	624	624	626	626	627	627	628	621	621	621	623	623	622	622	618	618	613	613	612	612	611	611	611	612	612	614	614	617	617	625	625	625	625	626	626	622	622	621	621	622	622	623	623	627	627	627	628	628	628	628	630	630	631	631	632	632	631	631	631	631	630	630	630	630	625	622	622	622	622	620	620	621	621	623	623	624	624	625	625	625	625	623	625	625	626	626	630	630	630	630	625	625	628	628	634	634	635	635	635	635	635	634	634	634	634	634	634	633	633	633	633	634	634	634	634	634	633	630	629	629	630	630	631	631	631	631	631	631	631	632	632	637	637	633	633	632	632	630	630	627	627	620	620	621	621	630	626	626	626	626	622	622	629	629	626	626	626	626	627	627	630	630	635	635	634	634	633	633	632	632	628	628	625	629	629	632	632	628	628	628	628	630	630	634	634	633	633	635	635	635	635	634	634	634	634	635	635	631	631	629	629	628	628	628	628	627	627	627	628	641	631	631	645	645	646	646	647	647	647	647	647	647	640	640	638	638	638	638	638	638	638	639	639	639	639	637	637	643	643	0	0	0	0	0	0	0	0
528	544	544	527	527	527	525	525	528	528	528	535	535	538	538	538	542	542	541	541	541	544	544	548	548	553	553	553	554	554	553	553	552	552	552	544	544	553	553	541	541	561	561	561	564	564	558	558	554	554	550	550	550	554	554	554	554	555	555	549	549	550	550	552	552	552	559	559	560	560	561	561	561	561	561	561	562	562	562	562	562	562	550	550	550	555	555	554	554	554	554	554	554	556	556	560	560	558	558	561	561	567	567	569	569	568	568	568	568	567	567	566	566	565	565	566	566	568	568	572	572	573	573	573	573	569	569	568	571	571	574	574	574	574	577	577	577	577	577	577	580	580	576	576	570	570	567	567	567	567	570	570	573	575	575	576	576	575	575	576	576	578	578	578	578	579	579	580	580	582	582	582	583	583	575	575	577	577	577	577	579	579	581	581	580	580	579	579	579	578	578	580	580	581	581	582	582	583	583	584	584	585	585	586	582	582	581	581	581	581	581	581	584	584	581	581	579	579	589	589	577	577	570	578	578	585	591	589	589	590	590	592	592	594	594	595	595	595	595	585	585	586	590	590	591	591	594	594	595	595	595	595	594	594	595	595	596	596	595	595	595	595	593	593	591	591	578	602	602	600	600	599	599	599	599	598	598	597	597	597	597	597	597	598	598	599	599	599	599	599	599	599	599	598	598	597	597	597	597	597	597	599	599	599	599	599	597	597	594	594	593	593	591	591	589	589	613	613	612	612	612	612	600	600	596	596	598	598	600	600	600	600	600	600	600	600	601	601	603	603	606	606	609	609	611	611	612	612	613	613	613	613	611	611	607	607	605	605	608	608	608	608	610	610	617	617	618	618	614	614	602	602	606	606	606	605	605	609	609	614	614	616	616	617	617	617	617	616	616	616	616	616	616	618	618	620	620	621	621	621	621	621	621	623	623	622	622	618	618	613	613	612	612	611	611	611	612	612	614	614	617	617	625	625	625	625	626	626	622	622	621	621	622	622	623	623	627	627	627	628	628	628	628	630	630	631	631	632	632	631	631	631	631	625	625	624	624	622	621	621	619	619	618	618	617	617	619	619	620	620	621	621	622	622	622	620	620	622	622	622	622	623	623	616	616	618	618	626	626	628	628	628	629	629	629	629	628	628	626	626	624	624	618	618	626	628	628	629	629	630	630	629	629	630	630	631	631	631	631	631	631	631	632	632	637	637	633	633	632	632	630	630	627	627	620	620	621	621	630	626	626	626	626	622	622	629	629	626	626	626	626	627	627	630	630	635	635	634	634	633	633	632	632	628	628	625	629	629	632	632	628	628	628	628	630	630	634	634	633	633	635	635	635	635	634	634	634	634	635	635	631	631	629	629	628	628	628	628	627	627	627	628	628	629	629	629	629	631	631	634	634	638	638	637	637	633	633	633	633	631	631	631	631	631	631	631	631	631	631	631	631	631	0	0	0	0	0	0	0	0
528	544	544	527	527	527	525	525	528	528	528	535	535	538	538	538	537	537	538	538	537	537	537	536	536	547	547	547	547	547	546	546	542	542	542	539	539	540	540	541	541	544	544	544	545	545	558	558	554	554	550	550	550	554	554	554	554	555	555	549	549	550	550	552	552	552	559	559	560	560	561	561	561	561	561	561	562	562	562	562	562	562	550	550	555	555	555	554	554	554	552	552	552	551	551	553	553	551	551	555	555	557	557	562	562	563	563	563	563	562	562	563	563	562	562	563	563	565	565	567	567	567	567	566	566	566	566	565	561	561	554	554	553	553	562	562	561	561	544	544	560	560	571	571	566	566	565	565	564	564	568	568	570	569	569	571	571	571	571	572	572	572	572	572	572	573	573	566	566	566	582	582	583	583	575	575	577	577	577	577	579	579	581	581	580	580	579	579	579	578	578	580	580	581	581	582	582	583	583	584	584	585	585	586	586	582	581	581	581	581	581	581	584	584	581	581	579	579	589	589	577	577	570	578	578	585	585	585	585	586	586	586	586	585	585	585	585	586	586	579	579	583	585	585	586	586	587	587	588	588	587	587	585	585	582	582	588	588	588	588	588	588	582	582	579	579	578	577	577	586	586	597	597	595	595	595	595	594	594	593	593	593	593	593	593	599	599	599	599	599	599	599	599	598	598	597	597	597	597	597	597	599	599	599	599	599	597	597	594	594	593	593	591	591	589	589	613	613	612	612	612	612	600	600	596	596	598	598	600	600	600	600	600	600	600	600	601	601	603	603	606	606	609	609	611	611	612	612	613	613	613	613	611	611	607	607	605	605	608	608	608	608	610	610	617	617	618	618	614	614	602	602	606	606	606	605	605	609	609	614	614	616	616	617	617	617	617	616	616	616	616	616	616	618	618	610	610	611	611	617	617	618	618	611	611	603	603	598	598	606	606	608	608	609	609	609	610	610	612	612	615	615	617	617	617	617	617	617	616	616	616	616	620	620	620	620	620	620	620	621	621	623	623	624	624	625	625	626	626	626	626	626	626	625	625	624	624	622	621	621	619	619	618	618	617	617	619	619	620	620	621	621	622	622	622	620	620	622	622	622	622	623	623	616	616	618	618	626	626	628	628	628	629	629	629	629	628	628	626	626	624	624	618	613	614	621	621	620	620	622	622	606	606	610	610	626	626	625	625	624	624	621	612	612	611	611	616	616	620	620	621	621	620	620	620	620	621	621	621	622	622	597	597	621	621	621	621	620	620	621	621	624	624	627	627	629	629	630	630	631	631	629	629	621	621	619	622	622	622	622	624	624	624	624	624	624	625	625	628	628	629	629	628	628	628	628	628	628	629	629	628	628	626	626	621	621	621	621	625	625	625	625	625	627	627	626	629	631	631	634	634	638	638	637	637	633	633	633	633	631	631	631	631	631	631	631	631	631	631	631	631	631	0	0	0	0	0	0	0	0
520	520	520	520	520	520	523	523	525	525	525	532	532	534	534	534	537	537	538	538	537	537	537	536	536	547	547	547	547	547	546	546	542	542	539	539	539	540	540	541	541	544	544	544	545	537	540	540	538	538	540	540	539	539	539	541	541	544	544	546	546	548	548	549	549	549	554	554	556	556	550	550	534	534	551	551	558	558	556	556	555	555	550	550	550	550	550	551	551	552	552	552	552	551	551	553	553	551	551	555	555	557	557	562	562	563	563	563	563	562	562	563	563	562	562	563	563	565	565	567	567	567	567	566	566	566	566	565	561	561	554	554	553	553	562	562	561	561	544	544	560	560	571	571	566	566	565	565	564	564	568	568	570	569	569	571	571	571	571	572	572	572	572	572	572	573	573	566	566	566	566	567	569	569	562	562	562	562	567	567	573	573	575	575	575	575	574	574	574	574	574	575	575	576	576	576	576	573	573	571	571	569	569	562	562	573	569	569	575	575	574	574	573	573	570	570	569	569	571	571	568	568	567	566	566	571	571	576	576	581	586	586	586	585	585	585	585	586	586	579	579	583	585	585	586	586	587	587	588	588	587	587	585	585	582	582	588	588	588	588	588	588	582	582	579	579	578	577	577	586	586	597	597	595	595	595	595	594	594	593	593	593	593	593	593	592	592	593	593	594	594	594	594	593	593	592	592	591	591	592	592	593	593	594	594	594	594	594	591	591	589	589	587	587	586	586	585	585	586	586	586	586	588	588	590	590	593	593	595	595	596	596	597	597	598	598	599	599	600	600	600	600	602	602	596	596	600	600	606	606	606	606	602	602	601	601	600	600	600	600	596	596	595	595	588	588	591	591	592	592	596	596	599	599	602	600	600	604	604	607	607	611	611	612	612	612	612	611	611	610	610	609	609	610	610	610	610	611	611	617	617	618	618	611	611	603	603	598	598	606	606	608	608	609	609	609	610	610	612	612	615	615	617	617	617	617	617	617	616	616	616	616	620	620	620	620	620	620	620	621	621	623	623	624	624	625	625	626	626	618	618	618	618	618	618	617	617	616	615	615	614	614	615	615	615	615	616	616	616	616	615	615	614	614	614	614	614	616	616	617	617	616	616	615	615	612	612	602	602	619	621	621	622	622	621	621	617	617	614	614	613	613	613	613	614	621	621	620	620	622	622	606	606	610	610	626	626	625	625	624	624	621	612	612	611	611	616	616	620	620	621	621	620	620	620	620	621	621	621	622	622	597	597	621	621	621	621	620	620	621	621	624	624	627	627	629	629	630	630	631	631	629	629	621	621	619	622	622	622	622	624	624	624	624	624	624	625	625	628	628	629	629	628	628	628	628	628	628	629	629	628	628	626	626	621	621	621	621	621	625	625	625	625	627	627	626	626	623	623	623	623	623	623	625	625	628	628	627	627	628	628	628	629	629	629	629	629	629	631	631	624	624	0	0	0	0	0	0	0	0
520	520	520	520	520	520	523	523	525	525	525	532	532	534	534	534	534	534	531	531	527	527	527	527	527	529	529	534	534	534	539	539	536	536	536	536	536	538	538	536	536	536	536	536	537	537	540	540	538	538	540	540	539	539	539	541	541	544	544	546	546	548	548	549	549	554	554	554	556	556	550	550	534	534	551	551	558	558	556	556	555	555	550	550	550	550	547	547	547	547	547	546	546	547	547	548	548	551	551	553	553	556	556	558	558	559	559	559	559	559	559	558	558	557	557	559	559	560	560	561	561	561	561	559	559	557	557	557	553	553	551	551	550	550	549	549	548	548	544	544	546	546	550	550	557	557	559	559	561	561	562	562	564	565	565	565	565	566	566	567	567	567	567	566	566	562	562	560	560	560	560	559	558	558	555	555	553	562	567	567	573	573	575	575	575	575	574	574	574	574	574	575	575	576	576	576	576	573	573	571	571	569	569	562	562	573	569	569	575	575	574	574	573	573	570	570	569	569	571	571	568	568	567	566	566	571	571	576	576	581	581	581	581	572	572	573	573	575	575	575	575	577	577	579	580	580	578	578	573	573	573	573	578	578	572	572	572	572	574	574	576	576	577	577	576	576	574	574	574	574	574	586	586	588	588	594	594	591	591	590	590	585	585	584	584	586	586	585	585	587	587	594	594	593	593	592	592	591	591	592	592	593	593	594	594	594	594	594	591	591	589	589	587	587	586	586	585	585	586	586	586	586	588	588	590	590	593	593	595	595	596	596	597	597	598	598	599	599	600	600	600	600	602	602	596	596	600	600	606	606	606	606	602	602	601	601	600	600	600	600	596	596	595	595	588	588	591	591	592	592	596	596	599	599	602	600	600	604	604	607	607	611	611	612	612	612	612	611	611	602	602	598	598	595	595	596	596	595	595	602	602	595	595	595	595	596	596	596	596	602	602	603	603	603	602	602	603	603	603	603	604	604	604	604	604	604	605	605	608	608	610	610	611	611	611	611	608	605	605	605	605	613	613	615	615	617	617	616	616	618	618	618	618	618	618	617	616	616	615	615	614	614	615	615	615	615	616	616	616	616	615	615	614	614	614	614	614	616	616	617	617	616	616	615	615	612	612	602	602	619	621	621	622	622	621	621	617	614	612	612	611	611	612	612	610	609	609	606	606	603	603	599	599	599	599	597	597	621	621	617	615	615	609	609	608	608	611	611	616	616	617	617	615	615	611	611	610	610	605	603	603	597	597	597	597	619	619	619	619	619	619	620	620	621	621	623	623	625	625	624	624	622	622	619	619	617	613	613	614	614	615	615	617	617	619	619	620	620	621	621	622	622	623	623	622	622	622	622	621	621	620	620	618	618	619	619	618	618	618	620	620	621	621	621	621	621	621	621	621	623	623	623	623	625	625	628	628	627	627	628	628	628	629	629	629	629	629	629	631	631	624	624	0	0	0	0	0	0	0	0
518	518	518	518	518	518	519	519	521	521	521	530	530	529	529	529	534	534	531	531	527	527	527	527	527	529	529	534	534	534	539	539	536	536	536	536	536	538	538	536	536	536	536	537	535	535	535	535	535	535	535	535	535	535	535	534	534	536	536	539	539	540	540	538	538	536	536	536	542	542	538	538	534	534	531	531	540	540	551	551	549	549	548	548	547	547	547	547	547	547	547	546	546	547	547	548	548	551	551	553	553	556	556	558	558	559	559	559	559	559	559	558	558	557	557	559	559	560	560	561	561	561	561	559	559	557	557	557	553	553	551	551	550	550	549	549	548	548	544	544	546	546	550	550	557	557	559	559	561	561	562	562	564	565	565	565	565	566	566	567	567	567	567	566	566	562	562	560	560	560	560	559	558	558	555	555	553	553	553	553	562	562	572	572	570	570	570	570	566	568	568	570	570	571	571	570	570	565	565	560	560	559	559	562	562	564	569	569	569	569	570	570	569	569	569	569	568	568	567	567	565	565	566	562	562	560	560	559	559	562	562	565	565	565	565	573	573	575	575	575	575	577	577	579	580	580	578	578	573	573	573	573	578	578	572	572	572	572	574	574	576	576	577	577	576	576	574	574	574	574	574	586	586	588	588	594	594	591	591	590	590	585	585	584	584	586	586	585	585	587	587	587	587	586	586	578	578	579	579	572	572	581	581	586	586	587	587	587	586	586	586	586	585	585	584	584	584	584	583	583	583	583	586	586	588	588	588	588	590	590	591	591	591	591	591	591	592	592	593	593	593	593	587	587	586	586	596	596	600	600	600	600	598	598	595	595	593	593	593	593	591	591	589	589	588	588	589	589	591	591	593	593	594	595	595	596	596	592	592	596	596	603	603	591	591	604	604	603	603	602	602	598	598	595	595	596	596	595	595	602	602	595	595	595	595	596	596	596	596	602	602	603	603	603	602	602	603	603	603	603	604	604	604	604	604	604	605	605	608	608	610	610	611	611	611	611	608	605	605	605	605	613	613	615	601	605	605	602	602	605	605	604	604	608	608	609	608	608	607	607	602	602	607	607	608	608	608	608	604	604	605	605	605	603	603	606	606	608	608	609	609	608	608	606	606	604	604	602	602	605	613	613	614	614	615	615	614	614	612	612	611	611	612	612	610	609	609	606	606	603	603	599	599	599	599	597	597	621	621	617	615	615	609	609	608	608	611	611	616	616	617	617	615	615	611	611	610	610	605	603	603	597	597	597	597	619	619	619	619	619	619	620	620	621	621	623	623	625	625	624	624	622	622	619	619	617	613	613	614	614	615	615	617	617	619	619	620	620	621	621	622	622	623	623	622	622	622	622	621	621	620	620	618	618	619	619	618	618	618	620	620	621	621	621	621	621	621	621	621	617	617	618	618	621	621	621	621	614	614	617	617	617	620	620	621	621	621	621	619	619	609	609	0	0	0	0	0	0	0	0
518	518	518	518	518	518	519	519	521	521	521	530	530	529	529	529	514	514	517	517	523	523	523	525	525	525	525	525	525	525	530	530	533	533	534	534	534	534	534	535	535	535	535	535	535	535	535	535	535	535	535	535	535	535	535	534	534	536	536	539	539	540	540	538	538	536	536	536	542	542	538	538	534	534	531	531	540	540	551	551	549	549	548	543	543	543	543	543	543	542	542	542	542	543	543	543	543	544	544	542	542	547	547	551	551	552	552	552	552	551	551	541	541	550	550	549	549	550	550	549	549	551	551	553	553	552	552	551	550	550	549	549	548	548	545	545	543	543	543	543	544	544	547	547	549	549	553	553	549	549	553	553	556	558	558	559	559	561	561	561	561	561	561	552	552	554	554	557	557	557	557	557	552	552	552	552	552	552	549	549	548	548	556	556	570	570	570	570	566	568	568	570	570	571	571	570	570	565	565	560	560	559	559	562	562	564	569	569	569	569	570	570	569	569	569	569	568	568	567	567	565	565	566	562	562	560	560	559	559	562	562	565	565	565	565	563	563	563	563	564	564	571	571	572	570	570	566	566	566	566	566	566	569	569	569	569	568	568	567	567	568	568	570	570	571	571	570	570	571	572	572	572	572	572	572	571	571	565	565	567	567	569	569	571	571	578	578	580	580	582	582	574	574	569	569	567	567	569	579	572	572	581	581	586	586	587	587	587	586	586	586	586	585	585	584	584	584	584	583	583	583	583	586	586	588	588	588	588	590	590	591	591	591	591	591	591	592	592	593	593	593	593	587	587	586	586	596	596	600	600	600	600	598	598	595	595	593	593	593	593	591	591	589	589	588	588	589	589	591	591	593	593	594	595	595	596	596	592	592	596	596	603	591	591	591	593	593	592	592	592	592	594	594	587	587	588	588	592	592	589	589	590	590	591	591	592	592	594	594	591	591	596	596	596	597	597	596	596	595	595	595	595	594	594	594	594	596	596	601	601	602	602	600	600	603	603	597	597	597	597	597	598	598	601	601	605	605	602	602	605	605	604	604	608	608	609	608	608	607	607	602	602	607	607	608	608	608	608	604	604	605	605	605	603	603	606	606	608	608	609	609	608	608	606	606	604	604	602	605	605	613	613	607	607	607	607	606	606	606	606	606	606	606	606	606	605	605	599	599	599	599	598	598	597	597	597	597	599	599	604	604	604	605	605	606	606	604	604	608	608	610	610	608	608	599	599	596	596	596	595	595	596	596	597	597	607	607	610	610	612	612	612	612	615	615	615	615	618	618	621	621	620	620	615	615	611	611	611	607	607	612	612	609	609	590	590	610	610	612	612	618	618	614	614	614	614	613	613	609	609	605	605	602	602	608	608	608	610	610	613	613	614	614	614	614	613	613	613	613	612	612	612	618	621	621	621	621	614	614	617	617	617	620	620	621	621	621	621	619	619	609	609	0	0	0	0	0	0	0	0
514	514	514	515	515	515	513	513	510	510	510	511	511	512	512	514	514	514	517	517	523	523	523	525	525	525	525	525	525	525	530	530	533	533	534	534	534	534	534	535	535	535	535	531	531	531	532	532	533	533	532	532	532	532	532	532	532	534	534	535	535	535	535	533	533	528	528	528	529	529	529	529	529	529	529	529	530	530	532	532	538	538	543	543	543	543	543	543	543	542	542	542	542	543	543	543	543	544	544	542	542	547	547	551	551	552	552	552	552	551	551	541	541	550	550	549	549	550	550	549	549	551	551	553	553	552	552	551	550	550	549	549	548	548	545	545	543	543	543	543	544	544	547	547	549	549	553	553	549	549	553	553	556	556	558	559	559	561	561	561	561	561	561	552	552	554	554	557	557	557	557	557	552	552	552	552	552	552	549	549	548	548	556	556	542	542	548	548	551	553	553	557	557	552	552	549	549	550	550	557	557	556	556	561	561	561	563	563	564	564	563	563	562	562	560	560	559	559	560	560	560	560	559	559	558	558	558	556	556	558	558	558	558	559	559	557	557	557	557	564	564	571	571	572	570	570	566	566	566	566	566	566	569	569	569	569	568	568	567	567	568	568	570	570	571	571	570	570	571	572	572	572	572	572	572	571	571	565	565	567	567	569	569	571	571	578	578	580	580	582	582	574	574	569	569	567	567	569	569	569	569	572	572	571	571	576	576	575	578	578	580	580	580	580	581	581	580	580	581	581	581	581	582	582	582	582	583	583	584	584	585	585	585	585	585	585	586	586	580	580	579	579	581	581	584	584	590	590	595	595	595	595	591	591	586	586	587	587	586	586	587	587	587	587	587	587	587	587	588	588	589	589	589	589	589	589	589	590	590	589	589	591	591	591	591	593	593	592	592	592	592	594	594	587	587	588	588	592	592	589	589	590	590	591	591	592	592	594	594	591	591	596	596	596	597	597	596	596	595	595	595	595	594	594	594	594	596	596	601	601	602	602	600	600	603	603	597	597	597	597	596	596	596	597	597	601	601	601	601	603	603	603	603	599	599	599	595	595	595	595	593	593	595	595	596	596	595	595	594	594	594	594	594	597	597	598	598	597	597	596	596	595	595	596	596	596	596	598	598	598	606	606	607	607	607	607	606	606	606	606	606	606	606	606	606	605	605	599	599	599	599	598	598	597	597	597	597	599	599	604	604	604	605	605	606	606	604	604	608	608	610	610	608	608	599	599	596	596	596	595	595	596	596	597	597	607	607	610	610	612	612	612	612	615	615	615	615	618	618	621	621	620	620	615	615	611	611	611	607	607	612	612	609	609	590	590	610	610	612	612	618	618	614	614	614	614	613	613	609	609	605	605	602	602	608	608	608	610	610	613	613	614	614	614	614	613	613	613	613	612	612	612	612	612	612	611	611	608	608	608	598	598	600	600	605	605	606	606	606	606	606	606	606	0	0	0	0	0	0	0
514	514	514	515	515	515	513	513	510	510	510	511	511	512	512	514	510	510	512	512	518	518	518	520	520	522	522	519	519	519	519	519	526	526	529	529	529	530	530	529	529	529	529	531	531	531	532	532	533	533	532	532	532	532	532	532	532	534	534	535	535	535	535	533	533	528	528	528	529	529	529	529	529	529	529	529	530	530	532	532	530	530	531	531	537	537	537	537	537	538	538	538	538	538	538	538	538	535	535	539	539	535	535	540	540	540	540	539	539	538	538	537	537	543	543	538	538	539	539	539	539	541	541	543	543	542	542	545	544	544	543	543	542	542	542	542	542	542	542	542	543	543	544	544	546	546	547	547	542	542	543	543	546	546	539	549	549	555	555	544	544	539	539	543	543	548	548	551	551	551	551	551	551	550	548	548	547	547	545	545	543	543	543	543	542	542	543	543	549	549	553	557	557	552	552	549	549	550	550	557	557	556	556	561	561	561	563	563	564	564	563	563	562	562	560	560	559	559	560	560	560	560	559	559	558	558	558	556	556	558	558	558	558	559	559	557	557	557	557	557	557	564	564	564	566	566	564	564	563	563	564	564	565	565	565	565	565	565	562	562	561	561	565	565	565	565	562	562	563	563	551	558	558	559	559	561	561	562	562	563	563	567	567	569	569	568	568	565	565	554	554	558	558	561	561	565	565	567	567	568	568	568	568	568	568	568	576	575	575	578	580	580	580	580	581	581	580	580	581	581	581	581	582	582	582	582	583	583	584	584	585	585	585	585	585	585	586	586	580	580	579	579	581	581	584	584	590	590	595	595	595	595	591	591	586	586	587	587	586	586	587	587	587	587	587	587	587	587	588	588	589	589	589	589	582	584	584	585	585	587	587	588	588	589	589	589	589	590	590	585	585	581	581	579	579	584	584	586	586	588	588	588	588	588	588	587	587	588	588	588	589	589	589	589	590	590	591	591	591	591	591	591	591	591	586	586	586	586	594	594	595	595	596	596	596	595	595	595	595	596	596	596	596	597	597	601	601	601	601	603	603	603	603	599	599	599	595	595	595	595	593	593	595	595	596	596	595	595	594	594	594	594	594	597	597	598	598	597	597	596	596	595	595	596	596	596	592	594	596	596	598	598	600	600	594	594	594	594	599	599	599	599	600	600	600	599	599	598	598	597	597	595	595	594	594	595	595	596	596	597	595	595	596	596	592	592	588	588	605	605	598	598	597	597	588	588	590	590	593	594	594	595	595	596	596	595	595	598	598	590	590	598	598	601	601	598	598	576	576	577	577	579	579	580	580	584	584	603	601	601	600	600	592	592	590	590	593	593	594	594	594	594	594	594	596	596	608	608	595	595	595	595	595	595	595	595	595	601	601	598	598	605	605	605	605	599	599	598	598	597	597	601	601	597	612	611	611	608	608	608	598	598	600	600	605	605	606	606	606	606	606	606	606	0	0	0	0	0	0	0
511	510	510	510	510	510	510	510	509	509	508	508	508	508	508	510	510	510	512	512	518	518	518	520	520	522	522	519	519	519	519	519	526	526	529	529	529	530	530	529	529	529	524	526	526	526	527	527	528	528	528	528	528	528	528	528	528	528	528	529	529	527	527	523	523	525	525	525	524	524	524	524	526	526	528	528	529	529	530	530	530	530	531	531	537	537	537	537	538	538	538	538	538	538	538	538	538	535	535	539	539	535	535	540	540	540	540	539	539	538	538	537	537	543	543	538	538	539	539	539	539	541	541	543	543	542	542	545	544	544	543	543	542	542	542	542	542	542	542	542	543	543	544	544	546	546	547	547	542	542	543	543	546	546	539	549	549	555	555	544	544	539	539	543	543	548	548	551	551	551	551	551	551	550	548	548	547	547	545	545	543	543	543	543	542	542	543	543	549	549	546	546	546	545	545	545	545	546	546	545	545	546	546	552	552	554	554	555	554	554	549	549	547	547	547	547	546	546	546	546	550	550	549	549	553	554	554	554	554	555	555	555	555	554	554	553	553	552	552	551	551	551	551	561	564	566	564	564	563	563	564	564	565	565	565	565	565	565	562	562	561	561	565	565	565	565	562	562	563	563	551	558	558	559	559	561	561	562	562	563	563	567	567	569	569	568	568	565	565	554	554	558	558	561	561	565	565	567	567	568	568	568	568	568	568	568	568	569	569	571	574	574	571	571	574	574	575	575	576	576	576	576	576	576	577	577	574	574	577	577	577	577	578	578	577	577	577	577	573	573	573	573	574	574	573	573	577	577	578	578	586	586	577	577	579	579	580	580	581	581	582	582	583	583	584	584	584	584	585	585	585	582	582	582	582	584	584	585	585	587	587	588	588	589	589	589	589	590	590	585	585	581	581	579	579	584	584	586	586	588	588	588	588	588	588	587	587	588	588	588	589	589	589	589	590	590	591	591	591	591	591	591	591	591	586	586	586	586	594	594	595	595	596	596	596	585	585	584	584	588	588	592	592	590	590	594	594	599	599	600	600	599	599	595	585	585	587	587	588	588	592	592	591	591	594	594	593	593	591	591	583	583	577	583	583	595	595	593	593	590	590	588	588	590	590	592	592	594	596	596	598	598	600	600	594	594	594	594	599	599	599	599	600	600	600	599	599	598	598	597	597	595	595	594	594	595	595	596	596	597	595	595	596	596	592	592	588	588	605	605	598	598	597	597	588	588	590	590	593	594	594	595	595	596	596	595	595	598	598	590	590	598	598	601	601	598	598	576	576	577	577	579	579	580	580	584	584	603	601	601	600	600	592	592	590	590	593	593	594	594	594	594	594	594	596	596	608	608	595	595	595	595	595	595	595	595	595	601	601	598	598	605	605	605	605	599	599	598	598	597	597	601	601	597	597	597	597	595	595	595	592	592	590	590	590	590	594	594	596	596	605	605	605	0	0	0	0	0	0	0
511	510	510	510	510	510	510	510	509	509	508	508	508	508	508	510	508	508	510	510	512	512	515	515	515	515	515	516	516	516	514	514	507	507	506	506	509	509	509	516	516	524	524	526	526	526	527	527	528	528	528	528	528	528	528	528	528	528	528	529	529	527	527	523	523	525	525	524	524	524	524	524	526	526	528	528	529	526	527	527	529	529	526	526	525	525	528	528	530	530	530	530	530	531	531	532	532	532	532	533	533	534	534	537	537	539	539	537	537	531	531	531	531	534	534	536	536	537	537	533	533	536	536	532	532	533	533	538	538	538	534	534	538	538	537	537	538	538	538	538	539	539	539	539	539	539	539	539	539	539	536	536	536	536	533	534	534	533	533	534	534	538	538	539	539	542	542	543	543	545	545	542	542	543	543	543	542	542	541	541	539	539	538	538	539	539	541	541	544	544	545	545	545	544	544	545	545	546	546	545	545	546	546	552	552	554	554	555	554	554	549	549	547	547	547	547	546	546	546	546	550	550	549	549	553	554	554	554	554	555	555	555	555	554	554	553	553	552	552	551	551	551	551	561	561	561	558	558	558	558	558	558	559	559	560	560	560	560	560	560	559	559	560	560	559	559	557	557	552	552	551	551	551	552	552	556	556	560	560	561	561	562	562	560	560	556	556	555	555	554	554	556	556	559	559	561	561	562	562	563	563	564	564	565	565	566	566	567	567	567	568	568	568	568	562	562	567	575	576	576	576	576	576	576	577	577	574	574	577	577	577	577	578	578	577	577	577	577	573	573	573	573	574	574	573	573	577	577	578	578	586	586	577	577	579	579	580	580	581	581	582	582	583	578	578	578	577	577	571	571	566	565	565	564	564	570	570	572	572	581	581	583	583	583	583	583	583	580	580	576	576	572	572	570	570	576	576	579	579	581	581	580	580	580	580	568	568	581	581	579	579	579	583	583	584	584	585	585	585	585	585	585	584	584	578	578	580	580	585	585	587	587	588	588	588	585	585	584	584	588	588	592	592	590	590	594	594	599	599	600	600	599	599	595	585	585	587	587	588	588	592	592	591	591	594	594	593	593	591	591	583	577	577	583	583	595	595	593	593	590	590	586	586	587	587	587	587	588	588	588	587	587	592	592	588	588	590	590	592	592	593	593	594	595	595	594	594	594	594	593	593	592	592	592	592	593	593	593	593	596	590	590	583	583	583	583	583	583	577	577	582	582	583	583	586	586	588	588	590	591	591	592	592	594	594	593	593	593	593	585	585	584	584	582	582	581	581	576	576	577	577	578	578	579	579	580	580	581	587	587	585	585	586	586	587	587	589	589	588	588	588	588	586	586	585	585	584	584	584	584	590	590	593	593	593	594	594	594	594	593	593	592	592	592	592	593	593	591	591	591	591	589	589	589	589	589	597	595	595	595	592	592	590	590	590	590	594	594	596	596	605	605	605	0	0	0	0	0	0	0
505	505	505	506	506	505	505	505	505	505	506	506	506	506	506	508	508	508	510	510	512	512	515	515	515	515	515	516	516	516	514	514	507	507	506	506	509	509	509	516	516	524	518	521	521	521	523	523	523	523	522	522	522	522	522	522	522	522	522	519	519	514	514	516	516	518	518	521	521	521	522	522	522	522	524	524	526	526	527	527	529	529	526	526	525	525	528	528	530	530	530	530	530	531	531	532	532	532	532	533	533	534	534	537	537	539	539	537	537	531	531	531	531	534	534	536	536	537	537	533	533	536	536	532	532	533	533	538	538	538	534	534	538	538	537	537	538	538	538	538	539	539	539	539	539	539	539	539	539	539	536	536	536	536	533	534	534	533	533	534	534	538	538	539	539	542	542	543	543	545	545	542	542	543	543	543	542	542	541	541	539	539	538	538	539	539	541	541	544	544	545	545	545	544	544	543	543	543	543	543	543	543	543	540	540	540	540	541	540	540	543	543	544	544	542	542	538	538	538	538	539	539	544	544	548	549	549	551	551	550	550	549	549	548	548	543	543	542	542	541	541	540	540	538	538	540	548	548	550	558	558	558	559	559	560	560	560	560	560	560	559	559	560	560	559	559	557	557	552	552	551	551	551	552	552	556	556	560	560	561	561	562	562	560	560	556	556	555	555	554	554	556	556	559	559	561	561	562	562	563	563	564	564	565	565	566	566	567	567	567	568	568	568	568	562	562	567	567	569	569	570	570	570	570	568	568	567	567	567	567	566	566	571	571	571	571	572	572	571	571	569	569	562	562	560	560	557	557	569	569	563	563	567	567	571	571	574	574	575	575	577	577	578	578	578	578	577	577	571	571	566	565	565	564	564	570	570	572	572	581	581	583	583	583	583	583	583	580	580	576	576	572	572	570	570	576	576	579	579	581	581	580	580	580	580	568	568	581	581	579	579	579	583	583	584	584	585	585	585	585	585	585	584	584	578	578	580	580	585	585	573	573	573	573	575	573	573	571	571	563	563	564	564	565	565	567	567	572	572	571	571	571	571	572	573	573	575	575	578	578	583	583	585	585	587	587	585	585	583	583	582	576	576	574	574	583	583	572	572	585	585	586	586	587	587	587	587	588	588	588	587	587	592	592	588	588	590	590	592	592	593	593	594	595	595	594	594	594	594	593	593	592	592	592	592	593	593	593	593	596	590	590	583	583	583	583	583	583	577	577	582	582	583	583	586	586	588	588	590	591	591	592	592	594	594	593	593	593	593	585	585	584	584	582	582	581	581	576	576	577	577	578	578	579	579	580	580	581	587	587	585	585	586	586	587	587	589	589	588	588	588	588	586	586	585	585	584	584	584	584	590	590	590	593	593	594	594	594	594	593	593	592	592	592	592	593	593	591	591	591	591	589	589	589	589	589	589	588	588	588	588	588	590	590	591	591	593	593	592	592	586	586	586	0	0	0	0	0	0	0
505	505	505	506	506	505	505	505	505	505	506	506	506	506	506	508	504	504	504	504	505	505	505	505	505	509	509	508	508	505	505	505	502	502	503	503	504	504	504	512	512	518	518	521	521	523	523	523	523	523	522	522	522	522	522	522	522	522	522	519	519	514	514	516	516	518	518	521	521	521	522	522	522	522	524	518	521	521	522	522	524	524	522	522	517	517	514	514	515	515	515	516	516	517	517	520	520	524	524	522	522	524	524	532	532	533	533	529	529	524	524	526	526	522	522	527	527	529	529	527	527	525	525	526	526	529	529	531	532	532	531	531	532	532	533	533	534	534	534	534	534	534	531	531	527	527	528	528	532	532	532	532	533	533	531	530	530	529	529	531	531	535	535	536	536	538	538	538	538	539	539	535	535	537	538	538	536	536	535	535	535	535	535	535	536	536	538	538	539	539	540	539	539	538	538	538	538	538	538	538	538	543	543	540	540	540	540	541	540	540	543	543	544	544	542	542	538	538	538	538	539	539	544	544	548	548	549	551	551	550	550	549	549	548	548	543	543	542	542	541	541	540	540	538	538	540	548	548	550	550	551	551	548	548	553	553	554	554	554	554	554	554	553	553	552	552	551	551	550	550	549	549	549	551	551	552	552	554	554	556	556	556	556	555	555	549	549	553	553	553	553	553	553	555	555	556	556	557	557	558	558	559	559	561	561	561	561	562	562	562	562	562	561	561	558	558	554	554	555	555	561	561	562	562	563	563	562	562	563	563	561	561	561	561	565	565	565	565	564	564	562	562	560	560	554	554	551	551	551	551	552	552	556	556	564	564	567	567	569	569	570	570	571	571	567	567	565	565	564	564	562	560	560	560	560	559	559	559	559	560	560	571	571	570	570	568	568	569	569	565	565	567	567	568	568	569	569	573	573	574	574	568	568	568	568	568	568	574	575	575	570	570	576	576	577	577	578	578	579	579	578	578	578	578	577	577	575	575	573	573	573	573	573	573	575	573	573	571	571	563	563	564	564	565	565	567	567	572	572	571	571	571	571	572	573	573	575	575	578	578	583	583	585	585	587	587	585	585	583	583	582	576	576	574	574	583	572	572	572	579	579	580	580	582	582	582	582	582	582	582	582	582	584	584	585	585	584	584	585	585	586	586	587	587	587	587	587	586	586	586	586	586	586	582	582	568	568	568	568	566	575	575	577	577	578	578	579	579	577	577	576	576	578	578	580	580	582	582	584	585	585	590	590	592	592	590	590	584	584	578	578	576	576	574	574	573	573	574	574	576	576	577	577	578	578	578	578	578	577	577	580	580	582	582	585	585	586	586	586	586	586	586	585	585	580	580	579	579	578	578	584	584	584	585	585	585	585	584	584	582	582	569	569	578	578	583	583	586	586	585	585	585	585	586	586	586	586	586	588	588	588	588	590	590	591	591	593	593	592	592	586	586	586	0	0	0	0	0	0	0
489	489	489	500	500	502	502	502	502	502	502	502	502	502	502	504	504	504	504	504	505	505	505	505	505	509	509	508	508	505	505	505	502	502	503	503	504	504	504	512	512	514	514	518	518	520	520	520	521	521	515	515	509	509	507	507	507	509	509	508	508	509	509	509	509	513	513	514	514	514	515	515	517	517	518	518	521	521	522	522	524	524	522	522	517	517	514	514	515	515	516	516	516	517	517	520	520	524	524	522	522	524	524	532	532	533	533	529	529	524	524	526	526	522	522	527	527	529	529	527	527	525	525	526	526	529	529	531	532	532	531	531	532	532	533	533	534	534	534	534	534	534	531	531	527	527	528	528	532	532	532	532	533	533	531	530	530	529	529	531	531	535	535	536	536	538	538	538	538	539	539	535	535	537	538	538	536	536	535	535	535	535	535	535	536	536	538	538	539	539	540	539	539	538	538	538	538	538	538	538	538	538	538	539	539	538	538	537	533	533	533	533	525	525	536	536	535	535	533	533	532	532	534	534	541	541	545	544	544	544	544	543	543	542	542	541	541	540	540	539	539	535	535	534	534	534	537	537	543	543	537	537	536	536	553	553	554	554	554	554	554	554	553	553	552	552	551	551	550	550	549	549	549	551	551	552	552	554	554	556	556	556	556	555	555	549	549	553	553	553	553	553	553	555	555	556	556	557	557	558	558	559	559	561	561	561	561	562	562	562	562	562	561	561	558	558	554	554	555	555	561	561	562	562	563	563	562	562	563	563	561	561	561	561	565	565	565	565	564	564	562	562	560	560	554	554	551	551	551	551	552	552	556	556	564	564	567	567	569	569	570	570	571	571	567	567	565	565	564	564	562	560	560	560	560	559	559	559	559	560	560	571	571	570	570	568	568	569	569	565	565	567	567	568	568	569	569	573	573	574	574	568	568	568	568	568	568	574	575	575	570	570	576	576	577	577	578	578	579	579	578	578	578	578	577	577	570	570	568	568	565	565	565	570	570	569	569	561	561	561	561	561	561	563	563	566	566	568	568	569	569	568	568	568	568	568	568	568	567	567	569	569	575	575	572	572	572	572	575	575	574	574	574	572	572	572	572	572	572	579	579	580	580	582	582	582	582	582	582	582	582	582	584	584	585	585	584	584	585	585	586	586	587	587	587	587	587	586	586	586	586	586	586	582	582	568	568	568	568	566	575	575	577	577	578	578	579	579	577	577	576	576	578	578	580	580	582	582	584	585	585	590	590	592	592	590	590	584	584	578	578	576	576	574	574	573	573	574	574	576	576	577	577	578	578	578	578	578	578	577	580	580	582	582	585	585	586	586	586	586	586	586	585	585	580	580	579	579	578	578	584	584	584	585	585	585	585	584	584	582	582	569	569	578	578	583	583	586	586	585	585	585	585	586	586	586	586	586	586	586	585	585	584	584	584	584	585	585	584	584	584	584	584	0	0	0	0	0	0	0
489	489	489	500	500	502	502	502	502	502	502	502	502	502	502	504	504	500	499	499	501	501	503	503	503	503	503	497	497	498	498	498	499	499	501	501	501	501	501	504	504	514	514	518	518	520	520	520	521	521	515	515	509	509	507	507	507	509	509	508	508	509	509	509	509	513	513	514	514	514	515	515	517	509	509	509	504	504	507	507	501	501	509	509	506	506	508	508	508	508	509	509	509	510	510	511	511	512	512	512	512	512	512	514	514	516	516	518	518	521	521	522	522	520	520	520	520	520	520	517	517	519	519	519	519	514	514	520	523	523	524	524	526	526	526	526	528	528	528	528	530	530	520	520	516	516	519	519	525	525	527	527	528	528	527	527	527	528	528	529	529	529	529	532	532	518	518	527	527	531	531	533	533	533	532	532	526	526	526	526	528	528	528	528	530	530	531	531	537	537	537	526	526	525	525	528	528	530	530	531	531	532	532	533	533	532	538	537	533	533	533	533	525	525	536	536	535	535	533	533	532	532	534	534	541	541	545	544	544	544	544	543	543	542	542	541	541	540	540	539	539	535	535	534	534	534	534	537	543	543	537	537	536	536	537	537	542	542	547	547	547	547	542	542	541	541	546	546	545	545	545	545	545	546	546	546	546	549	549	549	549	549	549	548	548	548	548	548	548	549	549	550	550	551	551	551	551	551	551	553	553	554	554	555	555	556	556	557	557	557	557	557	555	555	553	553	549	549	548	548	549	549	552	552	555	555	556	556	556	556	557	557	555	555	557	557	551	551	553	553	553	553	551	551	551	551	549	549	547	547	546	546	553	553	552	552	557	557	560	560	559	559	558	558	554	554	564	564	562	560	560	559	559	558	558	558	558	554	554	558	558	560	560	562	562	563	563	564	564	562	562	560	560	561	561	563	563	566	566	567	567	562	562	561	561	565	565	566	567	567	568	568	567	567	567	567	567	567	572	572	572	572	572	572	571	571	570	570	568	568	565	565	565	570	570	569	569	561	561	561	561	561	561	563	563	566	566	568	568	569	569	568	568	568	568	568	568	568	567	567	569	569	575	575	572	572	572	572	575	575	574	570	570	567	567	566	566	571	571	573	573	576	576	576	576	578	578	578	579	579	569	569	579	579	578	578	579	579	580	580	583	583	550	576	576	572	572	572	572	570	570	568	568	565	565	564	564	565	566	566	569	569	573	573	575	575	575	575	575	575	574	574	575	575	575	575	575	575	568	563	563	570	570	564	564	564	564	568	568	571	571	572	572	569	569	568	568	573	573	573	573	574	574	574	574	575	575	575	575	574	577	577	579	579	580	580	582	582	582	582	580	580	579	579	578	578	577	577	576	576	576	575	575	571	571	571	571	569	569	569	569	569	569	569	569	571	571	573	573	579	579	578	578	580	580	581	581	581	581	581	585	585	584	584	584	584	585	585	584	584	584	584	584	0	0	0	0	0	0	0
479	479	479	486	486	497	497	497	496	496	498	498	498	498	498	500	500	499	499	499	501	501	503	503	503	503	503	497	497	498	498	498	499	499	501	501	501	501	501	504	504	494	494	495	495	491	491	491	492	492	498	498	501	501	502	502	502	502	502	504	504	505	505	506	506	503	503	504	504	504	504	504	509	509	509	509	504	504	507	507	501	501	509	509	506	506	508	508	508	508	509	509	509	510	510	511	511	512	512	512	512	512	512	514	514	516	516	518	518	521	521	522	522	520	520	520	520	520	520	517	517	519	519	519	519	514	514	520	523	523	524	524	526	526	526	526	528	528	528	528	530	530	520	520	516	516	519	519	525	525	527	527	528	528	527	527	527	528	528	529	529	529	529	532	532	518	518	527	527	531	531	533	533	533	532	532	526	526	526	526	528	528	528	528	530	530	531	531	537	537	537	537	526	525	525	528	528	530	530	531	531	532	532	533	533	532	532	532	532	530	527	527	525	525	527	527	530	530	530	530	530	530	529	529	528	528	534	528	528	529	529	531	531	535	535	535	535	535	535	534	534	532	532	532	532	530	530	531	535	535	535	535	530	530	533	533	537	537	542	547	547	547	542	542	541	541	546	546	545	545	545	545	545	546	546	546	546	549	549	549	549	549	549	548	548	548	548	548	548	549	549	550	550	551	551	551	551	551	551	553	553	554	554	555	555	556	556	557	557	557	557	557	555	555	553	553	549	549	548	548	549	549	552	552	555	555	556	556	556	556	557	557	555	555	557	557	551	551	553	553	553	553	551	551	551	551	549	549	547	547	546	546	553	553	552	552	557	557	560	560	559	559	558	558	554	554	564	564	562	560	560	559	559	558	558	558	558	554	554	558	558	560	560	562	562	563	563	564	564	562	562	560	560	561	561	563	563	566	566	567	567	562	562	561	561	565	565	566	567	567	568	568	567	567	567	567	567	567	572	572	572	566	566	566	564	564	563	563	563	563	563	563	561	562	562	558	558	557	557	559	559	559	559	561	561	563	563	566	566	567	567	567	566	566	566	566	566	566	566	566	565	565	565	565	566	566	573	573	572	572	571	570	570	567	567	566	566	571	571	573	573	576	576	576	576	578	578	578	579	579	569	569	579	579	578	578	579	579	580	580	583	583	550	576	576	572	572	572	572	570	570	568	568	565	565	564	564	565	566	566	569	569	573	573	575	575	575	575	575	575	574	574	575	575	575	575	575	568	568	563	560	560	560	560	560	560	560	560	560	562	562	562	562	564	564	565	565	567	567	573	573	574	574	574	574	575	575	575	575	574	577	577	579	579	580	580	582	582	582	582	580	580	579	579	578	578	577	577	577	576	576	575	575	571	571	571	571	569	569	569	569	569	569	569	569	571	571	573	573	579	579	578	578	580	580	581	581	581	581	581	579	579	578	578	574	574	563	563	572	572	572	580	580	0	0	0	0	0	0	0
479	479	479	486	486	497	497	497	496	496	498	498	498	498	498	500	500	496	496	496	497	497	498	498	498	496	496	494	494	494	494	494	495	495	496	496	496	496	496	495	495	494	494	495	495	491	491	491	492	492	498	498	501	501	502	502	502	502	502	504	504	505	505	506	506	503	503	504	504	504	504	504	503	503	502	502	500	500	500	500	501	501	502	502	505	505	506	506	507	507	508	508	509	509	509	508	508	511	511	509	509	509	509	511	511	514	514	515	515	518	518	517	517	517	517	510	510	515	515	514	514	513	513	507	507	507	511	511	511	511	519	519	518	518	519	519	509	509	512	512	508	508	508	508	511	511	514	514	519	519	520	520	522	522	522	522	522	523	523	524	524	523	523	523	523	518	518	518	518	526	526	527	527	527	526	526	520	520	518	518	520	520	521	521	520	520	518	518	517	517	517	517	517	518	518	518	518	519	519	519	519	525	525	524	524	526	526	522	522	523	523	527	525	525	527	527	530	530	530	530	530	530	529	529	528	528	534	528	528	529	529	531	531	535	535	535	535	535	535	534	534	532	532	532	532	530	530	531	535	535	535	535	530	530	533	533	537	537	542	542	541	541	536	536	534	534	538	538	540	540	540	540	540	540	541	542	542	542	542	543	543	536	536	540	540	539	539	538	538	542	542	543	543	544	544	545	545	545	545	546	546	548	548	550	550	551	551	551	551	551	551	550	548	548	547	547	542	542	544	544	547	547	549	549	550	550	551	551	551	551	550	550	547	547	544	544	541	541	542	542	544	544	547	547	546	546	544	544	544	544	544	544	546	546	548	548	548	548	547	547	546	546	545	545	540	540	558	558	559	555	555	555	555	553	553	553	553	553	553	552	552	552	552	552	552	556	556	555	555	553	553	550	550	549	549	558	558	560	560	561	561	560	560	559	559	557	555	555	552	552	556	556	558	558	562	562	565	565	566	566	566	566	566	566	564	564	563	563	563	563	563	563	561	562	562	558	558	557	557	559	559	559	559	561	561	563	563	566	566	567	567	567	566	566	566	566	566	566	566	566	565	565	565	565	566	566	565	565	568	567	567	560	560	562	562	562	562	565	565	567	567	570	570	571	571	566	553	553	552	552	552	552	552	552	560	560	574	574	577	577	548	550	550	551	551	559	559	561	561	561	561	560	560	561	561	562	562	563	564	564	566	566	568	568	570	570	570	570	571	571	570	570	570	570	568	568	565	561	561	560	560	560	560	560	560	560	560	560	560	562	562	562	562	564	564	565	565	567	567	568	568	569	569	570	570	570	570	569	569	569	569	569	568	568	575	575	575	575	577	577	575	575	574	574	573	573	571	571	571	570	570	566	566	564	564	563	563	564	564	564	564	566	566	564	564	565	565	567	567	566	566	565	565	569	569	569	569	569	573	573	575	579	578	578	574	574	563	563	572	572	572	580	580	0	0	0	0	0	0	0
476	476	476	478	478	483	483	483	487	487	491	491	492	492	492	495	495	496	496	496	497	497	498	498	498	496	496	494	494	494	494	494	495	495	496	496	496	496	495	495	495	492	492	491	491	491	491	491	492	492	495	495	499	499	500	500	501	501	501	502	502	501	501	502	502	501	501	500	500	502	502	502	503	503	502	502	500	500	500	500	501	501	502	502	505	505	506	506	507	507	508	508	509	509	509	508	508	511	511	509	509	509	509	511	511	514	514	515	515	518	518	517	517	517	517	510	510	515	515	514	514	513	513	507	507	507	511	511	511	511	519	519	518	518	519	519	509	509	512	512	508	508	508	508	511	511	514	514	519	519	520	520	522	522	522	522	522	523	523	524	524	523	523	523	523	518	518	518	518	526	526	527	527	527	527	526	520	520	518	518	520	520	521	521	520	520	518	518	517	517	517	517	517	518	518	518	518	519	519	519	519	525	525	524	524	526	526	522	522	523	523	523	523	523	524	524	525	525	525	525	525	525	524	524	523	523	521	521	521	522	522	522	522	525	525	529	529	529	529	528	528	527	527	526	526	525	525	526	526	526	526	526	528	528	526	526	531	531	538	538	537	537	523	523	534	534	538	538	540	540	540	540	540	540	541	542	542	542	542	543	543	536	536	540	540	539	539	538	538	542	542	543	543	544	544	545	545	545	545	546	546	548	548	550	550	551	551	551	551	551	551	550	550	548	547	547	542	542	544	544	547	547	549	549	550	550	551	551	551	551	550	550	547	547	544	544	541	541	542	542	544	544	547	547	546	546	544	544	544	544	544	544	546	546	548	548	548	548	547	547	546	546	545	545	540	540	558	558	559	555	555	555	555	553	553	553	553	553	553	552	552	552	552	552	552	556	556	555	555	553	553	550	550	549	549	558	558	560	560	561	561	560	560	559	559	557	555	555	552	552	556	556	558	558	562	557	559	559	561	561	562	562	563	563	555	555	549	549	550	550	554	552	552	551	551	551	551	552	552	553	553	554	554	553	553	551	551	557	557	556	556	560	561	561	561	561	561	561	561	561	562	562	563	563	564	564	565	565	568	567	567	560	560	562	562	562	562	565	565	567	567	570	570	571	571	566	553	553	552	552	552	552	552	552	560	560	574	574	577	577	548	550	550	551	551	559	559	561	561	561	561	560	560	561	561	562	562	563	564	564	566	566	568	568	570	560	563	563	561	561	566	566	567	567	560	560	556	556	556	556	556	558	558	558	558	558	558	558	558	559	559	559	559	559	559	559	559	554	554	561	561	561	561	562	562	565	565	564	564	555	555	569	568	568	575	575	575	575	577	577	575	575	574	574	573	573	573	571	571	570	570	566	566	564	564	563	563	564	564	564	564	566	566	564	564	565	565	567	567	566	566	565	565	569	569	569	569	569	573	573	575	575	575	575	560	560	556	556	557	557	557	569	569	0	0	0	0	0	0	0
476	476	476	478	478	483	483	483	487	487	491	491	492	492	492	495	495	491	491	491	494	494	494	494	494	494	494	492	492	491	491	491	491	491	492	492	493	493	493	493	493	492	492	491	491	491	491	492	492	492	495	495	499	499	500	500	501	501	501	502	502	501	501	502	502	501	501	500	500	502	498	498	499	499	499	499	499	499	498	498	500	500	500	500	501	501	501	501	501	501	501	501	502	502	502	502	502	505	505	504	504	506	506	509	509	512	512	514	514	514	514	504	504	495	495	498	498	502	502	502	502	505	505	502	502	500	499	499	493	493	502	502	515	515	509	509	504	504	503	503	502	502	503	503	502	502	507	507	508	508	507	507	510	510	515	517	517	518	518	518	518	517	517	513	513	514	514	515	515	518	518	521	521	521	521	520	518	518	517	517	517	517	518	518	518	518	514	514	512	512	514	514	515	516	516	515	515	517	517	517	517	510	510	511	511	512	512	515	515	518	519	519	519	519	520	520	520	525	525	525	525	525	524	524	523	523	521	521	521	522	522	522	522	525	525	529	529	529	529	528	528	527	527	526	526	525	525	526	526	526	526	526	528	528	526	526	531	531	538	538	537	537	523	523	529	529	529	529	533	533	535	535	535	535	534	535	535	536	536	536	536	536	536	535	535	536	536	530	530	529	529	530	530	532	532	534	534	538	538	538	538	537	537	543	543	544	544	545	545	544	544	533	533	532	539	539	537	537	539	539	541	541	543	543	545	545	545	545	545	545	543	543	538	538	536	536	537	537	535	535	540	540	535	535	539	539	539	539	540	540	541	541	542	542	542	542	542	542	544	544	539	539	539	539	537	537	537	542	542	547	547	549	549	549	549	549	549	549	549	549	549	546	546	543	543	542	542	541	541	542	542	546	546	549	549	553	553	555	555	556	556	554	554	553	553	548	546	546	546	546	547	547	554	554	557	557	559	559	561	561	562	562	563	563	555	555	549	549	550	550	554	552	552	551	551	551	551	552	552	553	553	554	554	553	553	551	551	557	557	556	556	560	561	561	561	561	561	561	561	561	562	545	555	555	554	554	550	550	545	545	545	548	548	554	554	556	556	554	554	559	559	553	553	549	549	549	549	549	548	548	549	549	549	549	550	550	551	551	543	543	546	548	548	550	550	555	555	559	559	560	560	559	559	558	558	558	558	559	560	560	560	560	561	561	560	560	563	563	561	561	566	566	567	567	560	560	556	556	556	556	556	558	558	558	558	558	558	558	558	559	559	559	559	559	559	559	559	554	554	561	561	561	561	562	562	565	565	564	564	555	555	553	557	557	553	553	552	552	558	558	564	564	571	571	571	564	564	566	566	565	565	564	564	562	562	562	562	561	561	561	561	561	561	560	560	558	558	557	557	559	559	563	563	557	557	557	557	557	558	558	561	561	575	575	560	560	556	556	556	557	557	569	569	0	0	0	0	0	0	0
