2075	2054	2054	2038	2028	2010	2016	2016	2046	2076	2083	2083	2085	2085	2083	2101	2094	2091	2113	2113	2132	2154	2140	2126	2138	2149	2149	2148	2157	2179	2202	2208	2172	2133	2133	2127	2139	2167	2172	2167	2148	2125	2104	2104	2099	2111	2115	2075	2087	2109	2129	2117	2110	2104	2104	2097	2116	2145	2163	2166	2181	2188	2180	2155	2142	2151	2165	2174	2158	2148	2144	2144	2156	2190	2190	2174	2152	2153	2161	2167	2190	2207	2229	2241	2242	2240	2249	2241	2253	2240	2226	2192	2214	2231	2214	2208	2214	2248	2267	2278	2283	2257	2248	2233	2246	2235	2238	2247	2246	2240	2247	2318	2331	2350	2341	2328	2305	2296	2310	2342	2323	2306	2293	2293	2244	2246	2241	2242	2248	2255	2255	2252	2250	2252	2235	2248	2261	2259	2262	2238	2223	2242	2283	2292	2266	2247	2264	2337	2353	2369	2385	2377	2341	2311	2294	2295	2304	2314	2319	2322	2322	2334	2359	2391	2444	2437	2428	2405	2394	2353	2341	2336	2369	2355	2336	2319	2133	1775	1589	1554	1526	1485	1452	1491	1516	1524	1492	1483	1485	1491	1497	1498	1505	1495	1479	1470	1471	1477	1481	1487	1487	1483	1491	1502	1500	1492	1480	1469	1444	1431	1436	1447	1454	1456	1470	1471	1466	1456	1454	1467	1500	1483	1482	1517	1525	1501	1478	1474	1488	1489	1487	1492	1518	1565	1601	1621	1623	1628	1634	1640	1645	1652	1677	1723	1787	1857	1907	1942	1944	1934	1936	1926	1931	1938	1948	1949	1947	1955	1942	1933	1940	1883	1847	1836	1895	1935	1970	2017	2060	2088	2098	2092	2094	2113	2256	2340	2371	2383	2382	2409	2446	2424	2375	2342	2354	2423	2455	2484	2502	2554	2615	2672	2728	2766	2792	2772	2764	2802	2835	2846	2828	2837	2853	2862	2852	2853	2842	2804	2746	2710	2629	2485	2366	1709	1516	1478	1484	1493	1489	1487	1478	1466	1462	1485	1488	1505	1511	1511	1510	1507	1519	1523	1520	1518	1507	1499	1490	1479	1483	1487	1482	1495	1499	1491	1500	1498	1498	1497	1494	1491	1494	1502	1500	1494	1504	1477	1488	1511	1512	1507	1492	1499	1492	1484	1507	1499	1499	1498	1521	1513	1470	1471	1501	1510	1502	1495	1482	1478	1487	1499	1497	1499	1504	1501	1499	1490	1491	1507	1491	1480	1527	1529	1491	1479	1553	1778	2350	2855	2914	2943	2972	2953	2937	2932	2921	2942	3001	3074	3081	3046	3004	2997	3037	3057	3115	3122	3108	3081	2975	2947	2930	2920	2908	2867	2741	0	0	0	0	0	0	2081	2204	2386	2456	2459	2357	2288	2279	2339	2160	0	0	0	0	0	0	0	0	1687	1704	1736	1797	1867	1866	1855	1914	1938	1919	1803	1851	1868	1890	1899	1883	1879	1805	1802	1707	1753	1547	1494	1501	1507	1491	1470	1459	1471	1487	1480	1429	1384	1366	1432	1432	1443	1492	1511	1490	1470	1463	1470	1450	1446	1451	1470	1468	1467	1465	1472	1470	1464	1465	1469	1475	1483	1492	1497	1494	1483	1469	1445	1434	1421	1422	1428	1442	1456	1463	1461	1463	1472	1488	1486	1484	1477	1469	1467	1452	1444	1483	1529	1546	1597	1703	2001	2762	3041	3206	3332	3419	3483	3497	3477	3403	3142	2986	2888	2800	2762	2763	2801	2779	2773	2771	2776	2784	2796	2813	2860	2914	2933	2950	2947	2968	2968	2962	2925	2928	2914	2894	2877	2855	2824	2805	2751	2475	2394	2310	2250	2191	2161	2155	2171	2208	2212	2215	2195	2169	2143	2125	2120	2133	2127	2137	2156	2126	2109	2023	2012	2010	2050	2037	2018	2039	2063	2089	2086	2071	2025	2009	2008	1986	1983	1982	1982	1993	2004	2002	1988	1983	1969	1954	1942	1929	1914	1898	1891	1892	1888	1889	0	0	0	0	0	0	0	0	0
2051	2028	2028	2009	1996	1988	2010	2010	2031	2050	2042	2015	2011	2011	2021	2046	2059	2071	2079	2079	2110	2121	2137	2129	2096	2075	2075	2061	2082	2122	2178	2166	2140	2108	2108	2095	2121	2127	2114	2118	2116	2104	2084	2068	2061	2045	2046	2047	2059	2073	2064	2072	2072	2066	2063	2063	2074	2072	2107	2122	2150	2162	2153	2123	2108	2107	2119	2129	2116	2097	2091	2091	2094	2107	2117	2125	2118	2121	2137	2132	2133	2141	2154	2183	2190	2171	2153	2123	2106	2145	2150	2149	2166	2185	2169	2172	2169	2209	2239	2221	2199	2188	2190	2179	2166	2171	2186	2210	2216	2181	2179	2198	2220	2229	2232	2228	2216	2202	2190	2237	2243	2238	2240	2223	2176	2187	2186	2186	2195	2204	2206	2213	2208	2206	2197	2193	2195	2198	2193	2148	2169	2188	2199	2197	2186	2184	2222	2235	2232	2255	2252	2236	2227	2270	2261	2257	2264	2281	2283	2276	2279	2284	2239	2252	2304	2379	2386	2379	2359	2330	2301	2284	2267	2253	2259	2249	2106	1806	1554	1540	1528	1487	1464	1494	1513	1522	1508	1494	1488	1486	1474	1465	1463	1474	1472	1479	1485	1487	1495	1494	1490	1485	1489	1496	1496	1490	1480	1462	1428	1414	1434	1454	1463	1485	1489	1483	1475	1456	1453	1467	1511	1497	1500	1505	1540	1531	1492	1502	1494	1482	1474	1468	1493	1524	1553	1578	1598	1622	1624	1626	1615	1627	1673	1735	1801	1877	1926	1964	1965	1954	1938	1946	1940	1940	1945	1927	1935	1955	1957	1950	1939	1865	1842	1836	1925	1959	1990	2015	2051	2076	2082	2080	2092	2119	2261	2307	2348	2362	2374	2407	2416	2417	2343	2313	2315	2376	2389	2388	2453	2526	2591	2636	2670	2700	2741	2713	2686	2712	2726	2731	2743	2771	2771	2759	2803	2790	2785	2774	2708	2649	2578	2406	2261	1740	1528	1496	1496	1494	1492	1507	1491	1481	1468	1474	1482	1498	1508	1505	1499	1505	1513	1513	1512	1510	1500	1487	1480	1477	1484	1492	1486	1485	1494	1498	1516	1511	1508	1504	1500	1487	1490	1496	1503	1499	1501	1497	1493	1507	1511	1499	1492	1490	1480	1482	1503	1497	1493	1521	1517	1488	1459	1475	1496	1486	1487	1482	1481	1477	1480	1496	1496	1506	1510	1508	1470	1483	1486	1493	1487	1476	1513	1527	1494	1492	1582	1856	2515	2925	3090	3120	3128	3110	3076	3059	3051	3073	3126	3170	3220	3198	3160	3154	3178	3235	3236	3212	3218	3242	3232	3233	3200	3199	3199	3109	3148	0	0	0	0	0	0	2206	2315	2484	2487	2478	2467	2467	2434	2403	2243	0	0	0	0	0	0	0	0	1748	1778	1791	1858	1916	1884	1884	1955	1958	1964	1884	1900	1912	1917	1917	1915	1916	1921	1896	1825	1604	1540	1469	1444	1418	1437	1475	1501	1523	1517	1488	1442	1387	1364	1379	1425	1437	1483	1488	1470	1438	1445	1457	1427	1427	1442	1462	1477	1480	1482	1497	1481	1471	1473	1472	1472	1482	1499	1516	1518	1503	1477	1455	1427	1418	1438	1443	1451	1459	1462	1461	1464	1471	1478	1468	1480	1488	1486	1451	1438	1442	1473	1501	1546	1593	1716	1980	2817	3073	3236	3356	3436	3491	3476	3478	3408	3103	2951	2861	2792	2753	2769	2780	2772	2757	2765	2760	2773	2786	2794	2818	2890	2930	2945	2953	2965	2966	2959	2933	2924	2911	2919	2922	2903	2872	2839	2766	2508	2394	2308	2252	2222	2214	2195	2207	2211	2199	2195	2182	2166	2156	2145	2152	2159	2168	2164	2156	2163	2116	2006	1892	1897	2012	2044	2003	2023	2058	2077	2073	2051	2006	2013	2027	2027	2017	2005	2005	2003	2006	2010	2008	1997	1986	1973	1963	1944	1923	1902	1885	1875	1877	1881	0	0	0	0	0	0	0	0	0
2022	2002	2002	1973	1950	1948	1969	1969	1986	1991	1976	1964	1959	1959	1976	2004	2024	2043	2048	2048	2070	2093	2092	2053	2017	1997	1997	1990	2011	2048	2090	2111	2098	2085	2085	2084	2097	2087	2087	2096	2067	2059	2042	2042	2026	2019	2020	2024	2024	2009	1991	2003	2021	2037	2045	2045	2057	2061	2066	2067	2080	2075	2081	2070	2072	2073	2086	2083	2073	2065	2060	2060	2065	2070	2082	2097	2100	2110	2112	2114	2106	2109	2115	2126	2121	2110	2083	2065	2057	2070	2084	2098	2106	2128	2111	2106	2100	2132	2140	2118	2099	2088	2124	2130	2124	2129	2153	2169	2138	2108	2103	2121	2147	2164	2165	2163	2137	2124	2145	2167	2195	2189	2162	2136	2116	2126	2138	2139	2151	2167	2173	2158	2150	2140	2113	2101	2103	2094	2093	2092	2121	2141	2170	2175	2143	2150	2183	2187	2199	2189	2190	2169	2173	2164	2137	2120	2134	2140	2218	2197	2197	2194	2127	2142	2162	2193	2221	2239	2263	2248	2229	2214	2184	2167	2189	2191	2084	1971	1540	1534	1527	1503	1482	1494	1501	1508	1500	1497	1488	1477	1466	1454	1447	1453	1481	1500	1508	1514	1511	1505	1501	1487	1479	1481	1481	1483	1479	1472	1447	1434	1443	1450	1469	1492	1500	1498	1485	1469	1467	1458	1475	1485	1489	1487	1542	1531	1513	1535	1501	1496	1487	1484	1486	1496	1517	1533	1570	1607	1612	1581	1572	1588	1665	1734	1804	1886	1934	1976	1978	1965	1951	1947	1944	1936	1929	1916	1919	1954	1955	1950	1932	1856	1852	1857	1954	1968	1987	2002	2024	2051	2060	2062	2070	2104	2236	2313	2343	2354	2369	2381	2404	2421	2370	2304	2305	2329	2352	2403	2460	2514	2546	2554	2519	2523	2569	2593	2574	2595	2599	2627	2664	2617	2648	2619	2612	2591	2616	2677	2632	2581	2506	2275	2083	1764	1525	1498	1499	1503	1505	1520	1525	1502	1486	1471	1475	1497	1500	1494	1492	1497	1501	1498	1502	1500	1493	1486	1482	1477	1484	1493	1508	1496	1499	1505	1520	1519	1529	1519	1493	1481	1488	1493	1501	1501	1488	1488	1490	1492	1497	1494	1494	1490	1492	1489	1503	1500	1498	1519	1511	1487	1489	1483	1489	1488	1495	1482	1483	1482	1476	1483	1493	1509	1491	1484	1495	1488	1492	1486	1467	1459	1496	1511	1491	1491	1600	1908	2551	2879	3076	3141	3135	3113	3079	3079	3063	3088	3155	3239	3289	3270	3215	3175	3152	3143	3147	3139	3161	3181	3281	3352	3349	3315	3120	3155	3147	3034	0	0	0	0	0	2281	2346	2488	2500	2490	2486	2493	2490	2434	2248	0	0	0	0	0	0	0	0	1851	1836	1848	1902	1940	1896	1894	1978	1981	1976	1919	1917	1922	1928	1926	1928	1929	1946	1950	1870	1640	1578	1490	1450	1427	1426	1455	1502	1528	1528	1488	1442	1401	1383	1395	1433	1452	1464	1466	1463	1465	1462	1458	1438	1419	1447	1459	1483	1484	1484	1481	1473	1476	1474	1470	1467	1479	1495	1517	1530	1518	1491	1461	1428	1422	1446	1474	1473	1469	1461	1455	1447	1453	1458	1458	1473	1477	1475	1460	1458	1462	1461	1485	1543	1593	1817	1999	2520	3049	3246	3361	3450	3491	3465	3453	3408	3099	2935	2837	2796	2781	2773	2777	2772	2790	2775	2773	2784	2786	2786	2787	2870	2918	2941	2958	2964	2954	2930	2925	2925	2926	2930	2939	2921	2882	2842	2774	2520	2402	2328	2286	2268	2268	2252	2236	2218	2192	2182	2177	2174	2172	2183	2196	2195	2186	2178	2161	2159	2109	1994	1879	1878	2002	2041	2016	2011	2036	2050	2047	2035	2008	2022	2034	2040	2031	2031	2020	2012	2005	2001	2000	2003	2003	2006	1995	1972	1936	1901	1886	1881	1880	1875	0	0	0	0	0	0	0	0	0
1980	1957	1957	1929	1907	1913	1925	1925	1946	1958	1937	1922	1920	1920	1928	1966	1993	2014	2021	2010	2010	2013	2016	1997	1976	1955	1955	1944	1960	1988	2011	2046	2052	2073	2073	2096	2093	2072	2011	1992	2027	2021	1991	1991	1974	1969	1981	1993	1989	1981	1990	1996	2000	2004	2019	2019	2032	2046	2053	2049	2042	2021	2009	2018	2027	2040	2042	2036	2033	2028	2029	2029	2029	2032	2045	2067	2085	2094	2093	2085	2078	2083	2086	2076	2060	2043	2038	2025	2022	2017	2042	2047	2042	2038	2045	2051	2070	2081	2080	2058	2035	2049	2078	2097	2094	2094	2067	2071	2056	2051	2041	2038	2065	2089	2114	2125	2099	2102	2099	2104	2135	2122	2097	2063	2051	2058	2077	2090	2099	2117	2119	2091	2076	2077	2074	2081	2079	2082	2078	2076	2073	2095	2114	2122	2115	2125	2158	2145	2145	2132	2134	2094	2081	2073	2058	2049	2077	2091	2099	2084	2070	2056	2034	2078	2105	2138	2156	2169	2201	2202	2182	2169	2161	2153	2143	2131	2031	1933	1539	1519	1513	1503	1492	1492	1493	1483	1486	1482	1483	1481	1476	1468	1454	1462	1500	1519	1527	1529	1519	1510	1501	1492	1468	1452	1466	1472	1480	1488	1480	1470	1460	1460	1467	1474	1500	1502	1490	1478	1475	1483	1488	1483	1482	1471	1519	1525	1519	1549	1516	1516	1514	1507	1499	1501	1506	1517	1567	1597	1591	1562	1563	1576	1621	1726	1825	1884	1932	1962	1973	1949	1942	1941	1939	1934	1929	1919	1925	1966	1963	1933	1896	1876	1876	1867	1965	1969	1979	1987	2003	2022	2042	2044	2056	2101	2241	2322	2344	2337	2351	2360	2382	2398	2368	2324	2311	2335	2380	2427	2455	2474	2475	2447	2426	2418	2427	2428	2421	2453	2501	2514	2516	2497	2476	2474	2471	2468	2465	2462	2459	2470	2453	2241	1997	1792	1519	1503	1509	1507	1520	1533	1540	1530	1493	1478	1474	1493	1495	1494	1489	1489	1493	1493	1497	1497	1493	1491	1483	1482	1487	1493	1502	1504	1495	1498	1517	1546	1545	1534	1505	1487	1474	1480	1499	1505	1502	1484	1487	1492	1487	1491	1493	1494	1493	1507	1522	1519	1516	1518	1500	1501	1508	1489	1488	1500	1499	1493	1488	1491	1485	1490	1495	1508	1484	1482	1499	1487	1482	1452	1442	1447	1476	1490	1478	1488	1606	1937	2559	2807	2944	3022	2978	2939	2936	2947	2921	2931	3016	3132	3216	3215	3164	3113	3092	3048	3042	3034	3048	3103	3125	3168	2984	3012	3027	3015	3036	2983	2793	0	0	0	0	2322	2374	2474	2490	2495	2504	2507	2500	2450	2190	0	0	0	0	0	0	0	0	0	1904	1887	1906	1922	1916	1900	1983	1976	1985	1947	1929	1926	1934	1937	1939	1942	1942	1935	1883	1723	1614	1536	1492	1452	1441	1456	1503	1531	1520	1478	1436	1405	1405	1427	1455	1461	1427	1451	1464	1475	1473	1498	1443	1424	1449	1472	1482	1471	1468	1463	1473	1476	1472	1469	1470	1479	1500	1511	1530	1525	1504	1472	1447	1435	1462	1474	1480	1475	1469	1457	1449	1457	1457	1451	1457	1474	1478	1473	1482	1480	1472	1477	1527	1563	1788	2052	2601	3017	3233	3366	3474	3490	3494	3454	3372	3115	2897	2823	2791	2810	2820	2779	2795	2815	2778	2773	2755	2779	2820	2807	2857	2899	2927	2952	2962	2945	2919	2923	2936	2948	2953	2943	2917	2879	2851	2818	2549	2426	2376	2341	2347	2339	2320	2291	2268	2240	2184	2219	2207	2196	2210	2230	2237	2214	2198	2176	2124	2102	2024	1924	1921	2015	2057	2030	2028	2044	2041	2036	2028	2028	2035	2046	2047	2034	2034	2026	2016	1998	1986	1984	1992	2004	2004	1991	1969	1941	1915	1900	1896	1892	1886	0	0	0	0	0	0	0	0	0
1904	1908	1908	1893	1891	1898	1917	1932	1932	1938	1913	1890	1885	1885	1896	1917	1936	1970	1972	1962	1962	1957	1959	1960	1936	1919	1914	1914	1929	1941	1964	1970	1999	2039	2039	2061	1987	1958	1935	1935	1971	1975	1961	1961	1954	1965	1985	1999	1996	1992	1988	1985	1975	1969	1980	1980	2001	2021	2024	2021	2004	1995	1990	1997	2009	2027	1997	1987	1999	1997	2007	2007	2004	1997	1997	2010	2038	2046	2050	2043	2032	2028	2023	2018	2013	2005	2004	1995	1992	1983	2001	2006	2008	2005	2012	2027	2041	2040	2027	2010	1999	2012	2032	2064	2060	2033	2016	2009	2014	2001	1984	1971	1992	2029	2086	2102	2078	2049	2031	2013	2045	2033	2005	1990	1981	2022	2049	2065	2086	2082	2060	2028	2017	2024	2047	2066	2075	2080	2077	2073	2049	2058	2079	2085	2083	2067	2046	2049	2055	2068	2060	2029	2015	2013	2006	2006	2020	2030	2038	2039	2025	2028	2027	2009	2032	2035	2032	2040	2138	2146	2155	2154	2152	2142	2119	2104	1961	1827	1540	1501	1494	1500	1497	1492	1490	1485	1487	1488	1484	1484	1480	1478	1463	1467	1499	1520	1524	1522	1508	1499	1492	1483	1467	1451	1459	1481	1490	1509	1518	1488	1471	1472	1467	1470	1485	1493	1484	1476	1477	1493	1502	1477	1473	1460	1498	1523	1512	1516	1523	1530	1527	1527	1525	1522	1526	1526	1565	1583	1591	1586	1588	1599	1621	1700	1824	1881	1926	1959	1954	1940	1934	1922	1936	1936	1933	1921	1923	1956	1961	1921	1919	1892	1890	1880	1964	1973	1976	1985	1999	2020	2036	2042	2064	2125	2277	2332	2330	2317	2310	2326	2339	2358	2340	2310	2305	2328	2367	2389	2391	2399	2389	2376	2369	2361	2366	2358	2349	2343	2370	2440	2458	2444	2415	2418	2413	2392	2383	2359	2364	2389	2383	2181	1980	1808	1524	1526	1522	1514	1511	1528	1548	1535	1493	1487	1479	1487	1488	1492	1489	1488	1486	1493	1498	1498	1500	1496	1493	1501	1511	1503	1499	1510	1513	1510	1513	1521	1515	1523	1512	1514	1489	1480	1479	1503	1502	1484	1481	1486	1487	1487	1493	1487	1485	1489	1497	1524	1504	1496	1510	1494	1477	1478	1485	1499	1498	1494	1498	1497	1493	1492	1489	1519	1477	1476	1496	1502	1507	1471	1444	1458	1477	1475	1467	1485	1606	1933	2484	2721	2827	2849	2825	2824	2815	2821	2824	2843	2855	2902	3031	3071	3077	3069	3038	2985	2957	2955	2929	2892	2916	2822	2878	2920	2957	2937	2894	2800	2723	2610	0	0	0	2381	2425	2463	2485	2492	2508	2518	2514	2457	2192	0	0	0	0	0	0	0	0	1958	1931	1907	1884	1935	1943	1913	1959	1982	1986	1989	1955	1944	1945	1950	1947	1934	1917	1895	1876	1738	1598	1566	1535	1490	1461	1474	1499	1533	1516	1482	1444	1416	1410	1445	1470	1478	1415	1440	1478	1484	1482	1506	1459	1438	1453	1472	1466	1453	1442	1446	1466	1472	1473	1475	1484	1493	1502	1510	1510	1508	1486	1481	1470	1459	1457	1464	1474	1478	1473	1463	1460	1464	1460	1456	1463	1474	1480	1485	1501	1489	1460	1460	1493	1539	1726	2097	2562	2993	3230	3403	3489	3490	3499	3440	3369	2978	2893	2828	2799	2788	2797	2798	2804	2832	2795	2754	2746	2774	2842	2886	2873	2886	2883	2912	2940	2938	2916	2930	2952	2964	2958	2935	2906	2876	2853	2838	2792	2547	2442	2410	2416	2427	2417	2381	2348	2339	2332	2322	2311	2317	2322	2339	2322	2234	2178	2157	2150	2231	2113	2002	1999	2084	2096	2058	2060	2059	2049	2041	2035	2037	2044	2044	2037	2028	2028	2022	2014	1995	1976	1975	1981	1993	1994	1981	1966	1946	1929	1923	1918	1906	1896	0	0	0	0	0	0	0	0	0
1854	1855	1855	1848	1866	1877	1907	1916	1916	1909	1890	1869	1867	1867	1883	1899	1911	1919	1925	1916	1916	1910	1908	1903	1908	1890	1885	1885	1898	1913	1932	1943	1962	1955	1929	1921	1926	1910	1915	1921	1931	1936	1936	1944	1944	1960	1991	2007	1998	1984	1962	1959	1951	1946	1954	1954	1966	1983	1987	1984	1978	1977	1977	1978	1976	1979	1975	1958	1970	1973	1982	1982	1977	1973	1967	1970	1995	2005	2001	1999	1998	1993	1991	1972	1965	1967	1971	1977	1973	1968	1970	1972	1976	1988	2002	2013	2014	2017	2002	1990	1990	2002	2012	2016	2003	1983	1971	1958	1953	1942	1931	1938	1964	1986	2009	2042	2029	1995	1977	1960	1946	1936	1917	1909	1922	1990	2038	2061	2068	1997	1981	1972	1984	1975	1983	1995	2004	2006	2038	2016	2014	2030	2046	2054	2051	2028	2005	2013	2036	2033	2005	1973	1961	1974	1973	1971	1981	1988	1994	2000	2005	2011	2011	1985	1975	1971	1977	1994	2020	2036	2050	2062	2136	2123	2096	2068	2014	1783	1546	1487	1485	1495	1499	1491	1487	1481	1489	1499	1496	1491	1490	1488	1487	1486	1491	1502	1509	1501	1481	1482	1477	1472	1472	1473	1481	1498	1512	1526	1530	1489	1472	1466	1470	1466	1469	1471	1468	1468	1473	1496	1514	1479	1475	1466	1489	1516	1499	1504	1526	1535	1535	1537	1542	1540	1538	1544	1551	1582	1594	1599	1600	1614	1650	1690	1841	1880	1916	1937	1944	1930	1926	1920	1932	1944	1934	1914	1911	1942	1940	1891	1904	1869	1870	1868	1945	1959	1977	1997	2009	2021	2036	2044	2062	2179	2277	2308	2272	2253	2246	2236	2247	2261	2284	2267	2268	2285	2307	2308	2291	2276	2268	2276	2286	2301	2309	2304	2307	2304	2317	2386	2419	2369	2375	2372	2360	2329	2308	2298	2302	2315	2313	2142	1937	1779	1527	1537	1533	1510	1500	1512	1548	1539	1504	1502	1490	1483	1481	1491	1496	1490	1488	1495	1497	1500	1505	1499	1498	1490	1484	1499	1498	1510	1511	1513	1516	1518	1515	1518	1517	1510	1506	1502	1490	1482	1480	1494	1473	1475	1499	1501	1514	1500	1492	1487	1489	1499	1498	1501	1497	1472	1475	1484	1486	1492	1494	1496	1499	1500	1492	1492	1488	1464	1471	1471	1492	1501	1490	1477	1456	1473	1482	1480	1469	1484	1596	1924	2433	2617	2745	2714	2697	2698	2722	2741	2748	2760	2777	2785	2813	2841	2893	2858	2849	2881	2883	2846	2816	2640	2645	2721	2706	2754	2795	2823	2796	2734	2641	2550	2493	2455	2443	2446	2430	2464	2483	2495	2502	2526	2521	2464	2213	0	0	0	0	0	1970	1977	1977	1967	1956	1926	1854	1916	1962	1942	1943	1960	1969	1981	1964	1950	1948	1946	1934	1911	1862	1854	1845	1715	1606	1584	1550	1521	1492	1486	1506	1525	1523	1499	1451	1418	1412	1453	1474	1462	1440	1447	1479	1484	1482	1507	1462	1451	1469	1464	1450	1434	1424	1430	1460	1468	1477	1485	1498	1506	1492	1491	1483	1482	1485	1482	1461	1454	1449	1463	1475	1480	1477	1463	1466	1476	1467	1464	1469	1477	1485	1489	1490	1479	1461	1448	1470	1531	1723	2095	2517	2754	3041	3081	3078	3116	3132	3135	3108	2914	2850	2818	2787	2790	2810	2834	2845	2863	2820	2769	2754	2786	2853	2943	2960	2906	2880	2897	2911	2926	2932	2945	2958	2960	2956	2933	2893	2877	2866	2847	2818	2794	2776	2752	2655	2641	2631	2599	2457	2413	2407	2398	2395	2413	2422	2428	2454	2454	2450	2417	2404	2371	2234	2120	2184	2205	2176	2099	2078	2058	2046	2034	2031	2038	2041	2037	2025	2015	2015	2005	2014	2002	1992	1982	1975	1975	1974	1964	1961	1948	1941	1934	1929	1918	1914	0	0	0	0	0	0	0	0	0
1816	1809	1809	1804	1827	1850	1870	1875	1875	1879	1866	1857	1867	1878	1878	1890	1886	1877	1873	1868	1868	1878	1872	1857	1860	1864	1869	1869	1873	1897	1919	1929	1913	1906	1889	1889	1872	1876	1890	1893	1912	1913	1913	1920	1920	1933	1962	1982	1986	1978	1952	1934	1926	1930	1929	1929	1936	1938	1936	1929	1942	1952	1958	1958	1946	1944	1932	1942	1940	1947	1955	1955	1955	1939	1930	1936	1944	1955	1957	1961	1958	1956	1952	1947	1941	1942	1949	1955	1946	1940	1939	1942	1949	1968	1979	1986	1982	1989	1987	1978	1976	1987	1993	1985	1978	1959	1933	1908	1895	1892	1901	1927	1954	1967	1991	1998	1993	1979	1966	1954	1924	1896	1883	1879	1900	1936	1995	2049	1991	1963	1947	1943	1946	1947	1965	1968	1972	1967	1965	1960	1978	1996	2005	2013	2007	1996	1988	1997	2004	1994	1972	1938	1921	1925	1956	1962	1964	1967	1967	1970	1977	1983	1975	1943	1924	1919	1936	1960	1987	2005	2008	2015	2032	2042	2045	2035	1990	1745	1553	1490	1492	1502	1497	1483	1480	1483	1494	1507	1512	1507	1500	1497	1496	1488	1487	1493	1498	1484	1471	1459	1461	1468	1478	1481	1483	1500	1516	1520	1515	1483	1479	1476	1473	1471	1471	1466	1460	1462	1473	1494	1524	1485	1485	1486	1494	1514	1505	1511	1532	1543	1533	1537	1544	1539	1535	1533	1543	1577	1598	1582	1594	1625	1681	1736	1855	1883	1904	1925	1936	1935	1920	1918	1928	1939	1936	1910	1910	1925	1902	1877	1878	1841	1851	1854	1916	1944	1982	2011	2017	2021	2033	2052	2104	2163	2222	2223	2217	2209	2208	2195	2180	2176	2208	2224	2223	2231	2230	2240	2238	2240	2237	2231	2237	2254	2280	2291	2290	2274	2263	2268	2251	2266	2287	2329	2303	2270	2242	2243	2256	2263	2247	2096	1872	1743	1533	1544	1530	1499	1482	1486	1512	1543	1518	1512	1499	1486	1502	1494	1498	1493	1496	1500	1503	1505	1502	1509	1503	1485	1473	1473	1486	1513	1508	1510	1515	1517	1518	1523	1521	1514	1511	1515	1490	1480	1473	1474	1472	1475	1511	1514	1515	1489	1487	1493	1487	1519	1513	1505	1504	1501	1503	1488	1484	1484	1486	1487	1497	1499	1491	1490	1488	1455	1458	1463	1490	1493	1484	1483	1491	1497	1482	1484	1488	1497	1569	1909	2232	2501	2580	2539	2513	2527	2630	2694	2694	2665	2648	2647	2631	2616	2652	2640	2580	2597	2655	2523	2488	2455	2486	2548	2557	2580	2626	2665	2665	2629	2554	2479	2462	2474	2459	2440	2438	2465	2476	2484	2493	2493	2504	2432	2202	0	0	0	0	1994	1988	1978	1966	1975	1992	1970	1874	1896	1955	1944	1941	1953	1963	1981	1944	1932	1927	1926	1911	1881	1819	1830	1814	1673	1589	1581	1569	1550	1511	1485	1483	1505	1509	1489	1452	1427	1425	1459	1460	1469	1456	1454	1468	1473	1476	1489	1471	1471	1452	1448	1435	1425	1428	1434	1453	1467	1478	1479	1469	1468	1466	1465	1470	1485	1494	1483	1466	1453	1454	1465	1472	1472	1472	1474	1476	1484	1479	1474	1480	1481	1471	1475	1471	1471	1471	1458	1460	1522	1656	1981	2426	2845	2926	2956	2954	2940	2960	2968	2932	2862	2820	2800	2778	2797	2837	2856	2869	2875	2858	2810	2785	2787	2856	2947	2983	2943	2908	2904	2912	2935	2939	2928	2947	2958	2953	2932	2903	2885	2878	2867	2842	2829	2822	2828	2817	2837	2861	2880	2857	2824	2819	2824	2756	2644	2599	2577	2580	2544	2519	2483	2481	2473	2390	2348	2333	2457	2281	2107	2068	2051	2034	2024	2030	2038	2044	2039	2023	2018	2018	2058	2062	2050	2038	2027	2029	2032	2022	2009	1985	1977	1976	1978	1974	1966	1934	1934	0	0	0	0	0	0	0	0
1801	1774	1774	1763	1779	1809	1828	1840	1840	1846	1845	1854	1857	1871	1871	1869	1862	1847	1835	1835	1835	1842	1839	1835	1833	1835	1843	1843	1850	1877	1905	1869	1864	1862	1864	1864	1863	1866	1870	1872	1881	1878	1872	1879	1879	1889	1926	1938	1959	1938	1918	1900	1889	1887	1888	1888	1896	1904	1893	1900	1919	1934	1931	1916	1879	1880	1884	1868	1889	1911	1932	1926	1926	1914	1897	1897	1905	1918	1918	1920	1924	1921	1919	1914	1915	1922	1924	1905	1880	1865	1902	1911	1927	1947	1958	1965	1947	1945	1951	1946	1955	1969	1959	1953	1944	1944	1936	1911	1893	1889	1903	1928	1951	1950	1976	1974	1973	1975	1966	1955	1935	1900	1865	1864	1874	1915	1930	1958	1959	1943	1923	1915	1917	1924	1927	1926	1938	1945	1938	1941	1947	1960	1969	1974	1974	1972	1971	1967	1951	1946	1943	1915	1908	1906	1926	1943	1937	1937	1934	1934	1939	1941	1938	1925	1919	1914	1916	1940	1953	1958	1963	1915	1942	1973	2014	2042	1968	1722	1521	1505	1492	1508	1498	1483	1478	1481	1497	1518	1523	1513	1502	1497	1490	1482	1483	1482	1488	1482	1474	1469	1470	1473	1473	1480	1481	1489	1496	1507	1497	1474	1479	1478	1476	1466	1470	1467	1470	1473	1478	1479	1518	1488	1489	1495	1509	1509	1499	1513	1534	1542	1532	1535	1531	1534	1528	1530	1547	1561	1571	1558	1583	1610	1649	1763	1847	1887	1901	1922	1935	1939	1923	1917	1917	1923	1927	1915	1917	1919	1891	1873	1864	1821	1826	1841	1921	1956	1995	2023	2028	2040	2082	2122	2136	2133	2143	2155	2170	2177	2161	2151	2135	2125	2147	2199	2205	2211	2219	2210	2211	2199	2213	2218	2225	2236	2240	2250	2255	2252	2225	2202	2189	2201	2212	2227	2209	2187	2180	2189	2205	2215	2196	2105	1814	1711	1530	1546	1524	1493	1473	1469	1489	1527	1524	1520	1511	1506	1503	1496	1494	1500	1501	1502	1504	1501	1502	1511	1510	1490	1489	1484	1476	1486	1521	1522	1515	1509	1508	1515	1527	1521	1489	1477	1509	1474	1472	1467	1471	1477	1485	1488	1498	1497	1493	1491	1503	1518	1527	1515	1510	1515	1502	1490	1482	1478	1478	1476	1481	1485	1490	1486	1484	1463	1463	1479	1491	1496	1503	1496	1500	1502	1486	1488	1508	1515	1571	1892	2115	2356	2442	2446	2446	2444	2468	2556	2578	2592	2609	2609	2565	2525	2487	2483	2512	2445	2473	2470	2451	2419	2397	2402	2416	2444	2462	2463	2491	2491	2463	2440	2437	2428	2435	2421	2438	2448	2450	2457	2456	2448	2445	2417	2280	0	0	0	2038	2009	1973	1969	1986	2005	2003	2006	1905	1893	1938	1934	1944	1950	1968	1964	1914	1900	1892	1898	1897	1891	1841	1823	1799	1650	1569	1572	1588	1568	1528	1499	1479	1479	1470	1453	1449	1437	1447	1456	1443	1474	1469	1450	1458	1477	1473	1490	1492	1461	1459	1453	1449	1446	1438	1465	1476	1493	1492	1475	1455	1442	1446	1449	1465	1484	1498	1500	1468	1458	1460	1469	1467	1472	1471	1478	1484	1493	1483	1476	1482	1480	1470	1457	1469	1476	1480	1469	1461	1512	1622	1896	2376	2640	2825	2832	2842	2851	2884	2924	2904	2858	2808	2790	2784	2789	2823	2879	2886	2893	2861	2829	2805	2788	2827	2911	2962	2940	2935	2924	2932	2952	2951	2934	2937	2945	2947	2941	2924	2909	2904	2885	2866	2844	2845	2861	2872	2884	2888	2901	2902	2893	2888	2890	2890	2878	2765	2733	2738	2765	2803	2812	2817	2749	2724	2700	2634	2482	2349	2112	2065	2044	2031	2023	2025	2031	2043	2039	2017	2042	2042	2043	2028	2041	2075	2074	2069	2054	2041	2014	1994	1986	1988	1993	1992	1998	1995	1995	0	0	0	0	0	0	0	0
1752	1725	1725	1724	1750	1775	1793	1812	1812	1813	1818	1824	1840	1850	1850	1851	1833	1825	1812	1823	1823	1825	1806	1804	1808	1816	1814	1814	1828	1807	1823	1826	1826	1837	1834	1834	1857	1858	1860	1856	1850	1844	1836	1837	1837	1852	1874	1885	1890	1875	1883	1869	1864	1859	1856	1856	1851	1859	1867	1880	1903	1909	1910	1874	1848	1828	1814	1817	1836	1889	1907	1908	1908	1890	1874	1873	1876	1881	1881	1894	1899	1897	1895	1888	1886	1898	1900	1876	1835	1816	1802	1823	1870	1906	1928	1940	1929	1926	1915	1919	1929	1943	1925	1907	1900	1905	1927	1913	1888	1878	1909	1933	1937	1944	1933	1942	1935	1937	1912	1922	1921	1900	1882	1869	1877	1879	1873	1871	1875	1885	1884	1882	1881	1881	1886	1904	1919	1925	1919	1921	1923	1929	1933	1935	1924	1923	1911	1914	1907	1905	1911	1913	1909	1902	1887	1877	1868	1873	1872	1890	1905	1901	1887	1895	1906	1910	1907	1909	1905	1889	1875	1868	1887	1930	1956	2002	1947	1796	1512	1445	1453	1480	1516	1490	1483	1486	1501	1512	1515	1508	1503	1490	1482	1470	1479	1487	1482	1476	1477	1474	1476	1481	1480	1477	1479	1473	1476	1481	1485	1474	1480	1485	1482	1468	1477	1476	1475	1483	1486	1486	1499	1488	1481	1501	1503	1500	1487	1514	1519	1522	1532	1520	1532	1541	1543	1540	1562	1572	1568	1528	1570	1603	1636	1754	1835	1887	1905	1924	1937	1935	1922	1905	1899	1900	1904	1910	1920	1924	1906	1883	1870	1858	1830	1906	1975	2017	2049	2094	2116	2110	2147	2157	2134	2130	2127	2144	2149	2145	2129	2109	2100	2106	2121	2161	2178	2191	2185	2163	2137	2128	2137	2141	2150	2144	2142	2148	2175	2180	2161	2147	2142	2153	2164	2158	2131	2125	2136	2155	2164	2157	2152	2077	1747	1684	1520	1530	1521	1497	1478	1470	1478	1492	1513	1508	1505	1508	1502	1491	1489	1497	1507	1505	1506	1507	1511	1514	1511	1505	1493	1490	1478	1503	1520	1516	1513	1501	1496	1505	1506	1495	1489	1482	1473	1464	1479	1471	1487	1496	1501	1509	1519	1520	1528	1521	1514	1511	1514	1509	1505	1504	1498	1496	1494	1490	1486	1478	1467	1468	1488	1482	1486	1473	1485	1501	1511	1515	1507	1498	1504	1509	1499	1504	1523	1524	1580	1895	2111	2329	2353	2376	2380	2376	2391	2399	2400	2404	2493	2499	2488	2443	2397	2310	2314	2362	2397	2415	2415	2392	2365	2369	2381	2385	2382	2389	2390	2418	2426	2420	2399	2379	2369	2362	2376	2405	2410	2418	2408	2404	2411	2422	2307	2178	2095	2061	2016	1995	1989	1994	2004	2005	2004	1991	1918	1919	1931	1914	1930	1946	1960	1936	1900	1879	1880	1888	1895	1901	1901	1866	1798	1637	1571	1584	1594	1584	1550	1509	1483	1467	1457	1439	1443	1450	1471	1453	1437	1481	1475	1454	1452	1444	1447	1493	1511	1478	1466	1468	1469	1468	1462	1490	1506	1513	1504	1484	1454	1440	1438	1439	1457	1482	1498	1501	1481	1449	1454	1470	1478	1486	1484	1484	1488	1483	1479	1476	1483	1479	1475	1468	1473	1480	1486	1482	1478	1512	1608	1891	2319	2538	2692	2744	2763	2788	2822	2880	2888	2845	2817	2790	2769	2769	2796	2846	2867	2876	2854	2827	2783	2771	2777	2864	2926	2935	2931	2927	2924	2947	2941	2931	2939	2951	2958	2949	2930	2922	2924	2918	2900	2878	2875	2875	2883	2891	2898	2901	2901	2900	2897	2903	2903	2888	2836	2837	2838	2880	2935	2947	2920	2874	2843	2772	2644	2507	2400	2119	2064	2043	2039	2032	2034	2037	2044	2035	2016	2024	2024	2019	2035	2063	2072	2075	2076	2055	2041	2030	2014	1999	2000	1996	2001	2011	2006	2006	0	0	0	0	0	0	0	0
1682	1688	1696	1696	1723	1752	1770	1769	1769	1772	1787	1792	1822	1818	1818	1813	1794	1773	1789	1789	1789	1783	1777	1775	1775	1777	1783	1783	1770	1780	1789	1795	1802	1801	1822	1822	1830	1853	1849	1838	1823	1807	1800	1812	1812	1828	1847	1845	1838	1847	1851	1847	1843	1824	1807	1807	1801	1805	1814	1830	1850	1880	1867	1840	1821	1795	1795	1798	1797	1805	1832	1843	1843	1850	1842	1825	1819	1841	1831	1836	1864	1876	1871	1854	1858	1868	1873	1853	1820	1786	1790	1788	1788	1805	1827	1848	1857	1867	1870	1891	1907	1911	1887	1863	1858	1858	1864	1864	1842	1835	1835	1861	1911	1910	1885	1843	1834	1837	1837	1849	1875	1910	1899	1889	1859	1849	1845	1841	1856	1863	1868	1872	1863	1851	1843	1867	1890	1902	1907	1899	1903	1902	1886	1877	1870	1864	1862	1873	1873	1872	1862	1860	1848	1857	1857	1853	1847	1837	1846	1863	1874	1860	1838	1846	1884	1892	1889	1880	1863	1840	1835	1837	1840	1835	1885	1899	1941	1767	1687	1448	1444	1462	1485	1480	1488	1500	1502	1503	1503	1500	1498	1489	1477	1465	1474	1482	1477	1470	1463	1465	1480	1493	1492	1479	1468	1462	1462	1471	1482	1488	1481	1483	1484	1489	1482	1478	1478	1489	1496	1497	1487	1482	1476	1498	1511	1507	1489	1505	1501	1521	1524	1522	1538	1549	1554	1564	1572	1577	1568	1539	1577	1600	1630	1748	1835	1881	1926	1941	1953	1921	1897	1874	1871	1882	1887	1899	1920	1929	1922	1915	1891	1878	1882	1970	1958	1954	1974	2002	2023	2044	2054	2131	2130	2122	2118	2118	2122	2122	2110	2088	2079	2082	2097	2114	2109	2103	2109	2098	2088	2073	2072	2082	2096	2103	2106	2107	2108	2104	2103	2110	2116	2130	2132	2126	2107	2100	2110	2113	2114	2101	2109	2015	1773	1700	1525	1529	1512	1496	1507	1497	1475	1486	1503	1503	1493	1497	1505	1492	1489	1500	1508	1513	1509	1509	1513	1513	1513	1509	1504	1483	1481	1513	1518	1513	1507	1507	1503	1501	1499	1490	1486	1494	1470	1457	1485	1486	1497	1508	1510	1517	1516	1516	1517	1511	1499	1504	1499	1485	1500	1501	1494	1499	1496	1499	1484	1477	1462	1465	1483	1484	1487	1498	1497	1504	1513	1511	1500	1494	1497	1507	1518	1524	1535	1523	1596	1846	2085	2305	2323	2335	2325	2338	2341	2343	2306	2313	2335	2360	2378	2294	2296	2252	2262	2282	2311	2334	2329	2294	2287	2301	2315	2315	2331	2321	2324	2325	2327	2315	2296	2308	2335	2317	2319	2338	2349	2363	2364	2348	2351	2398	2309	2192	2086	2021	1992	1994	2007	2017	2016	1993	1979	1948	1950	1954	1940	1919	1927	1938	1942	1914	1886	1889	1896	1906	1907	1914	1919	1918	1813	1655	1602	1605	1612	1597	1571	1539	1508	1485	1466	1444	1441	1462	1483	1458	1444	1496	1495	1453	1437	1439	1444	1493	1510	1477	1468	1460	1465	1473	1476	1508	1521	1518	1508	1499	1486	1461	1449	1449	1458	1486	1500	1498	1477	1438	1447	1466	1484	1507	1500	1485	1478	1471	1466	1465	1474	1481	1475	1475	1481	1485	1488	1492	1491	1512	1597	1927	2298	2475	2631	2705	2713	2711	2727	2759	2792	2832	2789	2762	2731	2736	2753	2776	2791	2810	2815	2792	2760	2748	2755	2801	2841	2873	2876	2863	2891	2894	2916	2923	2945	2963	2973	2952	2931	2914	2912	2927	2915	2893	2891	2900	2903	2908	2909	2905	2920	2906	2905	2900	2884	2874	2858	2851	2864	2910	2942	2950	2937	2896	2860	2815	2646	2507	2364	2091	2067	2073	2069	2054	2054	2059	2051	2013	2020	2027	2027	2035	2044	2062	2075	2073	2063	2048	2034	2023	2020	2017	2006	2013	2014	2018	2010	2010	0	0	0	0	0	0	0	0
1624	1638	1673	1673	1704	1723	1716	1710	1710	1711	1724	1749	1774	1790	1790	1782	1759	1755	1754	1769	1769	1757	1756	1762	1761	1763	1768	1758	1750	1744	1754	1754	1764	1772	1765	1765	1783	1813	1814	1814	1791	1771	1776	1794	1794	1822	1828	1819	1808	1815	1817	1808	1800	1781	1774	1774	1777	1787	1797	1802	1803	1827	1825	1812	1797	1778	1774	1774	1766	1768	1777	1785	1785	1779	1762	1751	1755	1787	1796	1810	1838	1858	1837	1803	1803	1823	1828	1817	1807	1785	1783	1783	1775	1773	1779	1795	1813	1822	1825	1842	1843	1840	1824	1818	1818	1829	1847	1848	1838	1829	1813	1826	1850	1859	1842	1808	1800	1800	1803	1801	1813	1837	1847	1842	1830	1818	1814	1810	1823	1847	1862	1857	1843	1827	1826	1842	1864	1884	1899	1904	1896	1881	1861	1826	1821	1828	1835	1852	1840	1834	1831	1827	1827	1827	1829	1824	1829	1825	1825	1842	1842	1831	1816	1817	1849	1868	1865	1850	1825	1818	1819	1810	1811	1815	1828	1836	1865	1731	1669	1475	1458	1456	1469	1483	1484	1504	1506	1493	1489	1496	1496	1486	1476	1469	1471	1469	1457	1450	1446	1453	1467	1464	1456	1455	1456	1451	1451	1461	1476	1481	1483	1479	1484	1489	1489	1482	1484	1494	1505	1498	1481	1478	1479	1498	1525	1516	1490	1491	1508	1519	1541	1546	1548	1554	1561	1568	1573	1576	1563	1577	1601	1610	1662	1763	1844	1898	1922	1935	1941	1900	1879	1871	1860	1849	1858	1869	1889	1913	1927	1926	1915	1903	1908	1944	1957	1955	1946	1957	1976	1998	1973	1953	1947	2074	2065	2040	2037	2049	2073	2069	2061	2065	2067	2062	2026	2029	2043	2057	2050	2051	2043	2045	2053	2065	2073	2080	2080	2059	2045	2058	2080	2110	2120	2110	2093	2082	2082	2055	2040	2026	2051	2015	1774	1722	1533	1523	1498	1487	1513	1524	1509	1498	1500	1492	1491	1488	1494	1497	1495	1501	1511	1513	1513	1514	1513	1513	1514	1516	1515	1485	1509	1517	1518	1512	1511	1510	1508	1505	1503	1494	1491	1491	1472	1462	1487	1490	1495	1510	1521	1512	1505	1514	1510	1503	1508	1501	1480	1479	1489	1501	1498	1498	1501	1505	1500	1471	1458	1475	1479	1482	1490	1492	1497	1492	1497	1492	1484	1489	1479	1510	1538	1530	1498	1491	1609	1840	2172	2266	2293	2301	2299	2270	2254	2243	2242	2259	2250	2268	2198	2213	2215	2185	2193	2213	2193	2205	2203	2223	2222	2229	2228	2230	2243	2254	2274	2273	2263	2259	2246	2249	2241	2269	2275	2277	2272	2265	2260	2243	2255	2274	2292	2198	2065	2004	1990	1999	2006	2019	1986	1974	1933	1887	1954	1962	1955	1948	1940	1933	1927	1897	1891	1904	1921	1922	1916	1920	1926	1935	1824	1653	1637	1631	1616	1602	1602	1581	1560	1534	1503	1485	1472	1501	1503	1471	1458	1499	1484	1453	1436	1448	1444	1486	1501	1464	1455	1449	1457	1468	1479	1509	1510	1506	1501	1496	1479	1460	1449	1442	1453	1475	1483	1472	1462	1445	1444	1457	1477	1493	1486	1481	1474	1469	1458	1458	1469	1475	1479	1477	1474	1471	1479	1483	1495	1514	1606	1951	2139	2450	2559	2578	2575	2586	2622	2653	2676	2747	2738	2644	2670	2680	2696	2704	2700	2720	2736	2740	2723	2712	2714	2740	2776	2787	2789	2768	2758	2755	2788	2829	2843	2852	2889	2881	2875	2861	2856	2868	2874	2871	2879	2869	2848	2852	2877	2883	2881	2885	2865	2840	2829	2822	2860	2861	2869	2908	2933	2949	2936	2888	2860	2803	2629	2470	2324	2079	2084	2092	2086	2085	2076	2060	2058	2025	2040	2040	2046	2046	2049	2059	2071	2066	2057	2038	2027	2019	2028	2030	2025	2020	2023	2021	2021	2021	0	0	0	0	0	0	0	0
1587	1628	1661	1661	1690	1703	1702	1703	1703	1696	1694	1703	1709	1717	1717	1701	1696	1709	1728	1738	1738	1745	1773	1778	1769	1767	1736	1736	1712	1687	1676	1680	1703	1728	1742	1742	1750	1732	1750	1749	1741	1729	1736	1756	1756	1784	1789	1775	1758	1768	1771	1766	1760	1758	1760	1764	1764	1770	1773	1762	1757	1757	1795	1788	1765	1743	1737	1735	1738	1746	1765	1774	1774	1761	1743	1729	1732	1743	1753	1763	1778	1810	1789	1769	1765	1785	1792	1785	1780	1772	1779	1779	1778	1774	1772	1764	1769	1776	1795	1815	1821	1817	1804	1783	1776	1803	1818	1825	1816	1814	1796	1797	1806	1809	1791	1783	1779	1780	1776	1771	1768	1790	1805	1805	1792	1781	1779	1770	1785	1817	1833	1828	1820	1817	1818	1829	1843	1840	1849	1831	1829	1845	1825	1801	1805	1810	1824	1828	1824	1810	1820	1820	1809	1808	1802	1804	1814	1815	1814	1819	1819	1812	1796	1800	1815	1834	1831	1823	1808	1805	1801	1794	1785	1780	1788	1805	1826	1689	1642	1481	1455	1445	1458	1463	1480	1491	1490	1488	1478	1480	1489	1488	1479	1476	1473	1462	1447	1439	1443	1453	1460	1454	1445	1442	1451	1445	1446	1446	1463	1472	1473	1476	1485	1493	1499	1490	1490	1494	1501	1490	1478	1478	1474	1512	1510	1504	1491	1496	1517	1525	1543	1545	1544	1544	1554	1562	1562	1571	1562	1585	1609	1638	1710	1801	1851	1873	1893	1904	1877	1870	1871	1857	1841	1831	1844	1867	1878	1875	1909	1923	1928	1896	1882	1893	1904	1904	1887	1878	1892	1914	1926	1920	1914	1918	1922	1938	1940	1950	2017	2023	2019	1989	1980	1979	1966	1985	2018	2029	2025	2020	2010	2010	2008	2020	2028	2030	2019	1998	1995	1994	1990	1992	2064	2068	2049	2035	2032	2018	2000	1988	2008	2003	1765	1720	1531	1508	1487	1487	1504	1526	1524	1516	1492	1482	1481	1480	1496	1501	1501	1496	1507	1516	1513	1511	1509	1508	1505	1507	1494	1482	1498	1510	1512	1504	1507	1508	1508	1503	1504	1488	1486	1484	1486	1486	1482	1479	1499	1510	1536	1505	1501	1497	1505	1500	1509	1500	1481	1483	1498	1505	1504	1499	1501	1507	1512	1487	1482	1503	1500	1495	1485	1482	1501	1490	1480	1477	1476	1474	1471	1513	1530	1507	1475	1456	1584	1825	2109	2191	2243	2266	2241	2223	2199	2199	2205	2198	2151	2135	2140	2156	2169	2175	2175	2192	2196	2192	2191	2195	2183	2187	2194	2203	2198	2185	2198	2217	2222	2183	2196	2195	2209	2209	2210	2228	2220	2216	2204	2190	2196	2194	2203	2197	2092	2002	1982	1982	1985	1979	1960	1922	1879	1835	1937	1944	1955	1967	1932	1928	1912	1906	1917	1932	1948	1932	1916	1911	1923	1946	1837	1674	1661	1643	1632	1625	1625	1624	1610	1580	1544	1510	1507	1520	1521	1488	1467	1486	1473	1439	1445	1448	1444	1476	1485	1460	1454	1446	1454	1468	1485	1500	1496	1495	1492	1492	1490	1478	1461	1448	1451	1457	1464	1463	1456	1447	1440	1449	1461	1480	1471	1472	1471	1471	1465	1458	1470	1478	1483	1477	1466	1457	1461	1470	1483	1506	1630	1972	2177	2398	2489	2512	2521	2537	2589	2622	2630	2595	2513	2598	2640	2652	2642	2631	2617	2629	2664	2677	2654	2636	2628	2653	2677	2699	2706	2698	2689	2690	2705	2712	2709	2706	2688	2698	2700	2710	2715	2726	2748	2734	2716	2697	2696	2689	2704	2724	2761	2756	2732	2712	2690	2667	2713	2755	2796	2822	2821	2840	2843	2822	2773	2716	2572	2464	2225	2082	2094	2097	2094	2084	2079	2058	2062	2034	2042	2042	2036	2050	2036	2040	2056	2053	2040	2030	2022	2026	2034	2042	2036	2032	2029	2029	2031	2031	0	0	0	0	0	0	0	0
1587	1616	1649	1649	1668	1670	1679	1694	1694	1702	1697	1687	1685	1683	1683	1678	1657	1663	1673	1712	1712	1748	1765	1766	1766	1716	1693	1693	1662	1634	1648	1665	1689	1696	1693	1693	1689	1661	1655	1640	1647	1667	1683	1687	1687	1688	1695	1698	1700	1722	1737	1739	1731	1723	1737	1739	1739	1748	1731	1736	1733	1713	1700	1693	1690	1684	1701	1709	1717	1733	1746	1746	1746	1736	1724	1708	1713	1717	1717	1740	1751	1746	1728	1703	1719	1752	1772	1776	1766	1762	1757	1760	1768	1769	1757	1731	1723	1726	1741	1762	1787	1794	1785	1762	1743	1744	1750	1751	1739	1746	1766	1777	1785	1783	1764	1753	1750	1751	1745	1722	1733	1758	1786	1792	1774	1737	1723	1723	1747	1782	1792	1799	1790	1790	1796	1801	1806	1794	1788	1778	1772	1778	1778	1770	1777	1788	1799	1793	1784	1783	1781	1785	1783	1781	1780	1784	1792	1797	1802	1799	1800	1801	1785	1770	1784	1780	1781	1780	1773	1784	1783	1775	1767	1761	1765	1780	1782	1651	1606	1485	1464	1462	1447	1448	1465	1495	1488	1480	1472	1477	1477	1485	1486	1490	1486	1461	1447	1438	1449	1465	1473	1467	1455	1456	1461	1462	1448	1450	1456	1461	1462	1471	1486	1497	1499	1496	1495	1493	1479	1471	1479	1480	1478	1504	1481	1487	1498	1499	1516	1528	1543	1543	1532	1539	1549	1555	1560	1566	1554	1578	1612	1640	1712	1740	1807	1826	1810	1808	1804	1812	1821	1838	1837	1834	1848	1862	1867	1862	1842	1827	1815	1799	1801	1809	1823	1856	1853	1850	1863	1889	1901	1893	1889	1893	1897	1903	1903	1916	1932	1932	1905	1879	1889	1909	1923	1956	1992	2002	2004	1984	1975	1956	1961	1972	1973	1978	1965	1969	1974	1971	1951	1960	1971	1990	1991	1983	1970	1972	1971	1970	1970	1966	1732	1692	1507	1485	1494	1485	1486	1507	1516	1522	1493	1474	1472	1482	1500	1502	1502	1494	1498	1503	1507	1502	1501	1495	1491	1485	1478	1475	1493	1505	1503	1495	1494	1500	1490	1497	1497	1487	1482	1488	1472	1487	1474	1473	1476	1505	1498	1496	1494	1498	1491	1507	1504	1510	1501	1494	1504	1508	1504	1491	1500	1505	1503	1494	1500	1510	1509	1498	1486	1472	1506	1497	1466	1463	1469	1490	1513	1509	1505	1483	1455	1437	1591	1896	2010	2132	2196	2189	2196	2176	2169	2178	2174	2182	2164	2134	2139	2153	2156	2166	2159	2177	2178	2169	2173	2172	2160	2156	2177	2183	2176	2169	2154	2163	2148	2138	2139	2154	2160	2168	2163	2160	2178	2171	2160	2140	2133	2143	2144	2143	2083	2038	1984	1982	1961	1954	1930	1886	1850	1835	1927	1923	1926	1967	1928	1913	1904	1926	1947	1960	1957	1944	1929	1935	1943	1954	1853	1697	1662	1645	1637	1629	1638	1644	1626	1600	1562	1528	1512	1516	1510	1458	1472	1455	1440	1437	1439	1439	1441	1442	1465	1469	1465	1462	1463	1471	1481	1489	1482	1477	1475	1483	1490	1490	1483	1464	1457	1451	1456	1456	1458	1447	1443	1440	1449	1457	1458	1455	1461	1467	1461	1464	1468	1477	1486	1468	1457	1448	1448	1455	1456	1480	1593	1971	2100	2311	2438	2484	2466	2485	2515	2545	2500	2451	2466	2520	2578	2623	2601	2570	2532	2534	2548	2579	2557	2520	2532	2554	2572	2554	2551	2577	2581	2598	2619	2617	2610	2596	2599	2616	2646	2666	2675	2685	2700	2673	2641	2641	2645	2632	2626	2636	2648	2646	2624	2633	2619	2587	2576	2586	2629	2695	2702	2705	2702	2680	2642	2582	2489	2423	2153	2094	2103	2091	2090	2084	2076	2065	2048	2034	2016	2016	2023	2018	2014	2018	2039	2038	2028	2021	2022	2032	2039	2042	2038	2036	2037	2037	2038	2038	0	0	0	0	0	0	0	0
1588	1611	1622	1622	1633	1648	1663	1683	1683	1678	1672	1665	1655	1646	1646	1634	1638	1658	1661	1677	1677	1698	1699	1698	1632	1636	1630	1630	1614	1604	1612	1631	1659	1659	1646	1646	1636	1632	1625	1622	1625	1636	1642	1650	1650	1652	1659	1672	1686	1701	1704	1711	1710	1701	1702	1702	1702	1696	1711	1718	1707	1691	1681	1661	1667	1672	1683	1688	1698	1706	1705	1704	1703	1703	1694	1692	1699	1692	1703	1726	1730	1725	1716	1707	1705	1712	1725	1736	1738	1733	1703	1706	1717	1727	1722	1705	1697	1694	1698	1702	1728	1742	1751	1735	1702	1682	1686	1708	1701	1690	1697	1731	1763	1763	1755	1748	1743	1734	1706	1703	1713	1738	1765	1771	1755	1713	1699	1699	1708	1731	1746	1768	1758	1758	1763	1766	1761	1750	1740	1734	1729	1735	1744	1749	1751	1758	1762	1742	1734	1733	1734	1751	1760	1762	1762	1768	1765	1762	1759	1769	1768	1763	1751	1740	1742	1744	1753	1753	1752	1757	1754	1750	1743	1744	1743	1750	1752	1619	1577	1477	1477	1488	1467	1441	1471	1486	1487	1480	1476	1476	1480	1489	1486	1494	1500	1481	1469	1459	1456	1473	1486	1480	1480	1481	1488	1490	1474	1467	1466	1466	1461	1472	1484	1492	1496	1489	1482	1477	1464	1454	1475	1482	1477	1442	1446	1469	1495	1498	1521	1538	1543	1536	1523	1534	1547	1549	1561	1564	1552	1568	1608	1633	1678	1710	1771	1795	1796	1788	1786	1782	1779	1794	1808	1818	1825	1834	1844	1840	1818	1793	1770	1765	1777	1787	1792	1798	1815	1832	1827	1825	1827	1835	1841	1839	1843	1852	1852	1853	1852	1868	1859	1860	1867	1895	1908	1902	1955	1959	1951	1938	1911	1875	1863	1882	1914	1921	1932	1936	1939	1922	1913	1926	1941	1949	1941	1935	1925	1918	1929	1931	1942	1899	1711	1677	1477	1467	1490	1474	1466	1475	1496	1511	1499	1486	1482	1488	1503	1507	1507	1479	1481	1490	1501	1502	1495	1490	1482	1473	1473	1489	1495	1503	1497	1489	1484	1489	1493	1489	1492	1485	1478	1475	1477	1471	1468	1486	1493	1496	1489	1488	1486	1503	1504	1496	1498	1497	1499	1511	1507	1509	1494	1489	1499	1501	1504	1493	1502	1508	1508	1495	1479	1476	1505	1502	1461	1462	1465	1485	1499	1500	1480	1462	1450	1440	1616	1872	1966	2054	2115	2149	2159	2151	2090	2094	2109	2133	2152	2140	2122	2110	2104	2125	2142	2143	2127	2132	2143	2139	2137	2138	2155	2163	2150	2144	2142	2131	2112	2108	2097	2108	2123	2129	2121	2117	2123	2128	2115	2104	2099	2112	2125	2129	2102	2032	2021	2013	1978	1958	1916	1878	1861	1889	1912	1913	1916	1952	1934	1912	1906	1936	1961	1975	1967	1958	1954	1956	1960	1958	1879	1689	1654	1639	1639	1646	1647	1642	1633	1617	1588	1555	1525	1538	1497	1473	1478	1439	1425	1436	1447	1443	1441	1436	1461	1473	1476	1474	1478	1484	1484	1469	1464	1459	1460	1464	1481	1490	1493	1485	1469	1463	1461	1469	1463	1455	1448	1436	1437	1445	1447	1448	1449	1454	1462	1459	1466	1477	1486	1479	1457	1444	1436	1444	1439	1464	1624	1935	2076	2210	2306	2363	2389	2400	2418	2434	2375	2360	2371	2427	2508	2538	2562	2515	2379	2351	2366	2367	2409	2451	2461	2466	2480	2474	2465	2469	2483	2506	2531	2522	2524	2529	2531	2549	2565	2581	2577	2589	2573	2568	2573	2581	2576	2542	2525	2549	2559	2560	2557	2565	2546	2533	2525	2541	2550	2590	2604	2611	2601	2597	2564	2511	2448	2379	2139	2106	2096	2085	2090	2076	2067	2055	2038	2028	2008	2008	2016	2009	2007	2006	2014	2026	2018	2013	2026	2037	2038	2032	2029	2026	2028	2034	2038	2038	0	0	0	0	0	0	0	0
1577	1592	1606	1606	1615	1621	1633	1635	1635	1610	1622	1629	1615	1606	1606	1614	1632	1633	1633	1625	1632	1632	1635	1636	1596	1611	1608	1590	1590	1586	1589	1602	1616	1626	1624	1624	1624	1623	1620	1619	1609	1604	1601	1612	1625	1625	1632	1653	1670	1677	1682	1666	1666	1661	1659	1665	1665	1666	1684	1689	1690	1669	1649	1637	1647	1661	1670	1671	1674	1665	1661	1655	1651	1651	1670	1664	1665	1662	1662	1666	1669	1674	1672	1676	1682	1688	1692	1697	1693	1680	1649	1647	1665	1682	1688	1680	1671	1657	1654	1678	1693	1706	1710	1710	1694	1674	1661	1662	1660	1655	1659	1675	1707	1721	1735	1736	1734	1718	1709	1704	1711	1727	1744	1740	1723	1708	1691	1683	1680	1694	1694	1712	1726	1730	1727	1730	1723	1717	1705	1698	1692	1696	1701	1718	1710	1692	1684	1693	1691	1690	1699	1712	1732	1746	1752	1742	1746	1752	1749	1737	1722	1720	1729	1723	1724	1733	1745	1743	1737	1721	1715	1710	1718	1722	1724	1727	1729	1603	1562	1476	1482	1516	1486	1456	1470	1486	1494	1497	1499	1486	1487	1491	1492	1497	1498	1489	1475	1465	1463	1475	1489	1495	1495	1498	1507	1512	1508	1492	1490	1480	1464	1470	1481	1487	1480	1474	1472	1466	1461	1454	1484	1483	1462	1432	1445	1483	1486	1497	1512	1542	1544	1534	1524	1527	1545	1552	1564	1564	1551	1557	1601	1630	1657	1700	1747	1778	1781	1776	1753	1749	1752	1760	1769	1780	1797	1806	1824	1823	1805	1775	1750	1749	1764	1782	1788	1784	1786	1793	1792	1785	1768	1771	1792	1804	1810	1825	1828	1824	1789	1803	1849	1864	1884	1891	1886	1875	1872	1874	1876	1875	1845	1846	1855	1855	1852	1855	1871	1884	1901	1892	1882	1902	1918	1934	1927	1916	1903	1895	1907	1912	1898	1839	1708	1666	1485	1457	1465	1452	1461	1466	1476	1501	1516	1504	1497	1491	1502	1506	1507	1468	1470	1481	1498	1500	1495	1487	1473	1469	1473	1504	1506	1510	1500	1494	1486	1486	1487	1487	1490	1486	1482	1459	1470	1466	1474	1483	1499	1495	1490	1483	1485	1497	1513	1513	1508	1498	1488	1495	1501	1509	1498	1494	1505	1507	1502	1501	1499	1506	1507	1503	1481	1482	1504	1498	1497	1464	1489	1483	1493	1492	1462	1457	1455	1460	1635	1869	1958	2021	2063	2092	2019	2033	2038	2033	2014	2023	2054	2079	2062	2054	2035	2025	2025	2069	2079	2092	2095	2094	2081	2079	2087	2079	2069	2073	2089	2080	2074	2076	2066	2067	2073	2075	2066	2057	2062	2069	2067	2057	2061	2074	2086	2092	2067	2048	2045	2039	2010	1986	2012	1952	1919	1900	1915	1916	1915	1934	1945	1922	1919	1936	1955	1956	1958	1960	1967	1969	1970	1958	1749	1682	1654	1641	1644	1648	1656	1660	1655	1644	1624	1638	1611	1591	1543	1488	1465	1436	1422	1443	1453	1451	1449	1438	1464	1468	1468	1474	1484	1489	1477	1442	1436	1449	1449	1449	1477	1491	1494	1493	1483	1476	1472	1470	1456	1457	1452	1445	1444	1435	1444	1445	1442	1447	1454	1460	1464	1479	1487	1488	1467	1451	1453	1466	1451	1483	1688	1916	2075	2175	2253	2288	2315	2325	2328	2341	2341	2329	2312	2311	2344	2359	2360	2325	2310	2310	2313	2323	2351	2387	2401	2403	2410	2415	2406	2405	2419	2429	2445	2456	2453	2457	2439	2405	2390	2385	2423	2499	2501	2499	2505	2514	2502	2479	2463	2474	2481	2482	2490	2501	2487	2471	2471	2481	2499	2495	2492	2494	2491	2496	2473	2444	2391	2330	2164	2107	2065	2068	2057	2060	2057	2046	2032	2029	2002	2002	2012	2006	2006	2002	1996	2001	2011	2012	2025	2039	2033	2026	2013	2012	2012	2015	2015	2026	0	0	0	0	0	0	0	0
1565	1575	1585	1585	1590	1591	1561	1530	1548	1548	1572	1584	1595	1592	1592	1595	1601	1601	1592	1590	1599	1599	1603	1566	1576	1591	1595	1584	1584	1579	1575	1577	1590	1593	1606	1606	1611	1599	1605	1602	1591	1578	1557	1545	1572	1572	1604	1629	1644	1650	1617	1604	1620	1619	1617	1618	1618	1617	1632	1633	1639	1628	1610	1604	1620	1635	1647	1641	1638	1633	1625	1633	1626	1626	1614	1599	1601	1617	1617	1618	1626	1627	1629	1630	1641	1657	1668	1669	1656	1642	1636	1632	1635	1640	1631	1621	1628	1630	1637	1649	1661	1670	1680	1686	1681	1672	1654	1644	1638	1643	1648	1650	1658	1669	1692	1696	1701	1707	1715	1712	1705	1707	1717	1698	1690	1685	1672	1658	1663	1656	1651	1664	1671	1669	1674	1684	1691	1688	1674	1675	1676	1663	1641	1628	1641	1647	1642	1641	1658	1661	1676	1683	1697	1711	1713	1715	1731	1739	1727	1712	1686	1683	1695	1698	1693	1709	1723	1723	1713	1691	1686	1695	1704	1703	1694	1686	1689	1586	1559	1515	1469	1514	1500	1472	1475	1490	1500	1508	1512	1509	1508	1506	1499	1493	1486	1480	1473	1473	1476	1471	1479	1481	1480	1503	1509	1517	1515	1506	1500	1482	1467	1467	1476	1480	1482	1475	1469	1471	1467	1465	1492	1491	1484	1475	1464	1494	1489	1496	1526	1543	1542	1529	1527	1529	1545	1550	1570	1565	1551	1561	1585	1615	1666	1694	1745	1753	1753	1728	1720	1727	1733	1734	1732	1728	1752	1765	1778	1781	1778	1767	1753	1745	1757	1778	1786	1782	1772	1772	1764	1744	1736	1744	1763	1778	1786	1793	1784	1762	1751	1753	1784	1791	1849	1831	1814	1802	1813	1829	1841	1836	1832	1843	1849	1844	1811	1795	1768	1753	1774	1792	1828	1841	1846	1861	1860	1847	1848	1857	1868	1860	1841	1808	1659	1628	1513	1457	1443	1441	1469	1464	1467	1492	1511	1507	1493	1486	1494	1504	1507	1477	1479	1488	1501	1503	1496	1481	1472	1472	1476	1507	1523	1520	1504	1496	1496	1482	1480	1480	1478	1482	1484	1480	1462	1458	1477	1487	1489	1489	1486	1483	1486	1503	1513	1512	1508	1498	1489	1487	1487	1494	1509	1511	1503	1514	1514	1507	1500	1499	1489	1483	1484	1506	1504	1497	1496	1497	1500	1490	1490	1495	1475	1449	1460	1484	1760	1845	1933	1981	1945	1955	1969	1982	1988	1979	1976	1978	1984	1997	2000	1988	1974	1967	1989	2031	2053	2062	2064	2051	2030	2053	2043	2019	2016	2021	2044	2050	2048	2048	2047	2040	2042	2048	2050	2043	2033	2040	2042	2037	2033	2044	2053	2054	2031	2008	1999	2030	2049	2010	2003	2017	1972	1894	1911	1915	1916	1925	1966	1952	1941	1924	1919	1925	1941	1954	1955	1955	1954	1943	1758	1671	1644	1638	1652	1663	1675	1678	1665	1660	1654	1640	1631	1613	1572	1502	1429	1436	1438	1453	1453	1453	1454	1448	1459	1461	1462	1469	1481	1477	1462	1441	1439	1446	1440	1450	1466	1489	1497	1500	1493	1483	1477	1471	1452	1445	1455	1450	1448	1446	1444	1444	1449	1453	1460	1461	1455	1461	1479	1487	1471	1461	1467	1485	1474	1512	1748	1908	2064	2179	2246	2271	2273	2271	2271	2291	2303	2293	2271	2255	2259	2272	2298	2304	2304	2293	2284	2278	2290	2311	2324	2337	2357	2373	2365	2360	2362	2377	2366	2364	2298	2288	2315	2324	2316	2304	2331	2392	2429	2435	2433	2449	2436	2414	2416	2414	2417	2417	2425	2443	2431	2418	2404	2416	2418	2386	2379	2387	2397	2390	2380	2356	2325	2291	2169	2095	2048	2030	2033	2037	2046	2041	2029	2025	2013	2013	2012	2003	2000	2001	1994	2002	2008	2014	2022	2033	2033	2020	2009	2002	2003	2007	2007	2011	0	0	0	0	0	0	0	0
1545	1554	1562	1562	1559	1531	1493	1489	1493	1493	1534	1553	1565	1570	1570	1571	1574	1568	1556	1560	1570	1570	1544	1543	1549	1559	1564	1562	1562	1554	1547	1547	1555	1575	1563	1547	1547	1554	1569	1567	1555	1540	1525	1521	1533	1533	1560	1576	1562	1551	1549	1569	1591	1583	1586	1585	1585	1593	1607	1619	1607	1587	1575	1581	1600	1619	1625	1616	1605	1597	1600	1597	1595	1595	1586	1568	1557	1556	1573	1583	1584	1583	1583	1599	1611	1623	1632	1629	1628	1627	1631	1633	1628	1624	1607	1593	1593	1596	1607	1613	1630	1646	1648	1662	1670	1666	1649	1632	1614	1614	1618	1625	1625	1630	1641	1643	1656	1672	1699	1697	1690	1683	1675	1593	1595	1617	1642	1618	1617	1621	1627	1633	1644	1639	1641	1635	1630	1627	1622	1644	1653	1635	1610	1608	1619	1630	1622	1596	1588	1591	1596	1612	1625	1635	1630	1629	1649	1683	1690	1659	1658	1656	1659	1663	1685	1691	1695	1695	1690	1675	1660	1671	1686	1691	1681	1673	1641	1553	1536	1491	1455	1504	1492	1481	1474	1483	1502	1510	1520	1520	1518	1515	1495	1480	1476	1469	1468	1474	1488	1494	1488	1473	1467	1469	1471	1497	1501	1498	1491	1475	1456	1455	1467	1475	1482	1482	1477	1478	1480	1473	1501	1501	1489	1488	1488	1496	1486	1490	1516	1545	1552	1534	1525	1529	1552	1565	1576	1573	1560	1562	1581	1616	1657	1708	1722	1729	1707	1684	1689	1702	1715	1714	1706	1710	1710	1710	1730	1753	1765	1768	1755	1744	1757	1774	1780	1755	1738	1740	1738	1720	1711	1719	1735	1749	1755	1753	1740	1726	1716	1719	1729	1736	1735	1734	1743	1755	1770	1780	1789	1792	1800	1804	1812	1808	1800	1783	1764	1743	1734	1731	1735	1752	1775	1788	1792	1780	1772	1759	1711	1716	1759	1729	1630	1584	1538	1466	1433	1442	1476	1475	1471	1481	1482	1495	1485	1477	1489	1490	1494	1497	1492	1501	1507	1503	1485	1470	1468	1475	1486	1508	1521	1519	1507	1502	1503	1500	1477	1484	1493	1487	1485	1480	1476	1465	1462	1475	1471	1468	1472	1477	1478	1490	1493	1497	1504	1500	1496	1496	1499	1498	1502	1519	1522	1524	1525	1527	1522	1511	1499	1486	1497	1497	1466	1490	1495	1494	1498	1490	1474	1487	1469	1445	1459	1485	1732	1804	1835	1867	1896	1911	1933	1960	1970	1967	1953	1935	1944	1959	1966	1958	1942	1941	1974	2016	2043	2054	2026	2013	2011	2009	2004	1993	1983	1994	2017	2025	2023	2017	2018	2011	2021	2032	2031	2036	2028	2026	2025	2036	2035	2031	2030	2024	1996	1984	1976	1989	2002	2024	1997	1978	1980	1901	1894	1911	1911	1932	1975	1970	1952	1914	1901	1910	1931	1935	1928	1930	1929	1910	1751	1672	1638	1631	1647	1663	1644	1638	1632	1625	1622	1610	1594	1588	1563	1492	1442	1434	1456	1477	1453	1453	1456	1461	1470	1459	1451	1456	1462	1463	1455	1456	1455	1456	1459	1453	1472	1481	1487	1489	1496	1493	1486	1467	1446	1451	1462	1469	1459	1447	1440	1441	1448	1459	1468	1449	1452	1443	1459	1477	1470	1461	1463	1482	1485	1534	1759	1890	2026	2147	2218	2246	2215	2207	2213	2268	2264	2254	2241	2223	2232	2253	2267	2276	2280	2281	2257	2234	2217	2237	2264	2283	2308	2295	2286	2285	2281	2312	2306	2284	2259	2243	2257	2258	2266	2264	2291	2326	2363	2368	2381	2366	2366	2353	2373	2375	2368	2363	2365	2322	2303	2278	2294	2301	2279	2293	2287	2301	2313	2308	2296	2274	2253	2232	2147	2076	2025	2021	2029	2034	2035	2029	2026	2019	2019	2011	2006	2005	2005	2007	2009	2012	2017	2020	2026	2028	2032	2026	2016	2013	2010	2013	2013	2008	0	0	0	0	0	0	0	0
1508	1521	1526	1526	1514	1500	1485	1476	1482	1482	1509	1524	1535	1546	1550	1550	1548	1541	1535	1538	1544	1544	1529	1523	1526	1529	1527	1524	1524	1524	1521	1525	1531	1533	1522	1515	1515	1523	1525	1519	1514	1517	1517	1518	1529	1529	1535	1533	1527	1517	1529	1553	1561	1561	1553	1555	1555	1572	1591	1596	1586	1569	1554	1550	1558	1557	1549	1548	1543	1543	1562	1574	1576	1576	1571	1561	1547	1553	1563	1574	1577	1563	1576	1581	1584	1587	1594	1599	1596	1605	1621	1631	1625	1611	1597	1585	1589	1582	1569	1567	1569	1580	1588	1589	1603	1654	1644	1614	1587	1590	1592	1594	1591	1585	1594	1607	1614	1628	1631	1622	1599	1574	1555	1551	1572	1602	1631	1627	1598	1600	1605	1619	1623	1616	1600	1581	1586	1592	1603	1616	1619	1611	1587	1580	1603	1617	1615	1591	1568	1571	1574	1577	1592	1604	1613	1613	1613	1617	1620	1625	1634	1636	1645	1653	1670	1664	1672	1670	1657	1647	1644	1655	1672	1676	1671	1659	1620	1524	1502	1481	1441	1479	1480	1470	1461	1473	1499	1515	1515	1521	1525	1516	1503	1485	1481	1472	1463	1462	1483	1490	1487	1470	1459	1453	1460	1467	1465	1476	1472	1467	1459	1457	1460	1470	1477	1483	1490	1487	1487	1472	1495	1493	1494	1503	1497	1483	1483	1479	1492	1544	1558	1548	1530	1528	1556	1568	1582	1579	1579	1583	1590	1617	1641	1667	1666	1672	1666	1663	1662	1671	1684	1685	1672	1679	1689	1703	1713	1733	1736	1736	1735	1728	1734	1729	1726	1719	1717	1718	1719	1707	1697	1696	1702	1706	1729	1717	1709	1693	1690	1693	1704	1722	1726	1719	1719	1716	1737	1764	1765	1759	1762	1766	1776	1781	1785	1773	1751	1730	1715	1706	1718	1735	1763	1774	1782	1779	1762	1724	1705	1696	1683	1673	1599	1572	1548	1480	1442	1455	1490	1484	1475	1479	1475	1477	1472	1474	1479	1489	1493	1502	1500	1503	1497	1489	1472	1466	1472	1484	1493	1502	1516	1511	1508	1505	1508	1509	1481	1484	1496	1498	1489	1478	1477	1490	1463	1465	1451	1453	1461	1473	1482	1495	1491	1491	1505	1497	1498	1499	1495	1501	1503	1521	1524	1528	1536	1539	1543	1528	1514	1494	1494	1476	1477	1476	1500	1502	1509	1505	1465	1466	1468	1439	1447	1623	1664	1735	1795	1815	1837	1865	1896	1942	1957	1950	1934	1919	1918	1936	1943	1932	1913	1918	1946	1986	2016	2002	1997	1983	1965	1968	1981	1983	1967	1960	1976	1983	1962	1951	1943	1933	1944	1976	2011	2010	1997	1997	2008	2021	2025	2028	2019	2000	1965	1953	1953	1956	1962	1970	1988	1969	1951	1926	1894	1891	1915	1949	1975	1965	1949	1925	1895	1896	1919	1910	1905	1895	1903	1868	1723	1657	1631	1600	1586	1596	1609	1610	1602	1596	1579	1549	1541	1545	1540	1517	1470	1442	1471	1490	1459	1462	1465	1471	1474	1449	1446	1447	1450	1445	1442	1451	1457	1460	1455	1455	1458	1465	1468	1480	1498	1496	1475	1460	1451	1464	1472	1476	1459	1448	1443	1440	1443	1450	1451	1444	1437	1440	1441	1460	1458	1449	1444	1472	1483	1546	1740	1853	1984	2094	2157	2159	2163	2174	2159	2166	2163	2175	2170	2175	2183	2211	2188	2157	2163	2222	2221	2203	2185	2173	2181	2214	2232	2238	2247	2251	2253	2248	2252	2236	2228	2231	2226	2233	2233	2237	2250	2276	2294	2301	2294	2285	2290	2307	2318	2315	2298	2277	2278	2259	2234	2232	2237	2229	2232	2230	2211	2211	2242	2232	2219	2216	2203	2177	2120	2056	2010	2012	2021	2029	2033	2024	2022	2015	2015	2002	1993	1995	2002	2012	2020	2021	2025	2026	2028	2038	2041	2040	2037	2037	2032	2023	2023	2015	0	0	0	0	0	0	0	0
1478	1481	1485	1485	1487	1485	1475	1468	1473	1473	1485	1501	1508	1516	1531	1531	1529	1522	1517	1519	1529	1511	1502	1485	1484	1471	1466	1472	1472	1484	1500	1503	1507	1507	1500	1499	1499	1501	1487	1491	1492	1494	1504	1518	1526	1526	1526	1505	1489	1491	1510	1533	1550	1535	1519	1524	1546	1546	1565	1572	1553	1549	1545	1538	1535	1531	1515	1497	1501	1510	1532	1552	1559	1559	1561	1546	1545	1546	1556	1562	1560	1550	1558	1558	1559	1563	1567	1572	1573	1592	1602	1617	1618	1607	1595	1584	1577	1554	1512	1503	1515	1541	1547	1548	1556	1576	1583	1580	1571	1568	1575	1581	1577	1567	1567	1574	1573	1575	1555	1549	1555	1551	1543	1546	1562	1586	1611	1608	1594	1576	1582	1593	1607	1595	1581	1568	1565	1569	1574	1575	1580	1584	1566	1559	1581	1599	1597	1588	1570	1566	1562	1561	1575	1590	1599	1599	1601	1600	1607	1608	1612	1616	1620	1629	1643	1633	1622	1615	1612	1618	1624	1635	1651	1656	1656	1640	1601	1498	1478	1462	1443	1466	1475	1469	1464	1475	1493	1510	1518	1521	1519	1505	1497	1477	1483	1480	1458	1453	1458	1470	1477	1468	1458	1456	1462	1476	1486	1487	1490	1490	1483	1479	1456	1458	1466	1479	1482	1487	1487	1467	1485	1482	1509	1510	1485	1474	1480	1476	1484	1511	1557	1551	1527	1541	1551	1567	1589	1596	1590	1574	1600	1619	1636	1638	1635	1642	1651	1654	1649	1647	1648	1634	1632	1644	1662	1664	1674	1687	1696	1698	1692	1688	1680	1667	1665	1687	1687	1694	1700	1701	1690	1680	1669	1673	1676	1683	1672	1663	1656	1671	1691	1715	1726	1720	1708	1699	1696	1701	1732	1723	1732	1732	1743	1752	1764	1763	1740	1712	1695	1693	1707	1733	1748	1755	1764	1757	1734	1718	1707	1690	1676	1649	1594	1558	1536	1491	1471	1478	1493	1484	1479	1480	1472	1463	1465	1469	1473	1480	1497	1495	1490	1479	1475	1483	1485	1484	1493	1505	1507	1504	1505	1501	1498	1504	1510	1509	1497	1491	1494	1497	1495	1480	1473	1479	1490	1484	1470	1459	1470	1480	1495	1501	1502	1503	1498	1493	1494	1482	1482	1491	1511	1503	1499	1503	1519	1521	1515	1507	1500	1495	1491	1482	1485	1484	1507	1509	1516	1497	1462	1460	1460	1455	1452	1604	1656	1738	1811	1818	1817	1823	1842	1891	1924	1921	1908	1893	1887	1906	1916	1911	1882	1868	1876	1908	1942	1956	1943	1936	1941	1947	1960	1962	1930	1913	1905	1904	1896	1902	1909	1909	1918	1943	1954	1965	1964	1956	1968	1971	1965	1952	1923	1921	1921	1937	1944	1951	1944	1950	1968	1987	1961	1928	1903	1899	1921	1951	1965	1949	1942	1920	1906	1896	1906	1913	1906	1909	1914	1804	1706	1675	1636	1609	1586	1579	1586	1593	1585	1571	1544	1513	1496	1505	1515	1542	1496	1455	1476	1495	1464	1463	1461	1465	1468	1455	1447	1448	1442	1434	1441	1451	1459	1462	1452	1448	1447	1453	1458	1477	1487	1487	1472	1451	1459	1470	1473	1469	1457	1442	1443	1441	1441	1439	1435	1433	1427	1434	1455	1464	1447	1441	1429	1472	1497	1560	1709	1809	1949	2067	2119	2136	2141	2138	2134	2137	2147	2148	2144	2145	2134	2131	2134	2137	2142	2153	2186	2199	2181	2168	2160	2163	2189	2207	2205	2189	2189	2184	2174	2195	2195	2199	2203	2198	2202	2204	2212	2212	2223	2245	2243	2242	2257	2278	2279	2249	2200	2178	2184	2199	2200	2202	2195	2196	2193	2185	2169	2152	2135	2131	2163	2166	2164	2107	2071	2044	2009	2011	2017	2030	2031	2019	2012	2012	2012	1990	1986	1987	2003	2013	2019	2025	2024	2025	2032	2040	2051	2056	2061	2061	2046	2030	2030	2016	0	0	0	0	0	0	0	0
1453	1451	1450	1457	1457	1459	1448	1443	1446	1446	1471	1475	1475	1483	1485	1485	1480	1471	1488	1504	1511	1470	1469	1453	1450	1445	1450	1456	1456	1470	1478	1487	1485	1475	1472	1476	1476	1470	1479	1485	1491	1497	1504	1516	1524	1524	1520	1503	1481	1482	1493	1515	1521	1493	1484	1472	1467	1467	1468	1484	1502	1513	1514	1508	1513	1511	1488	1473	1474	1488	1507	1527	1540	1540	1540	1534	1538	1537	1544	1544	1541	1538	1541	1549	1553	1550	1556	1552	1540	1555	1563	1572	1563	1554	1540	1529	1526	1509	1495	1489	1497	1519	1539	1539	1544	1550	1536	1538	1540	1540	1545	1562	1564	1563	1562	1559	1551	1538	1529	1531	1533	1534	1531	1532	1541	1551	1580	1581	1579	1569	1568	1578	1581	1578	1561	1548	1541	1545	1544	1545	1539	1539	1538	1535	1550	1566	1566	1555	1568	1559	1550	1546	1555	1570	1585	1589	1587	1582	1578	1568	1565	1574	1580	1600	1613	1606	1585	1572	1567	1577	1598	1620	1623	1620	1607	1600	1594	1541	1458	1445	1453	1474	1479	1471	1460	1471	1493	1501	1507	1516	1510	1503	1480	1469	1478	1475	1454	1447	1455	1461	1470	1465	1458	1454	1463	1469	1483	1487	1487	1489	1481	1469	1441	1449	1459	1471	1478	1487	1473	1462	1487	1481	1502	1505	1469	1470	1482	1472	1485	1508	1536	1550	1553	1545	1529	1551	1587	1607	1597	1593	1595	1611	1623	1628	1622	1625	1627	1629	1622	1617	1609	1614	1611	1615	1625	1640	1652	1656	1658	1651	1652	1646	1645	1634	1621	1638	1659	1673	1680	1674	1688	1674	1667	1668	1692	1699	1691	1665	1650	1637	1638	1656	1694	1710	1688	1669	1665	1684	1714	1710	1708	1701	1713	1725	1731	1709	1667	1652	1642	1658	1687	1712	1727	1736	1729	1713	1700	1694	1694	1687	1673	1661	1576	1548	1518	1510	1505	1492	1488	1482	1480	1484	1475	1465	1462	1464	1478	1482	1485	1483	1483	1473	1471	1475	1487	1497	1505	1510	1507	1503	1502	1506	1504	1507	1500	1500	1500	1495	1501	1502	1493	1478	1482	1486	1486	1490	1482	1478	1475	1483	1497	1521	1523	1520	1507	1498	1490	1483	1465	1485	1485	1484	1490	1509	1517	1520	1510	1503	1498	1496	1490	1486	1489	1501	1511	1512	1508	1496	1460	1459	1487	1484	1480	1586	1635	1743	1794	1807	1811	1807	1820	1831	1842	1856	1854	1843	1837	1855	1868	1860	1855	1854	1842	1837	1843	1860	1865	1851	1854	1858	1868	1874	1888	1891	1879	1861	1857	1864	1876	1875	1894	1908	1910	1910	1908	1912	1921	1928	1930	1925	1904	1885	1892	1921	1946	1946	1938	1936	1954	1968	1945	1915	1914	1918	1932	1941	1939	1925	1913	1911	1915	1923	1930	1936	1933	1932	1935	1854	1718	1667	1655	1620	1599	1579	1579	1581	1574	1566	1535	1517	1507	1513	1517	1550	1515	1468	1473	1485	1469	1453	1448	1448	1458	1455	1452	1446	1439	1438	1447	1457	1465	1461	1450	1438	1444	1450	1461	1474	1487	1479	1469	1460	1458	1467	1464	1456	1439	1440	1440	1445	1440	1428	1423	1423	1433	1448	1473	1466	1446	1434	1433	1473	1508	1580	1691	1790	1926	2048	2085	2090	2109	2104	2111	2128	2136	2133	2114	2120	2118	2115	2108	2103	2105	2112	2119	2129	2128	2126	2068	2063	2074	2104	2104	2098	2087	2086	2092	2096	2114	2112	2098	2092	2094	2094	2102	2124	2126	2124	2125	2155	2167	2162	2152	2145	2128	2119	2119	2123	2133	2169	2158	2156	2157	2161	2136	2106	2120	2140	2148	2127	2104	2077	2052	2040	2026	2013	2012	2016	2029	2024	2005	2002	2002	1974	1971	1984	1994	2008	2016	2012	2013	2018	2024	2041	2061	2075	2080	2064	2044	2030	2030	2016	0	0	0	0	0	0	0	0
1433	1426	1424	1426	1426	1422	1409	1420	1440	1440	1460	1457	1458	1456	1463	1463	1459	1443	1441	1456	1445	1445	1439	1431	1426	1424	1436	1450	1450	1466	1468	1462	1461	1440	1438	1443	1443	1449	1461	1474	1481	1482	1487	1498	1505	1505	1504	1492	1489	1487	1486	1488	1488	1490	1488	1478	1470	1470	1466	1473	1485	1494	1490	1480	1472	1482	1473	1460	1471	1478	1489	1502	1505	1508	1508	1514	1524	1526	1531	1525	1524	1527	1536	1550	1552	1546	1531	1521	1521	1529	1544	1541	1523	1505	1508	1507	1506	1494	1484	1477	1481	1501	1520	1532	1536	1533	1529	1530	1532	1533	1535	1541	1554	1555	1547	1541	1541	1533	1523	1521	1522	1516	1504	1500	1498	1517	1542	1560	1562	1559	1556	1560	1555	1562	1550	1538	1528	1526	1520	1515	1522	1514	1519	1508	1524	1539	1544	1541	1550	1540	1537	1536	1546	1565	1579	1578	1569	1557	1547	1534	1532	1535	1542	1565	1587	1590	1570	1549	1535	1544	1565	1572	1569	1568	1575	1581	1570	1546	1524	1456	1451	1492	1491	1467	1461	1479	1490	1495	1499	1508	1506	1495	1483	1480	1479	1475	1472	1482	1482	1486	1471	1458	1451	1445	1447	1459	1472	1474	1483	1485	1483	1467	1430	1418	1431	1456	1470	1477	1442	1462	1481	1486	1485	1488	1479	1479	1489	1472	1475	1500	1510	1522	1565	1575	1585	1600	1605	1604	1607	1599	1592	1592	1600	1604	1612	1611	1613	1612	1606	1599	1593	1595	1592	1604	1612	1621	1630	1636	1628	1622	1618	1618	1620	1615	1609	1603	1616	1627	1650	1651	1658	1663	1660	1664	1667	1679	1664	1650	1636	1623	1622	1614	1615	1616	1624	1617	1628	1634	1628	1653	1660	1651	1643	1682	1675	1672	1658	1634	1630	1641	1662	1685	1681	1681	1678	1676	1674	1676	1676	1679	1662	1652	1544	1527	1509	1521	1516	1496	1478	1477	1478	1478	1474	1470	1462	1469	1479	1480	1475	1472	1471	1469	1477	1470	1480	1497	1505	1512	1510	1500	1501	1507	1508	1504	1495	1491	1491	1494	1497	1500	1484	1483	1479	1479	1490	1484	1470	1468	1468	1488	1499	1507	1512	1522	1530	1496	1482	1467	1472	1482	1474	1482	1496	1507	1511	1513	1505	1501	1494	1491	1487	1481	1491	1500	1506	1507	1500	1486	1460	1458	1490	1523	1501	1562	1602	1729	1758	1774	1781	1784	1779	1787	1797	1794	1776	1781	1794	1811	1832	1837	1833	1822	1810	1791	1791	1786	1778	1794	1814	1821	1825	1841	1851	1859	1853	1835	1826	1832	1845	1854	1859	1851	1860	1852	1860	1863	1868	1862	1866	1873	1865	1861	1863	1883	1922	1936	1928	1920	1921	1930	1908	1875	1840	1858	1884	1891	1909	1895	1891	1899	1910	1915	1928	1931	1920	1923	1917	1843	1715	1653	1649	1633	1618	1599	1580	1580	1573	1567	1557	1544	1537	1533	1528	1548	1513	1473	1470	1467	1469	1460	1449	1447	1469	1466	1452	1446	1440	1445	1451	1463	1464	1461	1451	1435	1438	1449	1457	1469	1477	1476	1469	1447	1449	1461	1462	1443	1428	1430	1434	1440	1435	1426	1419	1431	1442	1451	1473	1464	1442	1441	1442	1481	1512	1560	1687	1783	1925	2036	2060	2072	2070	2073	2076	2105	2099	2098	2102	2092	2053	2059	2049	2046	2043	2061	2071	2058	2040	2024	2021	2029	2044	2069	2088	2083	2065	2052	2049	2044	2042	2032	2037	2058	2061	2059	2047	2047	2070	2079	2089	2089	2105	2124	2128	2119	2099	2095	2089	2089	2085	2088	2089	2102	2117	2134	2123	2098	2074	2078	2071	2061	2057	2057	2072	2065	2048	2032	2018	2014	2017	2014	2005	2005	1991	2000	1972	1978	1984	1990	1982	1971	1965	1975	2008	2042	2063	2076	2073	2062	2047	2033	2033	2018	0	0	0	0	0	0	0	0
1417	1411	1404	1401	1401	1392	1397	1411	1429	1429	1442	1432	1427	1440	1450	1450	1447	1442	1433	1436	1422	1422	1420	1420	1413	1412	1425	1434	1434	1445	1435	1427	1410	1410	1413	1414	1414	1426	1441	1454	1460	1465	1466	1466	1475	1476	1476	1468	1466	1465	1473	1478	1478	1475	1473	1471	1466	1466	1469	1469	1471	1470	1465	1458	1447	1442	1454	1462	1473	1474	1476	1475	1469	1475	1475	1482	1504	1520	1518	1509	1508	1513	1524	1518	1513	1506	1501	1488	1492	1509	1504	1494	1481	1474	1483	1495	1491	1488	1478	1465	1479	1481	1492	1505	1514	1513	1523	1530	1532	1534	1527	1527	1521	1517	1517	1523	1535	1535	1519	1511	1500	1492	1479	1470	1474	1486	1511	1524	1539	1537	1510	1507	1505	1515	1531	1525	1518	1520	1519	1509	1500	1509	1525	1543	1548	1542	1532	1531	1506	1515	1532	1532	1533	1548	1554	1551	1540	1525	1520	1512	1522	1524	1530	1542	1559	1583	1558	1532	1523	1541	1548	1546	1547	1554	1553	1547	1528	1511	1516	1529	1522	1515	1491	1478	1497	1500	1498	1496	1504	1510	1508	1504	1503	1497	1488	1480	1484	1494	1497	1486	1478	1469	1445	1435	1441	1450	1469	1473	1480	1483	1488	1483	1435	1420	1421	1442	1461	1469	1447	1464	1476	1476	1471	1470	1483	1499	1491	1475	1469	1476	1498	1512	1526	1583	1600	1616	1612	1611	1605	1593	1583	1582	1588	1592	1590	1592	1599	1598	1579	1557	1542	1537	1563	1592	1601	1608	1613	1613	1605	1592	1590	1597	1608	1616	1605	1595	1592	1590	1582	1578	1588	1609	1625	1627	1644	1648	1648	1623	1617	1604	1602	1597	1598	1595	1593	1582	1587	1592	1608	1618	1614	1607	1602	1586	1575	1636	1630	1614	1611	1617	1636	1640	1632	1639	1649	1644	1653	1657	1647	1637	1634	1624	1559	1504	1496	1512	1512	1493	1476	1480	1481	1474	1470	1461	1458	1466	1478	1477	1471	1459	1458	1462	1471	1476	1471	1477	1486	1503	1506	1507	1503	1503	1507	1500	1495	1489	1481	1484	1486	1475	1481	1489	1493	1492	1486	1476	1467	1467	1477	1480	1494	1490	1488	1503	1506	1503	1495	1495	1477	1478	1481	1484	1494	1503	1500	1499	1502	1498	1492	1491	1479	1487	1497	1500	1499	1494	1507	1500	1463	1476	1502	1510	1511	1542	1567	1665	1707	1732	1756	1762	1756	1743	1737	1735	1747	1749	1758	1769	1774	1806	1810	1767	1756	1741	1744	1743	1741	1753	1786	1808	1806	1810	1813	1824	1828	1822	1815	1800	1807	1814	1802	1804	1808	1813	1815	1811	1800	1783	1787	1805	1822	1830	1833	1846	1859	1880	1884	1887	1884	1883	1863	1836	1815	1809	1813	1833	1830	1850	1857	1863	1875	1887	1883	1900	1913	1919	1892	1829	1695	1624	1620	1623	1616	1608	1598	1588	1578	1568	1565	1556	1549	1534	1519	1528	1497	1476	1480	1452	1456	1461	1475	1484	1484	1473	1459	1443	1439	1453	1460	1460	1460	1456	1455	1444	1442	1444	1451	1460	1466	1468	1452	1435	1447	1459	1462	1451	1436	1442	1445	1441	1434	1426	1423	1434	1448	1457	1466	1460	1445	1429	1446	1490	1517	1551	1672	1753	1911	2000	2031	2030	2034	1988	1988	2011	2015	2019	2039	2036	2025	2029	2036	2027	2031	2040	2053	2031	2002	1986	1999	2010	2020	2046	2067	2062	2037	2017	2022	2010	2002	2008	2007	2029	2041	2044	2037	2030	2035	2051	2057	2041	2051	2060	2059	2068	2071	2044	2034	2044	2041	2033	2023	2055	2094	2097	2095	2084	2057	2041	2041	2044	2045	2057	2073	2076	2059	2032	2020	2013	2016	2013	2004	2004	1978	1971	1982	1965	1969	1972	1968	1966	1977	1996	2015	2025	2024	2015	2014	2016	2033	2033	2047	2045	0	0	0	0	0	0	0	0
1403	1398	1387	1380	1380	1379	1396	1410	1408	1408	1414	1408	1413	1432	1441	1441	1439	1432	1422	1402	1407	1414	1414	1411	1400	1397	1402	1410	1410	1410	1405	1395	1390	1390	1395	1401	1401	1409	1420	1434	1444	1440	1438	1438	1443	1448	1448	1450	1452	1456	1468	1473	1459	1451	1458	1461	1462	1462	1464	1462	1455	1448	1444	1437	1433	1426	1429	1448	1461	1464	1459	1445	1438	1444	1444	1457	1468	1481	1492	1490	1491	1491	1479	1473	1469	1474	1472	1467	1468	1469	1474	1470	1454	1456	1467	1473	1466	1474	1471	1455	1447	1453	1463	1472	1469	1456	1457	1483	1490	1486	1455	1451	1459	1470	1471	1470	1478	1490	1493	1478	1458	1442	1432	1429	1434	1468	1490	1472	1461	1456	1452	1472	1480	1485	1498	1498	1499	1505	1500	1493	1489	1494	1502	1512	1514	1513	1510	1502	1497	1504	1510	1516	1518	1514	1506	1505	1497	1491	1486	1487	1493	1503	1522	1536	1555	1569	1545	1499	1506	1509	1515	1516	1518	1526	1530	1524	1503	1486	1488	1513	1519	1502	1503	1510	1512	1513	1514	1510	1508	1515	1516	1507	1494	1493	1485	1476	1483	1485	1487	1488	1482	1473	1453	1437	1439	1461	1473	1480	1482	1483	1491	1500	1480	1439	1438	1460	1475	1477	1470	1463	1467	1473	1467	1476	1483	1497	1505	1509	1517	1528	1539	1535	1535	1543	1563	1569	1579	1595	1595	1587	1577	1569	1573	1571	1546	1545	1548	1550	1549	1536	1529	1519	1533	1570	1581	1588	1591	1586	1579	1569	1569	1576	1598	1596	1586	1582	1579	1573	1556	1552	1554	1563	1571	1584	1596	1598	1592	1591	1587	1590	1589	1582	1574	1564	1563	1549	1541	1552	1569	1574	1598	1594	1584	1568	1559	1566	1576	1587	1581	1579	1587	1583	1587	1591	1593	1631	1639	1639	1615	1596	1593	1607	1558	1511	1491	1498	1497	1488	1474	1486	1492	1474	1462	1457	1453	1458	1468	1473	1466	1454	1447	1457	1468	1473	1481	1481	1479	1481	1487	1494	1497	1494	1495	1493	1491	1489	1479	1467	1463	1474	1484	1497	1502	1499	1480	1477	1486	1487	1477	1473	1482	1491	1480	1479	1493	1496	1494	1488	1487	1476	1477	1478	1469	1473	1485	1493	1498	1496	1492	1487	1476	1498	1513	1514	1500	1504	1502	1498	1496	1490	1508	1503	1514	1530	1546	1633	1675	1694	1722	1745	1735	1714	1700	1699	1716	1720	1726	1731	1732	1735	1747	1756	1756	1734	1715	1714	1715	1717	1718	1750	1769	1773	1791	1793	1810	1815	1793	1773	1776	1780	1779	1784	1784	1783	1777	1767	1743	1730	1739	1763	1784	1800	1809	1807	1776	1789	1792	1812	1835	1817	1815	1811	1807	1799	1797	1791	1785	1794	1798	1822	1839	1856	1872	1892	1899	1896	1871	1807	1688	1609	1596	1599	1603	1606	1600	1594	1577	1574	1550	1541	1516	1519	1500	1512	1478	1472	1489	1473	1460	1467	1472	1495	1489	1480	1463	1453	1450	1458	1459	1456	1459	1472	1472	1461	1445	1438	1444	1453	1454	1454	1447	1441	1447	1454	1462	1461	1456	1461	1459	1452	1427	1418	1421	1439	1454	1469	1458	1449	1438	1432	1433	1487	1524	1555	1656	1672	1835	1912	1937	1953	1961	1960	1953	1999	2009	2015	2021	2012	2004	2006	2013	2017	2007	2013	1994	1947	1935	1939	1955	1985	2000	2017	2022	2007	2005	1952	1974	1971	1969	1985	1992	1993	2020	2028	2030	2021	2028	2017	2014	1992	1978	1973	1981	2008	2010	1994	1993	1995	1999	1982	1974	2004	2039	2068	2064	2047	2025	2022	2029	2023	2021	2036	2055	2057	2049	2024	2008	2011	2015	2017	2012	2012	1981	1957	1963	1950	1939	1940	1954	1975	1980	1988	1990	1992	1977	1966	1965	1967	1984	1984	1995	1990	0	0	0	0	0	0	0	0
1376	1374	1371	1367	1367	1367	1383	1393	1381	1381	1388	1390	1396	1417	1425	1425	1428	1418	1409	1390	1393	1402	1402	1406	1399	1381	1381	1382	1376	1376	1372	1370	1377	1382	1387	1392	1393	1393	1399	1409	1420	1420	1412	1406	1412	1424	1424	1435	1437	1446	1453	1448	1437	1437	1448	1453	1456	1456	1458	1451	1441	1428	1422	1419	1416	1417	1418	1427	1438	1443	1442	1432	1426	1424	1433	1433	1449	1450	1450	1444	1443	1441	1444	1447	1449	1449	1452	1460	1461	1449	1436	1430	1431	1433	1436	1442	1444	1443	1435	1430	1428	1428	1438	1445	1452	1460	1460	1459	1447	1426	1419	1435	1443	1451	1451	1446	1453	1467	1474	1462	1444	1427	1420	1414	1425	1446	1475	1473	1464	1449	1437	1439	1444	1449	1448	1442	1447	1443	1441	1433	1450	1459	1464	1480	1486	1492	1487	1484	1478	1478	1479	1484	1490	1492	1491	1489	1481	1476	1477	1477	1475	1473	1479	1497	1510	1515	1505	1493	1502	1499	1501	1505	1513	1511	1516	1515	1514	1509	1493	1473	1468	1474	1489	1500	1505	1514	1518	1514	1511	1514	1509	1501	1481	1459	1440	1444	1459	1493	1503	1506	1511	1511	1504	1479	1467	1464	1461	1464	1476	1482	1472	1453	1441	1446	1452	1461	1464	1458	1471	1479	1489	1492	1491	1477	1477	1491	1500	1520	1519	1498	1505	1497	1493	1505	1535	1557	1570	1576	1572	1545	1526	1517	1510	1509	1517	1526	1524	1536	1540	1535	1523	1507	1502	1530	1562	1566	1559	1543	1541	1534	1539	1545	1543	1546	1546	1551	1554	1551	1520	1516	1525	1529	1535	1549	1566	1569	1567	1564	1567	1557	1557	1550	1548	1542	1533	1519	1508	1499	1512	1547	1592	1584	1565	1554	1555	1555	1564	1563	1556	1547	1558	1563	1561	1561	1563	1584	1602	1598	1583	1589	1584	1573	1542	1506	1491	1484	1485	1492	1477	1485	1489	1470	1459	1456	1452	1453	1462	1466	1466	1458	1448	1455	1462	1473	1484	1491	1488	1484	1487	1493	1496	1488	1492	1497	1489	1486	1484	1481	1459	1481	1484	1505	1511	1507	1494	1489	1490	1483	1468	1470	1487	1491	1480	1475	1485	1493	1488	1488	1477	1470	1470	1454	1457	1466	1476	1490	1501	1497	1491	1487	1485	1508	1507	1503	1496	1495	1493	1488	1513	1515	1491	1484	1498	1515	1529	1611	1641	1664	1674	1685	1693	1687	1677	1675	1680	1693	1704	1711	1714	1716	1728	1723	1736	1730	1702	1698	1696	1695	1687	1682	1680	1693	1686	1688	1709	1722	1737	1725	1731	1746	1757	1763	1762	1764	1762	1744	1717	1699	1709	1728	1747	1761	1759	1753	1738	1741	1757	1770	1796	1800	1785	1785	1806	1813	1801	1772	1760	1763	1793	1813	1838	1842	1847	1847	1838	1820	1845	1832	1752	1640	1583	1571	1574	1592	1600	1600	1582	1565	1538	1508	1502	1511	1491	1496	1462	1462	1486	1473	1451	1461	1460	1491	1488	1482	1474	1478	1483	1459	1451	1456	1465	1472	1475	1471	1455	1447	1442	1452	1456	1455	1454	1452	1455	1446	1450	1451	1458	1473	1467	1448	1428	1415	1418	1437	1460	1481	1459	1448	1435	1432	1443	1456	1498	1550	1602	1654	1804	1890	1907	1915	1927	1918	1921	1942	1973	1986	1994	1989	1983	1982	1983	1978	1969	1955	1935	1904	1899	1900	1902	1930	1952	1965	1935	1919	1908	1882	1883	1914	1948	1960	1965	1959	1955	1976	2000	2013	2007	1997	1951	1941	1943	1950	1960	1957	1956	1955	1962	1960	1957	1956	1951	1943	1948	1962	1963	1964	1964	1970	1969	1976	1970	1976	2005	2016	2009	1996	1980	1983	1993	1989	1991	2000	1993	1964	1959	1960	1949	1934	1931	1942	1950	1952	1948	1963	1964	1957	1956	1950	1935	1935	1928	1926	0	0	0	0	0	0	0	0
1355	1348	1343	1338	1338	1350	1362	1360	1363	1357	1357	1370	1377	1393	1406	1406	1410	1409	1394	1386	1376	1379	1379	1385	1392	1383	1365	1355	1353	1353	1353	1358	1363	1374	1378	1375	1367	1367	1367	1381	1400	1401	1392	1381	1383	1386	1386	1396	1410	1427	1422	1425	1422	1426	1425	1440	1442	1444	1444	1445	1437	1420	1409	1394	1383	1384	1396	1405	1415	1424	1428	1423	1412	1415	1420	1420	1424	1416	1396	1396	1398	1408	1420	1429	1408	1408	1424	1433	1430	1427	1428	1426	1417	1413	1410	1416	1422	1424	1423	1420	1419	1419	1424	1436	1449	1455	1454	1442	1430	1408	1412	1410	1420	1432	1428	1429	1435	1453	1463	1451	1432	1413	1402	1400	1415	1432	1463	1459	1453	1432	1421	1419	1424	1426	1428	1431	1438	1442	1433	1423	1415	1414	1417	1419	1422	1416	1446	1459	1463	1455	1449	1451	1464	1476	1483	1481	1475	1469	1464	1462	1466	1471	1480	1485	1480	1480	1488	1492	1488	1488	1481	1489	1499	1504	1498	1495	1503	1510	1493	1474	1455	1465	1484	1498	1498	1496	1484	1488	1489	1492	1494	1491	1474	1451	1440	1442	1453	1491	1503	1506	1501	1487	1480	1473	1464	1455	1455	1464	1479	1472	1461	1445	1432	1433	1440	1445	1450	1442	1454	1466	1478	1480	1472	1453	1471	1467	1482	1491	1477	1489	1494	1477	1458	1467	1488	1505	1499	1496	1499	1501	1502	1502	1493	1479	1485	1489	1503	1522	1527	1526	1514	1494	1482	1491	1521	1521	1519	1522	1529	1516	1510	1508	1512	1508	1509	1501	1497	1496	1489	1503	1517	1515	1515	1502	1505	1521	1543	1542	1528	1523	1526	1528	1522	1512	1504	1495	1492	1497	1510	1526	1548	1548	1524	1505	1518	1526	1536	1520	1523	1525	1524	1523	1541	1544	1543	1548	1562	1576	1580	1573	1572	1563	1542	1500	1489	1477	1484	1491	1485	1484	1474	1466	1464	1462	1458	1459	1466	1475	1478	1494	1481	1467	1468	1473	1498	1509	1500	1490	1494	1496	1498	1496	1500	1500	1489	1482	1480	1478	1480	1466	1454	1448	1488	1495	1493	1483	1468	1457	1446	1468	1483	1497	1487	1470	1478	1494	1485	1472	1472	1466	1468	1461	1447	1461	1479	1494	1506	1507	1514	1508	1502	1493	1493	1489	1495	1491	1490	1487	1506	1487	1439	1459	1487	1497	1510	1574	1600	1623	1629	1616	1613	1609	1622	1633	1650	1667	1691	1699	1697	1680	1658	1655	1659	1673	1683	1680	1681	1663	1643	1646	1647	1653	1647	1645	1653	1660	1649	1637	1651	1709	1730	1733	1734	1734	1737	1724	1697	1683	1694	1715	1728	1738	1735	1729	1718	1720	1727	1740	1760	1767	1758	1748	1751	1760	1769	1764	1748	1770	1778	1745	1731	1720	1724	1724	1729	1737	1772	1794	1777	1704	1560	1534	1544	1577	1605	1613	1599	1575	1533	1513	1500	1507	1503	1496	1445	1442	1454	1456	1440	1454	1455	1488	1492	1486	1482	1485	1465	1450	1445	1451	1457	1462	1469	1474	1472	1462	1453	1452	1462	1464	1456	1447	1446	1446	1452	1447	1454	1467	1470	1459	1433	1419	1422	1438	1464	1477	1467	1462	1452	1442	1440	1451	1469	1541	1577	1659	1791	1857	1867	1869	1860	1853	1866	1866	1882	1890	1908	1929	1935	1931	1918	1927	1924	1920	1907	1889	1877	1875	1872	1872	1879	1889	1876	1873	1864	1853	1865	1886	1915	1929	1935	1938	1935	1936	1945	1968	1945	1914	1904	1916	1926	1932	1928	1919	1913	1930	1936	1944	1944	1940	1932	1914	1915	1912	1897	1879	1872	1878	1888	1903	1901	1899	1899	1894	1899	1902	1895	1889	1885	1891	1891	1894	1912	1926	1955	1958	1954	1943	1937	1934	1934	1929	1913	1889	1921	1935	1925	1924	1920	1920	1917	1919	0	0	0	0	0	0	0	0
1343	1332	1324	1323	1323	1328	1333	1338	1343	1344	1344	1350	1359	1371	1382	1393	1393	1396	1380	1375	1358	1354	1354	1358	1362	1361	1355	1343	1336	1336	1341	1349	1357	1362	1364	1354	1341	1341	1343	1354	1360	1364	1360	1346	1326	1317	1317	1330	1353	1374	1398	1408	1410	1403	1404	1412	1412	1418	1418	1410	1413	1408	1400	1386	1372	1367	1371	1388	1397	1406	1407	1407	1408	1419	1420	1420	1397	1378	1373	1376	1378	1393	1403	1403	1395	1391	1408	1420	1416	1414	1411	1415	1404	1393	1382	1386	1399	1403	1408	1409	1408	1405	1411	1424	1438	1437	1428	1416	1405	1395	1395	1398	1397	1412	1423	1414	1420	1434	1442	1437	1418	1399	1386	1389	1393	1410	1431	1437	1428	1412	1410	1404	1407	1409	1410	1416	1427	1438	1430	1422	1412	1406	1405	1403	1400	1402	1415	1423	1420	1397	1409	1419	1447	1455	1465	1474	1470	1463	1461	1462	1470	1476	1478	1470	1471	1469	1470	1473	1474	1463	1456	1469	1481	1482	1473	1469	1481	1479	1476	1456	1434	1432	1468	1478	1474	1473	1475	1476	1472	1474	1475	1476	1467	1455	1446	1449	1447	1476	1456	1433	1430	1447	1453	1459	1455	1451	1459	1467	1467	1463	1455	1441	1426	1429	1436	1440	1432	1429	1436	1438	1460	1463	1460	1448	1431	1410	1456	1455	1461	1478	1476	1476	1446	1454	1468	1477	1474	1473	1473	1476	1475	1482	1475	1466	1454	1459	1473	1493	1499	1497	1484	1476	1469	1464	1481	1499	1499	1504	1511	1505	1489	1490	1498	1497	1497	1482	1472	1475	1483	1495	1505	1505	1491	1477	1473	1497	1511	1512	1503	1496	1489	1487	1487	1498	1496	1491	1493	1498	1499	1511	1490	1495	1494	1489	1479	1483	1489	1469	1476	1493	1497	1500	1504	1505	1508	1541	1552	1554	1549	1547	1551	1543	1534	1517	1477	1480	1478	1487	1489	1485	1472	1470	1475	1475	1475	1473	1476	1487	1492	1492	1491	1479	1472	1480	1502	1514	1501	1496	1494	1497	1497	1501	1513	1513	1499	1488	1490	1494	1492	1476	1462	1461	1480	1479	1471	1463	1448	1448	1462	1481	1492	1500	1483	1468	1463	1460	1472	1468	1473	1471	1477	1471	1467	1475	1485	1482	1499	1514	1516	1513	1501	1489	1487	1493	1499	1492	1490	1490	1502	1443	1427	1441	1462	1482	1524	1562	1582	1590	1588	1583	1587	1594	1614	1600	1611	1628	1635	1642	1634	1632	1622	1616	1627	1637	1648	1649	1637	1629	1623	1634	1642	1643	1639	1637	1643	1645	1637	1637	1638	1655	1658	1652	1645	1637	1634	1639	1642	1652	1667	1686	1704	1706	1704	1691	1680	1681	1692	1703	1713	1722	1720	1718	1721	1729	1705	1708	1696	1703	1711	1709	1701	1692	1688	1690	1696	1701	1721	1729	1721	1684	1647	1629	1586	1563	1598	1622	1612	1570	1537	1511	1498	1528	1522	1502	1443	1416	1419	1436	1439	1450	1455	1486	1497	1494	1486	1477	1449	1440	1445	1448	1453	1455	1463	1467	1477	1480	1470	1472	1469	1467	1460	1442	1446	1447	1454	1450	1454	1463	1475	1471	1456	1448	1439	1431	1426	1451	1473	1463	1443	1440	1440	1458	1460	1536	1575	1691	1794	1830	1841	1829	1819	1810	1807	1801	1813	1826	1852	1852	1853	1854	1862	1869	1877	1877	1878	1863	1851	1851	1850	1857	1862	1861	1850	1836	1827	1830	1854	1868	1872	1889	1896	1910	1904	1894	1877	1836	1834	1858	1876	1890	1903	1906	1892	1890	1889	1898	1907	1918	1918	1919	1902	1897	1902	1896	1870	1842	1833	1843	1852	1871	1889	1883	1867	1860	1869	1861	1854	1847	1847	1847	1847	1842	1851	1896	1917	1918	1897	1940	1922	1920	1926	1920	1906	1876	1867	1876	1894	1912	1921	1921	1914	1907	0	0	0	0	0	0	0	0
1332	1326	1315	1309	1309	1306	1310	1313	1313	1319	1319	1321	1330	1338	1353	1371	1371	1381	1359	1351	1339	1320	1320	1315	1315	1323	1327	1320	1319	1319	1325	1338	1347	1338	1323	1311	1313	1313	1327	1336	1341	1346	1349	1338	1318	1309	1309	1313	1333	1355	1370	1384	1389	1379	1369	1361	1371	1377	1377	1381	1390	1383	1376	1366	1358	1355	1358	1367	1370	1381	1390	1395	1403	1413	1403	1403	1390	1363	1359	1361	1370	1383	1389	1387	1382	1377	1383	1400	1414	1407	1405	1400	1385	1375	1363	1361	1371	1379	1389	1394	1389	1384	1374	1405	1413	1412	1397	1383	1378	1378	1374	1383	1389	1392	1391	1394	1400	1417	1421	1415	1402	1386	1374	1368	1375	1393	1401	1425	1427	1405	1389	1383	1387	1393	1396	1400	1417	1428	1423	1415	1408	1403	1396	1390	1384	1398	1411	1408	1399	1394	1404	1410	1402	1402	1410	1417	1457	1455	1452	1446	1447	1452	1452	1453	1454	1449	1448	1455	1442	1432	1435	1427	1442	1447	1455	1450	1449	1446	1442	1431	1417	1418	1447	1445	1451	1453	1450	1452	1462	1464	1460	1457	1451	1446	1438	1442	1446	1442	1431	1415	1414	1424	1431	1433	1434	1435	1446	1451	1452	1450	1443	1428	1415	1413	1430	1433	1422	1413	1410	1417	1422	1426	1441	1426	1413	1405	1391	1388	1424	1448	1469	1469	1448	1446	1452	1457	1460	1458	1454	1455	1464	1472	1468	1454	1435	1438	1436	1439	1450	1459	1468	1474	1483	1481	1476	1485	1493	1485	1475	1468	1466	1477	1490	1497	1491	1469	1458	1450	1457	1461	1474	1489	1484	1477	1474	1480	1493	1496	1482	1461	1426	1414	1428	1456	1466	1463	1461	1450	1439	1442	1462	1474	1472	1475	1475	1464	1448	1456	1465	1477	1488	1490	1483	1471	1460	1465	1479	1496	1523	1527	1523	1517	1513	1499	1483	1472	1474	1490	1482	1478	1473	1480	1484	1476	1482	1482	1479	1482	1497	1494	1491	1478	1470	1476	1483	1486	1487	1487	1486	1485	1496	1511	1520	1520	1510	1495	1491	1497	1493	1482	1463	1459	1466	1472	1474	1477	1464	1463	1473	1490	1498	1500	1496	1486	1486	1482	1475	1473	1479	1482	1482	1475	1446	1455	1471	1483	1496	1508	1529	1527	1497	1489	1489	1495	1504	1512	1499	1497	1475	1444	1429	1429	1447	1473	1514	1545	1568	1584	1585	1580	1582	1595	1599	1587	1581	1600	1609	1612	1607	1588	1563	1566	1588	1610	1628	1621	1590	1572	1571	1592	1613	1610	1611	1620	1635	1640	1626	1624	1628	1636	1652	1651	1633	1599	1597	1612	1624	1635	1640	1651	1658	1672	1679	1675	1656	1638	1637	1654	1672	1676	1675	1687	1671	1677	1679	1667	1659	1665	1675	1680	1674	1666	1659	1657	1657	1653	1645	1671	1675	1672	1685	1678	1629	1601	1608	1597	1578	1565	1539	1514	1500	1535	1524	1510	1460	1406	1397	1419	1452	1458	1465	1483	1501	1495	1477	1464	1446	1444	1448	1455	1455	1449	1443	1466	1477	1484	1480	1479	1480	1472	1437	1442	1448	1457	1456	1457	1453	1463	1466	1464	1462	1453	1445	1424	1418	1445	1456	1455	1444	1441	1447	1473	1470	1538	1578	1671	1793	1820	1818	1810	1795	1788	1769	1765	1774	1784	1792	1814	1829	1840	1847	1844	1846	1850	1850	1837	1825	1816	1806	1827	1845	1851	1821	1804	1803	1800	1829	1837	1836	1838	1854	1862	1869	1852	1838	1822	1826	1834	1850	1860	1860	1851	1856	1864	1870	1867	1863	1840	1833	1842	1863	1877	1879	1858	1842	1822	1812	1816	1835	1832	1837	1843	1815	1815	1822	1823	1813	1802	1795	1807	1807	1812	1816	1819	1831	1837	1837	1832	1838	1846	1889	1900	1905	1878	1868	1873	1886	1912	1912	1913	1905	1892	0	0	0	0	0	0	0	0
1316	1294	1277	1274	1280	1280	1286	1292	1292	1296	1296	1295	1311	1321	1330	1342	1342	1354	1297	1321	1309	1288	1288	1272	1279	1288	1305	1310	1312	1312	1315	1317	1302	1296	1294	1284	1304	1304	1320	1324	1328	1333	1332	1327	1317	1308	1306	1306	1323	1338	1344	1347	1339	1324	1312	1311	1318	1344	1344	1364	1367	1362	1358	1349	1340	1340	1340	1346	1351	1361	1376	1379	1382	1379	1338	1342	1342	1340	1333	1334	1338	1360	1372	1368	1361	1358	1361	1364	1378	1375	1376	1370	1370	1362	1356	1353	1351	1348	1354	1358	1365	1361	1352	1363	1383	1385	1370	1362	1358	1364	1362	1365	1371	1378	1382	1382	1378	1378	1378	1378	1372	1361	1353	1353	1359	1373	1385	1409	1408	1395	1382	1366	1366	1370	1365	1372	1395	1406	1407	1394	1389	1393	1392	1389	1391	1391	1389	1383	1386	1397	1398	1392	1379	1378	1385	1395	1397	1390	1385	1379	1382	1406	1413	1414	1416	1425	1419	1416	1423	1404	1397	1404	1423	1428	1430	1425	1424	1424	1422	1416	1401	1398	1414	1412	1424	1430	1433	1442	1453	1453	1444	1438	1428	1421	1422	1427	1422	1411	1405	1400	1405	1405	1403	1404	1400	1414	1424	1428	1422	1414	1408	1399	1390	1384	1407	1407	1411	1403	1398	1400	1394	1396	1393	1394	1403	1401	1393	1384	1391	1406	1455	1465	1450	1432	1418	1431	1446	1464	1471	1468	1463	1471	1467	1447	1431	1425	1428	1434	1429	1433	1452	1458	1459	1455	1457	1461	1462	1463	1456	1457	1457	1462	1466	1477	1476	1465	1446	1439	1445	1447	1461	1469	1471	1469	1464	1463	1453	1439	1422	1405	1398	1408	1420	1424	1421	1414	1412	1416	1431	1448	1458	1459	1461	1458	1467	1469	1459	1457	1460	1468	1480	1475	1457	1449	1444	1446	1450	1453	1456	1458	1460	1445	1466	1454	1454	1456	1446	1437	1453	1462	1475	1480	1486	1477	1479	1477	1471	1477	1481	1479	1470	1465	1460	1464	1471	1466	1471	1470	1460	1458	1464	1490	1508	1516	1508	1493	1487	1487	1486	1485	1467	1457	1465	1471	1475	1479	1472	1481	1488	1495	1504	1501	1488	1491	1490	1490	1482	1468	1462	1474	1473	1456	1444	1455	1465	1480	1493	1507	1511	1513	1505	1498	1497	1501	1503	1499	1481	1475	1466	1459	1450	1440	1444	1457	1486	1517	1528	1540	1548	1553	1564	1581	1581	1571	1556	1559	1571	1581	1572	1551	1545	1555	1570	1585	1580	1571	1558	1540	1536	1539	1541	1556	1572	1587	1604	1599	1594	1575	1578	1575	1606	1594	1570	1560	1566	1602	1621	1632	1634	1630	1623	1613	1600	1609	1611	1607	1593	1582	1584	1593	1560	1582	1604	1628	1621	1609	1603	1636	1649	1654	1652	1640	1618	1624	1629	1603	1598	1609	1624	1640	1643	1641	1629	1615	1610	1559	1536	1557	1545	1526	1513	1517	1496	1512	1477	1425	1408	1419	1465	1470	1473	1479	1497	1484	1467	1450	1454	1461	1464	1466	1470	1468	1466	1457	1482	1482	1483	1483	1483	1483	1448	1444	1454	1467	1467	1456	1445	1452	1459	1459	1455	1448	1447	1440	1428	1443	1450	1455	1450	1450	1454	1490	1494	1536	1568	1650	1776	1794	1791	1791	1781	1770	1751	1743	1745	1751	1762	1779	1798	1816	1825	1828	1827	1825	1822	1816	1815	1801	1776	1784	1797	1784	1784	1787	1788	1773	1774	1793	1821	1827	1833	1836	1831	1819	1806	1799	1797	1808	1810	1819	1821	1826	1831	1838	1840	1834	1819	1808	1800	1796	1801	1825	1818	1816	1812	1802	1790	1794	1805	1807	1787	1775	1770	1765	1765	1770	1761	1757	1756	1767	1767	1779	1783	1777	1759	1757	1778	1789	1811	1829	1832	1826	1870	1865	1870	1877	1882	1900	1900	1903	1896	1868	0	0	0	0	0	0	0	0
1279	1256	1255	1246	1254	1254	1263	1276	1281	1268	1268	1276	1295	1312	1317	1305	1305	1255	1260	1277	1282	1265	1265	1253	1254	1266	1293	1299	1307	1307	1299	1271	1260	1253	1257	1268	1291	1291	1306	1312	1307	1302	1300	1297	1296	1290	1293	1293	1310	1323	1327	1323	1317	1315	1298	1290	1287	1298	1298	1316	1335	1334	1330	1326	1329	1335	1339	1341	1343	1348	1350	1281	1296	1308	1319	1325	1325	1318	1319	1316	1312	1317	1336	1346	1342	1339	1338	1330	1332	1339	1335	1342	1343	1348	1350	1348	1333	1317	1312	1323	1342	1351	1355	1357	1355	1347	1346	1350	1356	1357	1357	1354	1355	1361	1363	1362	1358	1355	1352	1354	1355	1354	1347	1339	1340	1340	1352	1374	1376	1372	1359	1328	1338	1342	1338	1338	1338	1340	1357	1357	1350	1343	1347	1356	1365	1371	1365	1360	1364	1377	1376	1374	1368	1365	1364	1369	1367	1357	1353	1349	1342	1347	1362	1367	1365	1387	1383	1378	1393	1392	1389	1396	1404	1409	1400	1396	1394	1390	1401	1396	1382	1375	1377	1372	1380	1411	1421	1432	1441	1439	1429	1417	1405	1396	1391	1390	1393	1380	1375	1385	1390	1384	1377	1369	1373	1392	1396	1393	1392	1388	1391	1385	1378	1374	1379	1391	1391	1391	1387	1379	1379	1375	1373	1388	1403	1407	1398	1390	1393	1398	1390	1383	1457	1427	1408	1411	1431	1447	1453	1452	1451	1455	1457	1451	1443	1432	1432	1431	1432	1427	1423	1421	1420	1430	1437	1443	1443	1439	1441	1444	1438	1432	1439	1450	1454	1447	1432	1422	1426	1433	1434	1432	1436	1431	1433	1443	1442	1431	1413	1389	1385	1410	1427	1435	1429	1417	1414	1415	1433	1448	1439	1444	1439	1435	1438	1448	1453	1449	1454	1459	1464	1458	1453	1453	1448	1434	1432	1439	1448	1452	1446	1431	1425	1433	1450	1453	1450	1440	1444	1457	1466	1470	1475	1477	1476	1462	1446	1447	1456	1462	1462	1461	1456	1457	1457	1457	1460	1458	1453	1446	1451	1465	1488	1491	1488	1478	1471	1437	1453	1468	1469	1468	1468	1470	1479	1480	1483	1476	1484	1497	1501	1487	1472	1472	1482	1465	1462	1460	1466	1467	1471	1470	1466	1463	1467	1476	1490	1497	1498	1494	1491	1487	1493	1496	1485	1481	1476	1456	1454	1464	1453	1454	1462	1470	1473	1480	1490	1489	1491	1495	1516	1539	1553	1555	1555	1547	1547	1537	1534	1534	1534	1533	1540	1547	1546	1548	1545	1522	1500	1493	1505	1520	1534	1543	1523	1510	1514	1522	1522	1519	1523	1524	1523	1537	1549	1574	1589	1594	1583	1562	1561	1550	1553	1560	1568	1591	1576	1534	1527	1538	1548	1558	1574	1585	1581	1566	1542	1555	1586	1588	1555	1550	1578	1602	1611	1584	1574	1574	1585	1592	1592	1593	1587	1585	1598	1569	1554	1556	1537	1521	1526	1505	1495	1503	1489	1452	1427	1418	1466	1468	1474	1469	1482	1467	1452	1452	1471	1479	1483	1479	1480	1477	1469	1461	1465	1474	1482	1484	1483	1472	1474	1469	1471	1473	1465	1457	1452	1452	1456	1456	1458	1452	1448	1439	1431	1448	1454	1455	1458	1463	1466	1497	1504	1524	1544	1597	1713	1752	1753	1756	1762	1756	1731	1727	1729	1732	1730	1743	1755	1775	1773	1778	1779	1773	1790	1785	1787	1778	1767	1751	1727	1735	1751	1763	1768	1755	1746	1766	1795	1806	1794	1794	1794	1791	1775	1769	1768	1758	1748	1773	1790	1796	1792	1797	1801	1782	1780	1773	1767	1762	1765	1771	1790	1795	1792	1784	1774	1779	1778	1765	1752	1737	1726	1738	1752	1757	1747	1712	1703	1703	1699	1710	1729	1738	1739	1730	1712	1716	1741	1779	1791	1786	1776	1774	1847	1851	1867	1872	1872	1871	1866	1855	0	0	0	0	0	0	0	0
1251	1247	1240	1229	1231	1231	1238	1253	1258	1250	1250	1254	1278	1296	1289	1266	1266	1250	1249	1259	1261	1256	1247	1247	1240	1257	1269	1270	1274	1269	1269	1260	1249	1246	1243	1258	1282	1297	1297	1305	1299	1291	1288	1284	1279	1280	1282	1282	1293	1304	1305	1305	1308	1311	1309	1300	1293	1302	1315	1315	1317	1311	1302	1311	1325	1333	1335	1334	1335	1290	1278	1266	1272	1285	1299	1307	1307	1306	1293	1292	1288	1287	1294	1298	1296	1286	1302	1299	1299	1297	1305	1312	1311	1315	1321	1325	1316	1306	1300	1310	1328	1341	1349	1353	1347	1336	1330	1341	1349	1343	1344	1346	1347	1340	1330	1326	1326	1334	1335	1339	1346	1348	1331	1320	1315	1318	1316	1319	1313	1309	1307	1309	1330	1332	1331	1335	1334	1329	1333	1346	1339	1317	1313	1329	1349	1356	1349	1336	1341	1353	1358	1360	1358	1351	1343	1342	1337	1335	1328	1323	1319	1320	1328	1335	1338	1336	1340	1348	1363	1360	1365	1381	1392	1389	1385	1376	1382	1382	1380	1367	1362	1354	1344	1339	1342	1352	1369	1402	1408	1415	1408	1397	1383	1372	1364	1365	1358	1363	1362	1365	1371	1365	1360	1355	1363	1371	1368	1355	1363	1368	1377	1378	1376	1374	1367	1374	1382	1377	1371	1368	1360	1368	1370	1382	1393	1399	1400	1395	1386	1379	1370	1356	1349	1363	1397	1403	1408	1417	1429	1429	1428	1440	1459	1467	1456	1448	1447	1438	1422	1408	1404	1385	1392	1403	1417	1428	1424	1425	1428	1432	1428	1422	1424	1428	1428	1417	1410	1411	1412	1416	1412	1410	1409	1413	1415	1424	1425	1418	1402	1378	1383	1393	1414	1427	1428	1417	1408	1407	1422	1431	1428	1428	1423	1415	1408	1416	1423	1429	1437	1441	1445	1431	1442	1445	1440	1409	1409	1419	1431	1441	1437	1423	1423	1430	1442	1443	1437	1434	1426	1425	1448	1459	1465	1465	1464	1451	1438	1430	1431	1428	1422	1428	1431	1442	1443	1443	1444	1446	1441	1436	1435	1435	1455	1458	1451	1442	1429	1425	1441	1451	1444	1431	1426	1433	1448	1458	1464	1456	1455	1468	1473	1446	1438	1435	1436	1444	1444	1446	1452	1456	1461	1466	1461	1455	1457	1460	1467	1473	1475	1466	1467	1467	1477	1483	1471	1463	1462	1459	1451	1446	1435	1429	1441	1454	1468	1485	1494	1485	1474	1461	1454	1465	1488	1509	1522	1538	1526	1514	1509	1513	1518	1499	1481	1483	1499	1507	1510	1487	1475	1469	1466	1482	1497	1494	1472	1486	1491	1502	1498	1491	1487	1495	1503	1524	1543	1561	1573	1561	1536	1525	1512	1507	1502	1497	1517	1521	1493	1505	1519	1531	1532	1517	1522	1533	1537	1536	1535	1510	1516	1526	1528	1515	1508	1514	1526	1532	1539	1548	1560	1562	1550	1537	1539	1548	1558	1552	1545	1553	1548	1554	1522	1510	1507	1493	1476	1469	1437	1416	1447	1458	1457	1457	1459	1453	1448	1479	1486	1488	1490	1485	1477	1473	1466	1462	1467	1478	1481	1478	1473	1469	1473	1468	1463	1455	1455	1453	1452	1452	1457	1459	1460	1462	1463	1457	1442	1454	1458	1459	1458	1465	1477	1497	1493	1510	1527	1558	1664	1710	1714	1724	1736	1723	1714	1719	1725	1721	1711	1708	1708	1713	1710	1712	1720	1739	1739	1748	1749	1751	1735	1709	1705	1712	1723	1728	1734	1733	1729	1723	1725	1743	1743	1752	1755	1762	1751	1737	1715	1705	1719	1743	1761	1768	1758	1747	1738	1742	1747	1740	1730	1726	1738	1752	1768	1775	1779	1774	1764	1751	1746	1731	1720	1712	1707	1719	1734	1736	1715	1688	1659	1659	1654	1668	1679	1692	1708	1699	1692	1677	1679	1690	1705	1724	1743	1760	1762	1779	1838	1843	1843	1848	1822	1822	0	0	0	0	0	0	0	0
