570	572	572	580	576	571	568	568	568	570	572	572	572	571	573	574	577	577	581	584	587	588	593	593	587	583	586	586	590	590	587	584	580	582	571	573	573	588	593	595	591	589	583	583	583	580	578	584	590	594	596	596	597	597	598	595	595	595	596	599	600	595	595	584	584	583	585	586	586	585	586	587	587	587	581	581	581	587	593	592	589	586	589	593	595	594	587	585	583	585	585	584	585	595	595	598	604	605	600	599	596	596	596	596	596	596	597	595	595	595	594	594	587	586	595	597	598	593	593	588	577	579	596	590	590	591	591	591	588	588	590	590	593	604	598	598	598	598	592	586	582	586	590	590	590	591	589	587	587	587	591	594	591	587	571	572	583	584	590	588	588	594	598	600	600	597	595	597	597	599	597	601	598	595	596	595	601	603	609	617	608	602	609	608	605	607	603	604	607	612	610	608	611	608	606	604	599	598	597	600	603	603	608	607	602	605	611	616	621	623	620	609	607	606	604	600	600	607	608	607	605	611	610	598	601	605	614	617	609	608	602	598	593	586	586	594	595	599	611	603	616	602	597	594	593	598	604	606	605	607	614	616	617	621	619	618	616	614	607	613	616	612	610	605	604	608	612	614	615	616	619	622	611	613	616	616	616	616	618	614	616	617	617	618	620	622	619	612	610	621	622	612	610	610	608	611	613	613	611	617	619	611	612	613	613	611	611	612	607	607	613	616	612	609	610	613	614	612	610	607	611	604	609	616	615	613	613	614	612	614	617	614	615	614	614	625	623	622	622	621	622	616	611	613	613	615	621	624	625	622	621	621	626	628	630	624	622	622	621	613	610	616	624	626	629	629	622	616	614	616	613	619	625	628	628	627	628	630	629	628	629	630	626	624	622	622	624	629	637	640	640	632	632	632	632	632	631	631	632	622	633	632	630	626	629	630	636	641	645	638	638	637	640	645	645	646	649	629	633	625	621	624	623	626	629	634	641	641	639	634	630	632	634	641	644	641	652	654	649	649	646	643	645	645	642	638	644	644	645	643	640	633	635	636	636	632	633	649	650	651	656	656	658	653	648	642	639	645	646	650	641	641	648	654	657	642	635	631	636	636	646	646	640	639	641	642	639	635	641	642	645	639	643	648	639	650	650	635	635	643	647	648	648	652	649	644	646	648	649	652	650	649	641	644	647	654	663	662	658	654	657	657	653	651	648	656	659	659	655	650	647	644	645	641	649	650	650	655	656	660	664	658	657	650	652	655	658	657	654	652	654	657	666	662	662	663	664	667	666	662	664	667	677	679	677	663	662	661	656	648	648	650	654	659	659	656	651	658	657	658	660	664	660	665	669	672	674	673	670	666	657	657	659	658	658	658	659	660	659	667	646	653	665	671	675	671	670	669	672	666	661	660	663	663	671	673	672	661	661	672	675	674	676	673	673	673	676	679	679	675	677	678	676	673	0	0	0	0	0	0
568	576	577	577	570	566	565	565	563	567	572	571	571	571	571	573	574	577	577	579	581	583	579	579	582	583	584	585	587	587	587	577	571	568	566	569	569	572	581	583	586	586	578	579	579	574	580	584	587	595	596	596	596	594	590	589	590	593	592	597	595	585	583	578	571	571	575	582	584	584	586	587	586	586	581	579	580	585	592	592	582	584	588	593	590	588	588	583	581	580	580	577	581	586	592	596	600	602	596	598	598	596	595	594	591	591	596	596	598	594	592	587	586	586	587	589	584	584	592	578	577	600	596	593	587	583	583	585	587	588	593	598	592	591	589	584	588	587	578	580	581	576	577	583	586	590	591	587	585	584	586	589	595	586	580	581	584	592	589	583	584	587	595	597	596	593	595	597	595	594	593	597	594	595	595	599	597	599	616	605	604	597	607	606	606	605	602	600	604	608	612	601	604	604	596	598	597	595	591	593	599	602	600	597	596	596	589	601	599	614	612	607	602	601	601	600	603	604	603	603	601	597	593	592	601	603	604	612	608	606	599	596	592	588	589	592	594	599	597	599	601	601	595	590	593	598	605	607	601	601	602	608	610	612	603	612	613	611	607	603	603	609	614	615	614	615	615	616	615	613	615	608	605	610	613	614	612	618	617	612	610	610	609	604	615	622	625	623	619	614	609	606	607	606	607	610	609	612	613	615	613	610	616	619	614	610	612	612	607	601	600	601	602	602	605	606	613	609	606	597	604	599	602	604	612	612	611	611	612	610	610	611	613	613	611	613	615	618	618	617	616	612	608	607	607	610	616	617	621	623	618	620	624	625	618	610	610	610	612	612	611	611	621	624	629	626	614	608	609	613	614	618	623	624	623	621	624	631	630	623	623	623	621	619	622	622	629	631	636	636	625	627	627	630	629	625	627	618	620	620	622	629	630	630	630	632	631	639	645	638	636	632	633	632	634	631	627	629	629	629	625	623	620	619	619	626	629	626	623	623	626	618	630	632	630	625	637	660	663	652	648	643	641	640	634	632	635	637	631	626	631	630	633	639	638	638	631	639	640	641	647	653	654	654	646	641	638	624	629	630	636	638	644	649	653	641	625	629	633	638	642	641	634	629	630	635	634	633	635	639	641	636	641	646	639	633	624	615	619	639	643	646	646	648	647	642	637	640	645	647	644	644	635	636	644	653	654	654	658	658	660	659	655	655	653	650	660	658	656	644	651	647	647	644	650	650	649	652	655	656	661	656	652	650	656	651	651	651	649	647	649	648	651	658	657	654	654	657	661	658	654	659	652	650	651	652	655	655	649	643	644	645	651	656	657	652	641	627	642	653	657	652	662	666	668	663	668	672	668	654	647	655	658	656	656	658	656	652	649	646	644	644	658	663	669	668	665	661	666	665	660	660	660	664	660	658	658	656	659	668	674	673	670	667	667	667	673	679	678	673	667	656	661	666	0	0	0	0	0	0
563	574	572	572	566	563	562	566	566	570	572	571	570	570	569	571	572	575	575	576	576	576	573	578	578	583	577	573	571	567	567	563	570	568	559	561	564	564	569	580	579	579	567	570	570	575	581	584	586	586	591	592	592	589	587	585	582	585	587	585	585	574	574	570	570	568	568	570	575	580	589	585	582	580	580	580	584	588	586	583	581	583	587	593	588	585	590	585	583	578	577	577	577	588	591	592	592	596	590	589	593	594	589	594	592	592	591	593	598	594	588	587	586	586	587	586	583	582	582	582	588	593	592	584	581	581	580	583	586	588	599	600	584	583	584	587	582	577	576	580	575	574	580	583	583	585	585	583	582	584	592	594	594	587	587	591	585	587	581	578	581	585	593	595	593	592	587	586	586	593	594	594	595	598	597	596	595	603	597	593	599	594	592	598	601	601	594	597	601	597	599	597	593	598	601	594	592	582	576	581	594	600	599	593	590	584	588	588	590	596	599	600	599	599	598	599	601	599	600	599	597	596	591	585	582	593	599	603	603	597	594	593	590	591	591	592	595	583	588	591	592	593	587	589	592	600	609	603	599	591	598	602	600	603	599	607	607	607	607	604	605	607	611	613	609	607	602	621	614	612	604	604	604	607	608	609	608	614	614	604	599	598	602	599	602	615	624	620	618	617	601	598	598	596	595	600	609	612	613	612	614	608	614	617	609	597	598	607	609	598	596	597	597	594	602	605	611	608	601	592	590	590	599	610	611	611	609	611	611	609	609	614	611	612	609	610	613	612	612	613	612	612	606	603	604	610	614	614	614	614	614	614	616	615	609	609	610	610	603	605	609	612	621	622	620	615	611	611	610	615	616	615	619	617	616	615	615	618	621	619	618	614	611	623	637	623	628	629	630	630	614	620	618	618	624	620	618	618	617	616	616	625	630	631	636	632	633	632	635	635	635	625	625	626	623	622	627	628	627	625	621	615	613	613	615	616	615	616	618	619	620	616	618	624	621	619	621	626	636	638	637	633	633	632	630	630	632	633	626	621	623	622	631	627	637	637	632	633	627	624	623	645	648	630	616	615	624	625	627	624	625	627	635	643	644	628	626	629	632	635	632	633	626	624	627	633	634	631	635	636	635	633	633	639	637	632	629	629	632	631	631	627	620	629	641	641	637	636	642	644	640	637	632	637	642	645	644	644	644	654	659	661	656	652	654	655	644	637	639	646	645	653	651	651	649	648	647	649	651	649	644	641	645	651	651	652	647	645	644	644	644	645	646	650	650	644	642	651	651	651	645	642	644	646	642	642	647	640	643	642	641	644	642	638	634	631	628	624	630	626	633	651	658	661	654	658	662	668	660	648	654	655	654	654	655	659	659	648	647	644	646	650	655	654	655	657	656	660	658	658	658	658	658	655	656	648	655	654	655	656	656	671	665	667	667	667	678	679	673	667	665	658	660	660	660	0	0	0	0	0
562	571	568	568	560	561	561	566	566	570	570	568	561	561	561	564	568	566	566	572	572	571	571	576	576	581	569	564	563	561	561	568	564	562	563	561	563	563	566	576	578	568	565	567	567	574	583	581	577	578	578	586	583	583	580	579	577	576	572	572	576	572	572	569	567	564	567	565	571	575	580	585	581	581	579	579	576	575	574	569	563	561	581	563	566	568	585	586	583	575	577	578	578	574	573	572	571	573	575	577	577	581	580	590	589	587	586	586	587	584	584	585	585	582	581	580	572	572	570	569	587	588	586	579	575	575	580	581	585	588	591	597	587	585	585	588	576	573	577	579	576	573	575	581	584	585	584	578	580	581	585	591	590	589	587	586	583	582	578	576	574	575	585	590	592	588	587	584	582	583	582	583	587	595	594	593	591	590	581	582	582	586	586	591	596	596	593	594	590	595	595	593	587	588	594	595	590	587	585	579	590	596	592	589	586	583	589	591	594	595	595	592	591	590	597	598	598	595	595	594	591	593	587	581	581	585	593	598	600	593	591	590	589	589	592	594	587	587	587	590	591	590	586	587	591	593	605	602	599	593	600	603	596	596	598	600	604	607	607	608	611	603	601	598	601	603	599	597	600	601	602	604	604	596	601	602	597	584	580	592	598	589	586	592	597	613	606	611	612	600	596	594	595	593	595	599	606	609	611	612	613	609	608	604	596	590	598	599	600	602	596	592	592	594	598	603	602	608	601	593	590	590	596	607	611	610	605	603	603	604	607	610	614	610	608	607	607	609	611	609	609	607	604	605	607	608	614	609	611	609	613	615	612	607	609	608	609	609	612	615	618	619	612	614	614	613	612	608	611	614	605	609	603	607	607	603	608	624	614	617	615	613	611	625	629	637	615	616	622	621	614	616	615	616	622	621	618	616	614	613	612	619	627	628	633	629	628	623	620	617	613	615	620	617	619	620	625	625	624	619	613	606	606	611	612	615	606	604	609	610	613	617	618	619	623	621	621	627	629	631	630	630	628	625	625	628	629	631	627	624	617	618	626	624	622	624	620	620	620	619	613	612	618	617	618	624	630	635	623	620	620	622	626	637	635	631	627	626	628	623	624	624	623	616	628	628	629	629	636	639	635	630	630	632	634	631	627	627	627	627	628	626	624	627	628	633	637	645	653	661	658	639	634	637	639	642	640	639	649	643	647	649	645	641	639	635	636	638	639	641	642	641	645	641	645	646	644	647	647	643	639	636	630	639	646	650	647	644	647	648	644	643	644	645	644	638	636	638	640	640	637	637	637	640	632	625	641	635	635	639	644	648	645	640	639	642	638	637	638	634	641	643	652	645	649	652	657	659	651	652	651	649	649	651	652	658	653	647	647	643	645	650	653	654	655	655	657	657	656	656	654	654	654	655	654	648	649	651	652	655	653	650	647	663	663	669	664	664	662	660	662	658	658	659	659	0	0	0	0	0
563	567	560	555	555	555	554	553	553	563	568	568	559	561	561	564	565	561	563	563	566	567	572	580	576	576	569	566	565	566	563	563	561	563	563	560	560	560	563	567	572	573	570	562	564	564	565	567	566	572	571	573	577	577	573	572	574	573	576	576	573	567	565	565	563	558	563	566	570	570	571	569	567	569	568	568	570	573	575	574	570	560	560	562	563	563	567	567	568	569	570	573	567	567	568	572	575	573	566	564	569	572	572	575	578	580	582	579	578	580	580	578	582	581	577	565	567	571	571	573	578	583	583	576	570	574	574	579	581	580	574	578	589	591	591	577	576	574	579	579	577	573	574	577	582	584	577	574	577	579	583	589	584	581	583	583	576	575	572	573	575	580	585	588	589	583	582	580	578	576	576	576	576	579	595	595	591	588	580	579	578	578	582	589	591	593	591	586	588	594	582	577	575	581	583	584	585	586	585	577	586	584	586	583	583	585	584	586	586	588	588	587	583	584	587	588	588	598	594	591	589	589	581	577	572	575	594	597	597	594	590	588	586	588	594	586	588	588	588	589	591	590	582	587	588	590	589	597	599	594	592	591	597	596	594	594	601	600	597	595	591	599	594	594	596	602	601	599	596	597	590	590	592	590	589	597	595	580	579	592	587	582	586	588	591	598	603	601	594	587	590	594	595	597	596	596	596	600	598	599	598	598	593	596	598	591	587	588	593	599	592	591	591	594	598	601	603	599	594	591	587	592	592	604	606	607	605	602	597	601	602	604	601	598	602	599	602	606	606	604	603	604	605	604	607	608	605	600	609	604	607	607	609	610	610	613	608	601	604	607	607	604	607	608	609	611	606	606	608	608	603	601	600	604	603	602	602	602	609	607	606	609	616	621	624	614	599	602	607	611	613	614	614	615	614	619	620	619	614	612	610	613	619	608	624	618	616	613	611	611	608	607	612	612	618	617	621	623	621	617	609	605	607	611	614	616	617	606	615	611	607	612	609	621	621	622	618	618	626	623	624	625	623	621	624	627	629	629	625	620	616	623	623	622	620	617	616	620	621	617	609	609	611	612	620	626	631	634	624	621	615	607	607	623	626	625	623	621	624	623	621	624	623	622	620	625	626	626	632	639	633	628	627	623	630	628	625	621	619	619	620	625	629	625	626	628	632	631	633	635	637	633	626	621	623	627	632	635	630	625	626	625	635	641	640	639	640	637	635	632	632	630	628	631	635	645	641	640	644	639	631	626	625	632	637	650	640	641	639	640	641	643	646	645	638	632	630	633	634	629	633	634	632	634	629	627	629	629	635	639	648	645	639	633	632	633	633	633	634	641	644	642	644	642	640	642	641	644	651	645	644	644	645	648	649	650	650	646	644	642	645	648	652	653	655	655	656	656	648	654	654	653	650	651	653	651	649	649	651	651	650	644	642	642	640	646	649	648	648	651	657	654	653	653	653	0	0	0	0	0
561	562	554	550	550	548	548	546	549	549	553	556	561	558	558	561	559	555	555	555	560	560	566	574	572	572	569	564	565	558	554	554	556	560	561	560	559	560	560	565	565	572	570	570	565	565	559	561	568	563	562	564	565	565	565	562	567	570	575	575	571	564	560	558	558	558	560	564	560	561	565	564	562	560	559	570	570	573	573	575	569	560	559	554	559	563	563	567	567	568	569	565	562	562	575	577	579	574	568	563	571	578	573	572	575	572	567	566	571	576	579	578	573	567	560	558	562	564	566	569	576	577	569	563	559	570	570	571	574	573	569	566	570	571	576	576	572	574	578	579	575	574	571	576	577	582	582	573	574	575	577	579	581	578	576	576	575	575	574	575	578	581	583	584	576	584	583	582	581	575	572	571	573	576	579	593	590	587	580	574	573	571	577	587	590	590	584	575	578	582	577	572	573	579	579	578	580	583	584	584	582	578	578	579	582	582	580	579	584	584	584	581	588	586	584	583	583	589	596	596	587	581	578	570	568	570	591	594	595	590	588	585	584	588	582	583	583	579	583	588	589	587	586	571	573	579	583	585	591	588	586	580	591	601	598	599	600	597	592	590	588	580	587	588	590	597	600	597	590	588	589	587	590	593	589	588	588	589	587	587	582	576	577	585	591	596	601	590	587	588	588	593	595	597	599	598	598	596	591	588	587	591	598	599	591	595	593	591	587	580	592	592	593	589	598	599	597	597	589	590	590	592	597	603	605	604	603	599	590	598	601	600	599	596	599	597	597	601	602	601	601	600	604	601	600	602	602	599	596	604	604	607	608	608	609	609	607	599	601	602	604	603	601	607	609	604	593	597	601	606	601	600	596	605	606	599	602	602	603	602	601	602	609	612	613	607	599	596	598	608	609	608	612	614	613	613	614	612	609	599	598	599	600	604	605	606	611	605	604	602	600	600	607	607	609	615	617	618	619	600	605	606	611	612	614	617	619	620	615	613	608	605	611	614	619	619	618	622	618	621	622	620	619	618	620	626	628	627	622	619	618	611	621	607	612	616	606	606	615	606	606	608	608	610	613	627	628	622	617	615	609	608	610	610	625	622	618	617	618	622	622	622	624	623	621	615	619	624	620	622	607	605	612	618	624	626	619	618	616	617	620	628	631	624	618	617	626	630	631	632	636	625	623	624	629	632	632	628	626	623	622	621	624	631	636	636	633	629	626	627	625	627	625	627	628	635	639	637	640	634	629	622	630	633	635	635	637	625	629	635	637	645	644	644	642	632	628	626	624	624	623	634	641	651	638	629	628	629	630	639	643	638	631	629	627	629	628	631	631	638	643	644	637	628	623	621	627	636	641	642	642	643	645	647	650	651	650	646	638	639	643	646	649	653	652	653	655	651	641	649	649	650	651	654	651	650	648	649	649	649	644	644	644	642	639	637	638	639	642	643	648	645	646	646	645	0	0	0	0	0
561	556	553	542	542	542	542	545	550	550	553	558	546	549	549	554	554	555	549	554	554	555	561	566	569	569	566	553	548	551	553	552	552	556	557	555	555	557	557	561	563	563	570	569	563	552	552	541	546	554	557	559	563	561	561	559	560	560	560	551	562	560	567	554	554	546	559	558	559	560	561	561	563	562	565	565	565	557	556	556	556	554	551	550	552	558	560	560	564	564	563	560	571	561	561	560	562	568	565	565	566	574	574	569	564	563	561	564	567	575	577	572	567	563	559	559	564	566	566	566	571	572	567	562	556	552	553	558	565	571	573	573	570	569	565	565	559	569	577	575	576	570	570	572	574	578	578	573	572	572	574	575	575	570	570	571	569	572	575	576	581	584	582	576	577	579	584	584	579	573	570	566	572	573	576	585	587	581	574	570	568	573	576	587	590	584	573	571	565	576	573	571	574	572	570	572	577	579	577	576	572	568	570	570	581	581	577	578	581	581	579	578	585	581	579	581	580	588	590	588	587	581	579	577	578	584	586	580	579	586	585	584	582	574	578	579	580	578	583	585	586	586	578	570	569	573	573	574	575	578	576	576	588	592	605	592	602	595	588	583	584	583	583	584	590	592	597	585	586	582	586	585	585	586	587	588	588	586	583	578	579	580	580	580	587	596	588	587	588	588	587	587	579	590	591	592	593	590	585	585	591	590	593	592	584	581	579	583	580	587	578	579	581	584	585	589	591	589	584	586	590	595	598	589	588	599	598	593	588	592	596	595	593	592	589	589	589	591	595	595	595	593	592	592	593	598	599	596	589	602	602	602	599	603	604	601	601	589	598	598	598	593	597	606	603	596	595	597	602	606	608	603	608	612	617	614	607	590	594	597	599	600	603	609	608	607	608	596	601	605	602	603	610	611	608	603	605	600	599	597	596	594	593	598	605	605	605	599	596	595	595	604	605	603	607	611	608	607	605	599	611	615	618	612	616	618	619	618	616	614	608	610	612	614	614	617	619	624	618	616	616	614	613	608	609	613	611	607	602	605	599	604	605	605	606	610	607	609	605	603	602	602	605	607	608	610	606	614	610	608	602	601	606	619	616	597	609	609	613	614	616	618	622	621	611	619	617	614	610	607	599	598	608	613	618	625	618	618	623	626	624	626	630	623	610	614	618	619	618	615	618	617	620	621	620	618	624	624	624	621	620	621	624	627	628	624	620	621	623	627	625	619	613	615	629	626	630	628	625	614	615	630	623	623	617	618	632	634	631	632	636	639	638	636	636	631	628	626	625	624	621	630	643	647	638	627	635	626	631	636	634	630	629	627	628	625	627	628	628	632	636	633	634	627	621	619	630	623	632	632	633	638	639	640	646	646	641	631	631	635	638	640	643	638	640	647	650	643	638	641	644	648	654	652	650	646	638	633	635	638	641	641	641	640	634	632	634	637	642	638	638	636	636	641	640	0	0	0	0	0
554	554	549	546	536	536	537	544	546	546	546	546	546	548	548	548	552	549	548	553	553	554	559	555	555	558	558	544	549	548	546	553	553	554	551	551	550	552	556	556	559	561	562	567	565	559	559	552	556	558	557	557	558	559	557	557	559	556	544	554	563	560	567	552	545	545	555	558	560	573	566	560	560	565	560	560	560	560	558	557	557	554	553	552	551	555	536	552	553	557	549	560	565	561	558	558	559	559	558	560	562	567	569	566	560	557	551	552	556	570	568	567	561	557	555	554	561	565	566	566	570	569	567	562	556	553	553	563	567	572	572	570	569	566	563	561	560	567	571	569	567	568	568	566	565	567	569	571	570	574	576	579	575	563	564	565	566	570	572	573	577	579	575	571	567	570	571	570	567	565	564	566	568	572	572	570	572	557	556	558	563	572	575	572	572	562	558	557	559	574	573	574	572	564	568	573	578	574	568	564	564	567	567	569	572	574	576	578	572	572	576	571	577	574	576	574	573	574	592	584	582	574	563	555	572	578	578	582	585	585	587	583	579	572	573	576	578	579	582	581	584	584	583	579	579	577	576	575	573	575	574	577	581	583	580	586	599	582	589	579	575	576	582	582	589	577	580	580	578	585	584	574	577	583	586	588	585	580	577	576	576	581	583	581	589	587	589	595	589	591	585	581	577	578	580	587	585	578	577	581	586	593	591	585	580	580	578	576	581	578	578	579	577	582	583	581	581	582	579	581	590	596	589	588	586	580	586	590	586	589	592	596	593	590	589	589	589	588	591	594	595	594	590	587	596	595	592	591	588	584	585	587	597	599	597	596	598	588	591	595	595	591	593	601	598	597	600	606	602	608	610	606	604	609	610	605	590	586	593	597	600	605	604	604	603	602	604	596	599	594	592	595	600	603	603	603	593	597	598	596	594	592	590	590	601	605	603	599	595	596	601	605	604	591	590	591	592	596	601	605	610	608	613	609	605	607	608	618	616	613	611	611	611	610	612	616	618	624	622	615	611	605	605	607	608	609	608	602	598	596	593	594	603	604	611	612	607	607	606	601	599	598	597	607	610	610	608	607	600	598	602	600	599	606	611	606	599	613	615	616	614	615	613	619	611	617	614	611	604	602	600	604	601	609	615	624	622	622	627	627	624	623	625	621	618	615	616	615	613	614	618	618	616	621	621	611	612	615	618	619	618	619	629	623	623	621	618	617	619	623	622	617	613	612	617	623	620	615	614	611	618	620	623	617	614	617	619	625	632	633	633	633	632	631	628	626	623	624	622	622	637	635	633	628	624	629	615	607	614	620	625	631	630	631	630	627	626	626	627	628	632	627	627	627	623	627	627	622	622	622	631	638	639	640	643	643	641	636	629	629	626	631	625	622	625	630	629	629	629	638	642	648	648	652	647	637	630	625	622	629	634	634	636	638	631	628	629	637	641	637	636	634	634	634	635	0	0	0	0	0
549	549	550	547	539	539	536	537	543	543	543	543	547	542	546	546	551	551	552	554	554	557	558	550	546	547	547	544	545	546	543	548	548	548	549	548	549	551	556	556	557	559	564	551	552	551	555	555	555	558	558	555	555	558	558	558	554	551	549	556	563	556	553	544	543	543	550	562	568	568	550	543	545	556	559	560	568	572	572	570	561	557	552	554	554	552	550	530	533	538	553	565	565	562	557	555	555	555	553	555	556	558	561	560	557	551	549	551	555	560	565	560	559	554	550	546	545	554	562	563	564	566	566	563	561	562	557	562	567	570	570	570	565	566	562	561	566	566	563	563	564	567	566	567	565	564	564	564	563	562	562	566	563	560	559	561	564	565	566	568	562	563	564	566	564	570	570	571	568	566	559	564	569	572	567	565	561	568	567	565	557	558	558	550	562	560	558	555	560	568	562	558	567	572	573	573	573	572	566	562	565	567	565	566	570	568	571	574	576	572	566	570	570	569	571	571	566	568	567	568	578	548	562	562	557	572	577	579	583	586	587	588	581	568	568	571	574	578	581	576	577	582	581	578	579	578	580	580	581	575	577	576	576	576	568	566	576	576	576	576	571	567	565	562	566	571	579	574	582	583	583	570	577	576	573	571	576	578	577	578	576	579	574	577	587	589	591	588	585	580	575	570	574	571	585	579	578	578	573	579	582	582	586	581	572	576	578	577	578	574	573	576	576	575	576	578	578	577	581	586	588	583	586	588	586	583	573	573	577	589	589	592	591	592	589	585	577	584	587	591	587	586	587	587	588	590	589	586	582	582	582	588	589	589	590	592	591	591	595	590	586	585	593	592	590	589	589	602	617	605	594	595	596	596	596	592	589	587	587	598	602	599	607	603	595	595	603	606	599	588	585	590	594	595	597	597	592	596	596	594	595	596	591	591	603	602	597	592	590	594	600	605	602	593	594	595	596	596	597	604	599	596	596	597	598	601	605	605	603	603	612	613	611	608	605	614	613	623	621	613	604	610	611	609	611	603	597	600	596	593	587	591	598	600	608	601	604	604	604	597	596	597	603	607	609	609	607	608	605	602	601	600	594	597	603	600	601	606	618	618	614	613	609	609	608	608	606	604	602	602	603	603	602	604	611	621	623	625	623	613	609	614	618	617	618	617	617	615	617	626	628	620	617	615	609	605	607	610	611	616	620	618	629	621	619	618	612	612	612	609	613	618	614	613	615	620	619	615	611	613	613	613	614	613	614	615	617	616	615	611	618	618	617	616	612	609	614	617	624	632	633	633	629	620	622	615	609	608	611	623	628	629	630	631	633	636	621	621	623	627	624	620	618	623	622	623	620	620	619	620	623	632	637	631	638	637	638	636	627	626	618	618	615	616	617	618	618	621	621	635	636	637	627	628	626	623	621	621	620	626	629	629	631	630	628	628	629	636	637	635	628	628	627	627	628	0	0	0	0	0
549	541	543	546	539	539	532	539	537	540	540	546	543	542	539	539	537	534	535	540	544	544	541	540	539	542	542	542	544	542	542	542	536	536	537	543	549	551	550	549	549	540	548	551	544	544	545	545	554	557	556	555	556	557	557	554	554	553	546	548	558	558	551	543	543	548	548	560	558	555	544	541	538	539	550	561	568	568	568	565	556	552	550	547	549	549	544	538	535	535	538	558	561	563	558	554	549	549	551	550	551	552	554	557	554	551	549	551	556	561	558	556	554	550	546	543	544	545	550	555	556	560	563	558	560	559	555	556	562	565	566	566	565	560	558	559	562	560	562	563	563	567	563	563	560	561	552	558	556	553	553	550	550	554	555	559	557	561	559	560	567	573	572	572	573	571	569	569	569	563	557	556	560	564	568	562	557	566	566	566	563	561	557	555	558	555	556	554	556	560	557	556	561	564	574	576	574	567	563	564	568	568	565	565	567	568	567	569	564	562	566	563	561	559	559	566	568	568	568	559	555	554	545	549	563	568	571	572	577	583	582	588	572	570	567	563	571	573	578	574	570	570	574	575	579	577	576	580	584	586	576	573	571	571	571	571	569	568	569	576	569	568	565	557	561	562	565	572	576	571	568	568	571	576	574	572	574	574	576	576	577	577	575	573	569	591	585	581	578	576	573	569	564	571	573	578	582	579	575	579	578	583	582	567	564	567	577	578	577	578	578	575	577	577	576	577	579	578	575	576	581	583	577	587	585	584	579	573	576	584	595	590	589	584	585	583	580	583	582	580	579	581	585	585	585	586	585	584	579	579	583	583	583	583	581	583	586	592	591	590	590	595	592	596	588	583	585	590	589	589	589	589	589	589	590	589	585	589	596	596	597	589	593	595	597	593	595	595	584	586	587	587	586	594	594	596	597	593	594	594	595	596	595	595	592	592	591	584	583	592	600	606	602	594	595	592	589	592	592	592	595	595	594	593	596	597	598	597	591	589	599	603	603	602	598	595	599	600	601	601	595	588	598	589	592	593	594	597	593	587	588	592	597	599	597	593	597	602	603	601	595	600	601	604	606	607	608	607	605	599	597	598	590	591	596	599	599	598	609	615	612	610	607	606	606	607	607	606	603	601	605	602	599	599	595	590	600	608	604	607	607	608	608	612	612	611	610	609	600	606	603	619	622	624	627	624	613	614	615	611	599	599	596	594	595	604	607	609	598	597	596	606	616	617	612	609	605	603	605	616	617	615	614	612	612	612	614	611	610	613	613	613	616	612	610	607	608	614	619	624	629	629	625	620	615	614	609	611	612	613	621	619	617	617	626	622	607	604	620	621	621	615	615	621	624	626	626	625	633	618	617	626	622	622	625	631	633	623	618	613	611	614	617	619	619	619	614	614	617	622	622	620	619	618	620	623	619	618	622	624	624	627	626	629	629	624	630	635	637	635	627	627	624	622	623	0	0	0	0	0
541	535	539	541	537	531	531	528	536	543	543	543	540	538	533	533	533	528	534	540	542	542	542	540	539	541	543	543	541	540	538	538	543	543	536	533	534	534	535	535	535	538	541	542	541	541	541	544	544	551	551	551	548	544	543	544	544	544	553	553	556	549	536	528	545	555	555	558	553	547	545	545	546	544	544	550	558	557	553	553	550	550	541	543	544	549	549	549	548	546	542	541	558	560	560	552	550	547	547	546	548	552	555	555	552	548	548	549	552	556	550	548	547	544	543	540	540	541	545	548	554	556	550	552	553	557	551	553	559	559	558	549	552	554	552	550	554	558	560	560	559	557	557	558	551	549	548	555	553	549	550	548	546	551	552	557	557	558	555	549	560	562	569	568	556	558	559	564	567	564	557	553	555	562	567	560	556	554	561	563	562	564	560	556	557	556	555	555	558	560	555	553	557	561	571	572	568	556	557	558	567	572	568	562	563	564	562	558	553	562	562	556	552	540	547	568	580	571	557	556	554	554	547	546	566	570	569	566	572	573	572	569	569	568	568	566	561	559	557	558	569	568	566	572	575	576	576	575	570	565	564	568	576	573	574	569	567	570	574	575	569	566	558	564	564	566	567	573	572	567	565	565	569	572	570	572	572	570	570	574	572	572	573	571	570	565	570	570	572	573	573	568	565	565	569	575	581	579	565	576	574	567	570	564	558	564	571	578	577	579	576	577	578	577	577	577	578	567	562	577	581	572	575	585	584	576	572	573	575	581	579	589	590	580	578	577	577	577	572	574	576	579	576	580	581	582	569	568	568	573	583	582	583	579	578	583	584	588	597	585	589	591	595	599	594	596	587	585	585	586	583	582	580	582	576	586	581	586	595	594	593	583	587	584	587	586	588	580	580	586	587	583	581	585	589	591	590	583	593	593	596	595	595	593	592	586	589	587	582	589	597	600	588	588	590	589	587	587	589	589	592	591	597	596	589	597	595	592	589	583	588	602	602	601	600	600	600	599	601	605	599	593	587	594	597	597	594	593	599	595	593	592	593	598	589	589	592	600	603	604	601	592	595	597	603	603	606	604	605	603	595	597	590	588	589	596	599	599	597	607	612	608	606	603	612	613	616	606	601	601	607	606	600	594	587	593	601	599	600	603	606	611	609	609	607	606	596	596	596	599	605	591	591	596	603	600	604	605	598	597	591	587	585	589	591	593	596	600	606	602	606	599	604	607	611	605	597	598	603	616	618	616	614	612	608	605	608	609	609	611	609	609	609	607	607	607	605	609	614	619	617	620	622	621	614	608	608	607	608	610	611	614	611	613	620	622	608	603	606	614	615	614	618	619	623	623	622	622	630	614	614	613	618	618	621	622	623	613	610	611	616	618	618	619	618	618	618	616	615	622	624	621	618	617	618	620	618	619	620	623	623	623	620	625	626	626	627	631	630	633	633	629	625	623	620	0	0	0	0	0
535	539	526	526	528	529	529	529	534	542	540	540	542	538	533	527	527	530	533	540	544	540	540	536	536	542	543	543	541	544	542	540	537	529	529	532	533	535	536	538	539	539	540	540	541	545	549	548	548	544	544	544	540	532	533	536	541	541	543	543	544	533	536	532	543	552	556	556	552	546	541	543	547	549	548	546	549	550	549	548	548	546	543	539	540	545	548	538	544	543	543	543	556	557	558	556	552	545	543	543	546	554	557	557	551	547	545	548	549	544	545	544	543	541	540	540	541	543	545	549	553	549	543	547	549	549	550	551	553	551	548	546	548	550	550	549	552	552	546	546	549	550	549	549	540	544	544	543	544	545	546	551	550	545	552	552	551	547	543	549	551	562	556	562	563	559	562	564	566	564	561	556	558	564	565	559	550	549	553	553	553	559	562	558	550	556	553	557	560	562	554	554	556	557	559	569	559	553	554	553	554	566	557	556	554	557	557	552	555	561	556	549	548	544	546	553	551	552	548	548	551	556	554	548	564	562	569	566	569	569	564	563	565	565	565	562	559	553	556	551	548	550	553	560	561	572	574	566	565	564	563	566	569	574	574	574	573	573	563	557	560	562	561	561	566	564	559	570	568	565	561	562	565	566	568	570	568	567	568	569	572	570	568	570	565	568	570	569	568	564	563	564	563	563	571	575	576	561	562	565	567	565	564	561	560	566	571	576	576	579	579	578	574	572	574	571	568	569	560	574	579	578	578	577	577	577	574	571	567	574	579	586	584	580	578	576	577	574	574	574	574	575	576	579	578	568	569	568	569	568	571	585	588	584	579	578	570	585	583	580	569	576	583	587	586	581	580	579	576	572	565	560	555	564	570	571	571	579	588	588	584	573	575	581	576	576	582	575	578	582	579	581	579	576	581	581	581	575	575	581	582	590	593	592	586	585	583	582	580	582	584	584	582	581	581	584	583	583	587	588	590	596	593	589	586	589	596	591	583	584	585	597	597	596	590	593	594	595	598	598	599	597	596	590	590	590	590	592	593	593	591	588	587	593	588	587	591	593	591	589	588	590	592	591	597	597	596	599	602	606	605	602	589	585	586	588	596	596	594	592	597	595	594	589	592	593	600	609	606	604	612	608	603	592	586	590	593	592	597	595	599	607	608	605	603	597	590	585	589	594	600	592	587	589	595	602	606	605	607	603	596	591	589	590	591	598	599	603	600	602	604	607	612	608	601	596	592	594	598	598	612	617	614	606	602	601	602	605	611	610	609	609	610	609	607	605	604	609	612	610	607	616	617	620	614	607	604	605	604	607	606	606	611	610	620	621	618	608	608	612	613	619	625	621	621	615	613	609	610	607	610	613	621	619	621	620	611	609	609	611	616	617	616	618	616	617	617	615	611	608	625	622	619	620	621	618	613	614	617	617	617	616	617	622	619	626	627	624	624	632	632	630	626	623	620	0	0	0	0	0
527	526	524	525	523	525	528	528	534	538	538	538	538	534	533	531	528	528	535	539	539	535	535	536	535	537	541	544	544	538	535	533	523	530	530	532	535	537	538	539	541	541	542	541	541	548	542	541	542	542	542	542	537	534	532	534	538	538	539	531	530	543	537	539	539	544	551	551	547	542	539	540	546	548	549	544	544	546	546	549	549	550	534	532	532	532	533	534	541	536	526	541	542	557	556	553	551	542	541	542	542	554	558	553	545	541	541	540	547	544	539	539	540	538	539	541	539	540	544	545	546	543	542	544	546	545	544	544	549	549	543	541	542	547	548	552	553	555	545	545	545	545	541	534	536	540	540	541	545	543	538	544	538	543	540	540	541	536	541	546	548	550	554	556	557	553	557	553	554	552	556	557	558	559	562	558	554	548	545	546	547	553	558	554	546	550	554	557	556	559	562	563	559	559	557	557	550	551	540	541	550	550	550	547	545	546	551	552	552	557	550	544	548	545	545	548	549	551	551	551	557	557	554	562	558	559	551	550	552	552	551	553	553	558	558	555	554	554	552	552	549	548	550	554	561	562	554	560	550	551	558	563	559	565	568	567	569	570	551	555	560	560	562	562	562	558	555	556	566	561	560	560	562	564	564	567	565	557	557	557	569	565	564	560	555	564	568	568	567	568	567	560	556	561	568	571	573	569	565	554	557	563	562	562	562	569	569	573	570	571	567	569	569	570	568	567	565	562	564	572	569	568	566	561	565	565	567	568	566	567	569	572	570	564	567	566	572	569	565	571	576	562	573	568	566	565	567	566	566	565	570	570	572	581	573	563	565	566	565	566	565	572	573	573	572	579	579	573	571	566	562	560	556	560	567	565	573	575	574	583	577	571	564	573	576	581	574	575	576	570	573	581	578	579	579	576	572	569	577	579	580	580	588	586	586	582	577	576	577	576	580	579	576	572	572	584	578	581	583	586	590	592	592	590	589	589	588	585	585	578	582	590	594	584	584	585	590	592	587	590	589	591	595	591	587	587	585	582	583	590	586	584	585	596	593	592	585	582	579	580	585	587	587	587	590	585	581	584	588	590	586	586	591	589	586	573	574	578	583	592	593	595	594	593	595	593	593	591	596	597	608	607	591	591	594	585	583	583	588	593	595	596	598	604	601	595	583	578	582	585	596	592	589	592	596	602	607	607	607	599	595	591	589	586	595	598	600	597	597	601	603	608	612	608	601	591	590	590	588	580	580	588	598	602	601	596	600	604	605	604	606	600	606	603	602	601	601	605	610	609	610	611	607	601	607	604	602	599	598	602	601	602	605	614	617	616	613	611	613	618	613	610	610	620	620	615	610	608	607	607	608	612	618	621	621	619	609	607	603	604	608	611	613	602	598	598	600	597	598	600	619	620	618	621	621	623	609	608	608	610	610	612	617	621	623	629	618	623	617	624	623	626	619	615	612	0	0	0	0	0
525	524	524	521	520	523	526	526	531	529	528	534	534	530	534	531	525	525	530	535	536	534	534	535	534	537	542	542	542	530	525	518	526	528	531	531	532	535	538	538	540	540	540	540	541	540	539	540	540	540	541	544	540	534	530	531	533	536	536	532	538	543	531	531	536	538	539	540	540	539	540	541	543	547	546	542	543	544	547	549	547	547	541	541	537	532	532	532	531	532	532	532	540	540	540	546	546	539	540	543	548	548	551	545	539	537	539	540	545	545	542	538	534	536	541	540	538	538	537	538	539	537	535	535	546	545	542	540	542	540	540	536	536	540	545	547	547	546	543	542	543	541	539	533	532	538	542	543	545	541	539	536	536	541	540	542	540	537	540	546	549	548	542	550	552	554	545	544	545	551	550	550	547	547	545	545	548	545	543	542	543	545	538	540	541	545	547	544	544	550	549	565	565	564	559	554	549	548	541	543	550	548	545	546	546	548	547	548	554	548	546	540	544	545	544	542	545	549	549	549	552	564	563	563	557	553	553	549	550	550	546	538	543	546	552	548	545	546	545	538	544	544	546	552	558	556	555	546	546	545	546	550	550	555	559	562	562	554	552	552	552	556	561	560	551	550	554	556	554	549	551	555	559	559	561	563	564	563	555	562	554	556	554	554	558	555	554	554	563	562	562	555	555	552	564	565	557	555	553	554	560	564	563	562	564	566	568	567	563	560	559	560	562	566	565	564	563	562	562	566	566	562	560	559	554	561	565	566	564	563	564	566	563	562	565	564	557	562	561	566	564	561	560	562	571	564	565	562	559	562	565	570	575	577	575	572	562	559	561	562	564	571	571	572	575	576	572	571	567	562	559	564	564	565	566	570	570	570	570	570	570	569	564	574	578	581	576	571	563	568	569	574	574	573	575	573	567	569	576	576	573	573	570	568	568	572	571	569	569	575	581	578	573	569	572	575	577	580	582	585	591	591	592	590	589	577	575	573	575	574	572	585	593	583	583	585	584	584	575	582	583	583	585	592	588	587	580	578	575	579	580	577	590	592	590	586	584	581	576	575	580	582	585	585	583	580	580	580	586	585	577	583	584	582	582	577	572	577	581	583	591	596	594	594	591	591	591	583	589	587	588	587	593	591	587	586	579	579	582	591	593	592	593	600	600	593	583	581	581	584	587	584	588	592	596	593	587	588	593	597	590	584	585	585	593	599	599	595	597	601	602	606	586	585	583	584	585	592	596	591	583	586	589	589	592	596	596	598	600	599	599	600	600	605	600	598	597	607	609	609	611	608	601	597	593	591	591	598	594	593	596	598	603	605	605	607	605	605	604	603	601	601	603	605	614	597	596	597	601	601	603	605	607	607	601	604	607	606	603	599	600	605	597	592	592	589	589	596	596	596	598	598	603	617	620	619	608	605	605	605	606	609	615	620	623	615	624	624	624	617	617	617	615	610	604	0	0	0	0	0
521	527	521	515	513	517	523	523	529	527	526	527	527	532	534	531	522	522	527	531	536	533	535	535	535	535	538	535	530	530	526	527	527	527	528	528	528	530	532	534	534	533	533	536	537	534	536	537	538	540	540	541	539	536	533	529	531	537	537	540	545	539	526	516	520	523	520	521	528	528	530	532	536	537	536	537	538	539	541	543	540	534	534	536	537	537	538	535	530	531	532	538	532	535	537	535	538	537	533	535	551	554	554	551	538	535	538	540	539	539	540	538	537	539	540	537	536	536	531	537	536	534	531	531	533	540	536	538	539	533	528	527	531	536	540	542	542	541	540	538	540	541	538	533	533	535	538	537	532	528	532	536	538	540	541	542	539	538	541	546	549	547	542	544	545	538	544	542	542	547	548	547	542	544	544	542	542	548	546	544	542	537	534	537	539	541	534	537	540	544	542	547	565	563	563	555	548	545	541	552	552	548	536	544	546	549	546	542	543	543	545	541	544	544	544	547	546	545	546	548	551	556	557	550	552	551	552	547	546	546	535	535	541	550	546	543	534	531	532	535	536	543	545	548	550	553	542	545	545	545	545	544	544	546	553	552	552	548	547	548	549	550	542	543	549	548	551	555	553	537	546	550	551	551	554	556	563	557	541	550	550	554	552	552	555	557	552	550	550	551	560	556	552	548	554	556	558	556	553	554	559	564	563	560	548	551	555	556	555	555	554	553	554	560	560	556	555	555	555	555	561	559	558	556	553	553	555	561	558	559	560	561	561	568	565	564	556	554	553	559	559	555	557	559	569	562	564	564	562	562	562	570	570	568	564	558	557	555	556	560	567	568	566	571	573	574	563	562	560	557	557	562	565	569	570	571	570	567	567	560	562	563	563	563	568	571	568	567	567	568	566	566	565	567	569	562	564	566	569	570	564	570	562	560	561	557	560	563	566	572	575	574	571	569	570	573	577	577	582	582	584	582	582	572	578	576	575	573	570	572	569	569	571	580	586	585	582	579	576	571	577	578	580	587	586	578	583	570	572	573	574	572	578	578	589	586	583	580	577	573	574	579	584	582	581	580	581	579	576	575	576	576	578	578	577	563	564	570	584	588	587	590	589	589	587	582	583	584	586	586	586	586	584	582	581	582	578	576	584	590	592	590	590	591	584	587	588	586	586	585	590	580	579	572	575	578	580	585	592	592	590	585	582	586	590	595	599	594	595	596	596	590	585	580	581	584	584	584	592	596	592	588	587	587	589	594	596	595	596	596	595	594	598	596	596	596	595	599	604	603	608	607	598	595	593	592	588	585	591	590	588	593	597	601	605	597	596	595	596	594	594	593	592	594	595	591	593	594	599	602	601	601	603	600	600	605	609	607	603	602	597	595	595	595	591	591	594	594	596	594	595	595	597	597	612	614	608	608	605	598	594	594	602	606	604	607	615	621	621	617	614	615	613	606	599	0	0	0	0	0
520	518	515	515	514	512	511	516	516	525	526	528	528	528	528	523	522	528	528	533	535	533	533	533	534	530	526	527	523	523	525	525	526	523	522	522	522	523	523	524	528	529	529	530	531	529	533	534	539	540	540	539	536	533	532	532	526	519	519	519	522	527	523	521	516	516	519	521	521	521	520	516	522	525	527	529	538	538	533	529	526	524	524	528	534	536	536	532	531	530	531	534	533	530	527	533	527	527	516	524	537	547	545	545	540	533	536	532	526	525	525	527	527	527	529	532	533	532	529	535	534	530	529	528	529	530	533	533	530	526	522	531	529	533	536	538	538	538	534	534	533	539	535	528	529	530	533	534	528	528	532	534	535	542	541	542	537	536	542	547	548	548	543	536	533	533	535	537	537	539	540	544	542	544	542	530	532	533	535	536	535	534	534	538	538	531	538	538	538	538	539	540	546	562	540	537	537	534	538	550	547	548	537	542	544	547	546	540	541	542	541	544	545	546	546	544	542	542	545	546	549	551	546	537	546	548	551	546	546	545	539	538	540	545	543	540	538	536	535	527	530	535	543	545	545	543	534	539	541	544	544	542	544	544	546	542	542	541	542	544	544	548	549	553	553	549	550	552	547	541	542	547	548	540	546	540	538	538	538	537	546	550	550	551	554	554	547	546	547	546	544	550	549	547	548	552	552	553	554	555	560	559	561	555	546	550	549	556	558	552	547	547	551	552	551	548	549	555	556	556	549	549	550	554	555	553	554	554	553	551	555	558	561	563	566	563	553	542	552	554	554	554	555	559	560	559	566	560	560	560	562	567	566	565	561	557	553	553	554	559	563	563	562	560	551	563	563	561	555	554	554	555	561	567	571	567	562	564	560	557	561	562	557	558	563	570	568	565	564	568	565	564	562	563	558	556	558	561	564	558	555	559	561	559	558	558	561	562	567	569	573	574	571	569	571	572	570	564	569	574	583	581	574	571	572	575	575	572	569	568	570	570	574	577	589	585	582	575	574	576	577	579	580	581	580	581	578	580	573	573	572	579	575	575	574	572	574	581	578	575	576	578	579	582	575	580	580	579	574	572	575	574	575	575	563	560	563	570	581	581	582	583	582	584	580	576	577	580	581	584	588	589	590	587	585	578	579	578	584	589	589	589	588	581	580	580	583	586	589	590	586	580	575	575	575	575	579	586	591	590	588	584	582	585	582	578	578	589	583	587	585	582	583	579	581	582	579	580	579	588	590	586	585	587	589	590	589	589	594	594	591	590	589	590	587	585	590	590	599	602	603	600	598	590	590	586	585	582	587	584	584	587	591	596	592	586	587	587	587	587	587	588	590	592	588	586	587	592	596	594	596	596	593	593	598	602	603	600	597	594	593	592	596	596	595	595	594	594	595	590	593	592	593	594	595	594	605	605	596	593	590	592	591	591	596	601	604	604	607	615	614	618	614	606	597	0	0	0	0	0
515	517	518	518	509	509	508	516	516	520	520	514	515	515	518	522	524	525	525	527	534	535	525	524	524	523	515	517	522	525	525	523	518	516	517	518	518	518	518	522	522	521	523	523	527	524	527	530	534	530	531	531	526	525	527	523	519	507	511	511	517	522	521	518	516	516	518	520	519	519	519	516	515	521	524	529	534	526	524	523	523	524	526	526	532	533	533	530	528	529	530	532	535	530	524	522	521	518	516	525	531	536	538	535	535	530	528	524	524	525	525	526	525	522	522	528	530	530	528	535	533	529	528	529	530	528	523	519	518	530	528	529	525	532	533	534	533	537	537	528	529	530	530	529	529	530	530	529	528	527	528	530	540	535	532	530	525	525	528	533	535	536	535	530	530	531	533	535	537	536	538	539	533	530	530	530	525	528	530	532	532	532	530	532	538	531	531	531	533	534	533	533	533	531	530	530	530	530	539	543	546	544	536	533	547	543	541	537	537	534	536	539	538	539	541	540	540	540	540	540	541	543	534	535	536	534	537	539	540	542	542	543	541	542	545	544	541	539	539	523	525	531	533	537	532	532	529	534	538	538	544	542	537	539	538	539	538	540	540	538	538	540	545	548	554	552	552	549	536	538	542	535	528	528	532	537	537	535	536	539	538	536	542	549	549	545	544	545	545	542	546	544	543	545	547	549	552	553	555	556	556	556	560	556	557	558	559	556	555	555	546	546	549	551	547	545	549	549	549	550	551	551	555	561	559	559	556	555	548	550	549	546	555	556	555	550	543	541	550	554	556	556	555	555	558	554	561	559	558	555	550	554	554	556	555	556	550	550	554	558	560	557	544	554	559	565	565	560	554	551	553	552	552	563	569	566	561	564	557	553	558	560	557	556	555	565	566	560	559	562	565	564	561	559	556	554	553	551	555	553	554	557	559	561	561	562	564	569	568	566	569	573	574	575	565	563	562	562	563	567	570	568	571	569	573	571	570	567	567	568	573	576	577	578	581	588	576	574	575	577	572	577	580	581	581	582	581	581	578	575	577	576	577	572	571	568	573	574	576	577	577	578	579	576	575	579	579	577	573	570	574	571	564	561	566	566	568	569	569	574	576	576	576	578	576	570	572	575	577	579	582	587	585	581	579	576	575	577	573	573	588	584	583	581	574	575	580	584	588	586	580	574	572	570	572	574	575	576	582	584	583	582	579	575	567	571	573	579	581	584	580	578	578	581	583	583	578	573	567	574	579	576	575	580	575	577	574	565	578	581	589	587	585	585	585	583	584	585	589	586	584	592	582	584	582	582	582	582	585	580	582	582	586	587	583	582	583	583	585	585	588	592	592	590	590	585	585	587	588	591	590	593	597	594	594	596	591	586	584	591	592	594	594	594	591	596	595	595	587	583	590	594	594	593	592	592	592	592	588	586	589	589	588	581	586	593	600	600	602	612	613	614	611	594	589	0	0	0	0	0
514	517	512	509	509	515	517	516	516	517	511	512	517	517	517	520	520	519	528	528	528	527	527	516	516	513	513	514	520	521	521	517	514	512	513	513	513	514	518	522	521	520	521	521	522	524	523	517	516	515	519	519	518	517	517	517	515	512	513	517	517	522	510	515	510	509	514	518	517	516	516	516	516	515	520	519	519	518	513	519	522	522	523	528	528	530	528	524	524	525	527	529	534	531	527	523	518	519	518	520	528	535	533	532	528	528	528	529	527	520	525	520	522	524	525	527	524	528	524	532	529	523	518	524	524	524	522	521	520	524	526	526	524	526	526	529	529	526	528	533	528	530	534	531	530	531	530	526	528	529	529	533	533	530	526	521	522	522	523	526	529	531	531	526	529	531	533	535	537	534	533	531	530	526	523	522	523	528	528	527	529	533	532	533	525	529	523	527	533	533	532	531	530	529	532	530	527	525	529	529	530	532	534	537	538	538	536	535	529	533	534	536	536	533	531	536	536	535	535	534	535	533	530	534	535	535	534	536	537	537	530	529	531	534	534	540	538	538	533	535	527	519	522	523	527	531	529	534	533	538	541	535	534	534	534	535	539	547	534	533	534	538	540	544	542	544	539	536	543	532	535	535	534	535	536	538	537	539	538	538	529	544	544	546	543	540	542	545	546	544	541	540	541	541	542	543	546	545	552	552	552	551	555	557	559	561	561	554	549	549	547	546	549	550	546	546	547	547	546	547	547	549	554	558	554	554	553	559	551	546	544	545	546	553	551	550	547	549	555	558	559	557	555	554	552	553	549	555	546	552	546	551	553	551	550	546	546	549	550	548	546	547	551	555	567	563	560	559	555	555	554	551	550	551	552	563	561	560	551	551	554	558	562	559	557	560	558	557	554	557	560	562	557	558	555	552	554	555	558	555	564	567	560	560	556	558	562	562	562	551	560	565	565	565	564	563	561	561	562	567	566	564	560	556	554	556	560	563	565	567	570	566	569	572	574	574	571	561	566	569	570	575	580	582	582	582	579	575	575	576	579	579	580	568	564	568	568	560	558	577	578	570	569	569	570	574	574	576	574	570	565	567	570	566	566	567	568	567	565	565	567	570	572	573	565	564	567	569	574	578	579	578	578	578	575	576	576	571	572	581	575	584	578	576	571	572	575	577	580	576	574	570	566	566	567	574	574	573	571	573	573	571	571	571	570	569	575	577	576	582	579	575	576	578	581	581	575	568	569	576	576	577	577	572	570	573	573	563	574	573	572	569	568	569	569	569	571	581	581	581	577	577	579	582	575	575	574	575	578	577	578	581	581	581	583	582	582	583	584	589	589	592	594	593	588	584	582	582	575	583	594	596	585	584	588	585	584	583	583	586	589	589	591	590	591	589	587	580	576	575	592	595	596	592	592	592	590	588	587	588	587	585	588	585	577	584	584	590	602	604	609	603	597	591	594	594	0	0	0	0
510	505	499	504	504	515	506	507	503	503	510	513	511	508	508	506	508	519	521	521	524	523	525	516	514	514	513	516	517	520	520	513	509	507	510	510	518	518	519	523	519	518	520	518	518	519	515	515	512	509	512	517	517	517	518	519	519	518	515	514	518	518	508	510	508	508	512	513	513	512	516	516	518	518	518	518	518	515	511	510	518	520	523	523	523	523	523	518	519	521	525	523	524	531	526	521	516	518	521	523	526	535	532	526	527	523	523	524	524	523	519	520	521	523	525	526	522	520	520	524	526	522	518	520	525	528	524	525	524	521	522	522	521	523	526	527	528	524	529	534	531	537	535	534	532	531	533	523	520	523	528	533	533	530	525	520	520	516	522	523	522	523	525	525	527	528	531	531	528	528	525	529	527	525	520	521	525	527	527	522	515	510	507	513	523	526	527	525	525	522	520	528	532	529	531	529	526	522	523	521	519	519	528	536	537	536	532	530	531	534	534	535	533	532	528	530	532	534	533	532	532	533	532	531	531	533	530	536	534	534	526	527	529	527	531	528	528	524	523	525	522	519	523	521	523	528	529	534	532	533	539	533	529	529	530	534	539	533	533	532	533	534	536	541	541	539	536	534	536	536	535	535	537	538	539	540	542	542	540	539	532	543	546	546	544	541	539	543	542	544	542	540	541	538	540	542	543	546	547	548	548	551	549	558	554	551	549	552	552	549	548	550	551	550	548	547	545	547	545	541	538	546	550	554	553	554	553	558	550	547	547	546	548	553	552	554	554	554	557	562	562	562	554	555	551	551	550	547	548	546	545	543	544	547	545	541	545	548	549	549	548	551	552	554	554	570	569	563	563	559	556	551	546	544	544	547	548	547	547	549	552	553	562	556	545	548	550	554	548	551	555	560	559	554	550	550	554	556	562	564	557	565	556	556	552	554	553	554	550	550	552	560	563	563	564	567	562	561	561	561	561	558	554	552	551	551	546	561	561	561	562	563	561	563	564	560	555	560	558	562	562	561	559	564	567	568	566	568	567	565	565	570	569	563	561	561	559	557	557	561	564	565	565	563	564	561	557	555	558	567	565	563	564	563	559	565	564	564	565	567	567	571	565	563	565	562	565	568	572	572	574	573	571	571	566	573	575	570	568	565	570	571	572	572	567	567	571	571	571	572	572	562	558	558	562	563	566	563	561	557	558	558	568	570	568	564	573	574	574	574	568	568	571	575	577	578	573	568	571	569	571	575	575	575	572	573	574	572	571	572	566	567	566	569	571	572	575	577	579	578	578	575	577	578	573	566	565	570	575	575	576	575	577	573	573	576	579	576	580	585	589	592	593	593	591	585	579	575	576	575	590	587	580	577	579	582	581	581	578	577	577	574	572	571	578	580	580	578	574	571	586	593	594	591	590	590	593	590	588	588	586	582	578	576	576	585	585	591	597	596	592	585	585	589	596	596	0	0	0	0
501	496	490	499	505	505	501	498	498	498	503	503	506	504	504	506	508	510	516	516	518	518	517	510	509	509	513	516	517	516	513	513	507	514	520	520	520	520	520	519	515	514	512	515	515	516	513	511	511	511	512	513	513	514	516	518	523	522	514	515	515	515	509	510	509	507	507	507	507	507	510	513	513	513	515	518	520	520	513	514	515	514	514	515	513	513	512	514	517	519	516	509	510	514	522	522	516	517	518	528	530	531	528	525	520	517	518	518	519	514	515	516	518	521	524	522	521	518	518	521	522	519	516	517	521	525	525	521	521	519	519	519	518	521	523	523	526	527	527	529	534	531	532	533	533	530	519	518	519	518	522	523	530	528	516	517	516	515	514	516	519	518	521	525	526	523	522	525	527	522	522	523	526	524	519	520	523	526	522	521	519	517	515	512	521	523	525	523	523	520	518	518	518	516	518	523	521	521	522	521	525	528	528	529	530	528	524	524	528	534	536	537	532	531	527	529	530	534	531	530	530	530	533	532	532	530	533	529	527	525	525	524	524	524	530	525	523	518	518	522	523	527	523	527	527	528	534	536	533	527	534	531	531	523	526	528	531	529	530	529	529	529	530	533	535	537	534	533	534	538	534	531	535	535	537	536	540	542	544	539	538	541	544	548	540	539	540	543	543	541	542	543	538	541	543	544	539	546	547	548	549	547	554	545	546	546	545	546	547	548	549	551	551	549	552	546	547	544	542	538	538	542	547	544	548	554	554	556	549	543	538	543	547	550	554	555	559	550	554	558	555	557	558	556	549	548	548	546	545	546	545	544	541	541	540	538	548	550	550	549	549	559	558	555	563	552	558	562	559	560	553	543	540	539	540	543	544	544	544	544	550	553	558	556	536	540	545	547	544	548	551	554	550	550	549	549	549	555	560	558	554	556	551	549	545	550	550	549	548	547	555	555	557	559	562	564	562	558	557	555	553	552	551	552	553	547	545	546	556	556	556	545	550	548	550	547	550	556	557	558	561	568	557	553	550	551	557	557	563	553	555	559	559	560	561	563	560	558	557	559	555	557	563	561	556	548	545	544	546	549	559	558	554	554	558	561	558	561	564	569	568	572	572	563	564	564	565	568	571	567	566	564	562	562	562	564	564	565	563	559	564	569	571	568	564	562	567	568	570	569	569	562	554	555	557	566	563	556	557	559	555	556	558	565	568	563	555	554	561	562	557	559	566	567	569	570	566	570	571	575	576	577	572	570	574	571	569	570	570	556	556	555	565	566	562	568	568	563	562	574	575	572	572	573	572	562	559	569	570	570	572	573	573	571	570	569	574	555	561	583	588	585	585	587	584	577	577	576	579	576	575	573	576	579	584	583	580	578	574	574	574	573	569	565	563	570	565	574	575	566	570	577	590	586	586	585	584	586	587	588	585	579	576	574	576	576	576	578	595	592	587	580	580	585	585	590	0	0	0	0
494	492	494	501	502	502	501	494	493	496	496	499	504	504	504	504	507	511	516	509	509	510	513	519	505	505	511	512	515	513	510	510	509	511	511	517	519	515	515	515	510	510	512	515	514	514	513	513	514	515	515	512	509	509	510	516	523	521	514	512	511	509	509	506	508	506	505	501	503	505	508	512	512	511	512	515	520	519	523	514	513	509	509	510	506	505	505	508	508	508	507	504	505	508	514	515	513	518	518	519	525	520	518	518	515	509	511	505	505	507	510	511	513	518	516	514	512	513	514	514	518	513	513	513	514	519	520	518	517	517	506	503	505	515	519	520	521	524	525	529	532	529	531	528	514	516	518	520	520	510	512	521	522	523	518	516	511	516	518	512	515	507	514	521	524	522	521	522	520	518	519	519	522	519	518	520	521	520	520	517	517	519	517	515	520	523	524	524	525	523	520	515	515	512	513	515	515	518	521	522	524	527	528	528	520	517	523	522	513	514	519	521	517	517	528	527	527	527	525	527	527	527	530	530	529	530	521	518	520	524	526	522	522	523	526	528	522	519	519	521	522	524	525	526	528	530	535	535	530	529	525	528	524	521	522	520	529	529	525	524	525	525	528	531	532	530	534	534	537	540	538	532	530	530	529	527	537	541	532	530	526	532	534	526	538	536	536	536	538	536	537	537	537	537	535	531	533	542	546	546	545	545	539	536	535	539	539	541	538	543	548	549	550	547	545	540	532	531	535	543	544	541	539	540	543	550	553	554	552	540	535	540	544	550	548	554	555	542	542	552	555	554	553	547	543	542	540	535	534	538	538	537	537	540	541	544	547	547	548	549	550	560	561	554	546	546	547	556	554	553	547	537	534	533	534	540	541	543	543	540	541	549	548	546	539	534	535	538	544	545	548	547	548	549	545	547	547	549	548	548	545	550	551	549	539	543	545	544	543	543	554	546	542	537	560	561	557	552	550	548	548	548	544	544	548	540	542	539	540	540	544	544	548	545	540	543	544	552	555	556	558	565	554	550	550	551	554	556	554	551	546	545	550	559	560	562	557	559	555	553	554	554	555	557	552	548	546	547	548	551	553	553	549	552	555	559	558	559	567	571	571	567	554	554	561	562	557	559	564	563	559	560	554	555	556	561	562	561	559	561	567	567	564	557	555	558	565	567	567	563	562	556	553	553	554	563	561	556	555	556	552	555	559	561	560	559	559	560	555	553	554	553	560	563	558	564	569	570	572	575	574	576	570	568	568	566	562	573	547	550	553	553	567	569	569	566	560	557	558	564	568	569	566	569	566	561	558	559	569	564	564	564	568	566	563	558	555	555	553	556	561	572	574	575	573	573	573	573	576	574	570	569	577	583	584	588	588	574	571	571	573	574	569	561	556	558	566	573	576	575	564	567	577	577	580	575	575	576	585	586	583	581	579	574	574	574	572	569	578	583	581	580	578	583	583	587	0	0	0	0
495	495	497	500	501	501	499	495	493	496	496	496	496	497	501	501	502	497	500	502	502	505	509	503	500	505	505	506	506	505	506	509	509	506	509	510	514	511	511	510	510	510	512	512	515	515	512	512	515	516	515	507	504	504	509	513	513	515	514	511	507	504	504	505	506	505	505	502	503	505	507	509	509	509	510	510	512	508	509	511	513	499	508	507	506	504	503	503	502	503	504	505	504	508	510	511	511	508	515	516	524	518	515	516	511	507	505	506	506	506	506	507	509	511	512	508	509	510	511	509	511	511	508	506	506	516	510	516	510	505	509	505	505	515	512	516	519	521	519	519	529	526	507	511	515	520	521	517	517	515	509	512	510	516	515	513	513	515	516	512	508	508	507	519	522	523	522	521	514	514	515	516	516	516	515	508	519	519	516	514	517	519	519	517	518	520	522	523	521	518	515	516	515	509	510	513	514	518	523	523	524	520	518	518	518	519	522	511	509	509	514	513	510	509	516	525	516	513	514	525	525	527	526	527	526	527	524	527	522	522	526	521	516	522	524	525	521	520	519	521	522	520	522	525	522	526	528	526	523	529	528	528	521	517	516	521	526	526	518	519	522	522	524	531	534	528	531	534	539	540	538	525	521	525	523	521	524	526	524	522	527	529	531	532	532	529	525	524	524	532	531	532	535	535	532	529	526	533	541	541	533	534	535	532	530	531	534	539	535	537	543	548	541	541	539	530	530	532	534	536	537	539	536	537	538	541	552	552	549	539	536	536	539	545	547	542	540	539	539	541	543	550	540	536	539	540	538	532	535	539	540	539	540	544	545	547	548	547	542	547	549	551	554	553	551	545	550	550	547	546	545	541	530	536	534	537	543	543	541	540	539	540	538	543	536	539	543	544	541	544	546	547	539	539	547	549	552	550	549	539	532	529	538	538	539	539	542	543	541	556	543	540	535	531	539	547	557	550	545	543	544	544	541	538	536	539	537	536	535	533	538	542	546	546	542	542	543	551	553	554	553	547	540	540	548	552	554	551	551	548	544	542	545	542	554	555	554	548	552	553	552	549	549	552	550	554	554	553	555	550	551	554	556	553	552	561	559	559	563	566	563	554	554	550	545	550	556	557	554	553	550	552	548	549	552	555	558	559	558	554	562	565	562	555	555	557	567	568	565	556	553	552	552	550	558	559	556	555	550	547	550	554	560	559	560	557	559	557	555	552	551	550	557	557	556	550	549	567	568	571	557	558	560	560	564	568	564	547	543	543	549	565	572	569	568	567	566	562	557	562	556	557	558	561	560	565	567	563	563	559	556	555	566	564	561	560	557	557	554	559	560	559	571	572	571	568	568	568	573	570	568	568	576	582	584	584	579	572	572	569	570	572	565	558	557	560	568	573	576	575	570	567	576	576	572	567	567	567	579	584	582	582	574	574	574	574	569	565	564	564	573	570	576	576	582	583	0	0	0	0
497	497	499	501	501	498	498	495	496	496	496	496	495	495	495	495	495	495	499	502	495	495	497	498	502	504	504	506	502	498	500	503	503	504	504	506	510	509	506	506	506	506	501	507	508	509	509	511	512	515	514	504	503	505	505	507	508	507	508	503	500	502	505	501	503	505	505	503	501	504	506	504	499	500	500	505	505	507	508	507	502	499	509	507	506	507	504	504	503	504	504	508	505	505	506	506	506	503	510	511	512	512	512	514	510	502	504	509	507	507	505	505	507	509	509	504	505	510	513	509	511	509	509	502	500	500	512	515	514	511	510	509	508	509	511	510	513	515	508	513	506	505	508	507	512	511	512	512	515	514	508	509	510	508	513	514	513	514	511	505	499	498	503	517	521	522	516	510	507	509	512	513	513	506	502	510	509	508	506	508	512	515	518	517	514	518	519	517	519	514	509	511	511	510	512	512	516	521	520	518	516	519	519	519	519	519	519	511	504	505	510	510	506	507	507	507	505	503	500	507	516	521	520	517	521	527	521	519	520	520	521	528	528	527	526	524	521	520	520	519	516	517	520	519	522	523	522	522	519	524	526	520	525	517	516	521	522	523	516	515	518	521	521	520	526	528	527	529	532	538	535	524	515	523	520	517	517	519	519	522	528	530	530	531	530	529	525	522	520	521	518	521	526	526	522	524	525	530	535	534	533	533	531	533	529	521	522	533	538	534	534	537	537	533	533	528	529	529	531	534	534	536	539	542	538	541	539	536	538	535	533	533	534	537	534	527	521	523	531	535	539	540	531	531	534	534	533	532	532	541	533	539	539	535	540	538	541	540	537	542	536	536	534	537	552	547	546	543	543	543	541	542	540	538	535	537	542	543	541	540	535	527	528	532	529	536	541	548	544	539	534	534	532	537	535	546	551	551	546	536	533	528	525	527	534	530	530	542	537	540	538	532	528	528	534	547	543	538	539	539	540	539	539	539	535	534	532	531	532	530	533	531	534	549	539	538	540	542	546	549	551	542	538	538	539	548	548	552	541	539	540	543	542	542	553	551	550	546	542	541	542	544	545	545	548	552	553	554	553	559	552	552	552	549	548	548	558	556	555	555	554	557	553	549	542	540	548	549	548	546	545	544	544	545	551	550	553	553	552	553	553	551	554	556	560	559	563	565	559	550	549	551	550	546	550	559	562	552	548	548	549	551	557	559	552	555	556	557	555	550	552	551	550	553	554	547	548	545	546	547	544	550	561	563	567	567	562	551	546	546	548	554	571	566	563	559	548	545	556	553	556	559	559	561	563	564	564	560	560	557	552	559	560	560	557	559	559	557	560	562	562	562	558	568	568	565	562	563	570	567	566	566	565	565	566	574	572	572	565	565	565	563	558	559	558	563	571	573	573	569	574	574	574	575	572	565	563	563	564	573	575	575	573	573	571	573	567	565	564	564	573	569	572	572	570	570	0	0	0	0
491	496	496	498	498	498	498	492	494	490	488	488	492	496	495	495	495	496	499	500	495	495	495	493	496	498	498	498	492	493	496	501	504	501	502	501	504	506	507	507	501	492	494	505	506	509	509	503	505	504	512	506	502	500	500	502	501	498	494	497	495	497	501	499	502	505	504	503	502	502	506	506	498	499	499	502	505	502	502	507	499	504	507	508	505	507	506	505	505	505	505	506	504	502	501	501	493	497	504	509	510	510	511	513	504	498	499	503	504	507	507	507	507	508	502	501	503	504	513	512	510	508	506	506	506	507	509	516	511	509	509	508	511	510	510	503	507	509	507	502	503	505	510	508	507	506	507	505	508	507	506	508	504	510	514	513	511	510	506	498	495	500	503	505	506	515	505	502	503	507	511	512	511	500	500	504	507	509	508	510	509	512	514	510	508	510	517	516	515	509	506	509	514	512	505	504	503	503	504	507	515	515	513	516	517	517	516	511	512	509	508	505	504	505	504	504	505	499	498	503	507	515	516	516	507	509	512	518	521	513	514	518	522	526	528	517	518	523	520	516	516	518	520	521	521	522	520	518	510	521	522	517	510	521	518	516	525	522	516	516	517	521	521	519	518	518	522	524	523	535	532	530	519	515	520	518	516	516	518	525	524	517	515	518	516	518	521	516	516	517	520	520	526	528	526	519	521	528	530	533	521	521	522	522	527	521	521	522	530	529	529	530	529	529	527	524	525	528	529	524	529	526	528	534	540	541	535	528	525	523	527	534	538	536	525	525	517	514	530	533	532	527	523	528	530	531	531	535	536	535	534	532	533	533	532	536	536	530	531	530	535	526	527	531	530	538	542	540	541	542	541	537	532	529	531	538	528	527	526	526	528	527	527	519	522	522	533	542	541	537	532	530	528	529	534	542	547	547	539	539	528	527	525	530	536	537	541	532	530	528	524	528	526	528	540	542	535	533	536	537	539	538	538	538	534	532	533	532	533	536	534	533	535	535	547	540	539	543	544	546	547	550	539	537	521	523	527	531	533	534	536	542	540	542	544	546	546	540	539	539	538	533	533	535	545	547	552	551	551	550	549	543	547	543	543	543	548	561	564	563	557	556	551	542	542	541	540	542	544	545	545	544	549	556	555	551	553	556	542	541	543	547	543	550	553	548	550	554	554	553	551	547	540	545	550	557	559	550	544	546	548	552	554	553	552	554	554	550	550	552	551	551	550	552	554	545	546	548	546	546	546	550	553	561	564	566	559	546	541	542	543	546	548	544	542	543	544	543	539	549	553	557	557	558	552	552	548	558	549	550	549	556	560	557	557	554	552	554	556	558	564	560	560	560	560	557	555	551	558	565	563	560	559	562	564	568	568	565	564	563	560	558	559	560	562	562	560	563	566	565	565	565	568	576	572	566	561	558	557	562	565	567	567	567	569	569	563	565	563	563	564	566	566	568	568	566	0	0	0	0
487	491	491	491	492	490	495	495	494	483	483	483	489	492	494	495	495	500	502	496	495	488	488	490	486	489	490	490	490	490	496	500	501	501	499	497	495	497	497	489	489	491	498	502	502	504	503	503	493	494	492	491	497	496	491	491	495	491	492	492	493	494	499	499	499	501	501	500	500	499	499	494	495	496	496	496	497	485	488	503	508	502	502	503	504	505	504	503	504	504	502	503	500	496	497	496	493	495	498	501	508	510	502	499	503	506	506	510	508	507	508	506	503	498	498	492	496	502	502	507	499	503	501	500	505	506	505	506	501	504	499	499	504	512	510	502	503	501	498	501	502	506	510	508	498	497	502	503	506	508	506	505	503	510	513	510	508	506	499	498	498	494	500	501	504	505	502	499	499	503	506	508	509	500	499	499	506	510	510	509	507	506	507	508	501	504	508	508	507	510	504	511	512	510	501	492	500	500	500	506	498	505	508	509	502	502	505	512	512	508	505	507	505	503	501	502	496	493	495	498	502	499	500	505	506	508	510	520	512	505	502	501	503	514	512	512	518	520	513	513	515	516	519	522	520	514	511	510	506	507	519	511	509	519	517	522	528	520	519	517	520	520	520	517	512	514	515	518	519	530	528	527	519	517	518	519	517	512	510	521	515	514	512	508	506	508	508	506	504	512	514	521	523	527	527	518	512	510	509	509	510	513	518	516	515	516	518	518	521	513	517	521	521	519	524	519	518	521	524	522	518	516	523	534	539	539	528	522	520	520	523	533	533	528	522	523	522	512	520	530	529	527	525	521	526	527	525	535	535	529	535	527	529	529	530	531	529	525	530	526	525	524	523	516	518	527	528	530	533	535	535	528	527	527	532	533	527	525	528	529	532	532	519	515	516	523	526	528	537	534	532	531	525	525	526	540	542	543	536	534	531	533	530	531	528	538	539	530	528	528	527	530	533	528	532	535	532	532	532	535	533	528	531	529	534	533	532	530	531	534	532	534	536	536	531	535	534	533	533	532	530	529	530	533	530	530	531	532	528	523	528	537	540	539	540	544	541	538	533	535	534	532	533	529	534	539	543	547	547	543	549	534	536	535	538	542	544	548	559	557	551	551	552	543	542	546	543	534	539	539	539	542	543	549	550	545	543	540	536	540	538	537	543	543	543	545	543	546	549	552	549	540	542	536	536	537	536	541	546	545	545	548	550	551	550	554	552	548	550	550	550	553	553	552	546	544	545	551	550	544	545	550	553	559	558	549	538	538	538	540	542	545	551	551	551	551	548	545	541	538	544	543	544	540	550	547	543	539	538	543	548	556	559	558	554	551	551	549	552	552	554	554	559	559	559	558	556	555	552	560	559	557	557	558	558	564	564	564	564	561	560	556	555	560	560	559	561	559	560	563	563	563	555	553	565	562	556	553	552	553	557	562	562	565	567	567	562	558	553	556	568	568	564	569	566	562	0	0	0	0
478	481	481	485	485	484	489	489	486	484	485	486	486	487	489	497	501	501	493	492	491	484	484	478	481	484	488	491	491	490	492	496	498	499	495	492	491	490	489	492	492	495	497	500	501	501	498	498	487	492	492	481	481	484	491	491	489	491	491	492	489	490	496	499	494	494	496	496	495	493	491	492	494	497	497	497	496	493	491	495	497	489	497	498	502	503	500	500	500	500	500	498	494	493	491	492	493	494	495	498	499	500	500	501	503	504	506	507	508	505	500	492	489	488	491	491	493	493	498	494	495	497	497	504	495	492	497	500	502	493	493	494	498	499	496	496	493	497	499	496	494	495	499	506	501	497	499	500	502	504	504	503	501	505	507	510	507	503	500	494	494	498	500	501	501	503	498	495	495	495	499	502	506	498	498	498	501	505	512	505	505	505	506	507	500	497	494	495	499	500	505	510	511	508	502	498	496	490	495	495	497	502	505	503	503	498	501	507	512	510	505	504	504	502	500	500	496	494	492	496	502	499	503	503	504	503	502	512	515	507	502	500	499	498	497	497	504	505	515	509	513	517	515	521	515	509	509	509	507	504	509	505	515	513	515	511	521	518	517	519	519	517	517	511	508	511	512	512	514	513	519	524	517	515	517	514	514	511	512	509	514	512	510	508	507	506	508	506	501	503	507	511	515	515	515	510	506	508	505	505	508	509	512	515	515	516	516	516	521	511	509	510	515	520	520	517	518	520	519	518	517	518	516	516	518	526	511	509	509	512	517	522	521	522	524	523	516	517	516	524	527	529	523	519	516	520	520	519	518	519	518	521	521	522	527	524	523	521	521	523	517	516	515	518	519	516	518	521	521	524	524	525	524	524	523	525	526	524	527	529	531	531	522	517	519	521	522	522	525	527	530	532	534	533	525	523	537	537	533	533	529	530	531	528	532	534	536	530	528	522	530	534	536	537	537	534	532	527	529	529	528	521	521	525	531	532	530	525	522	528	533	533	526	526	529	531	531	526	529	530	530	529	536	538	530	532	533	533	532	526	532	535	534	533	537	537	539	531	524	523	528	534	528	528	525	537	540	541	539	537	539	527	534	533	537	541	543	543	541	540	546	547	546	549	551	549	545	535	532	536	538	541	542	546	546	544	543	535	535	540	538	528	528	533	538	543	536	539	542	546	543	539	534	532	531	534	536	543	545	548	542	545	548	546	544	542	543	546	547	546	545	547	551	550	546	543	545	550	550	545	543	546	544	542	538	536	532	537	537	539	541	547	549	547	547	550	548	547	543	539	537	538	537	534	533	532	537	540	540	545	547	556	557	554	551	550	550	544	543	552	555	554	554	557	557	553	558	556	557	557	557	549	544	547	554	554	555	558	558	561	560	555	557	557	558	553	558	556	558	560	563	560	550	546	542	544	554	550	551	552	552	552	556	561	563	563	561	559	555	552	558	558	561	563	568	565	0	0	0	0
475	477	478	478	481	485	485	485	484	484	484	482	482	485	490	484	484	484	483	487	492	484	481	476	477	481	485	487	487	486	488	490	491	495	495	483	487	488	489	492	496	496	499	498	491	491	487	487	483	494	491	485	484	482	486	490	490	492	492	491	489	489	491	494	492	492	492	493	495	494	492	493	492	491	494	494	494	492	491	492	492	489	484	495	492	491	492	495	497	494	492	492	487	490	488	490	492	494	498	496	497	499	502	499	498	491	492	505	501	494	495	495	489	490	489	487	488	488	488	486	490	496	503	499	495	491	489	490	499	499	502	492	493	492	489	486	486	486	496	496	491	490	495	501	497	496	497	493	494	493	495	491	506	505	511	510	509	504	498	498	498	499	498	500	500	499	494	490	488	490	495	498	499	502	499	499	499	503	502	503	502	502	502	499	497	494	494	494	496	501	502	507	507	503	503	500	494	493	492	498	497	500	498	504	499	495	493	502	501	497	500	505	497	500	502	502	500	501	501	501	503	504	502	500	504	506	506	502	512	509	504	495	495	495	499	493	500	501	500	497	499	499	501	502	498	500	503	505	507	508	504	502	508	508	506	512	518	518	521	508	511	514	511	510	506	507	507	501	501	502	511	515	517	515	515	515	513	513	507	510	510	510	508	507	506	506	507	507	504	501	503	506	512	515	511	505	501	505	505	504	503	511	513	513	515	518	518	519	521	521	518	512	504	504	506	503	516	516	517	515	515	516	516	516	513	517	514	505	505	506	520	520	518	515	517	517	521	520	518	518	514	518	516	510	503	506	513	514	515	515	520	518	519	527	527	527	524	521	518	518	519	517	517	519	519	512	512	517	520	522	524	522	522	522	521	521	526	527	525	529	529	527	521	519	518	522	522	519	518	518	523	525	527	524	522	520	521	520	520	522	528	529	526	525	525	530	528	528	530	530	528	530	536	538	537	534	530	528	526	527	526	518	519	523	525	528	529	527	520	517	519	518	515	519	519	527	524	524	525	527	529	537	540	540	540	536	538	533	527	523	528	531	535	532	532	533	534	526	524	524	528	527	524	523	522	535	537	541	538	533	532	531	533	533	533	537	538	536	532	533	539	546	545	543	549	538	539	537	525	533	537	541	542	544	542	541	543	535	538	541	532	523	523	525	531	533	537	537	539	540	538	530	532	530	529	534	537	544	544	537	541	543	547	544	541	539	543	548	547	542	548	547	547	551	542	543	544	545	544	542	541	542	543	539	534	537	533	536	536	537	542	544	548	545	546	548	548	547	547	542	537	536	536	535	531	536	540	539	540	539	550	552	547	549	551	549	543	537	545	546	552	554	552	555	554	553	557	554	552	556	554	544	543	545	545	550	552	555	557	555	554	554	554	553	551	547	548	552	558	558	560	552	540	541	541	541	540	547	544	550	554	554	555	551	556	557	561	558	556	552	552	548	548	553	553	552	0	0	0	0
473	477	475	475	476	479	481	483	483	485	484	480	480	480	476	476	473	475	475	483	490	481	478	478	475	479	482	481	482	482	482	481	479	480	483	482	488	484	479	485	488	488	492	491	491	488	483	483	483	488	487	487	487	487	485	488	488	492	492	484	487	487	489	492	492	491	491	491	493	496	494	492	489	490	490	491	490	490	490	489	484	484	484	485	488	486	485	489	494	493	489	489	496	500	498	495	488	490	494	496	497	498	500	493	484	485	485	486	489	490	490	490	491	489	484	478	482	485	485	484	487	498	496	496	496	492	490	486	488	492	494	489	478	484	478	481	484	490	494	493	491	491	488	490	495	495	490	494	489	488	489	502	502	513	507	507	505	506	509	507	502	498	497	498	498	497	493	488	487	489	492	496	499	499	498	498	498	494	497	499	499	499	499	500	498	494	492	494	496	499	502	507	505	505	504	502	496	496	497	495	490	494	493	493	496	492	488	494	492	495	497	501	496	502	499	500	503	504	504	503	503	503	491	499	501	504	505	498	504	500	499	500	498	498	498	500	500	502	498	496	499	497	495	493	491	489	491	499	506	506	501	499	503	504	501	505	505	499	497	494	496	497	499	506	507	499	499	496	497	501	507	513	515	515	515	514	512	512	511	511	509	508	506	501	506	508	508	507	505	504	503	506	510	510	506	504	501	501	497	498	512	509	509	513	515	517	518	519	518	518	510	501	504	506	503	500	512	501	505	510	514	515	514	513	510	510	512	504	506	510	518	521	520	509	510	506	508	518	518	511	510	511	511	510	500	504	509	505	513	515	517	516	522	522	527	524	527	518	516	516	515	519	518	520	518	512	506	508	516	525	524	523	522	521	521	517	523	527	534	535	530	525	521	521	523	520	515	517	517	512	511	517	520	517	512	517	518	518	523	519	522	524	524	524	526	523	526	525	524	529	528	528	532	537	536	532	530	527	529	526	520	518	513	514	522	524	525	520	515	514	517	517	517	513	519	519	523	523	524	524	526	534	535	534	533	532	535	534	519	518	519	524	524	529	528	532	533	528	526	530	528	525	523	523	523	526	530	533	541	533	528	532	531	531	532	533	533	531	527	530	541	540	541	524	526	526	536	535	527	522	521	527	537	539	539	539	540	535	538	539	540	518	519	528	532	535	537	537	536	536	536	528	525	525	529	530	534	536	536	537	538	541	542	535	535	541	548	549	547	540	534	547	548	547	536	541	545	544	543	541	538	543	542	538	533	526	531	538	542	543	543	545	541	541	541	545	548	549	547	538	535	535	536	537	537	538	544	546	543	541	540	537	533	545	549	545	542	541	543	542	547	548	549	549	548	548	554	546	547	548	548	553	550	550	545	547	550	552	552	552	549	546	546	548	545	541	542	547	550	558	556	539	539	542	544	543	541	543	542	550	550	552	555	552	549	552	557	553	548	545	545	549	546	545	549	548	0	0	0	0
475	475	476	477	477	478	480	483	483	482	482	477	475	475	474	471	465	472	472	480	482	482	478	481	478	478	479	475	474	474	471	472	473	477	482	487	482	479	484	484	486	490	490	490	488	479	481	484	488	489	489	485	485	487	489	488	489	489	489	483	487	487	490	491	492	490	490	488	491	491	487	485	486	488	485	486	485	486	486	484	481	481	484	479	483	485	484	489	488	488	491	495	495	497	498	495	487	488	493	497	498	493	493	483	482	483	482	483	484	488	490	487	490	487	486	480	477	478	478	479	479	483	491	493	494	491	489	489	487	492	488	490	484	483	478	480	484	487	490	490	492	492	489	491	492	490	489	493	490	489	489	500	500	506	490	503	504	504	509	508	505	498	497	498	500	497	495	490	486	487	489	493	498	501	499	496	489	491	497	495	494	494	498	499	500	490	488	489	494	497	501	506	506	505	504	498	492	502	503	490	488	489	489	488	485	484	487	494	490	492	489	492	491	492	494	499	504	506	505	501	501	498	494	497	502	502	500	495	493	495	499	502	504	504	502	499	500	498	497	496	498	496	492	488	484	484	481	486	490	489	491	490	499	499	499	502	501	496	498	495	497	497	499	499	502	502	499	496	498	498	511	514	515	509	508	509	506	499	497	499	500	501	503	502	507	509	508	505	507	511	511	504	502	506	503	503	498	495	493	497	509	507	510	512	514	512	517	513	509	507	505	504	502	501	494	495	498	502	503	504	509	511	509	508	509	510	502	501	505	509	512	514	510	509	508	505	505	514	495	497	499	509	510	508	499	495	499	506	510	512	516	516	520	522	519	518	522	516	515	519	514	510	519	519	509	501	503	508	513	519	526	522	516	513	518	525	528	532	535	537	534	521	519	519	519	516	514	513	515	512	512	518	519	518	509	508	516	522	511	512	513	517	531	531	528	528	516	519	520	517	521	524	527	528	528	526	516	519	516	518	519	519	518	517	518	518	518	516	512	515	516	514	513	513	515	508	520	524	525	524	521	522	527	528	528	528	526	521	522	524	522	530	529	529	539	532	531	532	532	524	524	522	523	524	523	526	527	537	536	526	525	525	525	527	530	532	531	528	529	533	536	525	537	521	522	521	533	536	527	519	521	526	526	527	527	528	526	529	535	536	519	522	525	524	532	536	536	536	533	532	534	532	531	530	530	523	529	532	530	531	536	539	534	533	531	530	542	543	544	546	532	531	533	531	531	538	543	540	538	537	538	540	540	535	530	525	529	529	544	543	541	544	536	535	533	536	546	548	546	536	531	530	537	537	538	537	544	549	545	538	536	533	532	529	537	540	541	540	540	542	544	540	539	539	536	537	538	540	545	548	550	554	554	555	550	545	548	548	547	546	543	542	543	544	536	536	539	540	540	550	540	539	539	543	545	545	542	539	536	538	538	550	552	549	548	547	551	546	544	544	543	546	547	534	544	536	0	0	0	0
475	472	475	474	474	476	477	478	482	482	477	477	474	474	472	467	464	470	470	480	483	482	481	479	479	473	471	470	470	470	475	480	482	484	487	482	472	478	480	481	482	486	486	485	478	475	480	484	489	489	488	483	481	481	482	490	486	485	485	485	487	489	496	496	492	490	486	486	481	479	480	484	488	489	491	490	488	487	487	484	483	485	482	481	477	480	482	483	483	481	486	490	492	492	488	479	480	482	487	491	489	488	485	480	481	482	478	476	481	483	489	484	490	489	485	482	476	477	475	477	479	482	482	481	482	484	483	483	483	485	486	484	485	482	471	477	480	481	482	490	492	493	492	491	489	486	492	496	495	491	491	496	500	489	488	485	498	504	506	508	505	497	493	494	495	497	492	488	486	488	490	491	497	498	494	491	487	491	491	482	487	487	494	498	499	493	489	487	491	496	500	501	500	498	491	486	488	494	489	488	487	486	485	485	483	485	490	493	494	492	490	488	485	486	489	493	499	505	504	502	493	494	491	487	492	494	494	492	489	487	499	502	503	505	504	499	496	496	498	501	500	494	491	489	484	483	484	488	490	492	491	484	491	497	497	491	492	496	497	498	496	494	495	498	497	498	497	496	493	495	508	513	508	508	504	503	494	498	499	497	498	498	500	503	503	501	507	511	509	509	508	502	512	489	492	492	493	496	502	508	510	509	512	511	512	509	513	511	516	506	504	501	497	494	494	497	497	501	503	508	506	506	504	505	509	509	502	504	506	510	512	511	509	501	501	502	503	498	495	496	498	499	505	504	508	499	499	506	510	510	514	514	516	510	514	512	505	503	510	512	520	497	506	502	502	500	502	502	499	513	522	515	510	511	515	521	525	529	526	516	535	523	518	517	521	518	517	506	512	519	521	520	518	512	504	501	504	505	510	518	518	515	520	523	518	511	508	509	514	516	515	518	512	510	511	510	520	508	510	512	512	516	519	515	516	515	513	510	511	513	512	514	509	510	507	505	508	524	521	517	514	517	521	524	523	526	528	525	520	524	530	529	529	529	539	529	526	518	521	518	517	520	524	521	523	526	526	530	526	526	524	523	524	528	530	531	528	526	528	531	529	526	522	520	520	522	524	523	522	521	521	527	527	526	526	526	528	530	531	530	529	530	531	526	526	527	528	531	522	521	532	533	531	531	529	524	517	527	528	526	533	535	533	531	534	526	525	528	528	529	532	530	533	529	532	539	536	531	533	533	536	538	539	535	528	526	527	531	532	535	538	538	523	526	531	531	531	538	537	531	529	527	534	537	535	532	540	546	546	542	538	533	531	532	535	537	543	544	546	545	543	537	529	529	530	532	534	537	535	548	551	551	555	555	551	544	540	542	543	543	541	540	540	526	529	532	534	534	534	539	541	537	538	540	540	543	538	536	535	535	536	538	539	542	542	540	542	541	542	542	543	543	539	533	532	542	0	0	0	0
471	473	472	473	473	470	473	478	477	477	477	471	470	469	469	467	464	471	481	481	482	481	481	479	474	466	465	468	474	477	477	477	481	482	482	472	469	472	477	478	480	478	475	475	472	473	481	486	488	488	483	479	477	478	479	487	488	483	483	485	487	491	495	494	492	487	485	475	475	475	477	481	485	488	488	491	489	487	485	485	484	484	479	479	478	480	482	483	478	478	478	481	474	475	475	476	470	476	481	482	484	483	481	477	477	478	474	471	473	477	482	484	481	487	486	481	476	476	477	476	479	475	478	478	477	477	479	479	479	480	482	482	481	470	468	467	470	474	478	483	487	487	488	487	485	483	489	483	484	477	485	489	487	485	486	486	495	499	501	503	501	495	489	482	479	482	483	486	493	491	491	496	494	490	490	489	491	488	480	482	482	483	488	496	497	480	488	489	492	495	499	498	492	482	484	484	485	491	489	494	487	483	483	482	482	483	488	490	493	490	488	482	483	484	486	490	496	501	503	500	492	492	490	484	488	484	483	483	486	487	487	493	499	502	499	498	495	491	503	504	501	492	484	482	485	482	485	486	490	490	490	486	490	490	486	486	492	495	499	497	497	493	493	493	496	496	495	492	491	491	492	493	508	506	500	495	491	497	498	495	495	496	497	498	501	502	510	507	508	509	504	486	498	501	498	496	493	500	500	497	510	512	506	502	511	510	507	509	515	514	505	501	496	494	495	494	502	503	504	503	500	498	501	508	510	512	500	503	504	510	513	508	503	500	502	500	490	494	495	496	497	497	497	500	500	499	498	502	504	510	512	505	499	504	503	508	500	502	510	513	518	516	491	494	501	500	500	499	504	500	505	519	510	510	514	515	513	512	521	515	519	522	523	514	520	517	504	506	517	521	521	520	512	508	501	501	499	503	510	517	516	514	517	515	516	511	512	506	508	512	513	515	513	517	513	509	509	508	507	508	508	512	518	516	515	513	510	509	509	509	508	514	506	504	505	507	502	507	512	511	508	513	518	520	520	519	527	524	522	521	520	525	524	524	523	521	518	518	509	508	510	520	522	521	517	524	525	525	525	526	525	525	528	530	531	530	527	523	526	527	524	523	523	526	524	521	520	521	519	521	525	527	526	525	521	524	525	526	522	518	517	515	521	527	528	526	525	524	521	518	524	527	529	522	521	519	517	518	525	527	528	530	527	529	532	524	525	525	524	526	531	526	531	527	528	532	532	530	530	531	531	531	536	535	528	525	526	530	530	532	530	530	517	515	517	524	525	529	529	529	522	527	527	525	521	525	529	534	542	539	536	531	532	532	534	541	543	544	545	543	542	538	525	526	524	525	528	527	522	532	532	535	539	548	544	536	534	533	542	543	541	539	526	522	522	525	525	529	530	533	535	533	529	536	537	540	538	537	537	534	531	530	530	533	540	540	541	544	544	544	543	543	539	532	529	537	537	0	0	0
473	473	469	471	470	470	470	468	467	467	464	468	470	467	467	466	477	482	480	480	479	480	478	474	469	469	469	471	473	475	475	475	478	476	471	469	472	471	472	476	475	475	472	472	472	477	481	483	482	483	475	475	473	477	478	481	490	484	484	484	486	489	492	491	490	477	471	469	469	469	470	472	480	480	478	478	478	476	475	476	476	480	475	477	478	479	480	484	478	473	472	468	471	471	470	470	470	471	474	475	475	473	467	472	471	472	471	467	466	467	470	480	477	476	475	481	481	477	481	474	474	476	478	478	477	476	473	473	471	473	479	480	467	467	466	466	465	470	474	477	481	485	485	484	479	484	479	477	478	474	478	479	479	480	484	485	487	491	490	485	487	489	487	485	477	471	481	483	496	491	488	487	488	489	489	487	484	478	480	478	477	480	482	499	496	480	485	484	488	494	493	488	483	486	481	482	477	483	486	487	488	487	482	481	481	484	487	486	489	484	482	477	479	480	483	488	489	492	488	487	484	484	483	482	487	485	486	488	487	485	484	488	492	492	490	488	488	492	497	495	493	490	486	483	481	478	482	484	485	488	482	481	481	480	482	485	491	493	498	492	490	486	487	488	488	490	491	487	489	490	489	491	491	494	498	494	490	488	493	493	492	494	493	494	495	496	496	496	501	498	498	496	493	497	494	494	496	498	501	500	503	501	495	497	503	504	497	508	513	515	513	501	501	495	493	493	493	494	490	501	501	498	496	498	496	497	496	501	502	507	509	502	503	503	502	500	492	497	494	495	494	495	496	498	499	500	498	502	504	505	503	499	497	498	496	497	498	506	513	512	511	513	500	502	502	503	501	505	501	502	505	502	497	495	500	503	506	507	509	513	513	518	508	500	499	497	499	506	511	513	515	515	513	502	490	490	495	500	510	520	517	518	516	516	515	512	513	504	507	507	505	504	498	497	502	505	506	507	507	505	506	509	509	514	511	509	510	507	504	508	508	512	501	500	502	506	504	500	505	502	500	510	511	512	515	514	513	524	522	519	519	519	519	519	518	516	517	513	507	505	505	512	522	519	508	510	518	520	521	522	525	525	531	532	533	527	517	515	513	516	519	522	524	526	524	520	517	516	514	518	521	518	516	518	520	521	524	521	515	515	514	513	513	522	526	525	524	523	520	517	523	524	522	515	515	513	512	515	527	524	525	526	530	525	523	523	524	528	519	516	526	528	525	523	520	516	523	526	528	532	529	525	525	528	525	524	526	527	531	531	525	527	509	511	513	524	522	527	532	533	531	525	527	523	522	520	526	528	529	532	533	530	529	529	533	537	541	541	541	542	539	538	524	523	524	527	526	523	521	522	524	528	532	542	538	534	533	532	535	541	538	530	524	522	521	520	520	524	530	536	534	526	520	527	526	528	531	533	533	535	532	525	526	528	533	544	543	543	534	528	524	530	534	532	529	521	521	0	0	0
472	472	469	464	470	470	471	464	462	460	460	464	466	467	473	473	478	483	479	475	475	476	472	469	469	469	469	471	471	473	474	474	477	475	472	467	471	464	465	465	472	471	469	469	469	473	478	480	477	474	475	468	470	472	475	479	477	482	482	482	484	486	487	486	482	463	461	465	472	472	476	479	475	473	470	469	469	467	473	471	471	473	471	471	470	470	469	478	477	476	471	468	468	469	469	469	469	470	473	473	472	468	467	470	470	472	469	466	465	465	467	474	475	471	472	474	479	477	476	477	477	475	477	476	473	473	471	467	468	472	470	470	472	471	463	465	467	465	465	475	479	480	472	465	467	470	476	469	465	472	475	477	477	480	481	486	486	484	481	481	482	483	483	483	476	472	470	484	499	489	487	483	478	487	488	483	473	477	479	476	475	477	486	481	482	484	482	484	487	489	485	481	480	479	477	472	474	474	480	483	486	486	484	478	478	481	485	485	485	479	476	474	477	481	485	487	488	488	481	479	480	480	486	481	477	483	486	489	488	486	486	485	488	488	487	486	487	487	489	489	489	492	495	488	478	476	477	481	482	479	478	475	476	476	482	483	489	495	496	491	485	482	482	481	481	485	484	481	476	482	480	483	483	490	494	486	483	484	485	487	490	490	492	492	493	493	493	494	496	496	498	498	493	491	492	490	490	493	496	505	500	492	490	492	496	503	503	505	514	498	499	500	495	494	491	494	495	497	495	502	500	503	490	489	487	496	493	494	495	498	495	497	502	503	503	496	494	492	497	498	494	490	490	489	496	499	502	502	503	504	501	499	496	489	495	500	504	506	503	505	505	503	502	506	504	503	503	505	512	513	515	515	504	504	497	495	504	506	506	508	511	512	498	497	497	496	503	501	503	513	514	513	513	494	489	489	499	501	508	518	510	507	502	503	504	501	503	503	505	504	504	497	492	493	495	504	505	505	505	503	505	504	502	512	510	507	505	505	502	506	499	505	501	497	500	503	499	500	498	505	506	508	510	507	503	502	499	512	510	508	509	514	516	518	519	513	515	512	504	503	505	507	508	517	517	504	503	514	514	513	501	519	522	527	523	518	517	515	514	514	515	513	512	520	521	517	514	506	506	506	508	509	510	514	515	516	516	515	513	511	509	503	503	505	514	520	524	523	519	509	508	512	519	515	511	508	509	514	524	520	523	531	517	517	514	518	530	527	526	526	520	522	515	517	514	509	515	520	529	530	527	524	521	520	521	523	523	526	524	524	523	517	507	507	513	526	524	521	523	528	528	525	523	519	515	519	524	523	524	526	525	523	523	527	529	537	536	536	535	540	539	530	525	523	528	528	526	522	522	521	521	521	532	538	533	532	525	528	527	528	528	526	526	525	521	521	517	522	529	536	531	526	533	530	521	520	522	522	528	530	533	532	532	532	527	539	537	537	527	525	526	527	528	529	526	526	521	0	0	0
466	466	464	469	471	465	465	463	460	459	459	461	464	467	478	478	479	479	476	474	474	471	470	470	469	468	468	468	470	470	472	472	468	467	467	465	464	465	465	462	464	462	460	463	463	469	477	479	472	467	468	464	464	466	471	471	464	471	477	478	478	483	478	475	466	463	468	469	473	474	474	472	469	467	471	472	471	469	465	466	468	468	465	471	471	471	477	473	466	466	465	457	460	459	462	469	470	470	471	470	464	465	470	473	473	472	467	465	462	462	464	470	467	466	467	468	470	477	478	477	476	476	477	477	470	470	471	471	469	471	472	470	469	462	460	462	465	465	469	478	479	471	466	463	465	461	462	464	474	474	473	470	469	469	469	474	479	481	481	479	479	479	476	480	479	471	467	487	478	477	483	479	476	484	486	481	473	474	473	475	476	476	477	482	482	484	486	485	488	487	483	479	478	477	475	471	470	472	477	478	477	482	476	477	477	476	475	476	472	482	478	478	483	488	490	486	486	474	474	475	474	489	484	471	477	482	487	486	484	484	484	478	481	483	484	484	485	484	484	480	487	492	494	488	473	472	473	474	475	476	478	475	469	471	473	475	475	477	480	486	486	480	479	476	477	478	478	478	480	481	484	484	483	481	489	479	485	483	483	484	488	482	483	497	490	488	488	484	489	493	495	497	496	487	486	484	486	488	494	494	491	490	490	491	495	493	492	489	488	481	483	491	494	492	491	491	496	490	490	489	487	492	495	499	494	487	493	494	494	487	490	493	498	501	500	497	497	491	494	497	496	492	492	493	498	499	499	499	501	498	498	496	487	486	492	501	504	504	502	498	498	498	498	501	504	503	501	505	503	503	505	504	502	501	496	496	503	504	502	502	508	506	497	498	498	500	504	498	503	506	509	509	513	491	489	489	496	498	499	496	497	498	500	503	501	501	497	497	497	501	501	496	493	492	493	503	502	503	502	501	502	503	497	494	495	498	507	500	501	498	494	492	493	494	495	498	500	497	495	498	503	504	504	509	501	501	497	497	493	494	500	512	513	515	515	511	510	510	512	506	503	504	508	508	513	512	503	504	510	510	499	495	503	515	513	515	509	506	507	512	512	506	501	502	516	520	518	508	507	511	508	505	509	510	511	509	506	493	493	497	485	487	496	499	517	519	523	520	512	508	508	509	513	504	509	510	508	515	514	510	513	520	518	513	512	515	519	522	522	526	518	520	517	513	507	507	515	520	523	526	527	521	520	518	513	517	520	515	517	514	518	517	509	510	515	522	522	519	522	526	527	523	516	514	513	517	518	521	519	516	516	516	518	526	527	530	531	529	528	529	528	528	525	525	528	528	531	531	530	520	520	520	529	531	529	515	515	521	521	523	524	525	525	525	525	524	523	527	529	537	532	528	533	529	520	519	519	519	528	529	528	527	530	533	527	530	530	532	530	527	528	528	527	526	525	525	524	0	0	0
467	462	462	469	464	464	464	460	460	458	460	460	465	465	478	480	480	465	469	470	469	469	469	471	473	468	471	467	468	468	466	464	464	465	468	471	468	465	465	464	462	461	460	463	472	472	477	477	465	462	462	461	461	463	462	457	461	465	469	475	475	475	474	476	471	469	469	469	469	465	465	465	466	465	468	471	472	471	467	463	463	465	465	472	471	472	476	469	470	465	465	456	454	458	458	460	469	469	469	465	462	468	472	471	472	471	468	465	463	460	459	467	463	465	467	467	470	471	471	477	476	476	476	467	458	461	471	471	471	470	471	471	459	458	458	462	462	463	466	473	469	470	467	464	461	465	473	478	480	481	478	472	469	469	471	473	479	481	475	474	474	474	473	475	466	465	469	473	475	476	473	477	475	481	481	476	475	472	471	471	474	472	476	476	484	484	484	485	479	481	481	479	476	474	473	473	470	469	475	473	473	473	475	476	477	475	472	472	471	479	480	480	484	489	490	488	482	473	470	471	477	480	477	478	481	482	486	484	476	481	482	474	476	480	481	482	480	483	479	478	479	478	477	475	474	473	473	473	473	473	467	471	468	469	473	474	475	476	477	479	480	482	476	474	475	478	477	479	478	482	483	482	480	477	476	474	479	479	483	490	488	478	478	484	479	482	485	483	487	490	492	491	490	484	483	482	482	488	492	494	487	485	487	491	490	489	488	480	478	477	474	477	484	488	489	491	489	491	489	488	489	490	492	497	498	496	487	480	491	482	480	482	482	494	494	495	494	494	495	495	496	493	493	497	498	498	497	497	497	496	495	488	486	486	497	500	504	503	498	493	492	494	494	496	498	502	503	505	503	503	504	504	501	499	496	495	492	498	496	498	503	499	496	497	499	499	498	502	501	497	496	497	498	500	496	495	494	493	492	492	487	487	500	501	499	495	493	495	490	490	490	486	490	490	490	494	496	498	501	501	492	490	486	496	493	492	492	493	496	495	493	491	491	492	495	498	498	497	497	493	493	491	490	490	503	498	496	493	493	493	494	503	507	508	516	508	513	508	508	507	505	505	505	513	509	509	508	504	496	499	499	498	500	496	503	512	507	506	507	509	511	506	501	499	504	510	513	509	507	507	506	505	504	509	513	513	511	500	498	496	495	495	503	509	514	515	507	508	512	509	508	507	508	499	500	500	506	505	504	509	511	514	512	507	512	517	519	520	526	513	511	513	514	513	511	511	516	518	519	516	518	517	519	512	514	511	512	510	507	513	514	515	513	515	515	522	522	521	522	521	521	508	507	508	508	511	511	513	515	510	508	511	515	520	522	530	528	525	522	521	523	524	528	526	527	520	520	523	524	522	518	525	526	518	515	513	512	511	519	521	518	522	521	521	524	527	527	521	527	529	522	530	526	520	518	519	519	522	522	517	515	519	521	532	529	527	527	529	528	523	524	527	526	521	521	521	525	0	0	0
464	465	465	463	458	460	462	462	459	459	464	464	463	472	478	454	454	458	462	464	466	466	467	470	472	471	464	464	467	467	467	465	465	465	467	468	467	465	464	462	462	459	458	465	467	467	465	461	461	459	459	461	456	456	454	454	452	456	467	473	474	474	474	473	470	468	459	458	453	460	460	460	457	460	466	463	470	471	467	466	468	470	472	469	468	476	462	468	471	472	466	457	455	457	456	457	463	465	464	464	462	463	463	471	472	470	466	463	460	454	454	454	465	467	465	467	469	468	468	475	475	465	465	469	469	469	467	468	465	466	468	464	458	457	458	462	463	463	464	466	471	476	476	472	469	470	473	473	473	460	467	477	469	467	468	474	474	472	465	470	474	476	476	467	464	463	465	470	472	472	471	467	478	475	475	474	472	472	465	471	469	478	475	473	471	475	486	474	469	464	462	466	467	468	469	465	465	468	467	466	466	468	471	475	477	474	475	470	475	475	474	476	480	486	488	487	481	475	467	471	475	479	476	476	480	481	481	482	476	477	479	474	473	475	473	470	470	479	482	479	481	479	478	476	476	476	473	470	470	470	467	469	469	471	476	471	471	479	477	477	478	473	478	473	473	475	476	475	474	475	473	476	476	475	472	472	478	473	470	482	490	483	480	480	478	475	475	472	473	477	475	476	476	472	474	480	481	484	489	492	482	483	485	477	488	487	480	480	482	483	488	488	483	480	479	483	485	489	489	492	493	487	488	488	485	487	483	479	480	484	478	480	483	484	492	491	494	495	496	495	495	493	493	493	498	495	494	494	494	496	490	488	486	491	496	498	499	499	498	490	491	488	493	496	497	498	500	503	493	494	489	491	495	493	492	485	490	499	494	494	495	495	493	495	496	495	492	494	491	494	494	494	496	495	494	494	492	492	488	483	484	481	482	497	497	495	486	479	484	483	482	488	488	493	484	488	488	494	501	498	497	495	500	499	493	489	489	491	491	494	493	492	489	491	494	497	500	496	495	488	487	484	484	481	491	496	496	497	503	504	506	503	506	506	511	505	510	506	505	507	507	506	503	498	497	502	501	496	504	503	505	500	493	498	500	499	503	502	498	505	510	505	499	498	499	509	513	503	505	508	507	505	506	504	515	504	499	498	496	487	497	497	499	510	508	507	505	506	508	507	500	499	497	502	499	506	510	504	504	506	508	505	501	499	509	512	517	517	516	514	514	514	513	517	515	507	510	511	508	510	515	516	509	510	510	510	509	507	505	509	511	514	512	517	518	518	516	515	517	500	511	504	504	506	509	505	505	509	505	504	505	509	511	515	513	523	521	522	521	519	520	523	523	523	522	522	518	514	513	525	523	514	513	511	511	509	507	507	504	514	517	519	519	519	518	525	519	517	522	520	522	522	522	519	516	516	511	513	514	514	510	509	516	517	531	531	525	525	519	518	521	522	517	519	519	521	527	0	0	0
451	448	459	459	458	453	461	461	464	464	460	460	460	461	458	454	451	454	455	458	461	464	464	469	472	469	464	457	460	464	467	467	466	466	462	460	461	463	462	459	455	453	455	456	466	462	462	457	457	455	456	456	457	457	456	455	449	450	456	468	473	474	474	471	467	463	459	458	450	454	455	455	452	456	455	465	465	466	465	464	465	468	469	464	461	460	456	458	466	464	461	456	457	456	456	456	458	461	462	462	463	463	462	465	466	467	466	462	457	453	456	456	456	459	460	463	467	466	464	464	472	463	465	466	472	471	471	467	462	464	465	464	460	458	461	463	463	462	455	452	456	460	463	463	468	466	462	460	458	459	466	467	461	464	465	467	464	463	464	468	472	474	474	468	464	466	469	467	463	463	462	463	462	469	469	470	472	471	467	469	473	474	475	468	464	464	466	469	469	465	465	466	468	468	467	464	463	468	468	468	465	467	469	473	475	476	472	473	472	466	471	471	475	481	478	482	475	471	467	465	467	470	477	479	478	477	479	477	476	473	475	472	469	470	470	469	469	470	480	482	480	476	477	476	476	476	472	469	467	468	468	467	470	472	472	467	468	471	464	464	473	472	474	475	472	474	474	474	473	473	471	474	472	472	473	473	471	474	475	479	481	475	478	478	478	477	477	472	481	479	475	474	474	471	469	481	483	484	484	484	478	475	472	474	483	482	480	482	482	484	483	481	477	478	480	479	490	493	495	481	484	486	486	486	483	489	485	481	480	482	482	480	484	488	490	491	495	494	495	496	494	492	491	495	490	490	492	493	492	493	488	485	490	493	494	498	499	494	492	487	484	487	493	497	496	497	497	496	492	487	491	485	488	489	488	486	488	484	487	484	483	486	488	489	492	491	489	488	490	488	486	486	488	489	486	483	490	485	484	485	488	485	481	488	488	485	480	480	488	489	489	487	486	487	482	487	484	493	492	495	492	495	499	500	500	494	487	485	486	486	487	493	497	499	502	502	505	505	498	496	485	483	482	482	478	486	490	498	504	497	497	508	506	504	501	501	505	499	504	504	504	502	496	498	499	501	511	506	512	507	506	504	490	493	495	497	499	496	492	493	500	503	500	497	496	504	504	499	504	509	506	506	504	501	501	503	498	496	502	496	499	498	498	503	505	502	500	502	507	507	508	494	497	500	500	506	510	499	498	502	500	500	498	498	497	498	512	513	512	513	516	511	514	508	514	511	504	504	501	499	505	509	507	506	506	505	503	504	504	504	510	509	512	518	515	512	509	509	498	504	500	501	501	511	510	505	502	501	501	501	502	503	506	507	510	515	510	515	510	509	515	520	518	518	518	517	515	500	498	519	520	513	513	509	506	505	505	505	506	505	512	512	512	509	510	511	508	508	518	517	520	520	520	516	516	516	513	512	512	511	504	503	508	517	517	526	520	518	517	515	515	510	513	513	516	520	525	0	0	0
