0	0	0	0	0	0	0	0	0	0	1195	1230	1278	1296	1296	1274	1268	1270	1281	1283	1277	1277	1273	1269	1261	1278	1291	1296	1296	1301	1302	1302	1311	1316	1319	1319	1322	1325	1337	1344	1351	1373	1385	1342	1306	1306	1308	1311	1309	1308	1300	1294	1309	1329	1330	1325	1325	1317	1322	1325	1330	1340	1348	1343	1328	1323	1329	1334	1340	1335	1325	1313	1304	1304	1311	1324	1334	1336	1333	1330	1325	1322	1315	1316	1316	1326	1326	1325	1323	1329	1330	1326	1326	1330	1332	1335	1333	1321	1318	1324	1322	1326	1330	1341	1340	1333	1325	1314	1310	1312	1317	1327	1345	1356	1359	1359	1368	1369	1376	1374	1361	1356	1353	1350	1342	1335	1341	1346	1356	1366	1368	1377	1374	1370	1372	1382	1385	1381	1375	1370	1372	1383	1393	1388	1359	1337	1326	1306	1302	1308	1338	1358	1384	1377	1358	1357	1360	1363	1361	1359	1360	1361	1367	1374	1404	1405	1414	1418	1383	1378	1376	1377	1373	1381	1382	1380	1381	1413	1424	1355	1335	1357	1367	1370	1386	1413	1385	1343	1341	1371	1381	1386	1387	1386	1384	1405	1405	1404	1397	1388	1390	1391	1392	1389	1392	1404	1402	1377	1390	1424	1425	1407	1389	1394	1384	1385	1391	1394	1399	1407	1409	1375	1399	1412	1418	1430	1432	1433	1415	1429	1430	1436	1444	1452	1449	1431	1424	1404	1400	1410	1409	1416	1415	1414	1415	1438	1442	1428	1427	1435	1426	1418	1425	1417	1455	1525	1534	1566	1529	1472	1458	1442	1430	1462	1479	1464	1468	1480	1458	1454	1479	1473	1460	1459	1458	1470	1458	1455	1462	1462	1428	1435	1454	1458	1480	1480	1471	1467	1475	1467	1461	1478	1486	1481	1479	1486	1466	1455	1460	1469	1467	1474	1467	1459	1461	1468	1473	1473	1474	1487	1491	1491	1500	1505	1503	1499	1497	1493	1493	1482	1481	1460	1462	1468	1470	1467	1465	1467	1480	1483	1487	1481	1486	1500	1513	1518	1517	1499	1499	1503	1508	1499	1491	1489	1492	1498	1501	1502	1503	1515	1524	1524	1522	1504	1492	1496	1497	1517	1534	1501	1487	1500	1501	1527	1525	1527	1519	1514	1514	1516	1523	1542	1560	1537	1469	1534	1480	1540	1512	1497	1487	1492	1506	1505	1493	1486	1490	1496	1501	1506	1508	1523	1529	1530	1532	1531	1518	1508	1511	1530	1559	1613	1667	1843	2281	2853	2916	2963	2993	3034	3064	3086	3105	3159	3200	3185	3117	3049	3027	3025	3055	3098	3131	3135	3076	3009	2977	2971	2967	2989	2987	2973	2961	2945	2952	2928	2907	2867	2845	2906	2988	2998	2974	2921	2746	2531	2466	2402	2407	2401	2396	2305	2296	2305	2317	2323	2313	2294	2303	2309	2314	2291	2264	2231	2224	2219	2196	2192	2201	2191	2169	2178	2197	2209	2208	2203	2208	2209	2193	2175	2145	2134	2128	2126	2083	2082	2094	2109	2086	2069	2059	2063	2061	2063	2057	2039	2009	1974	1947	1946	1953	1954	1950	1944	1971	1963	1958	1961	1949	1923	1887	1874	1864	1875	1875	1877	1888	1881	1874	1853	1838	1838	1849	1857	1850	1828	1811	1809	1808	1798	1790	1774	1759	1751	1744	1729	1721	1713	1700	1693	1697	1697	1708	1724	1743	1723	1694	1680	1667	1655	1655	1652	1656	1657	1668	1668	1660	1640	1621	1606	1601	1618	1632	1631	1611	1584	1569	1588	1594	1590	1568	1551	1534	1513	1515	1535	1544	1546	1531	1511	1508	1510	1506	1492	1479	1466	1470	1489	1494	1496	1485	1475	1476	1477	1475	1447	1436	1433	1435	1435	1425	1421	1423	1422	1414	1420	1414	1411	1410	1407	1406	1410	1399	1399	1382	1384	1396	1392	1380	1370	1374	1378	1391	1391	1381	1371	1359	1352	1342	1331	1331	1334	0	0	0	0	0	0	0	0
0	0	0	0	0	0	0	0	0	0	1186	1216	1285	1312	1312	1286	1275	1282	1281	1275	1277	1277	1274	1275	1275	1280	1291	1296	1296	1298	1301	1308	1314	1312	1319	1319	1328	1336	1343	1347	1354	1371	1387	1345	1300	1300	1303	1306	1306	1301	1310	1316	1335	1341	1333	1320	1320	1307	1312	1319	1329	1333	1337	1326	1313	1307	1324	1329	1338	1338	1327	1309	1298	1298	1312	1326	1335	1334	1328	1321	1322	1323	1328	1322	1323	1330	1330	1327	1326	1330	1338	1336	1336	1335	1339	1343	1341	1340	1337	1333	1326	1321	1326	1334	1349	1349	1338	1323	1325	1333	1339	1344	1353	1356	1367	1381	1377	1373	1371	1368	1359	1358	1354	1349	1344	1334	1330	1333	1352	1359	1358	1358	1355	1327	1324	1376	1392	1382	1374	1368	1376	1385	1395	1381	1357	1328	1323	1332	1337	1343	1353	1363	1371	1344	1328	1349	1353	1350	1347	1361	1368	1373	1370	1372	1392	1400	1400	1400	1377	1362	1368	1382	1370	1385	1382	1378	1381	1419	1427	1379	1346	1335	1355	1358	1372	1412	1389	1347	1333	1367	1381	1391	1386	1384	1380	1392	1394	1392	1393	1389	1397	1396	1397	1399	1401	1412	1423	1394	1392	1437	1435	1412	1400	1399	1393	1390	1399	1398	1401	1404	1407	1413	1371	1403	1420	1429	1446	1435	1414	1418	1427	1426	1437	1451	1419	1431	1413	1405	1406	1417	1425	1409	1417	1416	1422	1426	1424	1441	1439	1429	1423	1424	1426	1425	1422	1405	1506	1520	1487	1460	1463	1434	1432	1485	1494	1491	1466	1456	1437	1439	1480	1479	1486	1467	1466	1476	1481	1467	1455	1450	1454	1455	1451	1449	1462	1482	1479	1481	1495	1481	1468	1480	1483	1483	1478	1466	1444	1452	1459	1465	1463	1468	1467	1459	1467	1474	1476	1474	1480	1482	1486	1486	1493	1497	1492	1494	1488	1484	1487	1477	1474	1457	1452	1448	1420	1430	1454	1464	1477	1485	1488	1488	1497	1514	1520	1522	1521	1500	1498	1504	1515	1513	1501	1492	1490	1494	1500	1503	1509	1520	1530	1533	1533	1515	1503	1488	1481	1497	1527	1517	1495	1516	1514	1529	1515	1514	1519	1526	1529	1525	1524	1531	1525	1522	1506	1464	1465	1512	1522	1509	1502	1508	1520	1520	1510	1506	1504	1505	1505	1509	1514	1521	1527	1529	1533	1524	1522	1513	1514	1520	1552	1593	1650	1821	2249	2878	2907	2945	2964	2980	2997	2998	3034	3093	3140	3138	3105	3068	3034	3051	3070	3101	3109	3101	3073	3035	3007	3002	2986	2976	2958	2944	2919	2907	2905	2916	2891	2871	2876	2894	2941	2936	2924	2904	2837	2537	2469	2408	2393	2400	2369	2285	2281	2286	2296	2302	2306	2295	2307	2317	2302	2281	2272	2254	2244	2228	2217	2239	2238	2201	2172	2165	2190	2201	2211	2219	2227	2222	2209	2182	2151	2130	2113	2110	2074	2080	2087	2099	2071	2056	2051	2065	2056	2062	2061	2041	2017	1990	1961	1961	1962	1962	1948	1960	1967	1971	1957	1949	1935	1910	1881	1871	1870	1865	1874	1873	1877	1886	1874	1861	1860	1864	1874	1872	1862	1838	1823	1812	1808	1795	1776	1761	1750	1751	1747	1737	1718	1713	1706	1698	1698	1704	1710	1724	1712	1697	1670	1646	1643	1653	1663	1664	1664	1665	1662	1663	1658	1647	1634	1626	1620	1624	1624	1612	1594	1578	1590	1601	1600	1585	1561	1547	1545	1533	1526	1542	1546	1541	1527	1514	1504	1493	1496	1500	1499	1494	1489	1493	1497	1497	1496	1487	1477	1479	1482	1479	1473	1464	1462	1451	1435	1420	1414	1412	1412	1412	1420	1416	1412	1403	1395	1386	1376	1376	1368	1374	1384	1393	1378	1364	1363	1366	1378	1372	1359	1350	1347	1336	1326	1320	1320	1319	0	0	0	0	0	0	0	0
0	0	0	0	0	0	0	0	0	0	1177	1212	1283	1313	1313	1295	1305	1301	1294	1286	1284	1284	1292	1287	1285	1279	1278	1280	1280	1284	1293	1306	1311	1313	1314	1317	1317	1327	1338	1348	1355	1363	1371	1330	1290	1290	1294	1296	1308	1345	1336	1345	1343	1325	1327	1320	1320	1306	1313	1325	1327	1326	1318	1315	1312	1345	1350	1341	1329	1337	1333	1299	1303	1303	1306	1316	1340	1344	1330	1321	1321	1330	1337	1339	1341	1339	1337	1331	1332	1337	1341	1341	1330	1325	1327	1330	1353	1356	1353	1342	1332	1328	1331	1346	1353	1355	1343	1332	1332	1340	1344	1350	1345	1344	1333	1359	1364	1352	1353	1353	1357	1365	1365	1357	1356	1344	1315	1322	1341	1354	1359	1355	1346	1335	1333	1342	1378	1387	1376	1377	1378	1381	1381	1372	1351	1336	1336	1351	1350	1358	1362	1368	1363	1343	1328	1329	1354	1348	1346	1360	1371	1382	1385	1380	1389	1386	1377	1359	1352	1363	1369	1379	1376	1390	1390	1394	1388	1417	1425	1384	1354	1350	1346	1351	1357	1373	1408	1357	1372	1409	1395	1399	1388	1380	1372	1380	1383	1386	1396	1404	1406	1398	1399	1411	1420	1414	1405	1396	1388	1420	1415	1411	1407	1401	1405	1408	1403	1397	1392	1404	1410	1418	1411	1416	1426	1431	1424	1411	1401	1420	1428	1425	1437	1451	1410	1424	1419	1428	1431	1437	1423	1400	1419	1413	1413	1424	1413	1423	1425	1427	1418	1418	1421	1423	1395	1421	1406	1470	1485	1454	1455	1435	1441	1490	1493	1488	1456	1454	1432	1439	1481	1511	1490	1508	1498	1499	1472	1476	1457	1457	1460	1476	1459	1448	1462	1481	1476	1478	1494	1482	1476	1479	1483	1479	1454	1450	1450	1456	1465	1467	1450	1459	1462	1465	1475	1479	1478	1486	1488	1486	1482	1476	1467	1469	1475	1481	1480	1478	1477	1475	1472	1463	1459	1441	1423	1425	1438	1457	1472	1494	1497	1495	1501	1516	1517	1519	1521	1498	1496	1498	1516	1518	1511	1500	1493	1497	1499	1505	1517	1531	1543	1542	1533	1524	1490	1469	1459	1487	1530	1529	1509	1510	1510	1524	1511	1512	1525	1544	1550	1543	1530	1525	1527	1524	1507	1511	1525	1525	1515	1502	1501	1511	1524	1523	1520	1509	1503	1494	1489	1499	1504	1511	1523	1526	1535	1519	1504	1501	1506	1515	1531	1577	1639	1811	2268	2887	2926	2952	2951	2951	2951	2968	3009	3078	3137	3146	3121	3101	3106	3093	3103	3102	3107	3101	3075	3068	3056	3041	3022	2980	2958	2939	2899	2894	2888	2889	2878	2873	2889	2917	2941	2918	2910	2893	2830	2534	2460	2409	2386	2347	2318	2253	2240	2255	2272	2270	2272	2286	2293	2311	2313	2298	2270	2266	2186	2203	2260	2285	2262	2223	2195	2182	2194	2204	2219	2204	2210	2206	2199	2177	2151	2129	2114	2104	2092	2078	2061	2066	2053	2035	2025	2023	2022	2019	2018	2029	2029	2024	2019	2014	2008	2003	2005	1990	1988	1967	1947	1927	1906	1879	1878	1871	1875	1881	1878	1880	1880	1878	1870	1862	1868	1880	1886	1863	1862	1841	1835	1825	1807	1786	1759	1742	1737	1746	1746	1738	1727	1728	1718	1713	1702	1703	1705	1724	1703	1685	1665	1645	1638	1653	1673	1675	1671	1669	1661	1657	1651	1644	1635	1627	1624	1624	1620	1608	1585	1587	1597	1604	1596	1574	1556	1547	1548	1548	1547	1545	1543	1531	1522	1505	1495	1483	1495	1505	1507	1502	1494	1492	1495	1494	1488	1477	1457	1466	1468	1469	1466	1466	1469	1461	1452	1461	1458	1442	1420	1418	1422	1426	1418	1400	1388	1375	1375	1364	1361	1366	1387	1392	1390	1382	1375	1369	1369	1371	1375	1363	1349	1334	1322	1325	1325	1328	0	0	0	0	0	0	0	0
0	0	0	0	0	0	0	0	0	0	1143	1198	1269	1307	1303	1303	1323	1318	1311	1299	1297	1297	1299	1291	1287	1282	1273	1269	1269	1275	1294	1304	1306	1300	1299	1304	1304	1312	1329	1346	1355	1354	1349	1304	1279	1279	1284	1284	1305	1345	1351	1349	1338	1325	1319	1318	1318	1325	1332	1333	1331	1323	1314	1311	1340	1356	1369	1365	1331	1325	1342	1317	1312	1312	1323	1325	1334	1348	1334	1321	1318	1332	1357	1366	1361	1346	1343	1340	1333	1341	1350	1346	1326	1318	1317	1319	1368	1377	1377	1363	1350	1341	1343	1354	1360	1360	1345	1333	1327	1336	1342	1336	1332	1313	1324	1342	1340	1336	1345	1350	1359	1369	1378	1377	1377	1365	1319	1319	1336	1364	1374	1371	1370	1356	1352	1358	1369	1374	1378	1381	1382	1371	1366	1360	1361	1350	1364	1365	1365	1367	1371	1367	1358	1347	1342	1346	1353	1349	1348	1360	1376	1389	1394	1392	1384	1378	1369	1349	1345	1359	1369	1379	1380	1404	1407	1409	1408	1409	1419	1390	1359	1355	1348	1345	1344	1366	1383	1389	1405	1416	1413	1409	1400	1386	1376	1378	1380	1386	1397	1407	1405	1397	1397	1404	1417	1417	1379	1366	1392	1410	1420	1396	1412	1410	1409	1416	1422	1414	1378	1390	1407	1423	1401	1423	1435	1430	1419	1399	1396	1423	1411	1408	1424	1404	1404	1426	1430	1416	1417	1410	1395	1394	1442	1418	1412	1424	1420	1434	1426	1426	1424	1421	1419	1423	1419	1400	1397	1399	1440	1487	1447	1448	1454	1492	1486	1480	1441	1429	1451	1433	1439	1483	1515	1518	1502	1486	1482	1482	1470	1479	1491	1463	1445	1459	1469	1463	1468	1467	1490	1501	1480	1474	1470	1447	1454	1443	1449	1461	1466	1448	1450	1450	1465	1470	1474	1482	1488	1488	1493	1495	1484	1477	1467	1459	1466	1486	1485	1483	1479	1473	1488	1500	1501	1470	1445	1434	1431	1462	1493	1511	1504	1498	1502	1513	1519	1523	1511	1497	1477	1475	1495	1515	1515	1515	1513	1510	1510	1519	1538	1548	1551	1542	1528	1489	1459	1462	1462	1490	1528	1533	1519	1504	1502	1508	1506	1507	1531	1549	1558	1545	1530	1521	1527	1536	1540	1534	1532	1516	1501	1492	1495	1508	1521	1525	1523	1520	1516	1497	1473	1481	1488	1489	1512	1530	1520	1513	1507	1505	1512	1514	1520	1554	1622	1821	2336	3072	2956	2974	2964	2958	2952	2999	3061	3101	3140	3192	3189	3165	3175	3141	3140	3121	3116	3109	3101	3096	3077	3059	3018	2990	2959	2945	2916	2895	2884	2881	2878	2868	2903	2960	2985	2944	2926	2901	2824	2544	2449	2396	2357	2341	2299	2256	2226	2242	2250	2255	2259	2266	2280	2308	2303	2296	2262	2178	2152	2159	2229	2278	2268	2251	2225	2245	2248	2234	2219	2210	2211	2215	2201	2179	2154	2141	2134	2126	2111	2094	2084	2071	2051	2038	2042	2040	2037	2020	2018	2033	2037	2035	2045	2054	2044	2028	2018	2013	2024	2002	1985	1962	1935	1913	1883	1868	1886	1911	1922	1917	1906	1894	1878	1856	1852	1861	1862	1849	1831	1828	1819	1789	1770	1761	1753	1759	1753	1760	1761	1767	1776	1777	1761	1724	1722	1729	1730	1709	1693	1682	1673	1666	1652	1656	1664	1674	1674	1665	1659	1647	1638	1625	1618	1617	1613	1609	1613	1608	1599	1594	1596	1589	1570	1554	1543	1541	1543	1552	1555	1564	1555	1534	1512	1501	1489	1489	1494	1508	1512	1504	1492	1487	1490	1484	1478	1460	1453	1453	1456	1457	1462	1468	1463	1458	1452	1466	1460	1444	1424	1416	1420	1429	1425	1401	1384	1379	1379	1372	1366	1351	1379	1390	1393	1388	1380	1370	1368	1373	1380	1368	1356	1340	1327	1326	1326	1332	0	0	0	0	0	0	0	0
0	0	0	0	0	0	0	0	0	0	1135	1199	1261	1303	1306	1306	1318	1322	1317	1310	1308	1309	1301	1288	1284	1283	1282	1278	1278	1282	1298	1297	1297	1293	1287	1293	1293	1304	1316	1322	1319	1322	1329	1299	1294	1294	1273	1283	1299	1328	1343	1342	1345	1328	1318	1322	1334	1334	1338	1340	1335	1325	1319	1320	1343	1344	1327	1354	1356	1356	1351	1342	1343	1343	1338	1335	1352	1348	1336	1319	1316	1336	1361	1372	1368	1361	1355	1352	1345	1346	1347	1351	1333	1318	1320	1321	1375	1391	1395	1384	1360	1351	1353	1360	1365	1360	1348	1330	1326	1329	1334	1330	1333	1320	1321	1343	1340	1342	1352	1354	1362	1368	1375	1385	1389	1379	1328	1325	1344	1369	1383	1389	1392	1386	1378	1373	1358	1359	1363	1373	1377	1365	1355	1357	1370	1380	1384	1382	1370	1371	1371	1366	1356	1347	1349	1352	1352	1347	1347	1357	1373	1389	1399	1384	1374	1370	1366	1352	1351	1359	1370	1378	1380	1407	1417	1414	1417	1409	1414	1381	1374	1367	1355	1355	1366	1389	1407	1419	1426	1426	1412	1396	1386	1375	1380	1374	1381	1387	1394	1399	1399	1392	1394	1403	1418	1410	1388	1379	1406	1396	1414	1400	1419	1417	1417	1424	1419	1416	1412	1372	1379	1387	1412	1405	1429	1417	1420	1407	1400	1412	1410	1412	1419	1388	1397	1399	1425	1417	1404	1392	1424	1422	1429	1408	1412	1405	1420	1430	1428	1428	1424	1415	1425	1433	1436	1412	1422	1425	1434	1445	1451	1452	1473	1494	1493	1496	1471	1436	1433	1421	1450	1474	1490	1495	1464	1480	1476	1482	1484	1462	1445	1448	1492	1497	1465	1442	1438	1446	1454	1484	1506	1488	1467	1457	1447	1448	1451	1448	1448	1447	1436	1434	1458	1467	1481	1475	1467	1478	1501	1519	1502	1475	1462	1461	1500	1524	1498	1488	1470	1452	1463	1506	1510	1496	1486	1479	1464	1468	1497	1503	1515	1520	1633	1660	1683	1689	1677	1638	1617	1572	1510	1507	1508	1507	1506	1511	1516	1524	1532	1536	1522	1503	1496	1499	1498	1467	1479	1504	1511	1527	1531	1498	1500	1510	1520	1506	1521	1533	1549	1538	1523	1522	1532	1545	1543	1532	1515	1505	1498	1491	1496	1508	1519	1521	1522	1515	1504	1484	1474	1479	1467	1488	1506	1519	1520	1514	1508	1509	1518	1523	1523	1536	1604	1871	2756	2852	3237	3260	3263	3280	3294	3298	3307	3351	3380	3408	3427	3376	3329	3267	3206	3158	3144	3132	3124	3107	3068	3054	3037	3032	3006	2964	2929	2900	2889	2882	2890	2944	2961	3002	3006	3019	3008	2978	2857	2570	2453	2375	2357	2370	2332	2272	2235	2231	2240	2251	2263	2254	2264	2280	2287	2294	2248	2151	2140	2146	2199	2283	2271	2265	2257	2244	2246	2230	2220	2214	2211	2221	2208	2181	2159	2151	2160	2136	2118	2106	2092	2077	2049	2048	2051	2058	2049	2030	2027	2038	2038	2035	2050	2061	2055	2035	2014	2009	2009	1999	1989	1971	1925	1905	1881	1857	1891	1913	1923	1919	1908	1889	1864	1847	1844	1849	1850	1837	1809	1784	1783	1786	1753	1746	1744	1750	1749	1758	1764	1770	1775	1777	1762	1731	1723	1727	1727	1695	1683	1671	1665	1670	1663	1660	1669	1674	1674	1665	1655	1657	1647	1641	1642	1648	1642	1625	1612	1597	1590	1575	1561	1562	1558	1554	1552	1550	1554	1562	1564	1560	1551	1536	1522	1506	1499	1494	1497	1493	1490	1485	1480	1473	1468	1464	1463	1458	1456	1457	1456	1461	1465	1462	1463	1462	1459	1449	1441	1425	1416	1429	1434	1441	1434	1415	1402	1403	1403	1403	1396	1381	1381	1377	1379	1380	1382	1379	1366	1379	1377	1369	1358	1342	1326	1321	1321	1318	0	0	0	0	0	0	0	0
0	0	0	0	0	0	0	0	0	0	1217	1222	1255	1297	1300	1300	1308	1308	1311	1309	1309	1305	1296	1286	1286	1286	1292	1291	1291	1295	1298	1300	1299	1291	1289	1298	1298	1302	1313	1312	1307	1304	1307	1322	1310	1310	1303	1303	1299	1312	1318	1337	1343	1326	1321	1330	1342	1342	1344	1344	1339	1328	1318	1303	1306	1315	1304	1309	1354	1363	1357	1364	1372	1362	1362	1359	1371	1350	1334	1317	1314	1333	1349	1367	1371	1368	1369	1367	1355	1345	1338	1337	1328	1322	1321	1322	1362	1397	1399	1387	1368	1352	1362	1362	1368	1367	1354	1342	1335	1340	1343	1341	1341	1339	1343	1352	1356	1361	1371	1369	1364	1361	1367	1383	1391	1385	1336	1321	1343	1369	1387	1393	1393	1397	1388	1370	1352	1345	1348	1363	1367	1350	1348	1357	1354	1356	1375	1366	1365	1369	1368	1363	1358	1352	1354	1356	1349	1346	1348	1356	1372	1388	1391	1372	1358	1362	1362	1364	1362	1366	1377	1390	1377	1384	1410	1416	1395	1409	1404	1374	1378	1378	1372	1373	1385	1397	1391	1405	1407	1411	1402	1393	1375	1368	1375	1379	1382	1389	1392	1387	1387	1390	1398	1405	1415	1401	1403	1403	1407	1402	1392	1403	1416	1421	1426	1418	1414	1414	1414	1415	1412	1403	1401	1404	1389	1403	1422	1412	1409	1402	1418	1419	1417	1387	1389	1390	1421	1415	1408	1417	1427	1430	1427	1406	1408	1418	1423	1422	1429	1438	1420	1423	1419	1423	1440	1439	1413	1415	1424	1444	1459	1454	1473	1484	1486	1492	1480	1484	1468	1460	1460	1459	1441	1423	1421	1458	1476	1461	1428	1405	1389	1402	1438	1421	1382	1349	1325	1383	1464	1473	1476	1453	1447	1439	1432	1411	1405	1413	1397	1382	1389	1416	1428	1438	1442	1441	1439	1439	1457	1499	1520	1542	1569	1618	1674	1742	1687	1584	1539	1499	1457	1451	1469	1492	1497	1486	1488	1498	1555	1623	1663	1788	1574	1709	1745	1732	1785	1780	1804	1809	1780	1752	1721	1566	1507	1492	1511	1550	1558	1537	1511	1487	1477	1484	1509	1504	1509	1511	1500	1519	1524	1521	1521	1516	1538	1511	1507	1525	1535	1534	1514	1521	1534	1538	1535	1520	1506	1503	1501	1499	1504	1514	1521	1525	1518	1506	1498	1493	1489	1490	1498	1496	1519	1527	1526	1515	1513	1511	1522	1527	1532	1528	1600	1913	2757	3149	3486	3542	3539	3520	3526	3546	3552	3567	3568	3599	3635	3682	3586	3386	3272	3183	3138	3124	3111	3079	3061	3040	3034	3049	3075	3093	3059	3051	3070	3104	3087	3061	3037	3055	3041	3039	3040	3036	2908	2649	2453	2396	2367	2387	2341	2293	2244	2220	2226	2246	2266	2261	2257	2284	2279	2283	2239	2141	2120	2129	2183	2247	2257	2268	2258	2231	2216	2208	2209	2211	2219	2228	2223	2198	2164	2163	2175	2137	2123	2109	2092	2079	2058	2060	2064	2073	2055	2036	2045	2048	2046	2038	2051	2061	2054	2028	2005	1980	1980	1978	1974	1958	1939	1911	1898	1895	1897	1907	1902	1896	1889	1880	1866	1845	1840	1840	1838	1823	1782	1783	1790	1788	1772	1736	1733	1745	1741	1746	1751	1767	1768	1758	1737	1719	1705	1705	1711	1678	1661	1654	1649	1664	1669	1661	1663	1666	1667	1663	1662	1658	1648	1645	1657	1651	1641	1632	1616	1604	1593	1576	1559	1553	1552	1556	1559	1560	1553	1552	1557	1560	1562	1555	1543	1532	1515	1508	1505	1501	1491	1491	1493	1486	1482	1466	1464	1462	1462	1464	1461	1463	1462	1461	1463	1462	1454	1443	1435	1419	1418	1425	1432	1436	1432	1421	1404	1399	1399	1398	1400	1397	1387	1376	1369	1362	1350	1351	1364	1370	1367	1353	1341	1332	1320	1312	1312	1302	0	0	0	0	0	0	0	0
0	0	0	0	0	0	0	0	0	0	1285	1267	1269	1282	1296	1296	1293	1298	1300	1302	1301	1301	1285	1285	1292	1299	1306	1310	1310	1314	1312	1307	1305	1298	1296	1299	1299	1306	1311	1313	1309	1306	1313	1330	1344	1344	1330	1316	1311	1307	1312	1327	1334	1328	1333	1342	1350	1350	1350	1349	1342	1328	1311	1323	1322	1298	1302	1316	1347	1360	1354	1367	1391	1386	1386	1385	1378	1349	1334	1322	1317	1329	1338	1357	1370	1372	1374	1369	1355	1341	1331	1318	1316	1321	1324	1332	1363	1391	1397	1389	1364	1355	1358	1364	1373	1374	1368	1361	1361	1368	1369	1370	1362	1354	1360	1369	1372	1372	1381	1375	1365	1361	1361	1375	1382	1383	1345	1348	1364	1379	1381	1386	1393	1394	1388	1379	1357	1350	1350	1354	1367	1345	1339	1342	1330	1312	1303	1340	1351	1355	1358	1359	1358	1366	1364	1365	1360	1346	1349	1350	1364	1377	1386	1372	1351	1353	1367	1370	1373	1385	1399	1404	1393	1366	1367	1378	1396	1396	1366	1368	1375	1384	1378	1383	1391	1388	1403	1368	1377	1397	1395	1391	1387	1390	1392	1388	1386	1393	1398	1399	1395	1388	1396	1402	1411	1411	1435	1415	1405	1393	1392	1390	1399	1395	1401	1400	1401	1408	1415	1416	1413	1420	1416	1407	1402	1402	1410	1426	1413	1399	1417	1418	1409	1384	1392	1392	1412	1410	1405	1413	1425	1413	1397	1395	1401	1412	1426	1415	1417	1431	1422	1424	1421	1445	1447	1437	1414	1413	1415	1448	1485	1464	1464	1472	1478	1471	1482	1466	1388	1384	1394	1396	1381	1394	1424	1489	1505	1425	1319	1227	1198	1237	1271	1296	0	0	0	0	0	0	0	0	0	1369	1357	1330	1314	1298	1284	1262	1281	1313	1336	1340	1371	1432	1456	1474	1547	1682	1829	2032	2140	2252	2088	2046	2134	2116	1991	1887	1654	1600	1595	1619	1613	1576	1538	1550	1779	1712	1703	1732	1830	1766	1924	1817	1878	1872	1873	1840	1776	1761	1668	1657	1648	1628	1601	1586	1539	1502	1462	1438	1429	1467	1497	1518	1530	1522	1504	1517	1524	1512	1514	1532	1517	1513	1508	1519	1522	1520	1513	1508	1524	1528	1517	1510	1508	1509	1509	1512	1511	1514	1524	1522	1515	1502	1499	1503	1518	1512	1505	1503	1529	1535	1532	1522	1507	1509	1515	1526	1534	1523	1608	1946	2861	3181	3447	3550	3578	3554	3551	3577	3608	3629	3637	3661	3684	3694	3701	3553	3294	3196	3125	3093	3120	3107	3048	3022	3048	3061	3109	3131	3110	3131	3133	3132	3141	3133	3113	3082	3058	3057	3076	3085	2913	2588	2491	2445	2406	2391	2364	2311	2246	2221	2232	2252	2265	2263	2272	2283	2316	2260	2287	2161	2163	2176	2207	2239	2264	2258	2240	2221	2201	2196	2203	2207	2227	2218	2209	2192	2180	2179	2169	2128	2098	2067	2061	2065	2069	2089	2092	2113	2109	2106	2101	2081	2054	2038	2050	2062	2054	2030	2003	1966	1963	1977	1972	1964	1943	1932	1927	1935	1951	1959	1954	1926	1894	1882	1855	1858	1834	1836	1833	1829	1803	1762	1801	1796	1745	1729	1736	1749	1755	1748	1741	1745	1751	1752	1741	1745	1746	1726	1701	1642	1633	1648	1665	1664	1667	1668	1662	1655	1652	1657	1665	1669	1667	1667	1659	1648	1636	1624	1611	1603	1597	1579	1563	1547	1548	1554	1562	1563	1566	1568	1564	1560	1561	1560	1556	1543	1528	1521	1515	1511	1507	1511	1510	1501	1489	1486	1481	1473	1470	1475	1477	1481	1480	1466	1458	1452	1442	1427	1421	1424	1431	1435	1428	1423	1425	1417	1408	1408	1401	1404	1406	1390	1382	1374	1370	1369	1357	1354	1367	1372	1369	1359	1348	1344	1329	1320	1320	1319	0	0	0	0	0	0	0	0
0	0	0	0	0	0	0	0	0	0	1339	1311	1287	1282	1290	1290	1289	1293	1299	1299	1290	1290	1281	1292	1305	1317	1319	1312	1312	1318	1311	1316	1319	1313	1306	1306	1306	1311	1316	1322	1322	1320	1321	1330	1344	1357	1357	1341	1323	1310	1313	1326	1334	1330	1335	1346	1353	1353	1360	1354	1346	1327	1312	1334	1335	1322	1321	1314	1337	1356	1345	1359	1390	1391	1391	1383	1380	1354	1335	1326	1315	1316	1324	1343	1362	1367	1365	1347	1345	1337	1318	1303	1314	1331	1342	1345	1352	1379	1386	1362	1348	1335	1347	1360	1374	1379	1379	1377	1379	1384	1384	1383	1372	1370	1373	1379	1382	1374	1368	1370	1367	1366	1373	1402	1411	1399	1348	1351	1364	1377	1374	1374	1383	1386	1380	1375	1369	1364	1371	1366	1358	1344	1311	1306	1301	1286	1273	1317	1338	1355	1368	1379	1410	1432	1443	1424	1405	1369	1357	1353	1353	1338	1330	1323	1323	1325	1332	1352	1367	1405	1428	1432	1419	1393	1373	1367	1365	1372	1381	1381	1375	1388	1380	1393	1412	1404	1377	1373	1378	1392	1399	1390	1396	1401	1404	1395	1388	1395	1400	1397	1400	1399	1395	1399	1407	1402	1419	1429	1408	1385	1383	1383	1389	1400	1388	1395	1390	1387	1404	1407	1409	1406	1418	1411	1405	1405	1413	1412	1401	1393	1414	1416	1392	1385	1400	1401	1415	1408	1412	1422	1419	1420	1405	1392	1397	1409	1418	1415	1424	1412	1431	1427	1430	1423	1435	1426	1428	1426	1423	1444	1485	1484	1465	1465	1476	1479	1485	1450	1425	0	0	0	0	0	0	0	0	0	0	0	0	0	0	0	0	0	0	0	0	0	0	0	0	0	0	0	0	0	0	0	0	0	0	0	0	0	0	0	0	1879	1917	2011	2133	2283	2272	2249	2235	2146	2027	1783	1728	1696	1670	1651	1642	1616	1589	1580	1627	1805	1809	1795	1878	1970	1965	1948	1917	1924	1923	1899	1860	1774	1720	1641	1628	1599	1584	1549	1522	1491	1481	1462	1450	1443	1488	1517	1534	1522	1497	1498	1502	1507	1509	1517	1505	1511	1509	1518	1518	1515	1511	1505	1514	1523	1525	1519	1517	1521	1516	1520	1514	1515	1521	1519	1507	1497	1507	1521	1523	1521	1508	1524	1538	1535	1524	1506	1496	1497	1508	1525	1537	1516	1603	1946	2898	3200	3484	3568	3589	3564	3548	3561	3580	3595	3626	3650	3678	3679	3693	3574	3289	3164	3090	3115	3153	3121	3056	2981	3008	3048	3099	3147	3176	3139	3130	3128	3127	3124	3109	3091	3077	3075	3099	3097	2980	2675	2550	2496	2472	2449	2447	2397	2333	2335	2400	2409	2408	2382	2362	2338	2330	2322	2537	2361	2305	2319	2280	2252	2236	2231	2220	2210	2206	2206	2209	2220	2219	2215	2199	2179	2173	2176	2193	2195	2183	2116	2097	2099	2115	2157	2206	2203	2198	2187	2186	2171	2152	2125	2141	2133	2112	2098	2099	2092	2083	2043	2032	2017	1993	1957	1953	1995	2014	2012	2000	1982	1992	1990	1982	1940	1861	1854	1845	1827	1797	1750	1763	1761	1759	1750	1766	1768	1762	1749	1741	1738	1743	1745	1752	1758	1757	1767	1761	1695	1670	1685	1711	1709	1663	1664	1664	1651	1648	1652	1662	1666	1665	1653	1651	1640	1615	1604	1597	1603	1595	1575	1560	1543	1546	1557	1559	1561	1563	1567	1566	1560	1558	1559	1561	1549	1538	1530	1526	1526	1525	1526	1522	1514	1503	1495	1479	1468	1461	1454	1465	1478	1479	1476	1469	1458	1446	1452	1457	1445	1448	1440	1432	1425	1413	1397	1390	1390	1381	1385	1392	1384	1378	1373	1371	1373	1373	1377	1374	1368	1362	1359	1357	1357	1344	1344	1349	1334	0	0	0	0	0	0	0	0
0	0	0	0	0	0	0	0	0	0	1375	1334	1303	1287	1295	1295	1292	1294	1297	1290	1288	1289	1289	1295	1300	1316	1318	1308	1307	1307	1314	1321	1326	1315	1309	1314	1314	1319	1320	1324	1325	1316	1316	1324	1337	1346	1346	1345	1329	1322	1315	1318	1323	1330	1338	1348	1355	1355	1361	1355	1342	1323	1311	1335	1341	1321	1317	1335	1340	1365	1378	1360	1381	1377	1377	1362	1359	1367	1333	1325	1317	1312	1309	1324	1337	1347	1344	1330	1323	1332	1337	1335	1336	1352	1372	1369	1412	1426	1432	1429	1439	1442	1455	1471	1491	1506	1525	1540	1545	1519	1482	1486	1497	1497	1475	1431	1438	1475	1580	1581	1531	1488	1442	1412	1395	1391	1404	1418	1435	1463	1492	1385	1388	1392	1387	1382	1389	1402	1392	1334	1307	1269	1222	1177	1146	1136	1177	1269	1326	1362	1389	1410	1430	1456	1473	1493	1480	1443	1404	1364	1334	1306	1297	1303	1298	1288	1340	1350	1374	1400	1423	1430	1413	1391	1405	1389	1344	1328	1380	1385	1395	1385	1390	1407	1419	1425	1396	1391	1388	1400	1401	1388	1388	1398	1401	1394	1383	1387	1394	1394	1392	1391	1391	1401	1401	1393	1396	1421	1423	1382	1381	1381	1392	1421	1412	1406	1386	1374	1396	1397	1393	1392	1386	1393	1414	1426	1442	1408	1401	1396	1405	1392	1390	1389	1404	1397	1401	1420	1419	1421	1420	1414	1421	1382	1383	1398	1413	1415	1421	1423	1431	1424	1431	1423	1435	1439	1441	1425	1426	1435	1466	1485	1458	1462	1491	1503	1510	1537	0	0	0	0	0	0	0	0	0	0	0	0	0	0	0	0	0	0	0	0	0	0	0	0	0	0	0	0	0	0	0	0	0	0	0	0	0	0	0	0	0	0	2015	2110	2239	2350	2365	2363	2331	2250	2125	1875	1818	1776	1737	1704	1680	1666	1651	1641	1675	1816	1832	1844	1904	1960	1965	1944	1954	1954	1950	1932	1894	1801	1723	1607	1567	1566	1557	1527	1494	1495	1500	1498	1483	1462	1465	1501	1530	1517	1487	1488	1497	1500	1495	1499	1499	1506	1517	1521	1520	1514	1509	1508	1518	1529	1537	1536	1526	1514	1515	1519	1515	1516	1520	1511	1506	1507	1516	1525	1533	1525	1521	1530	1532	1526	1512	1494	1485	1486	1497	1521	1531	1503	1575	1923	2779	3209	3490	3576	3585	3556	3534	3537	3546	3541	3565	3616	3640	3650	3653	3598	3285	3138	3073	3115	3159	3125	3046	2954	2969	3010	3058	3139	3183	3141	3133	3125	3116	3114	3107	3103	3087	3085	3091	3076	2990	2895	2667	2554	2536	2581	2642	2617	2627	2578	2559	2552	2560	2562	2611	2652	2706	2709	2693	2646	2592	2474	2344	2247	2224	2223	2207	2209	2216	2219	2232	2226	2211	2199	2190	2191	2195	2197	2216	2218	2210	2207	2200	2202	2204	2206	2209	2208	2216	2221	2220	2224	2225	2190	2183	2167	2167	2184	2198	2213	2177	2142	2112	2061	2030	2000	2009	2041	2056	2059	2066	2072	2056	2035	2019	2008	1993	1998	2013	1993	1964	1952	1897	1873	1848	1830	1813	1798	1771	1764	1766	1899	1907	1907	1904	1875	1868	1883	1894	1838	1811	1791	1776	1705	1665	1658	1648	1643	1636	1644	1651	1654	1647	1635	1617	1604	1593	1582	1572	1559	1575	1564	1544	1564	1572	1579	1571	1565	1560	1560	1551	1539	1538	1539	1563	1565	1557	1547	1543	1539	1538	1538	1534	1528	1519	1518	1502	1496	1485	1482	1481	1483	1479	1478	1473	1466	1452	1457	1463	1459	1445	1430	1416	1425	1417	1402	1388	1388	1370	1360	1362	1363	1369	1368	1363	1359	1353	1354	1349	1350	1351	1353	1362	1366	1364	1364	1336	1331	0	0	0	0	0	0	0	0
0	0	0	0	0	0	0	0	0	0	1358	1339	1314	1288	1306	1306	1311	1294	1292	1290	1296	1303	1303	1306	1306	1300	1310	1313	1307	1307	1316	1313	1312	1310	1307	1319	1325	1325	1326	1324	1313	1304	1306	1318	1331	1341	1341	1347	1343	1328	1320	1311	1313	1320	1326	1343	1350	1350	1353	1348	1333	1314	1306	1338	1355	1316	1339	1320	1342	1357	1372	1367	1362	1341	1332	1332	1336	1336	1340	1340	1326	1308	1297	1301	1315	1326	1336	1349	1359	1414	1409	1408	1403	1401	1396	1411	1492	1549	1572	1575	1575	1574	1589	1610	1623	1626	1630	1635	1624	1605	1600	1611	1569	1573	1513	1589	1538	1621	1654	1610	1577	1607	1630	1631	1658	1652	1686	1685	1676	1689	1715	1763	1759	1732	1739	1772	1791	1800	1806	1765	1523	1408	1350	1325	1288	1317	1465	1667	1902	1931	1839	1774	1728	1770	1787	1780	1873	1846	1775	1679	1617	0	0	0	0	0	0	0	0	0	0	0	0	0	0	0	1329	1298	1320	1377	1402	1399	1415	1415	1410	1418	1407	1411	1411	1405	1405	1386	1384	1396	1393	1388	1380	1386	1387	1381	1381	1385	1398	1407	1411	1396	1379	1394	1394	1376	1378	1395	1399	1440	1421	1401	1383	1371	1396	1406	1412	1391	1378	1363	1370	1414	1425	1402	1368	1392	1411	1402	1383	1396	1409	1410	1409	1414	1428	1423	1426	1415	1412	1404	1386	1384	1421	1419	1422	1421	1410	1419	1420	1436	1411	1434	1434	1435	1422	1410	1447	1473	1445	1453	1502	1524	1541	1650	0	0	0	0	0	0	0	0	0	0	0	0	0	0	0	0	0	0	0	0	0	0	0	0	0	0	0	0	0	0	0	0	0	0	0	0	0	0	0	0	0	0	2041	2193	2319	2397	2429	2425	2395	2346	2194	1941	1861	1826	1792	1749	1729	1709	1698	1699	1733	1819	1843	1876	1946	1972	1972	1952	1975	1974	1962	1955	1941	1863	1751	1574	1543	1530	1520	1499	1482	1501	1508	1522	1510	1494	1477	1475	1501	1509	1482	1481	1493	1494	1490	1488	1496	1512	1513	1522	1513	1510	1511	1512	1525	1543	1549	1544	1529	1509	1503	1513	1516	1521	1513	1506	1505	1508	1522	1538	1549	1540	1528	1530	1517	1506	1491	1489	1480	1485	1498	1521	1513	1484	1545	1892	2690	3280	3520	3573	3579	3557	3532	3520	3523	3514	3528	3576	3613	3634	3639	3643	3336	3135	3055	3059	3157	3120	2979	2951	2965	2987	3034	3121	3158	3143	3136	3131	3120	3107	3110	3113	3099	3093	3086	3064	3007	2955	2934	2905	2916	2926	2884	2833	2782	2742	2746	2719	2709	2693	3039	3007	3009	3029	3065	3097	2994	2805	2464	2272	2240	2214	2204	2204	2206	2216	2228	2224	2200	2182	2187	2194	2197	2197	2211	2209	2203	2197	2197	2197	2201	2207	2200	2203	2208	2217	2218	2221	2228	2206	2186	2176	2173	2180	2191	2200	2193	2173	2146	2139	2172	2145	2132	2149	2162	2152	2134	2119	2098	2117	2120	2102	2098	2115	2131	2124	2120	2119	2100	2080	2015	1949	2633	2663	2598	2562	2563	2589	2589	2614	2611	2636	2693	2724	2733	2661	2584	2404	2301	1745	1706	1616	1622	1633	1635	1638	1643	1634	1624	1613	1599	1589	1578	1565	1555	1545	1550	1553	1574	1565	1572	1572	1567	1547	1541	1542	1536	1530	1534	1549	1558	1567	1565	1563	1559	1555	1551	1547	1544	1542	1537	1536	1535	1527	1522	1520	1516	1508	1504	1500	1500	1505	1493	1480	1484	1506	1485	1445	1418	1413	1411	1380	1369	1384	1367	1361	1360	1363	1364	1367	1363	1360	1359	1358	1354	1347	1348	1344	1347	1346	1360	1360	1349	1328	0	0	0	0	0	0	0	0
0	0	0	0	0	0	0	0	1302	1313	1313	1327	1306	1290	1323	1323	1331	1307	1288	1289	1302	1308	1308	1304	1300	1295	1300	1308	1317	1317	1311	1300	1289	1294	1307	1322	1325	1325	1326	1321	1315	1305	1300	1308	1322	1335	1335	1346	1352	1345	1323	1308	1304	1306	1308	1325	1338	1336	1336	1335	1320	1299	1299	1331	1355	1317	1338	1321	1337	1358	1363	1361	1316	1325	1320	1320	1324	1329	1338	1349	1353	1357	1339	1332	1372	1378	1395	1410	1413	1417	1425	1426	1428	1426	1421	1458	1513	1565	1598	1603	1609	1618	1638	1659	1678	1682	1678	1679	1684	1674	1677	1664	1655	1649	1720	1724	1721	1689	1714	1685	1675	1667	1655	1666	1710	1747	1752	1735	1733	1748	1772	1786	1790	1785	1803	1828	1852	1852	1857	1860	1849	1855	1856	1862	1890	1927	1785	1827	1933	2014	1959	1942	1952	1944	1975	2010	2008	1998	1948	1927	0	0	0	0	0	0	0	0	0	0	0	0	0	0	0	0	0	1289	1317	1369	1402	1414	1422	1402	1387	1403	1396	1404	1400	1393	1400	1400	1392	1400	1392	1392	1384	1399	1392	1382	1382	1389	1408	1421	1422	1408	1385	1385	1391	1385	1390	1397	1393	1438	1403	1366	1373	1400	1419	1417	1414	1399	1382	1367	1366	1404	1425	1424	1392	1397	1405	1405	1385	1401	1409	1409	1419	1433	1422	1423	1418	1422	1412	1413	1412	1382	1419	1436	1424	1417	1415	1409	1419	1422	1414	1414	1416	1410	1414	1408	1441	1456	1435	1448	1498	1524	1564	1764	0	0	0	0	0	0	0	0	0	0	0	0	0	0	0	0	0	0	0	0	0	0	0	0	0	0	0	0	0	0	0	0	0	0	0	0	0	0	0	0	0	0	2092	2228	2343	2424	2459	2459	2444	2375	2241	1974	1887	1850	1817	1794	1771	1759	1745	1744	1765	1799	1830	1892	1967	1979	1974	1962	1984	1980	1971	1968	1969	1932	1791	1584	1548	1517	1493	1473	1475	1498	1521	1528	1522	1513	1507	1473	1468	1488	1476	1488	1498	1497	1496	1487	1507	1517	1522	1514	1514	1511	1510	1515	1527	1546	1554	1545	1531	1514	1510	1514	1519	1515	1508	1505	1505	1510	1526	1542	1547	1542	1529	1531	1530	1513	1492	1486	1493	1494	1500	1521	1513	1483	1532	1875	2597	3308	3506	3562	3560	3533	3520	3520	3512	3504	3518	3544	3579	3597	3611	3627	3403	3122	3052	3040	3134	3118	2996	2974	2982	2990	3027	3115	3158	3141	3124	3122	3109	3111	3107	3105	3103	3113	3101	3092	3060	3031	3042	3060	3106	3116	3126	3124	3096	3095	3113	3113	3121	3099	3085	3090	3105	3124	3132	3143	3055	2892	2435	2263	2248	2202	2163	2158	2175	2181	2192	2193	2186	2171	2184	2186	2186	2184	2193	2190	2181	2180	2182	2192	2197	2206	2208	2206	2215	2217	2211	2218	2227	2220	2194	2175	2164	2172	2186	2212	2242	2360	2407	2347	2273	2143	2063	2067	2147	2252	2343	2377	2384	2399	2413	2431	2486	2596	2647	2690	2671	2615	2710	2748	2769	2762	2740	2803	2782	2764	2743	2709	2720	2730	2728	2767	2830	2845	2824	2770	2698	2503	2407	2301	1715	1608	1596	1624	1630	1632	1627	1616	1604	1592	1587	1587	1583	1572	1557	1553	1552	1594	1588	1559	1548	1544	1544	1541	1543	1540	1533	1527	1522	1542	1558	1565	1568	1568	1565	1559	1554	1552	1552	1552	1549	1541	1541	1536	1532	1533	1532	1524	1519	1515	1522	1534	1547	1556	1552	1538	1530	1524	1513	1495	1484	1473	1473	1455	1454	1448	1392	1383	1366	1356	1354	1356	1370	1370	1368	1354	1318	1317	1312	1327	1341	1341	1333	1326	0	0	0	0	0	0	0	0
0	0	0	0	0	0	0	0	1272	1293	1293	1298	1293	1297	1330	1330	1330	1300	1283	1284	1299	1306	1306	1304	1297	1290	1300	1314	1312	1312	1302	1287	1280	1285	1303	1318	1321	1321	1324	1323	1305	1300	1298	1303	1317	1329	1329	1341	1352	1345	1326	1309	1298	1294	1303	1312	1317	1324	1324	1318	1304	1293	1296	1328	1348	1321	1323	1324	1338	1361	1362	1312	1306	1322	1322	1322	1323	1331	1350	1374	1396	1396	1391	1393	1389	1390	1398	1407	1414	1421	1426	1433	1438	1440	1449	1486	1537	1577	1613	1631	1636	1649	1671	1698	1710	1711	1710	1719	1726	1725	1719	1709	1694	1705	1754	1750	1751	1724	1732	1720	1710	1683	1680	1697	1721	1781	1798	1777	1770	1778	1799	1811	1825	1832	1857	1891	1900	1907	1923	1938	1949	1946	1934	1939	1958	1991	2032	2129	2224	2225	2135	2075	2029	2046	2078	2090	2101	2098	2101	0	0	0	0	0	0	0	0	0	0	0	0	0	0	0	0	0	0	1299	1324	1346	1381	1406	1415	1388	1367	1384	1388	1390	1385	1376	1367	1359	1379	1400	1411	1414	1411	1413	1403	1385	1382	1401	1414	1424	1421	1406	1396	1397	1394	1405	1403	1397	1387	1395	1373	1385	1404	1421	1418	1408	1390	1392	1384	1377	1380	1401	1424	1425	1412	1415	1418	1423	1407	1410	1419	1417	1437	1431	1417	1417	1413	1413	1416	1407	1403	1422	1424	1431	1429	1422	1432	1428	1416	1419	1426	1415	1409	1407	1409	1408	1428	1437	1430	1452	1488	1516	1599	1919	0	0	0	0	0	0	0	0	0	0	0	0	0	0	0	0	2805	2848	2875	0	0	0	0	0	2849	2834	2794	2796	2782	0	0	2853	2928	2931	2848	2747	0	0	0	0	0	0	2134	2245	2327	2416	2481	2479	2442	2406	2282	2020	1916	1852	1826	1812	1814	1806	1787	1766	1752	1751	1816	1901	1963	1961	1961	1985	1977	1972	1964	1959	1972	1961	1833	1627	1563	1517	1471	1451	1458	1479	1509	1523	1524	1523	1525	1488	1455	1467	1480	1496	1503	1498	1492	1488	1500	1512	1514	1519	1524	1518	1514	1515	1525	1543	1549	1539	1528	1519	1512	1516	1518	1514	1513	1511	1506	1509	1524	1540	1539	1527	1530	1541	1546	1539	1527	1515	1507	1508	1512	1517	1526	1510	1548	1845	2542	3240	3419	3515	3535	3509	3505	3498	3512	3493	3506	3525	3545	3563	3579	3515	3300	3118	3067	3046	3130	3064	3019	2999	2977	3002	3027	3118	3162	3135	3102	3103	3106	3110	3100	3085	3097	3105	3117	3110	3098	3073	3067	3085	3086	3101	3121	3142	3148	3142	3143	3142	3107	3100	3107	3116	3132	3142	3135	3126	3090	2871	2455	2248	2223	2183	2163	2165	2167	2168	2158	2185	2184	2178	2176	2177	2177	2195	2192	2184	2171	2162	2172	2183	2198	2208	2213	2216	2212	2210	2204	2216	2220	2217	2197	2178	2171	2174	2190	2276	2452	2549	2694	2711	2574	2391	2185	2085	2195	2408	2608	2811	2913	2922	2911	2862	2855	2961	2971	2973	2985	2995	2843	2855	2890	2926	2949	2970	2933	2913	2915	2922	2921	2971	2988	3014	3035	3073	3020	2940	2906	2717	2490	2359	1727	1617	1600	1617	1614	1618	1608	1589	1581	1585	1585	1588	1592	1582	1567	1555	1555	1594	1580	1567	1554	1550	1550	1548	1551	1545	1542	1528	1532	1553	1557	1565	1567	1568	1561	1558	1555	1553	1556	1567	1562	1559	1559	1558	1560	1554	1545	1537	1526	1524	1522	1540	1567	1576	1573	1556	1545	1547	1555	1556	1560	1565	1565	1545	1528	1508	1502	1506	1510	1452	1445	1440	1429	1413	1399	1379	1366	1356	1355	1356	1357	1357	1341	1337	0	0	0	0	0	0	0	0
0	0	0	0	0	0	0	0	0	1259	1259	1256	1283	1296	1318	1306	1306	1291	1283	1283	1292	1298	1298	1301	1298	1298	1314	1314	1305	1305	1291	1278	1281	1290	1304	1311	1314	1314	1314	1310	1303	1298	1295	1298	1310	1326	1326	1336	1343	1336	1320	1303	1297	1297	1298	1298	1304	1310	1310	1313	1302	1294	1291	1318	1326	1325	1326	1325	1335	1359	1366	1313	1304	1336	1327	1327	1321	1335	1363	1380	1386	1388	1392	1400	1398	1390	1388	1398	1425	1436	1443	1443	1439	1449	1468	1502	1549	1595	1626	1645	1649	1666	1681	1706	1717	1729	1734	1745	1756	1755	1740	1728	1719	1717	1753	1770	1775	1739	1716	1719	1727	1703	1697	1720	1746	1778	1797	1801	1810	1804	1809	1820	1839	1868	1887	1910	1919	1945	1972	2008	2021	2011	1994	1986	1993	2039	2087	2228	2262	2249	2174	2122	2084	2090	2108	2127	2138	2161	2163	0	0	0	0	0	0	0	0	0	0	0	0	0	0	0	0	0	0	1314	1343	1328	1351	1387	1405	1370	1357	1368	1380	1373	1375	1369	1360	1357	1356	1383	1408	1425	1429	1417	1408	1389	1388	1400	1408	1409	1396	1398	1402	1404	1402	1406	1407	1397	1383	1384	1381	1396	1406	1415	1404	1391	1383	1378	1384	1386	1394	1408	1420	1443	1425	1416	1422	1425	1410	1418	1418	1421	1426	1411	1410	1405	1415	1417	1412	1412	1420	1418	1425	1435	1429	1424	1419	1423	1439	1424	1429	1406	1404	1405	1405	1399	1417	1415	1427	1458	1479	1516	1658	2129	2736	0	0	2926	2946	0	0	0	2880	2890	2835	2826	2825	2848	2865	2893	2910	2968	3016	3062	3086	3081	3035	3018	3028	3022	2993	2966	2934	2915	2916	2988	3055	3072	3025	2922	2707	0	0	0	0	0	2180	2245	2296	2408	2481	2480	2439	2409	2315	2071	1939	1876	1839	1824	1854	1864	1842	1788	1741	1723	1821	1911	1957	1958	1958	1966	1961	1956	1950	1944	1951	1946	1835	1649	1575	1517	1468	1446	1451	1480	1506	1510	1502	1513	1519	1501	1473	1465	1484	1498	1504	1482	1485	1488	1498	1511	1520	1517	1523	1523	1517	1517	1514	1517	1530	1527	1520	1508	1508	1513	1518	1520	1519	1513	1508	1513	1520	1527	1530	1525	1535	1551	1564	1561	1539	1528	1516	1512	1514	1519	1523	1527	1555	1803	2711	3001	3235	3338	3364	3349	3339	3351	3364	3345	3336	3364	3395	3449	3460	3351	3205	3095	3060	3064	3117	3075	3035	2998	3006	3010	3021	3102	3157	3127	3089	3088	3100	3099	3086	3090	3097	3106	3139	3148	3135	3104	3097	3091	3071	3088	3119	3143	3152	3155	3147	3119	3094	3093	3101	3130	3150	3151	3139	3121	3084	2673	2440	2229	2212	2192	2183	2168	2187	2175	2156	2182	2184	2178	2173	2167	2169	2182	2188	2179	2168	2165	2172	2189	2200	2208	2218	2224	2216	2209	2195	2202	2216	2209	2198	2190	2189	2191	2211	2307	2512	2766	2831	2786	2714	2586	2047	2089	2232	2388	2588	2787	2911	2965	3019	3022	3003	2997	3007	3011	3019	2980	2958	2936	2962	2993	3009	3024	3005	2998	2985	2980	2978	2990	3027	3060	3091	3103	3041	2995	2952	2831	2555	2409	1730	1633	1609	1617	1619	1617	1610	1594	1587	1590	1581	1604	1604	1598	1574	1559	1551	1589	1582	1571	1558	1547	1550	1559	1559	1553	1556	1560	1557	1561	1564	1566	1564	1565	1560	1557	1556	1552	1553	1558	1562	1567	1570	1568	1570	1568	1566	1560	1565	1569	1571	1563	1568	1583	1583	1572	1555	1541	1572	1563	1557	1538	1538	1527	1531	1542	1534	1522	1516	1517	1528	1541	1490	1475	1449	1427	1415	1402	1385	1381	1381	1380	1380	1379	0	0	0	0	0	0	0	0
0	0	0	0	0	0	0	0	0	1227	1227	1234	1278	1295	1299	1296	1296	1288	1281	1282	1283	1288	1288	1293	1307	1330	1328	1315	1302	1302	1289	1287	1297	1303	1309	1307	1307	1307	1304	1302	1298	1295	1288	1294	1305	1322	1330	1330	1339	1327	1314	1302	1300	1299	1295	1291	1298	1311	1311	1313	1312	1301	1294	1311	1317	1317	1317	1320	1326	1345	1345	1330	1336	1345	1331	1327	1327	1351	1359	1366	1371	1378	1391	1401	1397	1380	1370	1376	1401	1418	1435	1433	1433	1443	1478	1526	1574	1614	1644	1656	1675	1692	1703	1706	1713	1726	1739	1758	1764	1756	1735	1723	1719	1753	1767	1768	1771	1751	1705	1699	1730	1731	1729	1741	1763	1774	1777	1793	1811	1823	1823	1829	1856	1866	1866	1877	1899	1941	1989	2037	2064	2053	2038	2027	2047	2078	2134	2250	2273	2237	2194	2146	2098	2094	2101	2133	2169	2200	2225	2261	0	0	0	0	0	0	0	0	0	0	0	0	0	0	0	0	0	1352	1374	1327	1331	1361	1375	1354	1360	1373	1387	1377	1376	1370	1363	1362	1372	1382	1388	1421	1422	1421	1400	1387	1391	1395	1394	1387	1375	1388	1400	1405	1404	1403	1399	1388	1386	1384	1383	1394	1404	1403	1397	1386	1377	1379	1381	1391	1406	1412	1405	1404	1430	1405	1418	1415	1413	1417	1415	1420	1421	1411	1408	1410	1412	1415	1420	1423	1425	1428	1427	1433	1426	1427	1435	1425	1424	1429	1414	1405	1404	1416	1403	1392	1411	1388	1416	1450	1466	1525	1714	2198	2674	2933	3002	3029	3054	3089	3087	3046	2980	2928	2914	2907	2888	2905	2932	2949	2980	3012	3060	3092	3105	3076	3044	3037	3047	3018	3043	3012	2975	2954	2947	2977	3045	3061	3049	2971	2837	2550	0	0	0	0	2227	2263	2276	2405	2497	2479	2433	2382	2314	2097	1971	1904	1881	1873	1899	1908	1873	1813	1754	1735	1853	1937	1966	1957	1950	1948	1949	1941	1932	1929	1931	1913	1823	1656	1569	1523	1480	1455	1465	1499	1510	1502	1491	1493	1502	1496	1484	1488	1493	1487	1486	1470	1470	1487	1500	1514	1520	1521	1521	1516	1522	1522	1521	1519	1518	1515	1507	1499	1497	1505	1519	1526	1519	1511	1500	1503	1508	1520	1526	1529	1539	1556	1569	1571	1555	1532	1515	1510	1509	1514	1518	1534	1563	1746	2417	2806	2923	2976	2983	2956	2946	2961	2988	2974	2964	3018	3052	3054	3122	3134	3102	3052	3016	3030	3104	3071	3042	3024	3013	3016	3013	3073	3129	3125	3096	3089	3096	3091	3083	3083	3098	3107	3124	3143	3146	3134	3120	3083	3064	3077	3109	3132	3144	3133	3124	3098	3054	3025	3032	3073	3128	3161	3143	3125	2989	2674	2451	2225	2217	2205	2205	2201	2197	2186	2159	2178	2184	2180	2173	2167	2167	2175	2177	2175	2169	2161	2162	2177	2197	2209	2221	2232	2226	2216	2204	2193	2204	2206	2204	2204	2207	2214	2234	2358	2558	2796	2859	2939	2830	2626	2072	1953	2126	2312	2368	2537	2690	2845	2915	2924	2891	2849	2871	2884	2881	2848	2893	2956	3000	3024	3014	2999	2996	2973	2976	2974	2954	2975	3009	3051	3079	3076	3036	2978	2923	2727	2547	2425	1730	1637	1615	1620	1623	1624	1619	1614	1614	1606	1586	1594	1591	1592	1576	1562	1552	1536	1554	1565	1554	1545	1557	1564	1566	1555	1554	1559	1558	1561	1562	1564	1565	1568	1564	1564	1556	1555	1557	1560	1564	1568	1566	1562	1563	1565	1569	1569	1569	1571	1567	1563	1566	1576	1582	1581	1560	1572	1662	1672	1664	1687	1687	1712	1715	1732	1732	1714	1694	1691	1719	1756	1802	1821	1578	1585	1589	1581	1515	1485	1485	1482	1481	1488	0	0	0	0	0	0	0	0
0	0	0	0	0	0	0	0	1191	1217	1217	1252	1289	1293	1284	1287	1287	1290	1280	1276	1278	1283	1283	1292	1321	1325	1324	1319	1317	1317	1311	1310	1313	1321	1320	1311	1299	1299	1296	1295	1293	1292	1292	1295	1306	1320	1329	1329	1333	1321	1306	1295	1293	1301	1298	1297	1300	1310	1310	1314	1310	1309	1309	1334	1322	1310	1314	1317	1325	1335	1333	1343	1359	1364	1335	1345	1345	1350	1356	1354	1355	1363	1385	1395	1396	1377	1366	1366	1380	1401	1417	1425	1427	1437	1474	1529	1582	1623	1653	1678	1713	1732	1739	1733	1723	1718	1724	1735	1741	1739	1730	1717	1717	1750	1769	1771	1771	1741	1686	1688	1732	1747	1731	1744	1763	1773	1772	1774	1789	1816	1835	1838	1855	1849	1839	1844	1874	1919	1977	2037	2066	2076	2071	2069	2090	2125	2164	2255	2258	2223	2204	2171	2115	2111	2119	2147	2190	2231	2269	2300	2402	0	0	0	0	0	0	0	0	0	0	0	0	0	0	0	0	1367	1417	1367	1340	1349	1361	1367	1385	1405	1397	1389	1377	1374	1377	1380	1384	1384	1380	1403	1413	1411	1392	1379	1386	1386	1387	1371	1370	1381	1391	1401	1400	1398	1391	1387	1390	1392	1386	1386	1392	1389	1383	1372	1380	1386	1386	1388	1412	1413	1385	1385	1430	1405	1411	1398	1406	1421	1418	1412	1407	1403	1411	1411	1413	1416	1422	1427	1427	1415	1425	1430	1433	1425	1433	1437	1420	1414	1415	1406	1418	1403	1392	1416	1426	1391	1410	1449	1471	1530	1710	2152	2675	2887	2993	3039	3076	3127	3092	3007	2957	2939	2943	2936	2928	2958	2961	2989	3002	3019	3056	3066	3043	3033	2985	2996	2983	2938	2950	2980	2971	2960	2956	2971	3007	3015	3015	2981	2841	2549	0	0	0	0	2236	2247	2291	2431	2519	2491	2430	2366	2285	2107	2020	1960	1938	1932	1935	1936	1907	1852	1794	1783	1913	1974	1977	1951	1948	1942	1933	1917	1916	1916	1918	1886	1833	1683	1585	1541	1498	1477	1484	1518	1532	1533	1518	1503	1485	1475	1487	1494	1499	1479	1459	1476	1477	1502	1509	1522	1523	1518	1517	1509	1516	1527	1526	1517	1511	1503	1502	1498	1497	1503	1521	1532	1533	1518	1493	1491	1502	1517	1519	1523	1533	1546	1557	1565	1558	1540	1518	1512	1514	1512	1512	1529	1564	1705	2192	2759	2845	2900	2917	2896	2888	2896	2898	2903	2887	2876	2901	2938	3012	3053	3040	3002	2967	2947	3068	3056	3028	3018	3014	3002	2997	3021	3067	3070	3084	3085	3090	3077	3069	3074	3103	3103	3117	3130	3134	3137	3135	3078	2984	2951	2955	2969	2978	2986	2939	2924	2917	2932	2941	2951	2949	2963	3017	3034	2976	2681	2513	2234	2228	2224	2211	2207	2201	2194	2188	2179	2178	2178	2176	2171	2168	2175	2173	2162	2166	2160	2160	2168	2189	2206	2225	2231	2233	2222	2209	2189	2199	2199	2197	2203	2213	2226	2242	2347	2469	2784	2861	2938	2874	2729	2453	1958	1881	2043	2200	2304	2525	2714	2803	2824	2796	2759	2753	2771	2769	2732	2752	2799	2859	2869	2872	2821	2800	2823	2841	2831	2831	2830	2797	2796	2793	2798	2721	2712	2682	2555	2428	2348	1761	1659	1621	1628	1632	1627	1633	1629	1622	1604	1592	1584	1583	1576	1575	1571	1562	1530	1543	1545	1541	1543	1546	1557	1569	1559	1555	1555	1556	1557	1558	1562	1568	1569	1573	1567	1558	1558	1562	1566	1570	1569	1565	1563	1560	1561	1569	1578	1576	1569	1563	1557	1559	1572	1584	1583	1563	1710	1780	2100	2092	2092	2112	2132	2161	2147	2145	2137	2120	2167	2202	2192	2185	2159	2094	2027	1907	1915	1917	1854	1854	1845	1854	1868	0	0	0	0	0	0	0	0
0	0	0	0	0	0	0	0	1216	1261	1261	1284	1299	1285	1268	1281	1281	1287	1287	1289	1283	1284	1285	1285	1297	1315	1321	1323	1326	1331	1331	1326	1329	1330	1326	1317	1301	1299	1299	1296	1290	1287	1292	1298	1309	1328	1339	1339	1338	1324	1299	1289	1292	1306	1314	1308	1306	1311	1320	1320	1323	1324	1319	1339	1326	1310	1313	1318	1340	1356	1343	1349	1364	1363	1335	1341	1341	1342	1337	1340	1340	1357	1382	1394	1393	1376	1378	1378	1394	1406	1413	1415	1418	1431	1470	1529	1578	1624	1666	1700	1741	1763	1763	1748	1723	1711	1702	1707	1709	1708	1710	1711	1712	1747	1767	1772	1765	1714	1698	1737	1733	1736	1727	1726	1741	1757	1759	1761	1779	1806	1835	1845	1849	1842	1837	1854	1883	1915	1980	2035	2065	2096	2105	2115	2136	2163	2194	2248	2265	2235	2198	2162	2139	2144	2156	2184	2216	2259	2293	2341	2474	2597	0	2653	2620	2607	2628	0	0	0	0	0	0	0	0	0	0	1373	1394	1388	1352	1351	1367	1374	1395	1405	1387	1382	1373	1373	1374	1376	1381	1383	1378	1392	1396	1398	1386	1386	1381	1378	1376	1380	1375	1378	1387	1393	1394	1386	1384	1390	1400	1408	1400	1391	1383	1373	1363	1362	1365	1395	1396	1400	1415	1426	1405	1387	1389	1414	1425	1417	1419	1431	1426	1417	1408	1402	1405	1412	1422	1421	1421	1427	1428	1406	1425	1417	1435	1434	1425	1419	1411	1414	1412	1418	1403	1416	1390	1423	1442	1407	1419	1457	1480	1526	1723	2128	2639	2827	2915	2966	2975	3027	3023	2987	2957	2948	2964	2971	2972	2953	2969	2988	2988	2964	2945	2964	2983	2983	2967	2946	2921	2877	2862	2879	2876	2879	2881	2904	2926	2876	2900	2885	2869	2650	2417	2308	0	2227	2223	2215	2281	2406	2500	2500	2438	2364	2272	2127	2043	2009	1986	1968	1962	1953	1926	1888	1842	1854	1941	1965	1961	1944	1939	1934	1909	1905	1900	1905	1909	1878	1853	1717	1607	1571	1526	1504	1515	1542	1560	1574	1567	1540	1484	1459	1482	1512	1514	1492	1481	1458	1458	1487	1507	1520	1518	1513	1511	1505	1511	1523	1527	1521	1511	1509	1508	1509	1509	1510	1525	1532	1533	1520	1499	1490	1495	1506	1506	1512	1522	1535	1539	1545	1543	1539	1528	1521	1516	1503	1503	1526	1568	1718	2074	2654	2739	2796	2792	2789	2824	2852	2853	2843	2820	2810	2820	2855	2925	2936	2952	2960	2937	2914	2920	2943	2950	2975	2980	2979	2960	2918	2928	2945	2954	2948	2987	2994	3013	3037	3053	3057	3062	3035	3026	3010	2840	2809	2800	2793	2797	2799	2797	2801	2815	2828	2845	2843	2851	2851	2835	2826	2825	2782	2764	2646	2461	2250	2242	2236	2219	2204	2199	2178	2190	2168	2168	2187	2188	2188	2182	2181	2177	2165	2159	2173	2163	2169	2189	2201	2216	2219	2217	2217	2207	2191	2191	2190	2188	2192	2206	2221	2236	2326	2419	2628	2813	2755	2790	2746	2399	2226	1950	1967	2086	2152	2378	2615	2720	2735	2718	2682	2672	2668	2667	2623	2651	2720	2752	2764	2733	2695	2672	2689	2710	2724	2753	2743	2684	2656	2647	2645	2616	2584	2549	2463	2343	2264	1768	1655	1614	1624	1630	1635	1633	1630	1614	1603	1588	1579	1577	1570	1573	1576	1573	1534	1543	1537	1537	1538	1543	1547	1556	1568	1567	1562	1558	1558	1561	1567	1574	1574	1573	1573	1565	1564	1568	1572	1572	1569	1564	1561	1560	1562	1570	1579	1579	1573	1569	1564	1572	1594	1608	1642	1743	1894	2220	2144	2129	2129	2144	2165	2193	2168	2165	2161	2151	2188	2217	2213	2204	2190	2175	2171	2164	2162	2062	1959	1959	1941	1938	1943	0	0	0	0	0	0	0	0
0	0	0	0	0	0	0	0	1273	1296	1296	1315	1298	1276	1257	1274	1274	1296	1296	1301	1296	1291	1285	1285	1283	1307	1320	1332	1340	1347	1347	1336	1332	1329	1320	1315	1309	1311	1311	1304	1295	1291	1296	1305	1321	1340	1343	1343	1340	1327	1304	1293	1298	1313	1322	1319	1308	1302	1312	1312	1324	1321	1325	1337	1320	1309	1317	1324	1359	1346	1339	1347	1366	1366	1336	1333	1333	1326	1324	1328	1343	1365	1390	1404	1404	1385	1385	1396	1416	1423	1422	1410	1412	1434	1470	1521	1578	1631	1675	1718	1747	1772	1763	1736	1715	1703	1694	1694	1701	1704	1701	1700	1715	1741	1772	1771	1767	1721	1732	1755	1731	1711	1705	1709	1720	1737	1747	1758	1770	1801	1828	1849	1845	1833	1837	1865	1897	1932	1991	2049	2088	2121	2137	2155	2176	2199	2220	2235	2245	2235	2179	2158	2164	2172	2176	2203	2236	2270	2309	2364	2463	2636	2695	2683	2631	2618	2646	2744	0	0	2869	2822	0	0	0	0	0	1361	1356	1385	1366	1355	1379	1375	1395	1401	1397	1381	1372	1371	1370	1372	1380	1385	1385	1387	1388	1385	1380	1385	1390	1384	1378	1365	1371	1375	1385	1386	1385	1379	1384	1388	1407	1413	1413	1402	1394	1367	1366	1366	1367	1399	1405	1406	1405	1390	1407	1399	1391	1402	1431	1431	1445	1406	1404	1399	1416	1410	1415	1440	1416	1411	1418	1406	1417	1423	1404	1421	1425	1428	1426	1425	1424	1424	1409	1401	1402	1436	1424	1441	1447	1427	1440	1465	1475	1526	1732	2129	2629	2754	2858	2904	2946	2935	2928	2948	2963	2968	2974	2955	2912	2907	2926	2979	2951	2902	2875	2904	2936	2945	2887	2833	2792	2776	2784	2787	2790	2790	2770	2775	2789	2793	2794	2805	2799	2732	2494	2313	2220	2189	2187	2191	2254	2374	2459	2461	2443	2404	2319	2129	2036	2009	1992	1987	1978	1952	1939	1927	1880	1882	1937	1953	1949	1936	1936	1931	1901	1900	1900	1905	1903	1885	1872	1736	1632	1604	1569	1551	1565	1570	1585	1602	1598	1580	1499	1506	1500	1490	1506	1506	1489	1458	1458	1493	1504	1510	1508	1501	1500	1499	1505	1512	1516	1520	1519	1520	1524	1525	1519	1517	1520	1524	1522	1514	1509	1502	1492	1494	1500	1505	1518	1529	1531	1525	1525	1529	1526	1521	1509	1494	1504	1523	1560	1699	2045	2468	2644	2701	2691	2685	2706	2717	2719	2741	2739	2726	2733	2730	2686	2734	2790	2861	2889	2886	2875	2857	2881	2892	2921	2889	2848	2799	2817	2827	2834	2809	2792	2765	2750	2760	2789	2785	2791	2790	2733	2741	2747	2729	2722	2710	2714	2696	2679	2702	2697	2742	2764	2769	2752	2748	2709	2676	2677	2658	2620	2584	2402	2240	2236	2230	2228	2208	2190	2173	2152	2127	2156	2201	2204	2204	2195	2190	2194	2198	2175	2191	2185	2180	2181	2198	2197	2200	2197	2199	2197	2190	2180	2178	2179	2187	2195	2209	2230	2284	2335	2511	2583	2619	2652	2641	2359	2190	2061	1990	2032	2053	2111	2340	2603	2650	2636	2607	2547	2512	2461	2501	2551	2579	2617	2629	2613	2565	2549	2543	2559	2546	2559	2585	2579	2542	2534	2526	2521	2507	2460	2400	2303	2215	1789	1638	1584	1611	1619	1630	1630	1620	1609	1597	1590	1584	1572	1563	1572	1579	1574	1545	1545	1535	1534	1538	1538	1541	1545	1560	1568	1571	1567	1565	1570	1576	1578	1571	1570	1574	1574	1570	1569	1568	1568	1570	1569	1568	1566	1567	1569	1577	1575	1571	1567	1569	1578	1608	1601	1636	1753	2004	2162	2188	2193	2193	2209	2201	2199	2210	2211	2212	2198	2199	2216	2222	2226	2233	2241	2242	2224	2203	2206	2195	2195	2202	2202	2207	0	0	0	0	0	0	0	0
0	0	0	0	0	0	0	0	1323	1302	1313	1313	1298	1274	1257	1271	1271	1300	1307	1306	1305	1292	1289	1289	1288	1306	1324	1339	1344	1345	1345	1338	1325	1318	1310	1311	1319	1322	1322	1311	1305	1303	1308	1319	1326	1340	1345	1345	1345	1331	1319	1306	1308	1320	1327	1325	1308	1306	1309	1309	1317	1322	1325	1327	1320	1349	1324	1347	1322	1331	1332	1348	1377	1369	1349	1350	1347	1347	1335	1339	1355	1374	1400	1412	1411	1400	1402	1417	1437	1446	1436	1418	1417	1439	1467	1514	1575	1637	1683	1722	1746	1753	1744	1723	1703	1694	1692	1698	1701	1701	1697	1698	1708	1733	1780	1782	1782	1800	1775	1774	1730	1696	1703	1701	1714	1737	1743	1764	1782	1801	1824	1833	1839	1831	1840	1879	1911	1949	2010	2073	2121	2151	2175	2198	2214	2235	2242	2223	2217	2223	2185	2180	2185	2170	2178	2196	2239	2278	2316	2375	2464	2560	2627	2650	2637	2652	2677	2739	2810	2861	2799	2771	2736	2639	0	0	0	1401	1355	1380	1367	1362	1388	1371	1383	1397	1394	1393	1389	1383	1370	1377	1392	1392	1387	1373	1377	1380	1378	1386	1391	1392	1385	1386	1390	1392	1391	1394	1388	1383	1381	1400	1405	1410	1416	1425	1417	1395	1381	1382	1388	1408	1403	1397	1390	1376	1383	1395	1411	1414	1427	1439	1461	1413	1390	1403	1410	1421	1421	1424	1430	1418	1417	1409	1408	1418	1406	1418	1423	1423	1421	1430	1432	1422	1408	1411	1429	1435	1410	1434	1436	1446	1462	1476	1472	1524	1726	2136	2585	2720	2788	2852	2851	2783	2756	2787	2887	2912	2839	2822	2816	2825	2838	2826	2839	2803	2831	2861	2870	2829	2666	2635	2642	2687	2708	2680	2651	2641	2639	2661	2674	2674	2666	2701	2715	2693	2614	2489	2339	2226	2186	2238	2238	2315	2377	2434	2384	2382	2309	2075	1986	1983	1993	2002	2010	1982	1946	1931	1915	1921	1906	1897	1937	1945	1939	1938	1905	1912	1917	1917	1915	1901	1890	1752	1654	1658	1653	1655	1651	1620	1599	1586	1583	1572	1513	1517	1498	1487	1495	1497	1501	1502	1503	1508	1502	1498	1497	1489	1493	1490	1492	1502	1503	1513	1520	1524	1526	1527	1525	1516	1519	1515	1511	1519	1516	1509	1498	1495	1497	1505	1520	1531	1535	1521	1507	1498	1509	1507	1499	1488	1514	1537	1572	1683	2081	2342	2535	2596	2606	2616	2610	2561	2555	2594	2599	2619	2601	2587	2601	2660	2684	2731	2737	2736	2747	2755	2776	2808	2809	2761	2674	2702	2724	2727	2714	2702	2690	2658	2656	2683	2704	2732	2672	2666	2644	2632	2644	2653	2652	2654	2642	2628	2605	2594	2563	2549	2556	2626	2612	2581	2541	2561	2552	2539	2512	2486	2338	2218	2210	2214	2218	2214	2194	2168	2141	2121	2144	2200	2205	2207	2194	2191	2199	2210	2214	2215	2204	2193	2194	2190	2185	2175	2176	2184	2182	2173	2164	2167	2175	2178	2184	2176	2180	2195	2306	2268	2456	2529	2532	2472	2379	2184	2063	2009	2010	2009	2030	2097	2303	2438	2526	2537	2488	2439	2404	2363	2370	2414	2437	2441	2404	2401	2429	2416	2369	2360	2366	2387	2408	2444	2440	2441	2439	2385	2342	2296	2209	1904	1868	1632	1567	1598	1617	1628	1622	1614	1602	1593	1592	1588	1571	1566	1565	1567	1571	1563	1554	1538	1532	1535	1539	1539	1539	1545	1548	1556	1565	1574	1578	1581	1575	1568	1570	1578	1575	1567	1561	1561	1564	1563	1570	1577	1576	1572	1571	1578	1576	1570	1561	1560	1570	1600	1586	1603	1775	2019	2121	2157	2157	2172	2195	2197	2194	2203	2204	2207	2202	2196	2212	2207	2212	2220	2235	2231	2203	2174	2174	2174	2182	2212	2213	2225	0	0	0	0	0	0	0	0
0	0	0	0	0	0	0	0	1370	1286	1292	1292	1297	1288	1271	1278	1295	1295	1298	1304	1300	1299	1298	1298	1306	1314	1331	1337	1338	1337	1337	1318	1309	1306	1304	1314	1326	1331	1331	1322	1313	1310	1310	1318	1327	1341	1346	1346	1339	1338	1331	1321	1320	1325	1328	1324	1304	1303	1315	1315	1312	1323	1328	1328	1336	1351	1352	1335	1313	1323	1337	1358	1381	1367	1361	1363	1352	1352	1345	1344	1364	1382	1407	1416	1410	1401	1403	1426	1450	1459	1455	1440	1441	1454	1469	1514	1575	1633	1682	1720	1737	1736	1726	1711	1700	1689	1685	1694	1698	1699	1698	1696	1701	1728	1777	1793	1800	1815	1814	1784	1720	1684	1707	1716	1727	1749	1758	1777	1781	1795	1805	1811	1817	1826	1852	1880	1918	1971	2017	2084	2123	2160	2191	2223	2238	2242	2244	2229	2220	2219	2179	2200	2191	2169	2154	2185	2231	2282	2324	2387	2458	2520	2571	2613	2639	2656	2673	2718	2732	2704	2684	2654	2633	2562	2335	0	0	1529	1387	1381	1363	1369	1397	1370	1379	1391	1386	1389	1393	1397	1402	1394	1393	1395	1382	1377	1375	1385	1385	1385	1389	1388	1391	1396	1404	1408	1409	1401	1391	1385	1387	1396	1402	1410	1414	1425	1421	1404	1392	1393	1401	1414	1404	1402	1395	1377	1383	1395	1414	1414	1430	1463	1462	1425	1412	1418	1405	1422	1432	1426	1425	1416	1406	1420	1410	1408	1409	1412	1410	1405	1415	1417	1418	1420	1415	1422	1433	1425	1409	1406	1424	1454	1478	1478	1469	1524	1723	2116	2418	2623	2706	2713	2671	2669	2665	2646	2616	2626	2649	2658	2728	2734	2661	2641	2599	2605	2657	2694	2671	2605	2471	2477	2525	2541	2541	2517	2503	2501	2552	2587	2578	2541	2456	2466	2482	2483	2466	2451	2420	2350	2294	2253	2297	2322	2345	2363	2360	2321	2269	2052	1952	1962	1988	2017	2020	2000	1957	1926	1914	1931	1885	1845	1909	1948	1932	1934	1965	1957	1946	1930	1921	1933	1895	1759	1675	1653	1653	1661	1657	1634	1605	1589	1582	1566	1520	1514	1501	1483	1476	1484	1503	1508	1505	1493	1475	1481	1488	1489	1495	1498	1500	1497	1503	1507	1517	1522	1526	1524	1522	1525	1522	1518	1520	1524	1523	1511	1510	1509	1501	1509	1523	1536	1543	1527	1509	1497	1485	1489	1484	1488	1516	1548	1583	1722	2078	2251	2455	2467	2467	2477	2459	2423	2412	2475	2499	2476	2464	2471	2517	2581	2633	2629	2606	2640	2631	2643	2632	2614	2601	2607	2597	2624	2632	2640	2625	2611	2620	2609	2597	2615	2596	2599	2618	2578	2555	2520	2531	2552	2581	2599	2593	2560	2523	2488	2459	2403	2387	2392	2399	2416	2425	2451	2474	2447	2420	2311	2276	2192	2175	2187	2198	2201	2184	2157	2133	2129	2134	2172	2191	2197	2191	2196	2207	2223	2231	2222	2217	2200	2197	2188	2186	2187	2179	2165	2173	2163	2159	2160	2178	2182	2177	2165	2162	2181	2179	2258	2235	2242	2263	2276	2248	2215	2120	2046	2004	1984	1991	2003	2060	2165	2229	2281	2277	2251	2205	2179	2160	2147	2156	2184	2212	2225	2246	2253	2263	2261	2231	2197	2177	2180	2194	2194	2188	2175	2164	2125	2067	1993	1912	1621	1559	1591	1614	1621	1616	1606	1600	1591	1590	1580	1582	1569	1565	1567	1569	1567	1555	1549	1541	1543	1549	1546	1535	1542	1546	1558	1567	1565	1569	1577	1570	1555	1566	1568	1564	1558	1556	1555	1559	1566	1576	1589	1585	1572	1569	1573	1573	1564	1554	1547	1555	1565	1577	1629	1759	2020	2070	2118	2118	2127	2127	2119	2104	2089	2083	2086	2100	2118	2115	2117	2137	2154	2159	2163	2154	2134	2107	2107	2126	2133	2138	2179	0	0	0	0	0	0	0	0
0	0	0	0	0	0	0	0	1411	1271	1269	1269	1305	1305	1287	1288	1278	1278	1280	1287	1295	1299	1300	1300	1305	1309	1317	1327	1334	1327	1327	1320	1309	1302	1307	1318	1331	1331	1331	1322	1315	1305	1305	1305	1321	1329	1332	1326	1326	1328	1329	1322	1320	1327	1330	1324	1305	1305	1309	1309	1323	1325	1344	1333	1330	1337	1335	1316	1304	1318	1341	1366	1386	1361	1365	1361	1351	1351	1342	1349	1355	1370	1378	1385	1387	1397	1408	1428	1449	1458	1459	1456	1460	1463	1480	1516	1571	1623	1664	1698	1728	1726	1719	1707	1694	1687	1686	1685	1680	1685	1687	1693	1698	1709	1762	1782	1794	1812	1809	1747	1698	1679	1716	1729	1746	1761	1773	1805	1804	1808	1799	1801	1807	1831	1852	1885	1921	1954	2008	2078	2118	2158	2201	2229	2246	2242	2235	2231	2231	2212	2172	2187	2166	2148	2145	2177	2223	2276	2338	2397	2438	2478	2517	2559	2588	2628	2650	2668	2646	2620	2633	2591	2537	2485	2303	0	0	1523	1417	1381	1376	1377	1399	1366	1375	1389	1380	1384	1391	1393	1380	1381	1372	1383	1386	1385	1387	1390	1390	1383	1378	1378	1386	1406	1413	1418	1417	1405	1393	1387	1383	1385	1394	1403	1411	1410	1416	1399	1395	1401	1408	1413	1405	1404	1407	1383	1392	1402	1420	1424	1417	1430	1412	1420	1418	1387	1408	1404	1419	1422	1419	1427	1408	1405	1416	1413	1414	1428	1429	1417	1412	1423	1421	1422	1428	1432	1433	1421	1413	1416	1416	1452	1476	1475	1462	1519	1723	2076	2298	2466	2587	2587	2566	2595	2562	2475	2466	2486	2501	2548	2561	2555	2479	2474	2432	2423	2414	2405	2430	2414	2363	2357	2390	2400	2400	2410	2411	2404	2398	2382	2341	2326	2333	2324	2314	2306	2302	2304	2325	2334	2330	2306	2302	2322	2341	2353	2345	2311	2222	2107	1948	1947	1982	2018	2030	2008	1967	1930	1903	1900	1847	1807	1869	1931	1934	1934	1965	1963	1944	1927	1910	1919	1879	1738	1648	1627	1630	1640	1653	1634	1611	1595	1584	1576	1520	1508	1509	1497	1484	1478	1494	1496	1492	1479	1458	1477	1479	1491	1501	1510	1510	1509	1505	1503	1513	1515	1518	1514	1516	1519	1524	1532	1530	1532	1534	1525	1523	1516	1508	1510	1523	1536	1543	1534	1522	1512	1501	1487	1489	1498	1511	1546	1585	1743	1995	2207	2325	2375	2377	2397	2385	2352	2327	2332	2362	2361	2353	2361	2382	2409	2504	2531	2482	2511	2584	2595	2579	2527	2515	2520	2527	2525	2548	2549	2531	2528	2520	2524	2353	2357	2397	2482	2463	2426	2415	2409	2420	2450	2454	2466	2462	2451	2438	2394	2349	2284	2281	2284	2281	2278	2282	2290	2279	2236	2239	2226	2189	2162	2148	2154	2168	2167	2150	2136	2132	2140	2132	2145	2161	2184	2191	2196	2218	2215	2222	2227	2224	2192	2194	2198	2197	2191	2179	2174	2169	2172	2177	2190	2198	2195	2182	2164	2160	2179	2181	2152	2160	2170	2192	2189	2166	2127	2123	2124	2082	1988	1978	1964	2058	2128	2142	2175	2176	2165	2166	2169	2188	2192	2195	2186	2174	2169	2181	2203	2216	2211	2190	2184	2194	2211	2217	2174	2157	2145	2144	2114	2078	2020	1915	1626	1600	1580	1605	1615	1610	1603	1601	1597	1594	1592	1584	1568	1563	1563	1566	1553	1560	1560	1559	1550	1556	1550	1546	1538	1551	1566	1562	1562	1557	1560	1561	1560	1560	1563	1559	1558	1561	1550	1560	1571	1587	1590	1579	1571	1568	1570	1569	1563	1558	1554	1551	1557	1580	1630	1744	1969	2021	2088	2088	2104	2104	2094	2084	2062	2056	2067	2079	2072	2073	2081	2092	2106	2112	2116	2116	2104	2078	2078	2083	2102	2110	2111	0	0	0	0	0	0	0	0
0	0	0	0	0	0	0	1612	1433	1269	1259	1259	1303	1310	1289	1289	1261	1261	1263	1269	1277	1281	1282	1282	1295	1300	1306	1311	1324	1326	1326	1321	1315	1306	1315	1323	1331	1326	1313	1313	1303	1298	1294	1302	1312	1319	1313	1308	1308	1303	1306	1309	1313	1321	1321	1319	1308	1313	1315	1324	1326	1340	1349	1330	1320	1334	1336	1327	1314	1332	1355	1385	1376	1360	1367	1363	1355	1350	1350	1347	1347	1354	1365	1374	1390	1392	1413	1432	1442	1446	1449	1454	1462	1467	1478	1512	1557	1605	1652	1688	1714	1726	1722	1709	1700	1698	1696	1695	1695	1686	1689	1689	1694	1706	1752	1766	1786	1768	1777	1713	1668	1658	1726	1727	1731	1757	1784	1811	1814	1802	1803	1806	1812	1835	1852	1887	1920	1947	1995	2075	2125	2164	2200	2233	2240	2233	2229	2221	2216	2198	2165	2157	2135	2125	2133	2168	2212	2265	2326	2387	2425	2442	2456	2466	2468	2517	2562	2598	2515	2536	2536	2499	2452	2407	2186	0	0	1470	1400	1388	1377	1369	1396	1395	1374	1371	1375	1385	1390	1385	1376	1373	1381	1388	1393	1393	1394	1390	1387	1373	1366	1368	1381	1404	1412	1416	1417	1411	1400	1391	1386	1384	1385	1389	1392	1405	1402	1395	1394	1399	1408	1405	1402	1408	1406	1398	1390	1413	1430	1426	1415	1398	1419	1414	1431	1408	1408	1405	1416	1413	1412	1414	1403	1408	1411	1412	1410	1426	1425	1421	1417	1415	1418	1412	1431	1440	1433	1422	1423	1449	1465	1449	1457	1462	1447	1504	1727	2011	2142	2321	2332	2331	2368	2364	2354	2353	2370	2398	2372	2372	2366	2343	2352	2288	2294	2306	2302	2297	2290	2273	2265	2260	2284	2290	2288	2282	2313	2323	2275	2218	2203	2239	2251	2226	2207	2213	2224	2236	2256	2262	2257	2238	2243	2266	2286	2304	2309	2288	2217	2131	2028	1983	1976	2010	2024	2013	1978	1929	1899	1869	1813	1787	1834	1907	1945	1948	1955	1947	1931	1918	1907	1920	1867	1708	1632	1609	1604	1622	1631	1624	1601	1579	1577	1569	1515	1492	1512	1511	1487	1471	1485	1479	1489	1470	1450	1470	1475	1484	1501	1513	1520	1517	1515	1509	1509	1513	1513	1515	1518	1522	1525	1529	1542	1539	1541	1534	1525	1515	1506	1501	1512	1525	1537	1534	1534	1529	1522	1505	1501	1504	1517	1538	1572	1730	1916	2133	2204	2260	2313	2323	2317	2321	2323	2310	2315	2306	2306	2317	2328	2337	2374	2390	2398	2406	2435	2448	2454	2445	2439	2437	2444	2463	2453	2442	2438	2436	2329	2303	2290	2286	2287	2311	2315	2325	2318	2311	2300	2310	2331	2414	2422	2411	2384	2290	2261	2261	2258	2266	2270	2277	2281	2279	2272	2239	2230	2210	2178	2151	2127	2119	2121	2128	2131	2129	2135	2148	2108	2112	2137	2172	2177	2179	2183	2193	2203	2216	2206	2193	2182	2183	2198	2184	2172	2113	2157	2156	2177	2167	2110	2070	2083	2099	2130	2161	2174	2146	2146	2153	2172	2176	2153	2111	2098	2106	2107	2064	1977	1923	1929	2073	2121	2170	2167	2154	2162	2168	2196	2202	2198	2188	2179	2169	2177	2200	2217	2195	2181	2180	2193	2212	2219	2172	2153	2145	2134	2123	2082	2036	1920	1854	1630	1602	1607	1608	1607	1606	1609	1606	1601	1595	1585	1570	1562	1557	1563	1531	1539	1564	1575	1576	1559	1555	1552	1542	1556	1564	1565	1558	1557	1551	1556	1558	1558	1558	1555	1561	1561	1556	1561	1573	1581	1585	1578	1568	1563	1566	1567	1563	1562	1554	1548	1549	1578	1617	1709	1851	1976	1976	2031	2050	2058	2060	2059	2045	2031	2028	2029	2024	2024	2024	2006	1998	1984	1981	1980	1989	2019	2019	2030	2018	1977	1937	0	0	0	0	0	0	0	0
0	0	0	0	0	1814	1814	1671	1447	1289	1251	1251	1284	1293	1283	1268	1260	1260	1262	1262	1261	1259	1277	1300	1300	1302	1297	1300	1309	1319	1321	1321	1324	1323	1326	1326	1331	1325	1310	1310	1294	1290	1290	1297	1310	1314	1303	1293	1293	1287	1288	1296	1302	1308	1312	1313	1309	1312	1317	1327	1327	1350	1356	1345	1337	1337	1339	1337	1320	1342	1381	1387	1360	1351	1364	1358	1352	1351	1351	1353	1344	1354	1368	1385	1393	1399	1416	1434	1435	1434	1435	1442	1447	1436	1468	1511	1556	1607	1652	1688	1717	1736	1726	1710	1698	1692	1701	1709	1708	1701	1697	1690	1689	1717	1763	1774	1783	1741	1744	1745	1666	1668	1721	1712	1710	1718	1772	1800	1797	1798	1809	1818	1830	1835	1842	1882	1908	1918	1996	2088	2134	2161	2207	2232	2232	2233	2218	2211	2206	2195	2183	2163	2129	2097	2108	2152	2206	2263	2306	2324	2348	2366	2382	2388	2384	2372	2382	2399	2418	2382	2337	2315	2317	2319	2130	1881	1744	1428	1377	1390	1377	1352	1356	1387	1372	1379	1391	1390	1389	1385	1380	1379	1384	1388	1385	1384	1387	1383	1381	1377	1374	1372	1384	1389	1395	1396	1404	1402	1401	1395	1387	1384	1376	1373	1390	1408	1407	1390	1388	1390	1401	1400	1400	1402	1401	1397	1389	1410	1436	1419	1400	1410	1409	1418	1431	1432	1412	1409	1413	1412	1405	1404	1401	1416	1414	1413	1416	1414	1421	1418	1420	1416	1422	1404	1412	1434	1424	1424	1429	1479	1461	1438	1438	1423	1420	1493	1743	1980	2075	2154	2203	2212	2208	2202	2211	2235	2235	2235	2233	2232	2231	2210	2196	2186	2198	2229	2220	2198	2173	2171	2168	2182	2183	2172	2160	2165	2140	2183	2171	2139	2134	2160	2166	2162	2165	2168	2176	2169	2170	2181	2187	2182	2169	2159	2156	2172	2199	2192	2160	2125	2069	2011	1975	1972	2000	1991	1966	1920	1904	1853	1799	1779	1818	1890	1913	1921	1938	1922	1915	1913	1916	1928	1878	1700	1630	1603	1591	1585	1595	1592	1572	1555	1541	1535	1508	1494	1518	1525	1504	1486	1483	1488	1484	1473	1460	1472	1479	1485	1499	1514	1516	1514	1509	1506	1507	1514	1518	1520	1517	1520	1525	1528	1546	1546	1537	1531	1521	1511	1500	1500	1505	1519	1532	1540	1543	1545	1539	1525	1513	1508	1513	1525	1553	1699	1943	2096	2198	2245	2273	2299	2301	2293	2292	2300	2290	2287	2294	2308	2326	2334	2312	2315	2335	2341	2319	2313	2300	2295	2315	2353	2397	2415	2377	2347	2246	2259	2277	2259	2238	2235	2245	2267	2284	2282	2279	2276	2268	2270	2281	2333	2333	2319	2271	2245	2231	2229	2240	2253	2258	2267	2271	2268	2263	2228	2201	2175	2149	2138	2122	2116	2107	2109	2114	2132	2153	2126	2101	2101	2112	2143	2142	2133	2131	2145	2169	2179	2180	2168	2137	2112	2067	2051	2033	1995	2004	2032	2033	2027	2020	2011	1975	1961	1982	2001	2006	2009	2038	2035	2015	2006	2017	2023	2042	2076	2079	2040	1962	1905	1874	1912	2005	2015	1999	1997	2039	2079	2111	2126	2147	2155	2119	2125	2141	2149	2150	2139	2088	2091	2111	2132	2142	2175	2145	2128	2118	2111	2094	2044	1933	1886	1691	1642	1609	1603	1602	1604	1604	1612	1601	1599	1587	1567	1558	1556	1555	1525	1526	1552	1577	1580	1566	1564	1563	1556	1570	1574	1572	1564	1552	1547	1552	1560	1563	1567	1559	1552	1551	1549	1558	1579	1578	1576	1571	1567	1566	1567	1569	1568	1560	1550	1545	1549	1562	1607	1665	1810	1952	1952	1986	2008	2024	2043	2042	2029	2004	1989	1976	1953	1932	1915	1917	1926	1949	1963	1971	1986	1986	1981	1970	1948	1936	1909	0	0	0	0	0	0	0	0
2363	2363	0	2149	1995	1836	1836	1691	1492	1301	1251	1251	1277	1291	1283	1264	1270	1270	1258	1260	1254	1255	1280	1309	1309	1309	1304	1296	1293	1308	1319	1319	1324	1326	1332	1340	1337	1329	1310	1310	1296	1289	1295	1303	1310	1313	1300	1286	1286	1280	1284	1291	1297	1298	1299	1304	1302	1294	1304	1326	1326	1355	1360	1349	1341	1337	1342	1348	1334	1356	1376	1355	1350	1350	1355	1332	1339	1345	1345	1355	1358	1366	1376	1389	1395	1401	1418	1435	1443	1433	1417	1385	1375	1407	1458	1520	1583	1625	1666	1702	1740	1746	1737	1716	1695	1687	1700	1716	1720	1716	1712	1703	1698	1708	1758	1773	1772	1750	1750	1741	1677	1689	1705	1691	1681	1680	1732	1777	1787	1800	1816	1837	1838	1834	1833	1858	1873	1901	1976	2103	2146	2175	2201	2216	2231	2214	2213	2213	2212	2218	2208	2207	2166	2132	2146	2187	2232	2254	2260	2270	2289	2322	2347	2347	2334	2305	2264	2281	2302	2278	2247	2251	2238	2240	2130	1941	1834	1433	1349	1364	1383	1361	1350	1378	1371	1380	1389	1390	1385	1375	1377	1377	1381	1380	1374	1365	1362	1363	1369	1377	1383	1386	1386	1387	1384	1384	1390	1399	1391	1398	1399	1389	1377	1367	1397	1411	1413	1389	1381	1376	1391	1399	1398	1400	1400	1396	1390	1393	1434	1419	1397	1409	1406	1411	1428	1419	1425	1409	1412	1416	1407	1406	1408	1419	1420	1409	1404	1412	1410	1416	1423	1420	1425	1411	1403	1429	1427	1433	1438	1468	1446	1429	1430	1418	1423	1502	1722	1904	2043	2100	2120	2134	2130	2138	2144	2161	2143	2148	2140	2128	2115	2131	2150	2165	2174	2179	2163	2142	2133	2137	2151	2145	2137	2118	2101	2101	2095	2095	2099	2099	2091	2084	2084	2086	2096	2100	2109	2107	2105	2117	2132	2136	2134	2110	2104	2124	2137	2137	2131	2089	2066	2019	1988	1977	1974	1963	1945	1914	1868	1853	1811	1797	1813	1876	1907	1915	1927	1903	1903	1905	1918	1937	1896	1726	1663	1619	1583	1561	1567	1557	1547	1530	1519	1507	1503	1497	1512	1517	1520	1514	1492	1484	1481	1478	1473	1475	1483	1492	1497	1510	1509	1507	1504	1503	1504	1510	1516	1517	1521	1518	1520	1527	1533	1535	1526	1523	1519	1509	1506	1508	1509	1521	1538	1547	1550	1548	1542	1531	1519	1518	1522	1552	1566	1689	1841	2052	2154	2214	2257	2280	2278	2257	2239	2228	2228	2258	2275	2288	2294	2295	2286	2239	2224	2218	2243	2261	2260	2247	2247	2277	2279	2271	2229	2235	2245	2240	2238	2233	2217	2205	2213	2232	2251	2255	2230	2223	2218	2223	2199	2208	2222	2219	2184	2166	2168	2186	2217	2232	2248	2249	2250	2232	2219	2203	2173	2145	2125	2122	2128	2121	2117	2098	2112	2136	2151	2132	2078	2076	2081	2095	2104	2118	2127	2118	2099	2080	2074	2043	2052	2051	2045	2015	1980	1964	1988	2001	1999	1987	1978	1971	1947	1939	1954	1976	1980	1981	2017	2014	1988	1979	1993	1999	2021	2051	2047	2017	1976	1882	1865	1894	1970	1964	1961	1952	1984	1995	1983	1957	1927	1946	1974	2007	2025	2025	1994	1916	1954	2011	2055	2071	2089	2069	2091	2085	2083	2055	2075	1999	1941	1857	1677	1613	1612	1615	1605	1602	1598	1594	1594	1597	1598	1583	1563	1554	1547	1524	1518	1547	1568	1557	1558	1560	1567	1570	1577	1581	1570	1557	1546	1542	1547	1560	1571	1575	1564	1554	1558	1561	1559	1560	1569	1581	1588	1589	1580	1573	1572	1570	1563	1559	1551	1560	1558	1582	1624	1736	1866	1866	1907	1911	1933	1967	2003	2002	1992	1977	1950	1925	1889	1873	1872	1890	1901	1903	1916	1923	1923	1909	1886	1889	1889	1890	0	0	0	0	0	0	0	0
2219	2219	2183	2097	1976	1836	1836	1656	1504	1329	1259	1277	1277	1284	1282	1276	1260	1260	1249	1247	1256	1269	1292	1314	1314	1318	1307	1300	1293	1298	1309	1309	1322	1332	1347	1343	1337	1334	1311	1311	1289	1292	1304	1312	1320	1314	1299	1284	1288	1288	1290	1291	1293	1290	1293	1294	1294	1292	1300	1320	1320	1351	1353	1355	1335	1335	1344	1350	1357	1361	1359	1346	1351	1353	1337	1330	1335	1340	1352	1352	1361	1369	1376	1385	1387	1396	1410	1429	1429	1418	1386	1366	1368	1394	1441	1529	1624	1669	1697	1726	1750	1747	1736	1710	1688	1683	1700	1707	1716	1719	1717	1712	1709	1714	1745	1755	1759	1751	1756	1716	1705	1715	1693	1666	1651	1661	1699	1761	1784	1805	1826	1846	1848	1820	1817	1842	1866	1894	1986	2121	2156	2174	2175	2183	2192	2199	2209	2211	2225	2234	2221	2214	2201	2179	2154	2149	2178	2202	2207	2208	2216	2244	2234	2218	2196	2163	2171	2192	2229	2213	2204	2182	2162	2157	2097	1920	1816	1470	1358	1364	1391	1370	1355	1372	1372	1374	1383	1385	1379	1375	1371	1371	1379	1378	1365	1357	1355	1361	1368	1374	1381	1385	1389	1393	1386	1382	1385	1387	1387	1396	1400	1394	1382	1372	1398	1415	1410	1385	1374	1376	1386	1399	1403	1404	1401	1397	1391	1391	1384	1406	1380	1402	1387	1400	1407	1411	1426	1409	1406	1394	1420	1425	1419	1422	1427	1407	1402	1402	1408	1406	1427	1428	1411	1407	1399	1429	1428	1429	1420	1426	1429	1427	1426	1416	1429	1522	1710	1894	2041	2079	2088	2083	2093	2100	2103	2101	2101	2124	2117	2097	2085	2103	2123	2148	2157	2147	2125	2107	2090	2091	2107	2119	2113	2093	2075	2066	2058	2058	2059	2066	2035	2028	2025	2022	2027	2032	2044	2055	2063	2081	2092	2084	2082	2085	2087	2089	2091	2098	2091	2068	2053	2022	2023	2027	1999	1970	1929	1892	1861	1856	1836	1816	1818	1881	1912	1929	1941	1927	1905	1909	1923	1944	1931	1748	1666	1633	1593	1566	1554	1552	1534	1510	1497	1493	1509	1497	1491	1496	1513	1522	1519	1479	1474	1477	1483	1483	1493	1498	1505	1510	1507	1503	1499	1497	1504	1512	1516	1519	1518	1517	1510	1511	1515	1507	1510	1519	1516	1510	1511	1514	1515	1518	1533	1546	1553	1545	1536	1534	1534	1536	1538	1555	1553	1649	1816	1973	2077	2142	2193	2212	2218	2208	2202	2192	2190	2218	2227	2197	2214	2234	2236	2207	2188	2180	2185	2206	2219	2214	2214	2214	2174	2169	2191	2212	2221	2201	2181	2177	2182	2188	2193	2201	2221	2235	2168	2127	2115	2121	2143	2165	2171	2171	2154	2136	2144	2151	2192	2195	2207	2207	2193	2166	2132	2137	2124	2112	2114	2120	2122	2128	2113	2096	2108	2121	2138	2107	2053	2059	2097	2102	2103	2100	2090	2072	2054	2018	2017	2030	2029	2022	2006	1974	1950	1960	1977	1981	1976	1956	1941	1938	1936	1929	1909	1878	1873	1875	1893	1900	1906	1898	1901	1921	1953	1954	1923	1886	1849	1809	1836	1904	1937	1942	1918	1917	1926	1937	1917	1881	1860	1863	1883	1901	1911	1891	1818	1820	1859	1919	1920	1948	2029	1984	1980	1993	2017	1999	2068	1934	1901	1709	1632	1645	1637	1624	1615	1611	1603	1596	1594	1595	1593	1586	1589	1583	1578	1523	1519	1544	1541	1528	1539	1551	1562	1572	1578	1573	1565	1550	1542	1537	1552	1563	1568	1571	1566	1566	1587	1588	1586	1574	1574	1575	1579	1578	1573	1578	1576	1577	1575	1571	1568	1571	1571	1572	1608	1719	1719	1863	1890	1886	1887	1868	1876	1900	1913	1901	1880	1843	1805	1792	1785	1797	1806	1808	1851	1860	1860	1848	1836	1822	1841	1843	0	0	0	0	0	0	0	0
2146	2146	2113	2053	1959	1816	1816	1670	1536	1351	1293	1275	1275	1273	1278	1280	1265	1247	1247	1250	1254	1268	1288	1309	1309	1318	1315	1304	1289	1286	1293	1293	1307	1324	1333	1328	1326	1316	1296	1296	1286	1291	1308	1321	1327	1321	1310	1304	1304	1304	1303	1299	1295	1294	1297	1306	1294	1285	1279	1299	1312	1312	1339	1342	1325	1328	1339	1348	1366	1357	1338	1335	1353	1351	1326	1329	1338	1342	1343	1343	1354	1362	1367	1377	1379	1391	1400	1416	1417	1398	1378	1389	1389	1405	1450	1524	1621	1693	1718	1738	1738	1735	1723	1705	1692	1682	1687	1698	1710	1717	1724	1724	1722	1728	1746	1748	1753	1751	1754	1721	1721	1729	1679	1657	1651	1669	1715	1759	1790	1824	1842	1850	1831	1816	1814	1839	1869	1917	2008	2129	2147	2142	2137	2129	2140	2169	2185	2195	2216	2195	2177	2182	2185	2160	2133	2131	2156	2176	2169	2158	2159	2145	2142	2129	2117	2111	2100	2109	2127	2134	2113	2064	2041	2049	2045	1866	1788	1522	1387	1374	1390	1377	1368	1367	1369	1369	1384	1381	1376	1371	1363	1356	1361	1371	1371	1358	1359	1367	1369	1373	1382	1386	1389	1393	1399	1398	1394	1385	1388	1395	1397	1398	1381	1372	1384	1401	1397	1379	1369	1370	1375	1390	1397	1405	1402	1399	1392	1392	1392	1378	1364	1393	1391	1397	1402	1407	1401	1413	1396	1399	1397	1429	1437	1419	1410	1407	1404	1410	1412	1421	1426	1419	1397	1399	1405	1428	1428	1420	1411	1400	1431	1430	1419	1413	1431	1530	1675	1917	1996	2068	2078	2066	2049	2042	2044	2048	2061	2074	2065	2062	2066	2080	2098	2115	2123	2120	2108	2079	2063	2060	2080	2081	2075	2057	2047	2032	2042	2040	2025	2017	1999	1995	1988	1975	1982	1989	1998	1998	1976	1980	2013	2046	2054	2043	2043	2038	2031	2021	2015	2009	2008	2008	2008	2009	1993	1975	1946	1910	1878	1864	1836	1826	1863	1909	1929	1939	1958	1967	1944	1928	1924	1949	1913	1736	1653	1620	1592	1569	1556	1542	1516	1503	1487	1481	1500	1499	1479	1475	1493	1512	1513	1477	1475	1471	1493	1494	1495	1503	1511	1511	1515	1511	1510	1507	1508	1512	1516	1521	1520	1508	1501	1498	1501	1503	1509	1512	1512	1511	1513	1516	1517	1514	1520	1534	1544	1545	1539	1541	1544	1539	1539	1540	1547	1668	1791	1932	2024	2085	2118	2131	2132	2133	2134	2135	2170	2163	2163	2165	2187	2203	2194	2171	2155	2151	2163	2169	2138	2131	2087	2136	2150	2126	2128	2125	2130	2131	2109	2117	2117	2126	2122	2122	2159	2103	2068	2051	2049	2060	2073	2104	2124	2126	2119	2105	2105	2106	2128	2141	2142	2145	2112	2076	2070	2064	2062	2059	2063	2071	2070	2078	2054	2057	2061	2091	2096	2037	2031	2037	2078	2104	2096	2080	1998	2019	2007	2009	2016	2028	2029	2003	1974	1939	1925	1956	1960	1946	1924	1910	1915	1921	1935	1924	1900	1870	1879	1880	1883	1883	1890	1892	1906	1911	1914	1907	1884	1846	1799	1793	1804	1807	1790	1780	1783	1801	1774	1747	1717	1697	1735	1778	1804	1809	1797	1740	1735	1751	1787	1781	1765	1778	1808	1894	1906	1901	1902	1917	1901	1870	1858	1689	1658	1649	1636	1631	1622	1611	1605	1598	1598	1596	1592	1585	1597	1591	1580	1528	1521	1556	1529	1529	1537	1551	1560	1565	1565	1565	1557	1550	1539	1545	1549	1553	1560	1561	1562	1571	1589	1595	1594	1581	1573	1569	1571	1571	1569	1572	1580	1581	1576	1572	1572	1579	1581	1574	1608	1712	1712	1678	1848	1853	1818	1818	1824	1862	1879	1851	1803	1783	1763	1754	1762	1774	1770	1751	1729	1721	1721	1714	1719	1725	1731	1745	0	0	0	0	0	0	0	0
2103	2103	2066	2012	1919	1799	1799	1680	1553	1369	1305	1271	1271	1262	1274	1272	1266	1261	1261	1254	1254	1267	1278	1302	1302	1310	1308	1308	1288	1281	1282	1282	1291	1301	1302	1306	1308	1298	1282	1280	1280	1297	1313	1329	1331	1325	1319	1319	1323	1323	1321	1312	1307	1308	1315	1304	1289	1273	1271	1287	1296	1296	1314	1328	1314	1324	1338	1349	1380	1362	1326	1329	1344	1351	1340	1344	1339	1338	1338	1338	1343	1354	1353	1368	1377	1388	1400	1412	1408	1392	1395	1407	1415	1429	1465	1513	1589	1680	1717	1722	1723	1718	1721	1712	1695	1679	1676	1682	1693	1708	1717	1728	1732	1741	1761	1759	1757	1754	1747	1722	1718	1721	1681	1667	1669	1719	1736	1770	1799	1821	1838	1840	1828	1822	1835	1861	1888	1939	2063	2114	2111	2098	2075	2080	2108	2123	2135	2149	2131	2092	2101	2148	2160	2149	2126	2118	2114	2113	2109	2122	2115	2109	2093	2086	2073	2054	2036	2023	2053	2088	2075	2059	2046	2030	1990	1819	1758	1562	1428	1395	1394	1390	1382	1373	1370	1364	1390	1392	1386	1372	1363	1352	1354	1364	1388	1394	1392	1386	1374	1378	1379	1390	1391	1395	1406	1403	1400	1400	1393	1397	1395	1393	1384	1370	1375	1379	1378	1362	1369	1366	1364	1369	1381	1399	1403	1400	1391	1394	1393	1382	1370	1392	1394	1402	1405	1399	1387	1437	1411	1400	1412	1420	1425	1413	1393	1411	1413	1414	1420	1399	1399	1394	1390	1374	1421	1403	1422	1408	1432	1427	1440	1436	1425	1409	1423	1523	1670	1749	1984	2027	2033	2032	2000	1965	1947	1958	1975	1974	1983	1995	2003	2003	2003	2015	2034	2063	2056	2051	2035	2033	2023	1983	1920	1900	1922	1945	1963	1973	1988	1986	1956	1956	1955	1955	1968	1968	1943	1926	1914	1926	1960	2006	2028	2025	1999	1995	1992	1993	1985	1976	1983	1981	1974	1969	1974	1973	1967	1942	1908	1869	1844	1896	1916	1932	1935	1956	1974	1981	1966	1950	1933	1928	1890	1728	1650	1620	1598	1578	1564	1541	1516	1495	1482	1474	1490	1508	1486	1471	1478	1491	1502	1490	1490	1473	1498	1498	1498	1499	1504	1506	1506	1514	1511	1508	1514	1517	1521	1522	1518	1508	1498	1508	1518	1512	1510	1512	1516	1517	1518	1518	1513	1507	1510	1520	1532	1537	1544	1549	1542	1550	1549	1537	1550	1671	1783	1890	1985	2049	2079	2089	2097	2101	2104	2090	2108	2120	2121	2128	2143	2159	2153	2135	2125	2121	2095	2083	1986	2014	2018	2032	2049	2018	2025	2048	2057	2045	2046	2058	2068	2056	2057	2056	2060	2022	2025	2015	2014	2010	2026	2016	2000	2013	2042	2053	2068	2072	2065	2047	2041	2038	2034	2020	2044	2047	2052	2039	2022	2031	2038	2032	2021	2005	1998	2004	2002	2003	2003	2013	2017	2046	1979	1968	1963	1952	1953	1968	1992	2017	2028	2001	1959	1917	1915	1949	1942	1935	1914	1900	1898	1904	1900	1880	1878	1874	1881	1881	1885	1886	1883	1885	1901	1909	1908	1895	1864	1823	1793	1792	1796	1787	1767	1762	1793	1797	1775	1730	1711	1707	1735	1727	1681	1718	1682	1645	1624	1647	1704	1726	1734	1743	1778	1805	1839	1844	1815	1811	1796	1809	1767	1671	1656	1635	1613	1614	1623	1630	1625	1623	1632	1634	1617	1600	1597	1592	1577	1527	1544	1559	1532	1529	1537	1549	1556	1556	1560	1561	1554	1549	1545	1543	1539	1541	1544	1548	1552	1567	1585	1595	1598	1590	1578	1568	1566	1566	1568	1574	1578	1573	1563	1567	1576	1574	1579	1580	1576	1576	1591	1681	1635	1638	1645	1654	1656	1649	1647	1636	1613	1610	1613	1627	1629	1646	1651	1654	1649	1649	1640	1630	1623	1630	1659	1669	0	0	0	0	0	0	0	0
2066	2066	2032	1952	1877	1758	1614	1614	1481	1373	1306	1270	1270	1255	1261	1268	1266	1262	1262	1263	1262	1270	1279	1289	1301	1301	1309	1306	1300	1285	1286	1288	1288	1286	1288	1299	1302	1296	1287	1287	1287	1302	1320	1331	1335	1335	1338	1335	1333	1333	1330	1322	1318	1316	1310	1298	1288	1279	1283	1295	1304	1304	1310	1300	1313	1329	1339	1355	1397	1369	1326	1331	1338	1342	1347	1341	1339	1336	1340	1345	1345	1353	1359	1363	1371	1388	1396	1409	1407	1395	1406	1425	1452	1472	1485	1512	1579	1644	1683	1708	1712	1723	1726	1715	1704	1684	1670	1676	1688	1698	1717	1729	1739	1753	1762	1758	1740	1725	1729	1722	1720	1701	1672	1665	1677	1724	1741	1752	1794	1814	1841	1851	1851	1857	1873	1892	1925	1983	2046	2048	2043	2033	2021	2019	2032	2046	2051	2066	2053	2038	2049	2104	2116	2124	2104	2091	2057	2053	2064	2076	2027	2001	2022	2009	2005	1983	1977	1986	2015	2044	2040	2037	2026	2024	1993	1798	1735	1543	1445	1414	1398	1394	1394	1376	1366	1366	1388	1405	1393	1380	1368	1359	1365	1378	1399	1408	1407	1403	1397	1394	1390	1391	1393	1395	1399	1392	1401	1409	1410	1399	1394	1387	1377	1373	1382	1382	1379	1369	1373	1372	1362	1368	1371	1378	1395	1398	1395	1394	1395	1405	1378	1405	1407	1403	1419	1402	1385	1443	1414	1416	1410	1419	1422	1413	1390	1415	1416	1410	1417	1417	1420	1414	1406	1402	1411	1417	1403	1424	1440	1456	1448	1442	1439	1415	1409	1522	1687	1759	1822	1896	1952	1940	1926	1915	1902	1914	1927	1947	1969	1970	1968	1965	1958	1961	1976	1984	1941	1929	1927	1931	1922	1895	1865	1876	1909	1932	1948	1953	1972	1978	1921	1912	1937	1951	1958	1921	1894	1880	1887	1910	1924	1926	1934	1940	1939	1943	1932	1935	1934	1962	1975	1979	1974	1958	1941	1945	1944	1941	1929	1916	1917	1929	1945	1930	1940	1955	1979	1996	1983	1965	1937	1911	1871	1732	1656	1624	1609	1591	1569	1549	1527	1507	1491	1488	1497	1512	1497	1469	1458	1471	1491	1508	1505	1481	1500	1494	1497	1499	1503	1502	1507	1507	1503	1505	1518	1528	1532	1533	1529	1516	1508	1525	1527	1521	1514	1516	1519	1521	1510	1515	1506	1496	1502	1511	1523	1531	1546	1550	1544	1537	1545	1547	1557	1691	1775	1870	1978	2033	2041	2053	2070	2083	2079	2074	2071	2070	2051	2043	2053	2076	2060	2050	2049	2022	1969	1960	1951	1950	1950	1950	1954	1964	1979	2008	2019	2005	2015	2018	2014	2009	1994	1989	1986	1970	1989	1986	1999	2005	1992	1972	1952	1946	1963	1998	2011	2028	2029	2025	2003	1986	1964	1993	1997	1999	1992	1989	1991	2004	2016	2008	1984	1970	1967	1968	1956	1957	1968	1984	1892	1907	1958	1951	1943	1930	1936	1957	1973	1992	1982	1959	1920	1911	1906	1945	1940	1925	1909	1899	1904	1901	1895	1873	1855	1835	1840	1860	1861	1868	1885	1865	1841	1838	1873	1881	1844	1808	1783	1784	1794	1780	1768	1760	1766	1797	1774	1737	1725	1725	1717	1675	1690	1621	1605	1574	1577	1587	1627	1656	1694	1718	1738	1739	1726	1722	1742	1754	1751	1743	1664	1663	1651	1620	1617	1602	1607	1606	1605	1602	1591	1579	1560	1559	1569	1575	1570	1547	1548	1561	1538	1535	1542	1550	1554	1553	1553	1558	1555	1551	1540	1535	1531	1528	1532	1534	1546	1565	1583	1595	1598	1584	1574	1570	1564	1563	1567	1576	1578	1570	1566	1566	1575	1570	1575	1575	1567	1567	1555	1576	1569	1566	1567	1570	1568	1560	1555	1555	1564	1571	1571	1584	1588	1596	1593	1596	1595	1595	1595	1594	1598	1598	1601	1608	0	0	0	0	0	0	0	0
2012	1993	1993	1925	1826	1699	1585	1585	1504	1379	1314	1258	1258	1238	1254	1261	1255	1258	1258	1260	1266	1274	1285	1292	1295	1295	1297	1301	1301	1304	1300	1295	1295	1291	1294	1300	1309	1305	1305	1304	1304	1315	1324	1333	1336	1340	1344	1345	1338	1338	1332	1324	1318	1312	1307	1305	1299	1306	1305	1312	1321	1321	1317	1309	1324	1331	1339	1352	1393	1363	1323	1335	1334	1318	1320	1329	1330	1325	1338	1356	1356	1358	1361	1361	1372	1384	1402	1402	1402	1394	1397	1424	1455	1471	1487	1512	1596	1630	1663	1693	1709	1721	1727	1717	1703	1697	1684	1686	1696	1705	1715	1730	1741	1748	1747	1743	1727	1708	1717	1729	1717	1687	1678	1672	1666	1710	1738	1757	1795	1818	1859	1893	1914	1936	1938	1930	1921	1920	1911	1914	1943	1973	1986	1981	1963	1957	1965	2002	2002	2015	2019	2030	2003	2006	2025	2018	2006	2007	2005	1965	1942	1934	1929	1930	1956	1968	1951	1945	1960	2008	2007	1998	1985	1989	1981	1778	1710	1530	1434	1411	1389	1392	1385	1378	1373	1368	1387	1403	1402	1387	1379	1375	1378	1385	1410	1419	1415	1413	1399	1403	1391	1376	1370	1384	1386	1391	1394	1397	1400	1394	1390	1389	1387	1384	1389	1387	1385	1389	1381	1382	1395	1378	1382	1382	1379	1396	1394	1394	1410	1416	1387	1407	1411	1421	1418	1412	1395	1406	1434	1414	1410	1410	1414	1414	1402	1404	1427	1428	1428	1428	1426	1406	1398	1400	1410	1412	1412	1413	1413	1432	1441	1440	1462	1438	1428	1538	1696	1754	1819	1865	1893	1888	1879	1874	1864	1874	1884	1912	1929	1924	1911	1901	1893	1907	1935	1922	1912	1908	1904	1899	1888	1853	1843	1856	1894	1920	1931	1932	1928	1919	1890	1885	1906	1929	1927	1894	1858	1841	1858	1874	1876	1876	1892	1881	1884	1878	1862	1865	1879	1899	1915	1953	1957	1943	1935	1927	1921	1912	1911	1904	1901	1902	1919	1923	1931	1948	1972	1990	1991	1969	1947	1914	1872	1780	1657	1632	1618	1597	1581	1563	1545	1528	1515	1515	1508	1506	1495	1467	1448	1454	1482	1500	1498	1484	1490	1491	1491	1497	1506	1517	1513	1502	1491	1494	1514	1530	1537	1541	1539	1525	1526	1530	1530	1519	1516	1521	1524	1520	1508	1510	1502	1501	1499	1508	1521	1530	1541	1546	1537	1541	1544	1561	1559	1693	1758	1856	1984	2004	2003	2005	2003	2008	2033	2025	2018	1993	1981	1991	1997	2027	2014	1949	1956	1949	1949	1948	1956	1941	1926	1924	1937	1943	1957	1974	1988	1958	1955	1972	1974	1965	1955	1945	1933	1908	1919	1919	1931	1935	1952	1959	1950	1944	1937	1944	1942	1946	1964	1988	1967	1948	1959	1959	1963	1949	1939	1942	1959	1973	1980	1958	1950	1943	1931	1942	1939	1903	1902	1886	1872	1872	1886	1881	1867	1874	1905	1920	1933	1943	1929	1894	1879	1882	1921	1913	1904	1899	1900	1906	1908	1908	1896	1873	1843	1817	1817	1826	1845	1881	1882	1861	1832	1831	1842	1847	1834	1808	1794	1783	1779	1765	1758	1750	1756	1783	1762	1728	1721	1735	1726	1708	1659	1608	1576	1557	1555	1567	1576	1601	1610	1690	1727	1715	1685	1652	1631	1613	1603	1601	1639	1613	1638	1624	1621	1603	1600	1596	1598	1600	1585	1567	1542	1543	1556	1564	1566	1545	1541	1550	1557	1539	1545	1551	1552	1553	1557	1556	1556	1556	1552	1538	1527	1519	1516	1521	1541	1566	1580	1586	1583	1573	1573	1568	1561	1564	1575	1576	1568	1562	1566	1579	1583	1584	1580	1574	1545	1545	1551	1566	1557	1554	1559	1563	1557	1549	1543	1542	1559	1571	1578	1584	1589	1594	1592	1589	1590	1590	1593	1594	1596	1592	1595	1599	0	0	0	0	0	0	0	0
1946	1930	1930	1883	1804	1700	1592	1592	1515	1398	1317	1251	1251	1222	1245	1245	1248	1242	1242	1243	1262	1273	1287	1293	1288	1288	1293	1296	1301	1313	1313	1303	1303	1297	1294	1304	1316	1321	1325	1326	1326	1324	1325	1325	1329	1332	1341	1343	1336	1331	1331	1318	1314	1313	1311	1312	1320	1326	1330	1332	1339	1330	1330	1329	1334	1331	1337	1339	1369	1344	1314	1335	1343	1321	1307	1311	1310	1325	1343	1357	1357	1362	1355	1357	1368	1380	1394	1398	1396	1382	1383	1408	1449	1460	1479	1511	1598	1648	1661	1685	1703	1717	1722	1719	1716	1704	1699	1702	1710	1711	1723	1732	1740	1745	1738	1737	1729	1712	1708	1730	1717	1686	1696	1682	1669	1697	1749	1775	1815	1840	1875	1886	1887	1881	1863	1866	1872	1877	1882	1886	1904	1937	1956	1955	1936	1920	1930	1954	1957	1966	1977	1972	1952	1922	1905	1903	1917	1916	1906	1879	1859	1842	1852	1880	1923	1937	1927	1896	1885	1888	1893	1908	1938	1939	1938	1736	1673	1532	1422	1390	1386	1379	1370	1373	1391	1379	1380	1400	1397	1389	1387	1384	1388	1386	1401	1421	1423	1413	1410	1395	1388	1377	1362	1357	1363	1376	1377	1377	1378	1383	1393	1397	1403	1401	1403	1397	1392	1396	1394	1394	1406	1409	1388	1388	1373	1384	1401	1400	1412	1424	1414	1415	1420	1429	1420	1415	1409	1390	1407	1418	1416	1411	1404	1411	1405	1409	1421	1428	1432	1436	1437	1422	1408	1411	1409	1416	1417	1415	1409	1419	1424	1429	1454	1464	1466	1528	1672	1765	1824	1857	1861	1858	1859	1860	1860	1847	1851	1861	1876	1884	1879	1864	1863	1865	1889	1893	1900	1893	1883	1870	1829	1820	1822	1835	1857	1869	1880	1874	1856	1878	1876	1868	1876	1889	1883	1862	1839	1829	1828	1829	1834	1839	1844	1846	1835	1836	1837	1842	1837	1825	1819	1851	1886	1909	1901	1909	1900	1878	1885	1878	1876	1875	1875	1868	1881	1885	1903	1918	1958	1959	1940	1914	1860	1795	1665	1629	1613	1605	1594	1572	1571	1561	1555	1547	1530	1483	1477	1467	1450	1458	1475	1484	1488	1491	1492	1484	1484	1490	1506	1518	1514	1501	1490	1494	1510	1525	1530	1544	1548	1543	1538	1535	1525	1517	1516	1515	1519	1505	1497	1501	1503	1499	1497	1505	1521	1537	1540	1531	1531	1536	1543	1565	1561	1691	1744	1861	1950	1970	1984	1982	1966	1948	1957	1973	1977	1977	1960	1962	1970	1918	1909	1905	1923	1929	1932	1933	1928	1913	1898	1882	1873	1895	1905	1913	1895	1892	1894	1910	1910	1909	1900	1882	1857	1867	1873	1881	1892	1904	1908	1914	1941	1934	1933	1929	1923	1908	1892	1889	1909	1931	1918	1925	1927	1922	1915	1907	1912	1932	1935	1927	1912	1911	1902	1850	1839	1844	1882	1867	1857	1842	1845	1850	1843	1861	1887	1898	1894	1886	1854	1816	1799	1800	1883	1891	1875	1856	1849	1854	1843	1826	1823	1827	1819	1810	1788	1791	1800	1874	1868	1847	1817	1825	1840	1842	1834	1809	1800	1790	1781	1761	1736	1729	1737	1760	1748	1743	1732	1732	1723	1701	1665	1613	1577	1552	1552	1552	1549	1551	1581	1657	1712	1709	1679	1655	1646	1641	1631	1625	1619	1613	1605	1622	1617	1598	1584	1581	1584	1587	1585	1576	1571	1561	1557	1545	1539	1565	1559	1539	1508	1507	1565	1555	1538	1547	1553	1561	1567	1587	1572	1525	1506	1495	1504	1521	1529	1539	1547	1543	1539	1552	1558	1555	1546	1522	1500	1492	1505	1513	1523	1532	1537	1532	1526	1493	1493	1500	1522	1529	1529	1530	1541	1543	1536	1522	1503	1495	1476	1512	1525	1535	1529	1520	1509	1508	1508	1517	1536	1542	1532	1522	1526	1530	0	0	0	0	0	0	0	0
1866	1852	1852	1819	1761	1687	1614	1614	1542	1430	1334	1264	1230	1230	1234	1255	1253	1244	1240	1240	1255	1273	1282	1285	1284	1284	1282	1288	1297	1307	1308	1303	1303	1297	1298	1307	1318	1330	1337	1340	1340	1332	1325	1318	1314	1316	1323	1328	1321	1320	1306	1313	1314	1311	1313	1319	1328	1334	1340	1338	1335	1331	1331	1341	1342	1331	1332	1328	1317	1311	1307	1329	1344	1321	1310	1304	1310	1332	1346	1353	1355	1355	1351	1352	1365	1387	1399	1398	1392	1376	1376	1410	1436	1441	1467	1524	1624	1666	1669	1682	1699	1714	1726	1728	1729	1730	1724	1721	1724	1731	1734	1738	1737	1734	1732	1733	1739	1733	1715	1725	1718	1694	1726	1719	1702	1727	1768	1799	1852	1869	1876	1861	1858	1847	1847	1859	1868	1875	1881	1881	1899	1905	1922	1928	1911	1896	1903	1914	1919	1918	1922	1916	1907	1875	1838	1830	1846	1879	1877	1851	1828	1802	1812	1819	1835	1866	1868	1858	1851	1850	1859	1859	1859	1873	1881	1687	1621	1520	1410	1388	1374	1369	1359	1384	1401	1397	1383	1402	1401	1398	1394	1389	1386	1384	1398	1408	1405	1401	1403	1395	1384	1363	1367	1370	1370	1369	1368	1369	1366	1368	1390	1402	1406	1406	1405	1399	1397	1399	1407	1402	1404	1405	1387	1382	1380	1397	1400	1397	1407	1414	1420	1435	1442	1434	1425	1423	1414	1415	1408	1430	1420	1405	1404	1410	1423	1438	1440	1442	1437	1440	1434	1401	1403	1407	1407	1414	1418	1424	1403	1407	1410	1386	1433	1459	1475	1522	1637	1729	1812	1845	1846	1828	1823	1839	1854	1839	1834	1835	1845	1847	1838	1813	1800	1804	1847	1873	1877	1862	1853	1834	1815	1801	1803	1816	1834	1813	1790	1793	1807	1841	1845	1845	1850	1854	1858	1844	1824	1814	1819	1818	1806	1808	1807	1802	1803	1805	1810	1828	1814	1798	1783	1793	1812	1820	1826	1841	1874	1871	1859	1856	1858	1857	1838	1817	1827	1846	1863	1884	1895	1892	1876	1889	1839	1774	1663	1615	1593	1596	1580	1575	1568	1573	1571	1568	1530	1462	1457	1470	1463	1459	1469	1480	1486	1490	1493	1486	1483	1491	1506	1520	1520	1506	1498	1497	1509	1511	1521	1543	1545	1538	1538	1531	1515	1508	1510	1513	1512	1500	1497	1502	1501	1502	1504	1510	1526	1540	1526	1522	1524	1540	1549	1572	1577	1689	1731	1860	1912	1892	1938	1938	1932	1920	1927	1946	1955	1951	1948	1914	1882	1863	1862	1870	1885	1890	1905	1913	1903	1897	1888	1875	1861	1853	1848	1845	1844	1849	1852	1858	1858	1862	1858	1844	1825	1819	1838	1848	1870	1873	1861	1867	1885	1913	1904	1895	1889	1883	1860	1847	1843	1864	1870	1870	1890	1894	1889	1871	1869	1855	1860	1880	1891	1824	1824	1815	1817	1826	1838	1829	1816	1814	1809	1806	1795	1792	1805	1802	1810	1812	1792	1767	1760	1768	1798	1808	1799	1794	1809	1826	1821	1814	1796	1802	1792	1792	1790	1789	1786	1775	1752	1734	1736	1769	1795	1799	1798	1808	1807	1802	1773	1751	1736	1725	1744	1758	1748	1732	1727	1722	1720	1698	1684	1616	1560	1561	1544	1543	1541	1553	1560	1637	1692	1688	1611	1619	1607	1601	1591	1586	1585	1603	1614	1614	1607	1588	1575	1568	1572	1577	1566	1571	1565	1559	1547	1538	1533	1565	1557	1539	1521	1514	1515	1523	1530	1531	1528	1521	1517	1509	1499	1488	1468	1462	1464	1472	1484	1484	1478	1475	1471	1477	1494	1498	1498	1491	1475	1460	1462	1465	1470	1473	1478	1450	1437	1441	1441	1463	1484	1491	1494	1494	1507	1518	1522	1503	1457	1452	1449	1483	1496	1505	1495	1485	1477	1470	1470	1488	1506	1522	1511	1501	1499	1495	0	0	0	0	0	0	0	0
