0	0	0	0	0	0	0	0	0	0	0	0	0	0	0	0	0	0	0	0	0	0	0	0	0	0	0	0	0	0	0	0	0	0	0	0	0	0	0	0	0	0	0	0	0	0	0	0	0	0	0	0	0	0	0	0	0	0	0	0	0	0	0	0	0	0	0	0	0	0	0	0	0	0	0	0	0	0	0	0	0	0	0	0	0	0	0	0	0	0	0	0	0	0	0	0	0	0	0	0	0	0	0	0	0	0	0	0	0	0	0	0	0	0	0	0	0	0	0	0	0	0	0	0	0	0	0	0	0	0	0	0	0	0	0	0	0	0	0	0	0	0	0	0	0	0	0	0	0	0	0	0	0	0	0	0	0	0	0	0	0	0	0	0	0	0	0	0	0	0	0	0	0	0	0	0	0	0	1362	0	0	0	0	0	0	0	0	0	0	0	0	0	0	0	0	0	0	0	0	0	0	0	0	0	0	0	0	0	0	0	0	0	0	0	1346	1338	1350	1346	1335	1320	1322	1342	1376	1393	1397	1359	1297	1282	1462	1495	1504	1500	1498	1497	1427	1532	1528	1509	1470	1425	1395	1388	1332	1333	1342	1371	1410	1431	1437	1435	1421	1412	1406	1408	1441	1466	1466	1513	1537	1495	1462	1491	1502	1508	1515	1511	1528	1534	1563	1574	1587	1617	1626	1634	1636	1628	1623	1619	1600	1606	1603	1594	1583	1585	1599	1614	1612	1603	1582	1564	1564	1571	1573	1580	1585	1589	1600	1618	1630	1611	1583	1551	1531	1529	1546	1555	1567	1569	1565	1557	1551	1554	1555	1573	1592	1596	1582	1563	1562	1565	1560	1573	1581	1591	1580	1576	1582	1576	1569	1562	1542	1524	1512	1516	1533	1564	1574	1557	1552	1544	1530	1524	1519	1512	1517	1525	1517	1500	1468	1455	1497	1518	1525	1519	1507	1514	1552	1582	1611	1626	1644	1650	1646	1647	1652	1661	1659	1655	1662	1667	1638	1604	1585	1607	1865	1749	1753	1752	1718	1546	1567	1586	1581	1574	1544	1537	1544	1553	1565	1571	1602	1639	1647	1640	1626	1619	1627	1618	1595	1594	1662	1781	1797	2041	2576	3052	3069	3090	3130	3159	3132	3066	3036	3003	3026	3024	3014	2981	2986	2978	2968	2966	2994	3016	3028	2994	2969	2953	2970	2949	2905	2823	2812	2803	2780	2764	2718	2647	2765	3022	3058	3060	3061	2949	2678	2506	2451	2426	2389	2377	2366	2371	2349	2329	2318	2307	2308	2321	2345	2354	2317	2301	2260	2216	2215	2212	2223	2236	2268	2269	2202	2236	2238	2220	2198	2180	2152	2140	2124	2119	2140	2136	2122	2109	2110	2106	2095	2085	2066	2037	2021	2022	2034	2030	2032	2029	2023	2016	2002	1982	1992	2000	1992	1981	1966	1946	1944	1944	1941	1939	1939	1938	1924	1902	1874	1866	1850	1856	1857	1849	1828	1827	1837	1827	1829	1826	1808	1787	1770	1755	1750	1747	1752	1756	1756	1754	1748	1729	1724	1722	1722	1714	1705	1688	1686	1711	1716	1710	1692	1681	1685	1689	1684	1663	1637	1639	1644	1640	1619	1610	1617	1613	1600	1600	1604	1607	1597	1584	1575	1587	1597	1601	1596	1578	1552	1540	1539	1536	1534	1520	1503	1512	1502	1493	1491	1489	1493	1502	1515	1526	1516	1502	1481	1465	1460	1452	1444	1441	1443	1446	1441	1431	1425	1416	1408	1396	1388	1397	1401	1405	1412	1410	1404	1393	1393	1380	1362	1350	1347	1353	1366	1370	1376	1373	1364	1350	1328	1321	1316	1319	1317	1317	0	0	0	0	0	0	0	0
0	0	0	0	0	0	0	0	0	0	0	0	0	0	0	0	0	0	0	0	0	0	0	0	0	0	0	0	0	1309	0	0	0	0	0	0	0	0	0	0	0	0	0	0	0	0	0	0	0	0	0	0	0	0	0	0	0	0	0	0	0	0	0	0	0	1301	1263	1235	0	0	0	0	0	0	0	0	0	0	0	0	0	0	0	0	0	0	0	0	1077	1154	1226	1292	1323	1326	1305	1262	1221	0	0	0	0	0	0	0	0	0	0	0	0	0	0	0	0	0	0	0	0	0	0	0	0	0	0	0	0	0	0	0	0	0	0	0	0	0	0	0	0	0	1282	1323	1348	1347	1348	1316	1280	1235	1196	1209	1218	1225	1258	1279	1265	1237	1197	1201	1218	1244	1276	1306	1331	1342	1345	1334	1334	1337	1328	1309	1303	1330	1357	1357	1362	1403	1421	1416	1402	1399	1389	1368	1339	1323	1320	1299	1326	1369	1399	1408	1373	1322	1283	1272	1311	1333	1371	1381	1373	1366	1361	1374	1396	1414	1424	1430	1434	1429	1393	1377	1385	1381	1369	1362	1365	1399	1389	1386	1386	1390	1387	1376	1379	1403	1418	1439	1438	1432	1399	1396	1419	1415	1410	1395	1398	1400	1355	1396	1431	1420	1401	1373	1381	1405	1412	1422	1426	1435	1437	1440	1441	1421	1420	1392	1401	1428	1416	1437	1462	1495	1450	1459	1458	1454	1461	1446	1440	1446	1464	1468	1434	1467	1469	1475	1477	1509	1493	1486	1488	1515	1524	1512	1514	1514	1509	1489	1498	1520	1510	1501	1483	1469	1460	1462	1509	1525	1536	1535	1524	1517	1515	1507	1484	1448	1465	1482	1483	1485	1479	1474	1471	1471	1471	1467	1471	1482	1481	1482	1498	1500	1504	1498	1487	1475	1467	1461	1464	1470	1481	1498	1511	1503	1500	1493	1495	1502	1508	1500	1493	1503	1517	1535	1535	1525	1507	1491	1493	1499	1505	1509	1511	1497	1493	1494	1502	1491	1480	1481	1496	1514	1532	1542	1549	1553	1559	1548	1546	1551	1553	1552	1558	1562	1561	1552	1575	1574	1587	1714	1522	1708	1541	1540	1540	1528	1525	1522	1511	1495	1507	1518	1524	1531	1540	1554	1561	1571	1583	1580	1572	1586	1591	1599	1606	1659	1776	2013	2544	3070	3089	3122	3142	3137	3111	3059	2991	2987	2997	2985	2977	2987	3001	3003	2997	3010	3026	3056	3055	3038	3013	3001	3005	2982	2955	2894	2869	2850	2816	2777	2740	2654	2717	2917	3039	3046	3039	2979	2715	2526	2476	2441	2408	2383	2380	2364	2355	2338	2325	2318	2318	2322	2331	2338	2321	2300	2264	2215	2205	2206	2206	2214	2228	2234	2210	2225	2225	2212	2191	2166	2142	2124	2126	2136	2151	2150	2124	2117	2112	2091	2088	2083	2063	2041	2023	2022	2034	2035	2023	2000	1999	1999	1978	1974	1974	1965	1959	1951	1937	1939	1938	1938	1941	1940	1940	1947	1932	1888	1885	1879	1864	1858	1848	1848	1845	1838	1841	1835	1833	1820	1802	1787	1770	1755	1760	1766	1774	1766	1754	1756	1746	1747	1737	1721	1713	1708	1708	1710	1704	1713	1723	1720	1710	1700	1694	1688	1670	1645	1642	1634	1624	1615	1608	1607	1612	1617	1599	1600	1604	1607	1598	1584	1578	1587	1595	1600	1597	1581	1560	1545	1540	1531	1528	1515	1494	1507	1500	1488	1479	1482	1488	1500	1514	1523	1515	1502	1478	1457	1454	1450	1444	1444	1448	1450	1442	1429	1422	1416	1408	1395	1387	1384	1401	1407	1410	1412	1399	1388	1388	1378	1362	1349	1345	1352	1372	1374	1380	1380	1367	1348	1333	1317	1313	1314	1313	1313	0	0	0	0	0	0	0	0
0	0	0	0	0	0	0	0	0	0	0	0	0	0	0	0	0	0	0	0	0	0	0	0	0	0	1314	1314	1343	1300	1266	1257	1265	1259	1247	1247	1234	1258	1317	1347	1325	1289	1256	1238	1238	1234	1248	1275	1327	1367	1365	1342	1322	1342	1366	1366	1355	1305	1300	1313	1322	1310	1292	1280	1263	1243	1243	1259	1284	1324	1310	1284	1284	1287	1286	1276	1247	1229	1218	1230	1248	1261	1267	1286	1307	1307	1277	1243	1238	1252	1298	1336	1348	1345	1337	1323	1311	1288	1257	1251	1271	1283	1278	1261	1249	1263	1297	1309	1296	1272	1240	1232	1256	1299	1323	1320	1307	1305	1323	1349	1358	1359	1356	1359	1345	1313	1304	1334	1355	1362	1358	1365	1393	1392	1371	1350	1357	1369	1368	1358	1362	1372	1377	1379	1373	1352	1317	1279	1283	1302	1316	1334	1325	1318	1306	1304	1312	1320	1336	1357	1371	1373	1363	1367	1374	1371	1359	1341	1330	1342	1357	1358	1367	1374	1416	1404	1394	1393	1398	1371	1360	1367	1381	1394	1402	1383	1427	1434	1434	1436	1376	1373	1357	1344	1392	1392	1375	1355	1337	1381	1431	1428	1391	1391	1398	1404	1403	1399	1397	1389	1377	1368	1380	1394	1384	1373	1369	1389	1393	1391	1396	1399	1397	1399	1408	1415	1409	1390	1382	1391	1393	1392	1407	1398	1399	1388	1402	1405	1417	1404	1410	1428	1424	1421	1414	1403	1425	1426	1432	1416	1409	1399	1422	1402	1429	1455	1454	1450	1446	1473	1445	1450	1431	1414	1410	1413	1415	1446	1447	1455	1444	1440	1453	1464	1453	1457	1478	1494	1493	1481	1475	1472	1455	1439	1451	1463	1460	1456	1463	1434	1455	1469	1482	1493	1496	1483	1480	1476	1482	1477	1474	1459	1447	1455	1464	1479	1468	1457	1456	1458	1465	1455	1461	1469	1474	1473	1480	1482	1477	1470	1462	1465	1473	1470	1456	1448	1471	1493	1506	1503	1501	1499	1499	1507	1512	1507	1503	1501	1514	1526	1529	1522	1510	1495	1493	1502	1507	1513	1515	1507	1504	1510	1502	1491	1481	1490	1494	1505	1518	1532	1540	1550	1557	1550	1538	1540	1544	1557	1567	1560	1547	1550	1548	1576	1569	1495	1478	1456	1505	1511	1521	1525	1521	1521	1529	1542	1551	1551	1542	1541	1546	1546	1536	1528	1534	1526	1510	1557	1589	1604	1600	1653	1758	2002	2544	3108	3143	3160	3156	3163	3132	3048	3024	2999	2977	2929	2928	2947	2984	3031	3038	3062	3077	3073	3070	3052	3040	3037	3024	3015	2994	2964	2919	2880	2846	2816	2793	2766	2747	2888	3019	3024	3008	2957	2747	2509	2461	2440	2411	2377	2363	2365	2370	2361	2349	2341	2341	2338	2323	2320	2306	2287	2273	2245	2214	2213	2208	2213	2225	2233	2215	2215	2206	2199	2191	2174	2147	2132	2137	2141	2156	2147	2128	2110	2084	2052	2042	2035	2032	2028	2018	2020	2016	2011	2004	1997	1999	2000	1996	1980	1976	1964	1952	1946	1952	1947	1948	1949	1938	1937	1941	1943	1933	1894	1895	1895	1888	1870	1850	1840	1840	1837	1834	1829	1827	1819	1799	1793	1777	1763	1763	1766	1767	1759	1751	1753	1753	1742	1739	1724	1711	1707	1705	1706	1705	1710	1715	1719	1712	1703	1696	1684	1662	1636	1637	1625	1620	1609	1601	1600	1600	1601	1600	1598	1600	1604	1617	1606	1597	1585	1575	1572	1574	1577	1576	1567	1548	1537	1530	1509	1507	1513	1518	1503	1502	1497	1506	1513	1520	1528	1515	1499	1482	1484	1485	1485	1463	1457	1456	1451	1436	1421	1412	1414	1418	1413	1392	1368	1381	1397	1415	1423	1427	1426	1426	1426	1424	1415	1407	1396	1382	1381	1383	1382	1376	1373	1367	1353	1341	1334	1322	1322	0	0	0	0	0	0	0	0
0	0	0	0	0	0	0	0	0	0	0	0	1161	1173	1173	1192	1236	1250	1258	1299	1299	1288	1279	1274	1285	1328	1366	1334	1321	1299	1288	1275	1263	1249	1248	1248	1263	1273	1299	1315	1316	1303	1287	1272	1272	1278	1289	1304	1313	1340	1357	1344	1327	1339	1367	1367	1365	1324	1308	1329	1336	1325	1311	1304	1309	1314	1319	1322	1323	1330	1323	1303	1303	1294	1283	1273	1264	1275	1299	1308	1310	1305	1302	1298	1287	1286	1292	1298	1311	1328	1344	1350	1328	1316	1307	1304	1291	1275	1270	1278	1276	1265	1268	1279	1307	1333	1349	1349	1336	1325	1300	1297	1316	1350	1366	1362	1359	1352	1353	1355	1360	1365	1366	1362	1360	1341	1335	1336	1348	1357	1363	1358	1355	1352	1347	1343	1351	1358	1353	1349	1346	1359	1370	1386	1394	1384	1351	1322	1325	1327	1327	1331	1348	1370	1374	1361	1352	1340	1335	1348	1360	1382	1389	1379	1367	1361	1352	1348	1354	1377	1390	1379	1378	1390	1373	1357	1363	1370	1378	1384	1380	1380	1389	1393	1403	1402	1397	1413	1414	1375	1430	1404	1384	1375	1396	1402	1397	1387	1375	1382	1390	1391	1378	1380	1381	1395	1406	1417	1398	1370	1416	1432	1427	1429	1412	1397	1396	1407	1413	1409	1403	1398	1393	1381	1419	1427	1422	1419	1401	1410	1420	1438	1440	1427	1425	1415	1412	1414	1414	1422	1411	1425	1425	1399	1402	1409	1420	1430	1432	1429	1408	1413	1394	1424	1449	1458	1454	1454	1448	1476	1445	1445	1430	1413	1413	1415	1419	1445	1446	1457	1450	1436	1432	1423	1436	1457	1468	1479	1477	1472	1464	1463	1444	1441	1442	1448	1462	1459	1458	1445	1449	1460	1468	1489	1484	1478	1474	1474	1476	1468	1468	1464	1462	1462	1470	1473	1465	1453	1451	1452	1461	1457	1462	1471	1481	1483	1483	1478	1476	1471	1464	1472	1478	1480	1468	1451	1463	1488	1495	1499	1502	1497	1496	1503	1510	1511	1505	1501	1509	1514	1521	1519	1508	1499	1502	1509	1515	1524	1532	1528	1527	1524	1517	1502	1484	1475	1482	1498	1514	1521	1531	1516	1518	1540	1538	1548	1560	1568	1558	1554	1544	1543	1546	1576	1553	1486	1476	1463	1515	1513	1514	1521	1516	1507	1510	1523	1527	1558	1555	1545	1546	1538	1521	1515	1515	1523	1520	1531	1580	1599	1600	1645	1753	1992	2534	3128	3177	3187	3188	3167	3143	3085	3048	3050	2997	2948	2911	2923	2967	3022	3031	3055	3064	3069	3056	3035	3035	3051	3034	3014	2989	2984	2913	2864	2841	2830	2824	2811	2809	2882	3005	3013	3002	2925	2728	2486	2446	2428	2385	2348	2350	2359	2374	2366	2361	2357	2363	2355	2331	2302	2273	2244	2263	2251	2235	2223	2229	2246	2249	2248	2221	2196	2192	2186	2190	2186	2168	2157	2147	2158	2140	2138	2117	2096	2076	2040	2019	2019	2017	1986	1973	1992	2000	2007	2005	2003	2011	2031	2038	1999	1987	1981	1960	1950	1946	1949	1957	1954	1939	1924	1914	1916	1917	1931	1936	1932	1920	1892	1857	1848	1839	1820	1813	1817	1817	1815	1805	1783	1785	1783	1779	1770	1757	1753	1749	1759	1767	1764	1748	1723	1706	1706	1711	1717	1704	1702	1700	1693	1691	1688	1671	1645	1615	1618	1609	1613	1611	1618	1615	1605	1599	1595	1596	1598	1598	1590	1599	1595	1588	1566	1551	1547	1555	1566	1571	1575	1567	1550	1521	1508	1508	1514	1515	1507	1503	1507	1503	1499	1496	1497	1507	1509	1515	1507	1492	1478	1463	1460	1464	1466	1461	1453	1442	1435	1422	1407	1396	1392	1396	1398	1415	1415	1413	1413	1415	1421	1423	1420	1385	1372	1368	1366	1369	1373	1376	1373	1371	1367	1355	1347	1320	1320	0	0	0	0	0	0	0	0
0	0	0	0	0	0	0	0	0	0	0	1218	1232	1222	1222	1231	1257	1285	1286	1290	1290	1296	1306	1316	1331	1339	1309	1309	1318	1335	1338	1319	1304	1306	1327	1327	1329	1307	1291	1286	1287	1302	1320	1341	1341	1342	1332	1335	1325	1312	1323	1334	1333	1354	1369	1356	1356	1330	1301	1305	1316	1314	1313	1301	1287	1297	1305	1298	1301	1306	1300	1286	1286	1286	1297	1311	1337	1347	1355	1360	1359	1362	1360	1338	1305	1290	1269	1261	1272	1296	1327	1344	1339	1313	1323	1332	1347	1343	1336	1326	1315	1305	1310	1316	1326	1327	1319	1318	1322	1332	1328	1343	1357	1370	1371	1367	1360	1349	1339	1331	1330	1340	1353	1368	1362	1352	1352	1346	1347	1363	1377	1389	1390	1378	1370	1371	1371	1361	1355	1342	1334	1330	1342	1360	1352	1342	1337	1339	1347	1365	1391	1396	1387	1386	1376	1369	1361	1357	1354	1362	1387	1399	1392	1389	1356	1356	1356	1361	1373	1391	1397	1392	1388	1376	1364	1362	1367	1369	1379	1377	1374	1377	1388	1394	1392	1386	1387	1405	1407	1419	1395	1404	1399	1397	1409	1410	1402	1391	1379	1377	1377	1376	1379	1384	1398	1403	1428	1409	1377	1381	1383	1430	1426	1415	1407	1397	1401	1410	1416	1401	1393	1388	1381	1404	1410	1409	1409	1428	1419	1420	1435	1435	1430	1435	1424	1428	1419	1413	1412	1422	1443	1426	1430	1418	1408	1416	1406	1422	1424	1423	1426	1422	1415	1421	1441	1474	1553	1533	1424	1416	1475	1441	1442	1439	1433	1437	1442	1425	1436	1430	1437	1444	1447	1455	1460	1448	1456	1458	1464	1459	1460	1451	1444	1442	1439	1455	1454	1456	1458	1462	1457	1461	1474	1492	1492	1471	1474	1472	1460	1459	1460	1476	1475	1474	1474	1462	1456	1458	1465	1469	1473	1469	1473	1478	1487	1489	1488	1490	1485	1479	1477	1478	1483	1489	1495	1493	1509	1494	1482	1473	1481	1479	1478	1497	1515	1522	1517	1501	1466	1444	1452	1480	1504	1509	1517	1520	1518	1503	1515	1507	1510	1520	1527	1530	1490	1457	1456	1467	1503	1517	1515	1491	1506	1514	1532	1545	1557	1562	1556	1547	1544	1542	1541	1561	1549	1475	1461	1467	1533	1524	1515	1524	1513	1497	1501	1504	1515	1524	1550	1540	1533	1524	1509	1504	1521	1532	1531	1552	1578	1598	1597	1638	1743	1972	2459	3077	3121	3172	3166	3139	3117	3106	3077	3088	3053	3002	2954	2945	2955	2977	2984	2999	3005	3016	3005	2992	3006	3030	3030	2991	2998	2968	2900	2859	2845	2832	2834	2858	2879	2892	3016	3012	2997	2924	2733	2483	2445	2416	2367	2339	2340	2353	2371	2366	2357	2356	2356	2351	2322	2285	2257	2243	2244	2248	2235	2231	2244	2260	2264	2242	2213	2186	2183	2177	2185	2192	2193	2170	2165	2130	2123	2124	2113	2098	2075	2071	2052	2029	2012	1995	1979	1976	1985	2001	2017	2015	2018	2015	2021	2005	1989	1991	1996	1986	1987	1975	1968	1955	1940	1925	1914	1919	1919	1924	1927	1926	1912	1885	1850	1850	1839	1820	1814	1811	1825	1824	1817	1786	1774	1770	1776	1777	1771	1762	1756	1756	1764	1766	1750	1729	1715	1707	1709	1714	1713	1707	1700	1694	1695	1689	1668	1637	1613	1613	1610	1611	1614	1623	1613	1606	1596	1592	1595	1596	1593	1592	1594	1596	1588	1565	1550	1549	1558	1568	1566	1565	1560	1545	1518	1507	1511	1516	1511	1506	1504	1503	1499	1498	1495	1496	1503	1511	1520	1503	1481	1472	1462	1459	1462	1463	1459	1452	1449	1439	1424	1407	1396	1392	1398	1398	1415	1414	1412	1412	1408	1421	1419	1412	1384	1371	1365	1365	1367	1371	1374	1371	1365	1361	1352	1345	1323	1323	0	0	0	0	0	0	0	0
0	0	0	0	0	0	0	0	0	0	1247	1275	1257	1247	1247	1256	1271	1288	1290	1287	1287	1283	1294	1297	1301	1283	1263	1263	1262	1266	1288	1291	1292	1306	1322	1322	1333	1327	1322	1316	1310	1310	1321	1327	1327	1325	1324	1326	1326	1332	1344	1330	1303	1295	1315	1311	1311	1310	1319	1329	1336	1339	1346	1355	1312	1293	1292	1291	1297	1311	1320	1321	1321	1318	1320	1318	1328	1330	1320	1324	1328	1333	1337	1324	1317	1301	1284	1274	1272	1282	1292	1307	1321	1342	1363	1378	1388	1391	1392	1380	1363	1348	1332	1326	1327	1325	1329	1332	1330	1328	1339	1351	1366	1373	1371	1362	1346	1322	1322	1328	1336	1357	1364	1362	1357	1348	1340	1338	1340	1356	1363	1362	1363	1366	1368	1368	1370	1362	1351	1334	1326	1327	1343	1353	1352	1349	1346	1353	1361	1388	1401	1402	1389	1382	1371	1365	1371	1383	1395	1393	1395	1399	1395	1375	1362	1360	1358	1361	1373	1390	1401	1396	1391	1376	1367	1364	1368	1385	1410	1401	1385	1376	1387	1365	1380	1381	1388	1401	1404	1422	1380	1381	1387	1393	1383	1400	1395	1381	1371	1368	1375	1378	1383	1397	1410	1435	1405	1387	1389	1390	1402	1425	1425	1414	1405	1390	1396	1409	1413	1397	1391	1387	1394	1394	1414	1417	1405	1417	1406	1407	1423	1440	1433	1431	1429	1425	1421	1408	1414	1439	1415	1425	1415	1415	1405	1401	0	0	0	1434	1421	1425	1445	1432	1423	1471	1578	1569	1418	1451	1418	1418	1420	1432	1447	1454	1451	1448	1458	1449	1446	1456	1468	1461	1461	1456	1451	1458	1468	1468	1468	1460	1456	1442	1444	1447	1444	1447	1455	1454	1456	1450	1466	1484	1469	1478	1461	1449	1449	1443	1467	1503	1513	1509	1473	1458	1447	1434	1435	1449	1464	1477	1483	1482	1483	1487	1489	1493	1496	1489	1485	1483	1485	1489	1496	1507	1509	1501	1487	1479	1481	1488	1495	1506	1525	1532	1530	1503	1455	1455	1458	1484	1503	1514	1520	1520	1502	1481	1476	1481	1480	1495	1501	1504	1505	1464	1449	1474	1467	1502	1487	1506	1486	1515	1526	1534	1541	1546	1542	1537	1530	1522	1530	1542	1526	1465	1452	1450	1505	1522	1516	1523	1521	1498	1497	1500	1507	1519	1547	1537	1527	1513	1505	1505	1530	1531	1535	1546	1574	1605	1607	1632	1713	1939	2307	3008	3087	3137	3136	3117	3098	3097	3071	3095	3093	3059	3016	2976	2950	2945	2949	2933	2933	2952	2940	2966	2982	2988	2987	2987	2955	2965	2967	2938	2906	2865	2876	2905	2914	2919	2999	3008	3001	2993	2775	2525	2464	2432	2400	2361	2355	2350	2348	2357	2355	2351	2341	2317	2277	2282	2275	2268	2243	2231	2225	2225	2250	2263	2266	2188	2192	2183	2166	2148	2138	2148	2155	2165	2166	2154	2138	2136	2132	2119	2060	2048	2042	2036	2021	1999	1993	1988	1990	2010	2024	2032	2022	1998	1994	1992	1989	1988	1997	2004	2002	1984	1975	1956	1934	1913	1914	1907	1894	1898	1919	1913	1890	1869	1850	1836	1826	1817	1806	1813	1819	1828	1829	1783	1767	1762	1778	1785	1777	1759	1742	1739	1754	1768	1762	1751	1738	1717	1707	1705	1705	1700	1700	1703	1710	1693	1668	1636	1608	1635	1625	1628	1629	1634	1631	1617	1599	1592	1593	1591	1571	1562	1563	1570	1565	1563	1560	1566	1574	1572	1560	1543	1534	1523	1517	1515	1517	1517	1507	1496	1490	1492	1479	1480	1485	1479	1472	1470	1476	1483	1482	1463	1459	1453	1441	1428	1414	1429	1442	1446	1438	1411	1395	1395	1402	1408	1414	1413	1400	1400	1392	1388	1387	1386	1383	1379	1379	1377	1377	1372	1355	1340	1328	1319	1330	1342	1338	1338	0	0	0	0	0	0	0	0
0	0	0	0	0	0	0	0	0	0	1271	1281	1252	1258	1258	1267	1285	1300	1298	1297	1297	1293	1293	1291	1278	1271	1260	1260	1255	1261	1266	1271	1274	1286	1306	1306	1322	1327	1327	1325	1324	1320	1316	1317	1317	1304	1312	1325	1336	1348	1344	1321	1303	1298	1306	1304	1304	1302	1313	1327	1335	1344	1359	1355	1358	1338	1318	1296	1300	1318	1328	1327	1320	1320	1312	1311	1318	1315	1313	1316	1321	1328	1337	1326	1320	1311	1302	1295	1283	1291	1291	1311	1339	1354	1363	1373	1380	1388	1386	1378	1364	1342	1329	1326	1328	1330	1334	1335	1334	1332	1341	1353	1365	1367	1370	1363	1345	1323	1321	1328	1338	1351	1354	1353	1351	1346	1339	1335	1331	1345	1349	1350	1352	1356	1362	1364	1360	1352	1343	1333	1327	1331	1338	1347	1353	1350	1353	1363	1365	1379	1395	1403	1386	1369	1353	1352	1366	1387	1402	1398	1406	1401	1382	1369	1366	1364	1368	1363	1365	1379	1391	1397	1393	1381	1374	1369	1374	1411	1422	1400	1372	1323	1332	1345	1348	1364	1388	1401	1404	1412	1398	1385	1384	1394	1395	1378	1375	1376	1370	1366	1378	1382	1394	1403	1418	1437	1407	1389	1399	1405	1404	1423	1417	1412	1402	1388	1398	1405	1414	1415	1420	1386	1391	1415	1410	1406	1430	1425	1406	1410	1416	1420	1428	1428	1422	1417	1420	1413	1420	1411	1413	1412	1415	1414	1414	1420	0	0	0	1423	1437	1442	1441	1441	1469	1488	1607	1603	1467	1448	1453	1454	1458	1462	1465	1455	1451	1452	1445	1458	1454	1464	1465	1465	1469	1461	1472	1473	1443	1468	1466	1468	1450	1457	1458	1455	1438	1431	1446	1446	1449	1469	1480	1484	1485	1467	1455	1452	1446	1454	1479	1502	1511	1487	1467	1459	1447	1435	1434	1450	1470	1486	1491	1490	1482	1486	1488	1493	1497	1501	1495	1504	1496	1497	1503	1510	1512	1504	1492	1491	1492	1496	1499	1507	1520	1529	1528	1474	1456	1449	1462	1491	1502	1512	1516	1513	1498	1471	1467	1461	1483	1487	1496	1518	1474	1460	1449	1454	1480	1500	1493	1499	1493	1511	1516	1524	1524	1513	1515	1521	1511	1506	1514	1529	1517	1512	1453	1507	1501	1513	1509	1521	1521	1503	1495	1504	1511	1548	1551	1546	1535	1515	1510	1519	1539	1539	1537	1543	1564	1608	1622	1633	1679	1824	2195	2941	3075	3111	3103	3087	3083	3094	3105	3111	3117	3094	3062	3009	2983	2947	2922	2897	2906	2927	2945	2942	2932	2959	2961	2964	2958	2986	3003	3003	2968	2903	2889	2901	2917	2914	2975	3001	3040	3029	2775	2590	2513	2470	2439	2404	2386	2334	2335	2361	2368	2358	2334	2276	2266	2288	2283	2250	2217	2205	2201	2220	2226	2204	2177	2159	2177	2173	2156	2134	2124	2139	2148	2156	2153	2148	2144	2140	2138	2121	2048	2030	2034	2033	2017	2005	1995	1993	1993	2014	2032	2040	2033	2009	1995	1977	1976	1978	1995	1996	2004	1996	1979	1959	1929	1909	1909	1905	1895	1902	1914	1898	1882	1869	1855	1842	1826	1815	1819	1816	1821	1825	1827	1792	1777	1773	1770	1777	1773	1763	1736	1722	1731	1748	1757	1761	1754	1740	1729	1721	1701	1694	1695	1701	1697	1684	1669	1656	1650	1649	1648	1636	1647	1640	1631	1620	1608	1598	1594	1594	1581	1572	1581	1579	1574	1572	1567	1568	1569	1563	1560	1552	1538	1529	1521	1523	1525	1529	1529	1511	1495	1480	1473	1482	1490	1495	1487	1483	1479	1479	1484	1475	1452	1434	1428	1426	1424	1417	1414	1418	1420	1407	1404	1394	1389	1392	1395	1392	1384	1384	1375	1388	1391	1393	1396	1392	1397	1395	1387	1377	1364	1357	1350	1343	1339	1339	1340	1340	0	0	0	0	0	0	0	0
0	0	0	0	0	0	0	0	0	0	1299	1297	1243	1257	1257	1280	1298	1299	1303	1300	1301	1301	1299	1293	1272	1270	1262	1255	1255	1265	1273	1273	1278	1288	1307	1307	1323	1333	1336	1337	1335	1331	1317	1308	1289	1289	1313	1325	1339	1341	1346	1321	1308	1299	1298	1299	1299	1300	1315	1325	1332	1335	1334	1342	1349	1349	1335	1305	1306	1320	1332	1336	1330	1330	1317	1305	1306	1310	1314	1319	1325	1331	1326	1323	1318	1318	1308	1301	1296	1294	1297	1314	1338	1353	1361	1368	1373	1365	1366	1366	1351	1342	1340	1345	1336	1341	1342	1348	1350	1353	1352	1360	1359	1357	1358	1355	1344	1326	1324	1335	1343	1348	1350	1347	1345	1346	1335	1316	1315	1329	1334	1337	1342	1351	1362	1362	1354	1348	1345	1345	1363	1367	1362	1363	1366	1374	1383	1385	1382	1373	1371	1371	1371	1365	1361	1373	1381	1392	1400	1393	1399	1388	1379	1376	1387	1386	1374	1370	1370	1381	1394	1395	1384	1378	1378	1383	1381	1418	1413	1379	1377	1366	1336	1343	1356	1378	1397	1394	1396	1393	1404	1400	1397	1402	1399	1381	1378	1384	1392	1396	1385	1392	1396	1409	1415	1425	1421	1406	1415	1417	1415	1423	1405	1407	1381	1395	1405	1413	1424	1418	1414	1397	1403	1386	1417	1414	1424	1421	1413	1419	1418	1411	1416	1415	1418	1414	1415	1410	1420	1431	1418	1427	1416	1416	1403	1417	1429	1427	1426	1430	1417	1441	1444	1434	1465	1474	1499	1484	1482	1448	1445	1452	1457	1458	1463	1460	1445	1460	1467	1457	1450	1457	1468	1465	1473	1476	1475	1469	1481	1493	1452	1457	1462	1472	1466	1450	1478	1473	1468	1458	1451	1457	1473	1482	1480	1482	1460	1477	1465	1460	1479	1494	1496	1485	1468	1461	1449	1438	1439	1459	1476	1492	1503	1498	1489	1485	1485	1487	1496	1508	1518	1517	1515	1512	1514	1513	1512	1504	1499	1494	1499	1500	1502	1506	1516	1522	1526	1475	1463	1468	1482	1497	1499	1506	1505	1505	1497	1482	1465	1471	1491	1497	1500	1522	1480	1466	1465	1465	1482	1493	1492	1497	1499	1525	1510	1514	1513	1509	1511	1511	1500	1496	1507	1528	1557	1509	1523	1502	1518	1505	1518	1520	1524	1510	1504	1510	1526	1542	1546	1545	1532	1521	1524	1532	1542	1552	1544	1543	1555	1606	1636	1636	1677	1811	2140	2893	3054	3103	3100	3088	3100	3116	3128	3136	3122	3095	3058	3018	2998	2978	2953	2919	2916	2932	2952	2931	2917	2932	2940	2938	2949	2986	3010	3014	2990	2919	2883	2881	2912	2911	2967	3002	3032	3030	2797	2636	2550	2479	2466	2433	2414	2352	2359	2368	2373	2361	2324	2278	2274	2274	2261	2226	2203	2186	2181	2199	2212	2188	2134	2143	2166	2160	2143	2125	2119	2126	2138	2134	2136	2104	2120	2132	2126	2114	2079	2066	2040	2019	1997	1979	1968	1968	1994	2016	2027	2035	2035	2023	2008	1991	1985	1990	1987	1957	1971	1963	1945	1932	1927	1933	1926	1902	1878	1902	1912	1895	1883	1860	1857	1850	1829	1817	1817	1822	1824	1826	1820	1803	1796	1789	1789	1780	1772	1762	1744	1717	1715	1735	1747	1750	1755	1743	1730	1723	1707	1695	1692	1692	1683	1664	1657	1651	1657	1657	1657	1651	1649	1639	1635	1627	1614	1600	1593	1600	1605	1597	1591	1590	1589	1586	1571	1564	1562	1549	1545	1555	1545	1534	1525	1525	1528	1535	1535	1516	1497	1483	1474	1486	1495	1501	1497	1487	1484	1481	1483	1472	1451	1437	1430	1431	1428	1412	1411	1411	1404	1408	1396	1396	1397	1397	1400	1400	1388	1388	1377	1379	1395	1397	1401	1403	1404	1395	1386	1379	1366	1362	1354	1346	1339	1336	1336	1340	0	0	0	0	0	0	0	0
0	0	0	0	0	0	0	0	0	0	1319	1308	1254	1261	1261	1282	1296	1306	1309	1308	1307	1307	1301	1284	1275	1272	1269	1267	1267	1274	1278	1281	1285	1289	1309	1309	1325	1335	1337	1343	1344	1339	1327	1306	1281	1281	1311	1325	1331	1324	1329	1321	1306	1297	1297	1299	1299	1302	1318	1329	1335	1331	1323	1318	1325	1352	1360	1352	1323	1331	1344	1363	1354	1354	1337	1322	1310	1311	1327	1332	1331	1329	1330	1325	1321	1321	1313	1307	1304	1309	1323	1331	1332	1331	1350	1364	1362	1357	1357	1352	1342	1338	1343	1349	1357	1358	1356	1353	1356	1363	1369	1366	1359	1324	1316	1338	1347	1337	1332	1328	1325	1332	1338	1344	1350	1354	1347	1326	1328	1334	1342	1366	1371	1368	1373	1379	1373	1365	1365	1377	1382	1381	1376	1372	1369	1369	1372	1381	1386	1390	1387	1385	1396	1395	1384	1367	1386	1383	1380	1382	1389	1385	1372	1372	1375	1380	1378	1372	1371	1374	1379	1395	1382	1372	1373	1381	1396	1399	1376	1377	1393	1371	1353	1349	1358	1381	1393	1388	1383	1339	1366	1410	1408	1410	1408	1386	1384	1391	1404	1405	1404	1402	1397	1405	1405	1411	1416	1431	1422	1441	1441	1427	1398	1396	1388	1398	1407	1425	1419	1412	1406	1401	1389	1390	1383	1405	1420	1417	1412	1417	1422	1399	1404	1410	1404	1401	1404	1423	1427	1432	1414	1412	1413	1417	1406	1400	1418	1438	1438	1434	1425	1416	1431	1440	1426	1434	1496	1485	1447	1448	1449	1446	1442	1463	1459	1454	1432	1473	1486	1455	1450	1460	1481	1468	1483	1486	1478	1482	1489	1482	1480	1453	1449	1473	1468	1455	1497	1498	1493	1474	1440	1453	1461	1486	1490	1480	1493	1497	1484	1465	1477	1484	1491	1488	1481	1469	1458	1454	1453	1462	1474	1491	1505	1504	1490	1485	1479	1482	1492	1502	1518	1518	1520	1527	1527	1520	1513	1509	1502	1501	1505	1505	1503	1508	1512	1507	1517	1495	1482	1483	1494	1497	1489	1489	1492	1494	1495	1491	1491	1497	1505	1507	1509	1529	1497	1488	1483	1482	1486	1496	1494	1505	1506	1524	1510	1508	1511	1513	1512	1507	1502	1502	1497	1519	1531	1554	1541	1529	1506	1509	1512	1520	1525	1521	1508	1508	1511	1520	1524	1529	1527	1524	1531	1536	1557	1553	1556	1553	1576	1604	1635	1633	1682	1824	2162	2908	3060	3099	3093	3070	3098	3117	3145	3143	3105	3067	3049	3013	2992	3012	2991	2965	2948	2953	2960	2963	2952	2946	2952	2946	2935	2969	2996	3008	2968	2936	2897	2871	2876	2912	2983	3007	3044	3057	2907	2660	2568	2492	2457	2446	2416	2347	2353	2351	2353	2346	2326	2295	2281	2272	2250	2222	2205	2190	2191	2184	2201	2186	2147	2148	2150	2146	2133	2122	2115	2123	2112	2100	2089	2099	2120	2128	2116	2111	2083	2072	2032	2015	2002	1989	1979	1984	1990	2014	2031	2038	2036	2019	2003	1988	1985	1997	1991	1991	1978	1965	1941	1928	1930	1931	1920	1900	1879	1884	1888	1879	1864	1862	1856	1846	1829	1822	1821	1820	1820	1818	1818	1809	1805	1801	1795	1778	1759	1749	1736	1728	1719	1736	1745	1745	1741	1724	1710	1700	1695	1693	1691	1686	1673	1657	1647	1646	1652	1654	1650	1646	1636	1635	1629	1623	1606	1598	1594	1595	1590	1587	1591	1591	1583	1576	1567	1558	1548	1532	1537	1554	1550	1535	1514	1505	1502	1501	1509	1516	1517	1494	1482	1482	1482	1484	1491	1487	1480	1476	1476	1474	1470	1464	1452	1441	1434	1425	1417	1411	1403	1403	1408	1413	1417	1404	1403	1398	1388	1388	1380	1391	1395	1400	1399	1403	1401	1394	1387	1372	1354	1343	1336	1331	1329	1326	1326	1325	0	0	0	0	0	0	0	0
0	0	0	0	0	0	0	0	0	0	1314	1300	1264	1260	1260	1278	1300	1315	1319	1314	1310	1310	1301	1284	1276	1273	1271	1266	1266	1273	1281	1290	1294	1300	1312	1323	1323	1326	1332	1344	1349	1340	1332	1309	1275	1275	1304	1315	1316	1317	1328	1326	1314	1294	1300	1306	1306	1311	1323	1337	1341	1326	1312	1316	1347	1351	1358	1352	1354	1340	1366	1377	1369	1369	1345	1328	1320	1332	1343	1349	1341	1328	1316	1321	1327	1333	1329	1323	1328	1334	1344	1344	1338	1327	1325	1347	1358	1355	1351	1344	1337	1338	1343	1353	1357	1354	1348	1349	1351	1362	1370	1373	1351	1331	1304	1320	1347	1345	1339	1332	1330	1335	1339	1341	1354	1364	1346	1335	1340	1335	1341	1357	1364	1364	1367	1383	1388	1392	1386	1390	1386	1381	1374	1371	1368	1366	1367	1373	1373	1380	1383	1390	1389	1375	1362	1363	1380	1375	1369	1374	1384	1386	1379	1370	1366	1372	1372	1372	1375	1378	1375	1381	1384	1373	1372	1379	1387	1388	1371	1355	1381	1374	1355	1353	1353	1356	1374	1381	1345	1375	1367	1407	1405	1408	1405	1385	1381	1394	1409	1415	1417	1411	1406	1402	1398	1403	1403	1394	1406	1427	1430	1433	1399	1401	1400	1405	1409	1412	1414	1405	1398	1392	1392	1381	1377	1397	1408	1416	1414	1422	1422	1401	1403	1406	1404	1393	1389	1406	1406	1410	1436	1401	1398	1402	1413	1425	1422	1426	1429	1436	1414	1418	1436	1429	1419	1440	1434	1484	1491	1429	1447	1441	1432	1462	1466	1463	1436	1469	1483	1458	1456	1475	1466	1488	1480	1489	1489	1491	1489	1483	1462	1476	1467	1480	1469	1462	1483	1503	1508	1502	1443	1441	1464	1469	1500	1497	1508	1507	1501	1468	1472	1480	1488	1496	1488	1476	1473	1479	1470	1471	1475	1479	1491	1501	1494	1487	1481	1476	1480	1489	1515	1524	1520	1539	1540	1525	1512	1499	1500	1513	1511	1512	1512	1511	1505	1497	1504	1496	1491	1491	1491	1489	1479	1475	1477	1487	1493	1499	1503	1511	1517	1520	1542	1546	1515	1500	1498	1501	1514	1503	1488	1500	1500	1522	1516	1503	1506	1515	1513	1508	1500	1501	1507	1513	1517	1520	1520	1519	1501	1496	1501	1515	1524	1522	1514	1499	1487	1490	1498	1513	1514	1520	1530	1536	1553	1545	1544	1545	1549	1569	1615	1628	1685	1851	2272	2966	3074	3119	3081	3074	3098	3147	3175	3154	3122	3078	3041	3035	3074	3059	3066	3032	3011	3001	2999	3007	3001	3012	3006	2946	2927	2956	2983	3011	2973	2926	2900	2886	2880	2928	2998	3032	3071	3089	2979	2680	2576	2500	2449	2396	2389	2317	2301	2315	2329	2333	2322	2313	2287	2273	2252	2236	2216	2201	2192	2176	2195	2206	2167	2169	2168	2152	2136	2127	2147	2142	2134	2117	2111	2111	2115	2112	2108	2118	2104	2075	2031	2021	2005	1994	1990	1993	2009	2032	2041	2043	2035	2024	1996	2008	2016	2029	2023	2001	1990	1963	1934	1921	1926	1931	1923	1915	1902	1893	1878	1871	1866	1854	1845	1834	1839	1836	1835	1815	1821	1814	1818	1804	1806	1801	1789	1769	1751	1740	1732	1734	1735	1746	1746	1746	1727	1713	1701	1700	1687	1685	1690	1685	1670	1653	1648	1647	1649	1654	1652	1642	1637	1635	1633	1621	1610	1601	1599	1598	1586	1582	1593	1590	1581	1571	1570	1559	1548	1539	1547	1551	1546	1526	1514	1501	1495	1487	1500	1511	1517	1512	1500	1479	1481	1484	1489	1481	1463	1469	1473	1474	1470	1465	1456	1438	1431	1423	1418	1409	1407	1409	1415	1415	1413	1410	1405	1397	1397	1389	1385	1399	1407	1404	1408	1413	1409	1392	1364	1349	1342	1335	1332	1329	1323	1321	1321	1319	0	0	0	0	0	0	0	0
0	0	0	0	0	0	0	0	0	0	1290	1281	1261	1272	1288	1288	1305	1321	1328	1330	1320	1320	1312	1296	1285	1283	1279	1274	1274	1268	1278	1294	1305	1310	1318	1326	1326	1332	1334	1350	1353	1348	1337	1315	1266	1266	1273	1284	1300	1312	1331	1329	1317	1305	1298	1305	1305	1318	1329	1341	1342	1332	1310	1314	1342	1350	1339	1337	1346	1360	1380	1383	1368	1368	1356	1343	1322	1331	1352	1350	1338	1321	1321	1325	1333	1338	1337	1335	1333	1341	1352	1350	1331	1316	1317	1331	1358	1357	1358	1352	1341	1335	1336	1349	1355	1352	1344	1343	1347	1358	1369	1373	1362	1322	1321	1322	1336	1344	1348	1344	1338	1332	1338	1348	1365	1375	1357	1345	1337	1337	1339	1349	1355	1357	1360	1384	1390	1401	1395	1387	1381	1377	1371	1371	1371	1364	1364	1366	1374	1378	1379	1381	1378	1368	1361	1362	1366	1370	1372	1377	1385	1386	1380	1369	1361	1368	1380	1385	1379	1372	1370	1374	1388	1375	1374	1372	1377	1378	1369	1357	1357	1370	1362	1354	1343	1341	1355	1367	1369	1356	1392	1397	1408	1406	1408	1389	1385	1398	1407	1414	1419	1420	1419	1409	1398	1404	1394	1375	1389	1398	1409	1418	1401	1410	1407	1412	1417	1409	1405	1397	1390	1386	1376	1382	1380	1398	1404	1404	1408	1425	1396	1421	1410	1420	1396	1391	1412	1411	1428	1432	1411	1419	1400	1413	1415	1426	1411	1427	1429	1435	1433	1425	1435	1412	1432	1423	1420	1421	1435	1492	1429	1425	1427	1466	1474	1472	1436	1446	1472	1484	1460	1457	1475	1475	1472	1496	1500	1502	1510	1491	1476	1473	1481	1457	1445	1477	1490	1500	1507	1494	1500	1438	1452	1501	1503	1506	1510	1508	1481	1471	1471	1480	1499	1495	1489	1489	1483	1490	1488	1479	1476	1477	1487	1495	1492	1496	1491	1486	1489	1502	1529	1535	1535	1536	1535	1519	1493	1503	1513	1522	1517	1514	1516	1519	1513	1505	1494	1493	1505	1507	1499	1486	1476	1468	1470	1478	1501	1524	1539	1526	1524	1538	1548	1536	1521	1517	1506	1507	1514	1502	1475	1494	1491	1511	1505	1494	1501	1507	1509	1506	1501	1501	1507	1516	1515	1515	1520	1504	1488	1484	1494	1508	1520	1522	1517	1509	1509	1505	1495	1504	1504	1501	1519	1546	1543	1542	1544	1542	1538	1547	1585	1623	1691	1902	2443	3095	3093	3116	3110	3110	3149	3181	3213	3180	3147	3113	3103	3113	3137	3148	3143	3111	3083	3062	3048	3046	3051	3051	3029	2980	2950	2984	3041	3046	2984	2918	2891	2884	2891	2931	3022	3048	3086	3107	3007	2704	2596	2504	2434	2392	2349	2297	2268	2284	2299	2317	2321	2302	2295	2268	2253	2242	2222	2196	2183	2161	2176	2180	2177	2197	2193	2193	2173	2165	2160	2153	2140	2119	2106	2110	2118	2118	2117	2118	2103	2077	2045	2026	2008	2003	2007	2016	2040	2046	2041	2034	2017	2002	1997	2010	2012	2002	1996	1992	1978	1956	1946	1945	1944	1933	1937	1947	1958	1935	1902	1873	1863	1857	1846	1843	1844	1837	1823	1810	1806	1809	1790	1793	1796	1782	1759	1759	1754	1762	1759	1756	1754	1752	1740	1710	1699	1689	1676	1661	1665	1673	1679	1687	1671	1665	1650	1648	1648	1643	1635	1625	1630	1642	1650	1640	1619	1610	1620	1626	1626	1613	1601	1592	1591	1596	1589	1574	1563	1552	1542	1547	1542	1557	1576	1562	1519	1506	1502	1511	1521	1512	1501	1477	1481	1486	1489	1476	1467	1471	1471	1471	1470	1465	1444	1434	1430	1425	1417	1408	1412	1412	1414	1414	1410	1406	1402	1398	1398	1391	1387	1391	1408	1413	1415	1413	1412	1393	1359	1344	1336	1332	1332	1332	1328	1323	1323	1322	0	0	0	0	0	0	0	0
0	0	0	0	0	0	0	0	0	0	1284	1263	1256	1277	1298	1298	1307	1317	1323	1324	1322	1315	1313	1306	1299	1294	1291	1281	1281	1274	1284	1293	1309	1321	1325	1331	1331	1338	1346	1353	1355	1346	1334	1313	1300	1300	1268	1275	1294	1313	1321	1328	1331	1317	1304	1304	1317	1317	1325	1332	1337	1322	1304	1326	1352	1346	1328	1334	1332	1322	1342	1366	1364	1364	1363	1339	1324	1317	1340	1339	1330	1322	1318	1322	1330	1338	1343	1343	1334	1346	1346	1342	1317	1313	1312	1322	1355	1359	1356	1349	1337	1332	1332	1340	1348	1345	1338	1345	1350	1353	1362	1364	1364	1343	1339	1352	1339	1341	1350	1349	1348	1332	1336	1352	1370	1384	1369	1355	1344	1340	1349	1361	1366	1357	1364	1387	1388	1393	1373	1362	1375	1378	1377	1382	1385	1377	1375	1378	1381	1382	1377	1379	1374	1369	1367	1359	1363	1369	1375	1380	1384	1386	1380	1365	1359	1375	1387	1389	1381	1362	1357	1364	1383	1376	1377	1372	1373	1379	1378	1366	1360	1367	1374	1365	1359	1361	1371	1378	1376	1368	1360	1363	1387	1397	1412	1406	1383	1395	1403	1409	1421	1428	1423	1413	1406	1398	1393	1375	1381	1407	1398	1420	1399	1407	1414	1412	1407	1407	1401	1394	1379	1370	1376	1398	1432	1405	1386	1394	1408	1418	1411	1411	1448	1424	1394	1391	1410	1426	1433	1422	1405	1419	1410	1409	1415	1428	1402	1410	1430	1427	1429	1426	1429	1428	1428	1421	1438	1442	1439	1439	1434	1429	1439	1471	1493	1499	1482	1442	1450	1460	1473	1500	1501	1504	1490	1490	1474	1468	1462	1455	1448	1443	1444	1423	1411	1411	1437	1494	1482	1496	1479	1467	1505	1507	1499	1503	1505	1495	1472	1468	1489	1479	1477	1476	1485	1480	1487	1500	1509	1509	1499	1473	1449	1426	1440	1458	1471	1489	1495	1504	1514	1532	1534	1508	1500	1496	1484	1492	1521	1538	1566	1580	1598	1675	1691	1681	1606	1582	1585	1588	1592	1582	1565	1546	1540	1538	1538	1535	1513	1517	1542	1555	1548	1535	1520	1518	1503	1500	1516	1498	1455	1482	1487	1516	1512	1491	1493	1488	1501	1501	1505	1509	1514	1520	1522	1519	1510	1495	1486	1485	1494	1508	1520	1521	1523	1522	1522	1516	1511	1513	1488	1496	1515	1531	1537	1542	1547	1547	1543	1544	1573	1618	1707	1977	2974	2806	3363	3400	3394	3385	3380	3390	3380	3371	3364	3356	3338	3337	3324	3261	3212	3169	3141	3120	3095	3090	3064	3078	3072	3033	2992	2990	3060	3043	2963	2903	2888	2900	2975	2965	3023	3061	3094	3092	3023	2705	2571	2504	2438	2387	2348	2299	2279	2277	2302	2309	2312	2305	2303	2279	2275	2270	2219	2191	2172	2172	2192	2175	2185	2215	2226	2209	2168	2162	2163	2166	2149	2118	2098	2097	2109	2115	2123	2113	2092	2073	2051	2030	2002	1997	2001	2021	2042	2045	2032	2020	1996	1987	1996	2007	2007	1992	1981	1977	1962	1940	1939	1940	1927	1918	1928	1925	1960	1933	1900	1870	1862	1858	1847	1846	1842	1827	1815	1805	1792	1791	1803	1802	1793	1791	1772	1761	1755	1758	1749	1749	1746	1748	1741	1719	1699	1688	1680	1678	1686	1695	1702	1704	1689	1675	1669	1667	1658	1646	1627	1629	1632	1637	1645	1638	1636	1630	1621	1603	1594	1582	1568	1569	1571	1583	1592	1589	1570	1554	1543	1542	1545	1546	1539	1526	1511	1506	1506	1508	1504	1497	1483	1475	1475	1474	1468	1461	1454	1480	1482	1475	1465	1452	1435	1424	1425	1429	1427	1424	1423	1432	1421	1405	1388	1375	1380	1390	1390	1389	1386	1388	1401	1406	1394	1389	1377	1362	1348	1350	1355	1358	1361	1362	1354	1339	1339	1321	0	0	0	0	0	0	0	0
0	0	0	0	0	0	0	0	0	0	1324	1274	1252	1272	1289	1289	1298	1304	1307	1309	1315	1305	1308	1302	1301	1298	1298	1284	1284	1279	1279	1291	1304	1316	1326	1339	1339	1340	1351	1353	1350	1341	1324	1301	1299	1299	1297	1298	1309	1311	1315	1331	1349	1325	1313	1311	1319	1319	1320	1322	1320	1307	1286	1330	1349	1330	1342	1336	1337	1321	1330	1341	1352	1350	1350	1342	1326	1320	1336	1336	1331	1323	1318	1322	1331	1342	1353	1354	1345	1342	1335	1329	1320	1316	1325	1333	1342	1350	1350	1341	1338	1330	1338	1341	1343	1346	1349	1355	1357	1351	1355	1362	1363	1363	1365	1367	1351	1343	1350	1353	1349	1335	1334	1350	1375	1390	1378	1361	1355	1357	1365	1379	1376	1370	1371	1375	1378	1373	1358	1357	1361	1375	1387	1389	1394	1396	1385	1376	1390	1391	1387	1383	1385	1384	1380	1371	1366	1375	1380	1380	1385	1380	1372	1370	1375	1380	1391	1395	1384	1344	1341	1367	1371	1376	1376	1379	1380	1379	1382	1374	1378	1382	1387	1378	1371	1377	1384	1377	1379	1389	1377	1371	1380	1399	1412	1399	1381	1390	1400	1403	1415	1423	1420	1411	1404	1392	1389	1377	1402	1406	1407	1393	1386	1399	1412	1400	1389	1384	1378	1376	1370	1360	1372	1409	1420	1401	1387	1390	1416	1428	1407	1410	1446	1441	1397	1397	1409	1423	1428	1434	1423	1419	1409	1399	1403	1408	1420	1409	1411	1428	1427	1430	1427	1419	1416	1424	1435	1430	1431	1435	1443	1443	1456	1477	1500	1502	1476	1456	1444	1442	1445	1485	1504	1490	1462	1426	1393	1386	1397	1404	1408	1417	1430	1400	1370	1329	1316	1363	1383	1374	1479	1484	1504	1484	1452	1432	1422	1420	1426	1463	1517	1516	1494	1465	1439	1418	1422	1446	1481	1520	1537	1533	1539	1582	1667	1719	1807	1730	1588	1523	1477	1466	1466	1470	1477	1492	1510	1521	1563	1631	1716	1792	1643	1696	1727	1641	1710	1815	1856	1897	1910	1908	1862	1699	1641	1607	1578	1557	1532	1514	1510	1517	1519	1533	1531	1531	1500	1491	1512	1491	1450	1472	1479	1521	1517	1499	1492	1495	1500	1507	1506	1516	1521	1520	1519	1516	1507	1501	1495	1498	1503	1515	1523	1533	1531	1534	1536	1537	1529	1523	1533	1523	1517	1520	1526	1532	1544	1551	1555	1548	1568	1606	1715	2021	2870	3355	3512	3629	3719	3764	3770	3745	3670	3649	3607	3615	3601	3605	3542	3347	3241	3195	3161	3147	3122	3087	3049	3063	3082	3061	3044	3055	3075	3103	3101	3062	3022	3026	3019	3034	3059	3064	3078	3071	2944	2645	2571	2501	2456	2408	2360	2322	2312	2305	2307	2305	2307	2299	2298	2302	2291	2290	2217	2175	2185	2186	2189	2193	2203	2218	2225	2208	2164	2167	2168	2172	2164	2107	2084	2081	2096	2116	2129	2113	2091	2070	2049	2036	2008	1996	2005	2028	2042	2036	2024	2005	1988	1990	2000	2006	2000	1984	1967	1953	1947	1930	1926	1929	1937	1923	1899	1910	1915	1897	1865	1851	1861	1862	1860	1851	1846	1830	1815	1808	1806	1808	1797	1783	1779	1787	1778	1775	1747	1746	1743	1738	1735	1738	1738	1723	1701	1690	1698	1719	1719	1726	1717	1730	1706	1681	1672	1669	1662	1651	1633	1623	1623	1629	1622	1634	1631	1625	1608	1594	1581	1560	1550	1544	1547	1558	1574	1585	1577	1566	1565	1568	1556	1544	1535	1533	1526	1508	1500	1503	1493	1485	1473	1477	1477	1466	1455	1447	1462	1481	1486	1476	1465	1450	1434	1422	1424	1426	1426	1421	1424	1425	1419	1405	1395	1392	1391	1394	1394	1388	1383	1387	1385	1386	1389	1379	1375	1369	1360	1349	1340	1334	1331	1328	1325	1321	1321	1315	0	0	0	0	0	0	0	0
0	0	0	0	0	0	0	0	0	0	1382	1331	1277	1276	1287	1287	1293	1288	1291	1296	1297	1297	1293	1295	1296	1297	1298	1291	1291	1286	1283	1281	1285	1288	1310	1324	1324	1337	1352	1352	1345	1335	1323	1311	1300	1300	1314	1318	1318	1309	1327	1351	1345	1334	1333	1332	1325	1325	1320	1319	1309	1292	1285	1296	1303	1329	1326	1348	1334	1323	1335	1326	1330	1336	1336	1333	1331	1336	1345	1343	1336	1331	1327	1335	1343	1355	1361	1365	1358	1349	1340	1323	1312	1319	1337	1344	1340	1341	1347	1345	1339	1340	1344	1348	1355	1359	1359	1359	1355	1356	1356	1360	1364	1369	1363	1365	1371	1355	1351	1354	1344	1331	1328	1342	1363	1387	1387	1376	1369	1375	1380	1388	1384	1371	1367	1366	1368	1366	1359	1359	1364	1367	1384	1384	1396	1396	1395	1392	1386	1387	1385	1385	1394	1393	1388	1379	1372	1376	1381	1375	1374	1373	1366	1369	1375	1386	1400	1401	1366	1346	1347	1353	1373	1367	1373	1378	1376	1385	1379	1385	1393	1406	1390	1371	1374	1383	1377	1390	1391	1413	1402	1392	1379	1390	1406	1397	1380	1388	1403	1407	1409	1409	1413	1407	1399	1390	1374	1371	1404	1406	1401	1395	1375	1376	1384	1383	1377	1377	1376	1375	1370	1369	1371	1413	1429	1406	1395	1399	1414	1416	1408	1407	1442	1440	1408	1408	1411	1423	1425	1421	1419	1398	1395	1395	1393	1403	1418	1409	1406	1428	1428	1431	1439	1431	1434	1424	1421	1425	1416	1435	1457	1470	1477	1483	1498	1519	1498	1576	1409	1376	1365	1365	1391	1409	1411	1400	1329	1287	1301	1338	1357	1334	1291	1264	1242	1232	0	0	0	0	0	0	0	1457	1434	1425	1434	1393	1391	1416	1457	1481	1449	1397	1348	1344	1399	1488	1575	1689	1805	1947	2120	2217	2064	2124	2055	2111	2082	1984	1671	1658	1658	1649	1636	1640	1671	1777	1809	1714	1750	1814	1873	1797	1915	1794	1848	1854	1878	1899	1910	1885	1780	1739	1537	1465	1423	1441	1447	1459	1439	1401	1391	1525	1539	1539	1503	1502	1523	1494	1451	1477	1474	1478	1512	1506	1501	1509	1508	1512	1516	1519	1525	1523	1512	1510	1506	1505	1506	1515	1520	1523	1535	1539	1539	1540	1540	1545	1541	1541	1541	1536	1513	1517	1521	1530	1535	1544	1536	1546	1551	1594	1720	2043	2828	3437	3595	3694	3767	3783	3810	3819	3789	3749	3708	3690	3691	3700	3596	3495	3249	3192	3162	3145	3067	3046	3048	3067	3095	3078	3081	3081	3116	3110	3113	3116	3105	3093	3077	3085	3094	3090	3101	3080	2953	2639	2565	2500	2462	2386	2378	2384	2356	2345	2325	2302	2288	2282	2290	2297	2305	2245	2230	2188	2235	2228	2188	2184	2201	2205	2211	2203	2197	2178	2180	2179	2154	2136	2117	2106	2113	2131	2141	2125	2109	2100	2092	2081	2067	2047	2037	2055	2060	2060	2045	2032	2015	2005	2007	2010	2003	1978	1968	1947	1934	1926	1917	1929	1938	1932	1922	1919	1924	1927	1916	1854	1840	1865	1868	1864	1854	1845	1827	1825	1824	1808	1797	1777	1762	1793	1763	1756	1748	1755	1756	1750	1735	1733	1728	1720	1706	1692	1703	1725	1715	1707	1714	1718	1703	1703	1688	1679	1670	1667	1660	1649	1633	1627	1625	1624	1623	1614	1601	1589	1577	1558	1553	1547	1549	1555	1571	1575	1570	1565	1567	1570	1574	1563	1547	1534	1522	1516	1501	1491	1489	1493	1495	1493	1487	1481	1466	1456	1455	1458	1457	1459	1458	1453	1435	1425	1427	1426	1429	1427	1424	1423	1422	1425	1422	1405	1405	1405	1403	1401	1397	1388	1384	1383	1385	1380	1373	1368	1361	1350	1341	1335	1331	1327	1325	1335	1335	1331	0	0	0	0	0	0	0	0
0	0	0	0	0	0	0	0	0	0	1390	1360	1324	1305	1306	1306	1304	1289	1285	1289	1285	1285	1286	1292	1292	1294	1296	1286	1286	1284	1272	1271	1268	1267	1281	1297	1297	1324	1344	1343	1335	1324	1319	1316	1315	1324	1324	1327	1325	1318	1331	1348	1328	1323	1325	1330	1324	1324	1324	1318	1311	1298	1288	1295	1301	1330	1332	1319	1319	1339	1337	1318	1308	1317	1317	1326	1329	1343	1347	1349	1345	1346	1347	1354	1368	1375	1374	1366	1366	1362	1342	1317	1310	1320	1338	1344	1341	1338	1348	1354	1373	1361	1355	1353	1362	1362	1360	1360	1359	1362	1362	1367	1367	1362	1365	1367	1366	1375	1351	1346	1330	1329	1330	1342	1361	1383	1401	1391	1376	1377	1383	1387	1373	1366	1359	1359	1362	1372	1375	1369	1363	1362	1366	1373	1385	1394	1394	1390	1376	1377	1389	1400	1411	1359	1342	1331	1336	1351	1360	1344	1340	1344	1362	1368	1370	1401	1418	1416	1402	1399	1393	1394	1398	1391	1372	1357	1345	1360	1369	1387	1402	1408	1391	1368	1376	1385	1384	1383	1392	1403	1391	1385	1383	1393	1402	1397	1385	1389	1402	1402	1405	1408	1406	1403	1394	1380	1369	1369	1394	1385	1383	1396	1373	1372	1379	1386	1381	1367	1376	1376	1375	1376	1376	1413	1428	1414	1400	1429	1416	1400	1404	1406	1401	1405	1405	1410	1409	1425	1424	1428	1415	1412	1392	1392	1399	1400	1430	1425	1423	1405	1425	1426	1424	1423	1421	1422	1425	1419	1420	1438	1471	1506	1499	1491	1503	1530	1558	1467	1432	0	0	0	0	0	0	0	0	0	0	0	0	0	0	0	0	0	0	0	0	0	0	0	0	0	0	0	0	0	0	0	0	0	0	0	0	0	0	0	0	1918	1934	1994	2080	2248	2254	2277	2221	2276	2112	1774	1735	1734	1724	1717	1698	1684	1708	1741	1818	1832	1831	1879	1938	1950	1939	1981	1921	1894	1893	1904	1909	1885	1805	1595	1517	1424	1380	1383	1418	1451	1453	1433	1407	1408	1521	1493	1487	1528	1530	1483	1483	1484	1482	1466	1500	1504	1504	1513	1519	1517	1520	1520	1525	1519	1515	1513	1513	1518	1521	1532	1530	1535	1544	1549	1544	1537	1537	1531	1530	1541	1543	1524	1521	1520	1520	1520	1522	1521	1522	1534	1540	1584	1705	2056	2888	3366	3610	3741	3784	3780	3805	3815	3789	3746	3722	3710	3716	3704	3694	3543	3269	3164	3135	3087	3050	3062	3059	3062	3079	3082	3083	3115	3121	3120	3123	3128	3125	3116	3099	3106	3110	3125	3132	3107	2977	2656	2573	2526	2490	2423	2440	2466	2477	2475	2476	2442	2430	2423	2394	2306	2280	2272	2666	2535	2322	2366	2228	2200	2188	2198	2196	2191	2202	2199	2191	2182	2173	2210	2198	2173	2157	2158	2171	2171	2166	2164	2147	2127	2121	2126	2154	2176	2186	2181	2171	2170	2174	2184	2163	2131	2106	2089	2090	2067	2034	2000	1973	1968	1955	1943	1925	1942	1961	1968	1989	1998	2001	1999	1979	1945	1897	1866	1847	1825	1804	1783	1774	1759	1751	1750	1764	1757	1755	1763	1771	1761	1738	1725	1718	1707	1696	1694	1695	1709	1708	1725	1744	1729	1714	1685	1673	1661	1658	1660	1661	1651	1641	1631	1632	1617	1600	1594	1588	1583	1570	1553	1555	1555	1551	1558	1565	1571	1565	1565	1569	1572	1569	1562	1550	1532	1527	1523	1514	1507	1504	1507	1507	1505	1501	1495	1472	1467	1464	1452	1445	1447	1446	1446	1439	1432	1422	1417	1420	1436	1445	1452	1458	1447	1430	1409	1403	1403	1389	1390	1398	1393	1388	1383	1379	1378	1374	1371	1366	1352	1346	1342	1342	1330	1339	1339	1345	1337	0	0	0	0	0	0	0	0
0	0	0	0	0	0	0	0	0	0	1365	1350	1349	1344	1333	1333	1319	1299	1289	1285	1287	1293	1293	1295	1283	1280	1285	1280	1275	1275	1280	1277	1271	1267	1275	1286	1286	1295	1293	1297	1310	1303	1309	1314	1319	1321	1321	1321	1315	1317	1325	1334	1325	1310	1313	1315	1320	1320	1325	1320	1314	1302	1288	1292	1303	1322	1318	1320	1320	1329	1322	1318	1306	1309	1309	1319	1329	1339	1341	1349	1362	1368	1394	1408	1412	1403	1389	1380	1376	1369	1352	1335	1316	1326	1340	1330	1414	1432	1421	1417	1432	1464	1473	1476	1484	1491	1503	1484	1457	1446	1429	1447	1457	1499	1559	1478	1474	1546	1518	1485	1490	1482	1464	1473	1462	1448	1458	1450	1448	1432	1410	1362	1334	1311	1306	1318	1335	1354	1355	1361	1359	1348	1337	1334	1343	1352	1358	1366	1386	1411	1434	1460	1478	1446	1431	1419	1401	1400	1399	1390	1379	1375	1369	1360	1355	1408	1419	1419	1422	1395	1354	1318	1304	1303	1304	1314	1351	1417	1375	1379	1390	1406	1398	1369	1384	1404	1393	1390	1393	1398	1380	1368	1378	1390	1401	1402	1394	1392	1402	1405	1406	1407	1403	1394	1386	1373	1366	1369	1378	1377	1383	1389	1373	1372	1382	1397	1407	1410	1417	1381	1391	1402	1394	1403	1419	1410	1403	1428	1417	1402	1406	1408	1406	1404	1407	1404	1417	1438	1431	1423	1410	1397	1396	1394	1402	1398	1430	1423	1418	1423	1422	1416	1417	1422	1424	1425	1426	1419	1416	1434	1475	1509	1506	1497	1511	1534	1537	1501	0	0	0	0	0	0	0	0	0	0	0	0	0	0	0	0	0	0	0	0	0	0	0	0	0	0	0	0	0	0	0	0	0	0	0	0	0	0	0	0	0	0	2058	2126	2187	2313	2380	2388	2388	2338	2164	1846	1793	0	1789	1763	1744	1732	1731	1761	1821	1835	1854	1928	1975	1952	1955	1974	1946	1910	1909	1902	1898	1873	1799	1595	1484	1426	1404	1392	1416	1454	1465	1444	1429	1416	1498	1481	1484	1528	1532	1482	1467	1488	1480	1463	1492	1504	1507	1512	1514	1515	1517	1521	1520	1514	1514	1518	1523	1525	1530	1539	1537	1546	1556	1567	1560	1552	1541	1533	1541	1545	1550	1535	1532	1532	1528	1520	1514	1509	1518	1529	1543	1574	1679	2033	2995	3393	3640	3791	3817	3825	3826	3840	3811	3767	3741	3722	3714	3710	3716	3613	3328	3158	3115	3045	3047	3058	3070	3060	3054	3069	3081	3120	3132	3146	3144	3144	3132	3119	3101	3099	3120	3135	3134	3116	3052	2921	2629	2572	2565	2525	2515	2540	2577	2611	2597	2581	2583	2586	2604	2715	2808	2841	2813	2771	2596	2461	2305	2203	2193	2204	2191	2190	2188	2191	2185	2195	2210	2211	2189	2178	2151	2150	2165	2179	2192	2186	2182	2187	2192	2193	2192	2180	2188	2192	2193	2197	2207	2191	2179	2163	2163	2166	2161	2151	2130	2061	2035	1999	1975	1957	1951	1969	2000	2035	2053	2053	2050	2043	2028	2026	1999	1980	1953	1931	1910	1899	1890	1887	1873	1840	1809	1797	1774	1756	1732	1744	1759	1799	1841	1866	1855	1838	1820	1838	1836	1808	1778	1677	1662	1699	1648	1633	1628	1640	1642	1640	1643	1633	1620	1608	1593	1576	1564	1548	1554	1548	1546	1543	1550	1561	1566	1572	1572	1570	1565	1560	1556	1538	1541	1538	1536	1534	1527	1518	1513	1514	1516	1513	1511	1506	1498	1486	1479	1477	1458	1456	1457	1459	1447	1440	1434	1434	1430	1421	1428	1434	1439	1458	1450	1412	1394	1394	1375	1373	1387	1390	1396	1391	1384	1379	1373	1370	1367	1361	1351	1346	1348	1350	1350	1350	1338	1334	0	0	0	0	0	0	0	0
0	0	0	0	0	0	0	0	0	0	1307	1314	1349	1358	1345	1345	1329	1303	1293	1289	1292	1302	1302	1299	1287	1272	1278	1287	1288	1288	1298	1288	1283	1280	1283	1289	1287	1287	1281	1274	1276	1291	1299	1306	1313	1319	1319	1320	1315	1315	1318	1325	1320	1302	1298	1303	1314	1314	1321	1322	1315	1288	1288	1297	1312	1348	1314	1346	1325	1332	1323	1334	1325	1311	1317	1317	1328	1337	1344	1356	1365	1373	1383	1392	1403	1409	1404	1391	1376	1364	1368	1379	1388	1389	1403	1456	1526	1576	1586	1587	1578	1549	1566	1578	1605	1633	1647	1655	1647	1644	1649	1654	1583	1566	1562	1588	1609	1571	1560	1571	1567	1563	1632	1657	1679	1662	1633	1626	1619	1591	1574	1558	1551	1595	1647	1640	1644	1653	1696	1759	1588	1631	1635	1665	1679	1759	1780	1853	1882	1883	1845	1828	1807	1825	1832	1826	1832	1805	1784	1757	1657	0	0	0	0	0	0	0	0	0	0	0	0	0	0	0	1341	1367	1411	1381	1387	1410	1412	1374	1381	1397	1396	1398	1398	1392	1378	1370	1380	1392	1397	1404	1402	1403	1403	1403	1405	1404	1399	1385	1382	1372	1361	1358	1367	1378	1385	1379	1375	1377	1382	1393	1403	1403	1420	1424	1421	1405	1401	1397	1408	1418	1391	1396	1414	1414	1411	1405	1407	1413	1413	1414	1432	1446	1433	1422	1419	1397	1393	1406	1414	1412	1433	1432	1433	1421	1409	1424	1425	1416	1420	1423	1412	1426	1419	1426	1468	1493	1494	1489	1509	1534	1539	1560	0	0	0	0	0	0	0	0	0	0	0	0	0	0	0	0	0	0	0	0	0	0	0	0	0	0	0	0	0	0	0	0	0	0	0	0	0	0	0	0	0	0	2095	2199	2274	2379	2442	2440	2420	2366	2172	1896	0	0	0	1796	1788	1762	1754	1765	1820	1851	1886	1953	1982	1937	1943	1957	1935	1923	1912	1906	1893	1844	1778	1598	1499	1462	1443	1442	1451	1477	1480	1464	1448	1435	1493	1482	1488	1526	1536	1491	1476	1488	1481	1464	1488	1511	1495	1499	1501	1505	1514	1521	1521	1518	1518	1521	1527	1526	1530	1539	1542	1556	1558	1554	1554	1551	1545	1548	1561	1568	1555	1547	1533	1529	1520	1513	1506	1507	1516	1531	1543	1576	1648	1951	2997	3392	3645	3803	3838	3857	3863	3854	3840	3799	3761	3767	3750	3739	3734	3644	3344	3199	3107	3032	3035	3050	3073	3040	3033	3056	3075	3128	3151	3162	3165	3155	3136	3114	3103	3095	3105	3120	3124	3108	3064	3018	2987	2891	2832	2893	2952	2972	2918	2875	2812	2733	2737	2737	3062	3055	3058	3043	3029	3027	2950	2805	2409	2231	2229	2220	2209	2197	2187	2183	2172	2197	2210	2194	2185	2168	2153	2147	2160	2176	2204	2197	2187	2183	2189	2196	2182	2176	2178	2187	2190	2193	2204	2189	2172	2170	2168	2168	2163	2163	2141	2095	2064	2032	2022	2019	2005	2035	2074	2087	2090	2087	2082	2085	2060	2042	2060	2075	2088	2109	2113	2100	2093	2108	2096	2034	2606	2522	2476	2476	2528	2544	2570	2595	2629	2673	2681	2646	2609	2595	2573	2502	2306	1741	1665	1597	1622	1618	1613	1617	1624	1627	1633	1629	1617	1600	1583	1565	1556	1543	1542	1540	1543	1543	1550	1549	1554	1555	1549	1552	1551	1549	1546	1546	1539	1538	1540	1544	1543	1533	1526	1522	1524	1526	1526	1523	1520	1509	1504	1515	1528	1513	1513	1515	1511	1511	1514	1497	1485	1472	1452	1433	1420	1413	1407	1396	1397	1391	1378	1380	1382	1387	1392	1398	1393	1383	1374	1369	1363	1361	1354	1347	1345	1350	1359	1359	1339	1331	0	0	0	0	0	0	0	0
0	0	0	0	0	0	0	0	1288	1253	1253	1278	1322	1332	1332	1332	1332	1311	1302	1296	1300	1301	1301	1293	1284	1280	1282	1289	1306	1306	1315	1312	1300	1299	1302	1307	1291	1291	1282	1272	1271	1280	1289	1295	1306	1311	1311	1319	1320	1319	1318	1321	1321	1313	1292	1295	1300	1304	1304	1310	1295	1286	1292	1301	1321	1352	1353	1346	1335	1344	1356	1338	1330	1315	1315	1315	1316	1320	1335	1354	1361	1366	1375	1390	1415	1426	1421	1412	1389	1382	1398	1417	1437	1453	1471	1506	1555	1593	1615	1624	1624	1620	1633	1648	1669	1682	1697	1691	1688	1675	1682	1679	1662	1643	1711	1720	1720	1708	1650	1643	1639	1649	1672	1691	1719	1738	1707	1685	1661	1640	1631	1632	1649	1681	1686	1675	1679	1692	1733	1809	1869	1925	1971	2017	2075	2117	1966	1936	1993	1966	1946	1919	1918	1935	1945	1997	2001	1990	1965	1931	0	0	0	0	0	0	0	0	0	0	0	0	0	0	0	0	0	1336	1344	1376	1385	1430	1422	1387	1373	1387	1386	1397	1391	1383	1376	1375	1387	1387	1392	1396	1399	1405	1402	1397	1395	1393	1392	1384	1376	1366	1355	1350	1355	1390	1390	1389	1386	1385	1394	1397	1396	1375	1385	1394	1401	1398	1398	1399	1408	1411	1408	1418	1394	1416	1416	1400	1406	1413	1418	1420	1432	1422	1415	1403	1419	1417	1405	1407	1405	1408	1425	1444	1417	1402	1419	1407	1431	1431	1434	1429	1430	1435	1449	1456	1462	1468	1470	1475	1498	1537	1580	1686	0	0	0	0	0	0	0	0	0	0	0	0	0	0	0	0	0	0	0	0	0	0	0	0	0	0	0	0	0	0	0	0	0	0	0	0	0	0	0	0	0	0	2145	2242	2319	2396	2448	2447	2444	2377	2194	1928	1851	0	1823	1818	1804	1782	1754	1769	1844	1894	1922	1962	1970	1921	1934	1933	1925	1923	1924	1910	1886	1825	1752	1580	1519	1503	1490	1492	1497	1513	1511	1481	1455	1451	1487	1483	1492	1521	1523	1503	1480	1485	1484	1470	1497	1501	1487	1489	1503	1511	1524	1527	1532	1528	1525	1522	1526	1528	1530	1533	1540	1540	1537	1530	1533	1534	1539	1545	1557	1574	1565	1557	1552	1536	1522	1514	1511	1505	1510	1532	1544	1576	1627	1887	2809	3323	3643	3775	3842	3880	3882	3878	3842	3791	3776	3795	3822	3803	3718	3668	3409	3191	3111	3055	3038	3040	3046	3035	3027	3043	3075	3116	3165	3173	3164	3145	3116	3111	3114	3111	3108	3117	3110	3097	3085	3069	3066	3053	3089	3112	3135	3153	3162	3163	3153	3132	3160	3166	3154	3143	3117	3095	3086	3092	3016	2821	2478	2238	2241	2240	2225	2206	2197	2187	2138	2183	2209	2192	2190	2178	2157	2152	2174	2210	2209	2197	2184	2182	2185	2192	2188	2187	2194	2204	2210	2200	2173	2169	2172	2168	2168	2175	2196	2200	2282	2348	2309	2288	2215	2122	1998	1937	2016	2110	2220	2311	2306	2290	2280	2301	2395	2429	2470	2511	2550	2551	2761	2785	2817	2779	2766	2737	2704	2700	2691	2686	2692	2710	2755	2809	2832	2802	2738	2729	2680	2580	2417	2290	1679	1580	1603	1614	1605	1608	1611	1622	1627	1622	1610	1591	1571	1559	1552	1551	1551	1554	1556	1557	1557	1550	1543	1538	1544	1543	1539	1537	1526	1535	1541	1542	1547	1554	1553	1546	1538	1533	1536	1543	1544	1542	1536	1525	1516	1521	1537	1543	1540	1538	1534	1538	1537	1537	1526	1519	1516	1513	1486	1457	1436	1429	1429	1420	1419	1410	1380	1381	1391	1399	1404	1400	1365	1359	1354	1340	1330	1333	1336	1346	1351	1351	1357	1342	0	0	0	0	0	0	0	0
0	0	0	0	0	0	0	0	1264	1242	1242	1261	1299	1300	1312	1331	1331	1314	1304	1302	1298	1297	1297	1290	1293	1299	1296	1303	1315	1315	1326	1327	1316	1307	1312	1318	1307	1307	1295	1285	1272	1281	1282	1289	1295	1299	1299	1310	1318	1319	1318	1321	1319	1307	1293	1290	1287	1290	1290	1289	1290	1289	1295	1310	1332	1355	1358	1356	1357	1383	1367	1339	1336	1319	1314	1314	1298	1298	1319	1343	1366	1371	1379	1393	1404	1415	1415	1405	1397	1407	1421	1449	1465	1477	1497	1520	1562	1602	1641	1661	1670	1669	1674	1685	1700	1713	1719	1725	1735	1724	1718	1713	1702	1720	1769	1748	1751	1740	1716	1710	1692	1690	1712	1721	1725	1741	1739	1722	1702	1694	1705	1711	1712	1716	1707	1684	1679	1693	1740	1819	1913	1986	2047	2104	2153	2213	2251	2251	2288	2228	2141	2095	2018	2024	2047	2073	2080	2085	2087	2067	0	0	0	0	0	0	0	0	0	0	0	0	0	0	0	0	0	1327	1331	1371	1378	1407	1412	1382	1363	1378	1387	1387	1379	1376	1371	1372	1378	1388	1386	1391	1385	1394	1392	1377	1371	1383	1384	1383	1372	1361	1353	1346	1327	1351	1397	1390	1392	1401	1397	1400	1388	1382	1388	1393	1397	1396	1396	1408	1411	1410	1419	1413	1406	1413	1399	1417	1396	1414	1418	1418	1426	1411	1394	1409	1403	1410	1411	1401	1393	1408	1414	1438	1419	1398	1409	1419	1430	1438	1428	1430	1430	1416	1439	1459	1460	1446	1447	1461	1494	1551	1636	1865	2408	0	0	0	0	0	0	0	0	0	0	0	0	0	0	0	0	0	0	0	0	0	3008	2994	2938	2953	2992	0	0	0	0	0	3106	3124	3126	0	0	0	0	0	0	0	2181	2257	2339	2410	2449	2450	2448	2407	2217	1970	1875	1847	1840	1830	1817	1785	1753	1754	1832	1886	1938	1961	1955	1939	1930	1905	1916	1929	1932	1917	1895	1836	1741	1572	1535	1523	1523	1529	1533	1531	1514	1492	1474	1469	1470	1469	1475	1496	1517	1504	1475	1477	1474	1474	1482	1481	1489	1498	1517	1524	1533	1538	1540	1539	1528	1515	1508	1515	1528	1535	1534	1529	1524	1520	1516	1517	1528	1538	1550	1570	1568	1563	1555	1551	1551	1548	1536	1526	1521	1529	1547	1579	1613	1847	2695	3275	3574	3750	3865	3926	3923	3875	3841	3790	3784	3809	3802	3763	3714	3529	3379	3160	3102	3072	3049	3019	2985	3001	2999	3025	3053	3100	3155	3170	3144	3128	3106	3106	3117	3128	3128	3113	3110	3095	3093	3072	3074	3083	3085	3119	3151	3165	3170	3161	3148	3144	3134	3156	3171	3158	3130	3108	3102	3088	3047	2853	2543	2233	2234	2232	2229	2223	2210	2203	2142	2146	2197	2192	2188	2179	2173	2199	2208	2211	2200	2185	2178	2173	2180	2190	2197	2205	2207	2204	2190	2173	2158	2163	2170	2172	2178	2192	2228	2296	2411	2370	2639	2766	2599	2390	1955	1887	1974	2216	2411	2659	2761	2787	2780	2762	2755	2907	2940	2923	2893	2900	2905	2914	2914	2917	2903	2886	2869	2851	2855	2879	2881	2915	2942	2961	2972	2956	2884	2864	2840	2723	2566	2409	1705	1598	1616	1610	1599	1597	1603	1605	1608	1610	1597	1581	1566	1554	1548	1548	1555	1555	1570	1565	1562	1556	1546	1538	1541	1545	1547	1531	1527	1539	1543	1550	1559	1564	1563	1559	1551	1545	1547	1558	1563	1567	1564	1564	1565	1563	1558	1554	1549	1551	1541	1544	1557	1556	1550	1536	1531	1569	1555	1530	1507	1493	1493	1473	1474	1465	1460	1456	1454	1424	1420	1411	1403	1407	1402	1380	1365	1359	1364	1380	1393	1393	1384	1370	0	0	0	0	0	0	0	0
0	0	0	0	0	0	0	0	1242	1247	1247	1270	1294	1286	1302	1322	1322	1316	1302	1297	1290	1285	1285	1288	1309	1314	1314	1313	1322	1322	1333	1332	1320	1314	1317	1321	1322	1322	1312	1299	1290	1286	1285	1288	1290	1299	1299	1307	1310	1313	1314	1318	1318	1312	1305	1283	1284	1287	1287	1296	1301	1301	1299	1320	1336	1353	1355	1357	1380	1402	1375	1339	1337	1326	1312	1312	1307	1340	1350	1359	1366	1367	1369	1379	1393	1398	1399	1398	1417	1437	1456	1472	1470	1485	1503	1522	1557	1608	1653	1690	1703	1709	1700	1714	1717	1719	1729	1747	1760	1755	1735	1726	1726	1738	1774	1754	1756	1750	1753	1733	1722	1730	1734	1739	1743	1747	1749	1763	1762	1757	1762	1751	1753	1741	1716	1684	1660	1688	1745	1863	1937	2003	2067	2124	2171	2251	2305	2320	2311	2272	2175	2157	2145	2143	2146	2142	2128	2157	2184	2187	0	0	0	0	0	0	0	0	0	0	0	0	0	0	0	0	0	1343	1328	1361	1379	1392	1404	1361	1361	1382	1383	1374	1377	1375	1370	1371	1371	1373	1387	1392	1395	1387	1385	1369	1363	1375	1384	1380	1373	1363	1358	1355	1336	1354	1369	1381	1393	1396	1397	1403	1394	1388	1387	1391	1391	1387	1394	1409	1421	1417	1423	1408	1405	1411	1404	1413	1416	1413	1417	1437	1443	1412	1396	1413	1417	1417	1410	1399	1400	1391	1416	1443	1445	1410	1398	1403	1423	1420	1422	1421	1420	1421	1413	1460	1471	1452	1438	1456	1504	1564	1701	2018	2595	2688	0	0	0	2874	2917	2960	2984	2997	3016	3028	3026	3046	3056	3032	3009	2996	3004	3054	3093	3122	3150	3157	3101	3090	3120	3151	3185	3197	3161	3140	3140	3145	3157	3124	3014	0	0	0	0	0	2186	2264	2362	2424	2446	2446	2448	2427	2240	1997	1949	1897	1870	1835	1824	1797	1765	1742	1773	1865	1924	1949	1932	1935	1923	1905	1922	1937	1944	1937	1914	1864	1798	1649	1583	1558	1553	1555	1549	1532	1510	1497	1493	1491	1448	1446	1454	1483	1510	1490	1465	1475	1475	1480	1473	1490	1503	1510	1525	1537	1539	1543	1533	1528	1527	1516	1515	1521	1533	1536	1530	1525	1517	1508	1505	1512	1516	1527	1545	1563	1565	1560	1553	1557	1556	1555	1549	1547	1548	1553	1567	1585	1608	1835	2736	2964	3463	3597	3695	3752	3778	3725	3659	3615	3601	3644	3656	3636	3563	3440	3161	3075	3057	3072	3096	3047	3006	2970	2993	3011	3021	3065	3135	3142	3133	3125	3111	3120	3126	3145	3142	3127	3118	3120	3117	3096	3079	3081	3095	3117	3136	3158	3158	3155	3147	3119	3119	3140	3161	3164	3136	3105	3089	3077	3046	2697	2565	2237	2214	2214	2213	2202	2211	2207	2159	2143	2178	2192	2192	2184	2179	2196	2208	2203	2190	2176	2172	2171	2175	2185	2200	2207	2195	2182	2161	2157	2163	2167	2173	2175	2177	2190	2217	2299	2447	2731	2892	2794	2644	2463	1938	1973	2087	2235	2436	2651	2774	2823	2878	2899	2940	2945	2948	2929	2902	2901	2894	2927	2952	2966	2967	2975	2965	2955	2947	2951	2954	2971	3008	3047	3048	3039	2979	2943	2906	2813	2630	2481	1711	1619	1621	1608	1594	1594	1595	1598	1595	1595	1572	1572	1568	1561	1550	1545	1545	1551	1574	1575	1567	1559	1558	1548	1546	1553	1564	1557	1551	1547	1551	1573	1574	1577	1569	1569	1564	1554	1553	1559	1566	1570	1569	1575	1584	1583	1575	1566	1575	1581	1583	1566	1559	1561	1565	1559	1576	1582	1601	1579	1569	1540	1540	1533	1538	1538	1534	1531	1527	1514	1515	1530	1451	1466	1476	1455	1427	1412	1413	1417	1417	1404	1392	1379	0	0	0	0	0	0	0	0
0	0	0	0	0	0	0	0	1234	1250	1250	1288	1298	1287	1293	1313	1313	1312	1301	1293	1286	1279	1279	1302	1321	1325	1322	1319	1326	1326	1333	1331	1324	1318	1318	1322	1328	1328	1321	1310	1298	1288	1284	1287	1289	1303	1305	1305	1309	1309	1310	1312	1318	1318	1306	1291	1292	1296	1296	1303	1311	1309	1306	1325	1336	1340	1339	1345	1370	1380	1363	1323	1326	1332	1350	1350	1350	1352	1354	1364	1369	1365	1362	1371	1388	1391	1388	1392	1415	1443	1468	1464	1463	1467	1488	1517	1557	1601	1653	1693	1726	1738	1733	1729	1726	1729	1738	1757	1767	1764	1745	1736	1743	1749	1768	1754	1743	1746	1771	1743	1726	1756	1763	1754	1745	1742	1757	1780	1801	1813	1804	1787	1771	1743	1701	1649	1648	1689	1769	1880	1955	2016	2074	2127	2179	2244	2294	2336	2307	2257	2199	2201	2176	2165	2158	2139	2147	2173	2216	2279	0	0	0	0	0	0	0	0	0	0	0	0	0	0	0	0	0	1395	1341	1355	1378	1385	1346	1344	1373	1390	1387	1380	1383	1379	1373	1373	1374	1376	1379	1404	1403	1402	1389	1372	1372	1374	1384	1381	1373	1374	1370	1354	1352	1362	1369	1383	1390	1392	1389	1398	1406	1404	1396	1389	1382	1383	1396	1409	1421	1407	1420	1382	1396	1400	1399	1408	1417	1409	1409	1432	1430	1424	1413	1414	1424	1426	1428	1405	1403	1408	1424	1434	1447	1435	1417	1404	1410	1423	1421	1411	1420	1426	1423	1438	1463	1459	1440	1450	1495	1568	1728	2099	2705	2776	2881	2953	2999	3022	3039	3027	3023	3029	3034	3064	3102	3126	3112	3072	3037	3019	3030	3064	3110	3143	3163	3174	3202	3174	3180	3190	3207	3195	3158	3142	3143	3140	3147	3128	3048	2834	0	0	0	0	2186	2253	2369	2428	2430	2421	2443	2410	2242	1997	1973	1931	1910	1860	1849	1829	1800	1783	1779	1833	1906	1944	1931	1928	1917	1904	1914	1945	1958	1947	1930	1892	1819	1702	1632	1604	1569	1563	1549	1528	1503	1503	1504	1492	1438	1434	1460	1503	1507	1476	1458	1528	1530	1482	1464	1487	1506	1521	1531	1533	1534	1529	1531	1532	1527	1525	1523	1526	1529	1530	1524	1517	1505	1500	1492	1501	1508	1526	1556	1559	1559	1555	1550	1554	1557	1557	1554	1560	1568	1577	1590	1592	1622	1839	2421	3186	3042	3124	3174	3213	3250	3290	3268	3211	3198	3243	3301	3293	3234	3169	3082	3030	3004	3031	3067	3049	3014	2996	2993	2988	2996	3024	3084	3121	3127	3135	3135	3139	3143	3134	3133	3127	3123	3127	3123	3108	3072	3085	3093	3104	3095	3108	3132	3138	3135	3113	3111	3123	3132	3154	3133	3087	3059	3043	2980	2683	2575	2253	2200	2194	2206	2209	2206	2195	2154	2126	2163	2184	2190	2188	2186	2201	2208	2196	2181	2168	2160	2161	2173	2181	2194	2193	2184	2170	2166	2161	2173	2178	2175	2168	2173	2195	2220	2299	2479	2771	2935	2836	2676	2504	2067	1917	2014	2209	2260	2440	2565	2734	2834	2855	2858	2844	2822	2817	2776	2787	2793	2813	2826	2891	2909	2876	2874	2867	2876	2892	2932	2968	3001	3040	3049	3048	2988	2933	2867	2755	2584	2443	1712	1615	1615	1601	1596	1598	1601	1606	1602	1588	1568	1557	1554	1563	1557	1545	1536	1529	1541	1561	1564	1565	1568	1560	1554	1561	1568	1567	1557	1557	1559	1572	1572	1572	1569	1565	1557	1551	1555	1559	1560	1560	1562	1568	1576	1580	1573	1563	1565	1568	1569	1568	1562	1561	1566	1578	1586	1601	1743	1768	1745	1736	1736	1730	1733	1736	1751	1767	1778	1771	1783	1816	1837	1837	1567	1542	1522	1512	1513	1526	1526	1526	1498	1469	0	0	0	0	0	0	0	0
0	0	0	0	0	0	0	0	1245	1264	1264	1299	1310	1288	1274	1293	1293	1287	1291	1291	1287	1310	1310	1324	1332	1329	1325	1323	1331	1331	1331	1328	1326	1320	1322	1323	1323	1323	1321	1313	1298	1280	1275	1280	1304	1311	1307	1307	1313	1312	1308	1310	1313	1316	1308	1307	1306	1306	1306	1306	1310	1311	1305	1338	1360	1329	1331	1330	1344	1358	1319	1318	1357	1368	1363	1362	1362	1357	1365	1375	1375	1363	1362	1374	1398	1408	1406	1401	1410	1440	1456	1456	1440	1443	1467	1511	1555	1600	1646	1689	1728	1747	1754	1753	1746	1745	1748	1759	1771	1770	1777	1783	1758	1769	1748	1733	1719	1744	1773	1741	1721	1776	1792	1772	1741	1731	1744	1794	1819	1845	1849	1805	1784	1741	1675	1630	1645	1709	1790	1908	1983	2042	2090	2137	2172	2220	2246	2299	2269	2231	2215	2210	2182	2154	2146	2154	2165	2185	2241	2321	2512	0	0	0	0	0	0	0	0	0	0	0	0	0	0	0	0	1414	1365	1376	1396	1376	1339	1339	1358	1387	1391	1388	1389	1386	1379	1377	1378	1386	1388	1400	1409	1408	1400	1382	1381	1374	1382	1367	1365	1365	1358	1361	1363	1370	1372	1382	1389	1396	1384	1391	1403	1409	1405	1390	1385	1388	1397	1421	1413	1424	1417	1398	1393	1390	1417	1403	1421	1408	1407	1408	1410	1417	1416	1408	1425	1429	1412	1407	1406	1418	1420	1427	1438	1431	1421	1420	1421	1423	1418	1412	1422	1416	1420	1426	1449	1453	1441	1440	1451	1539	1777	2184	2786	2841	2901	2948	2984	3007	2990	2956	2955	2968	2992	2999	3032	3090	3083	3069	3035	3022	3024	3040	3070	3097	3099	3146	3157	3111	3132	3174	3180	3171	3153	3142	3140	3140	3138	3114	3034	2855	0	0	0	0	2224	2256	2329	2392	2427	2416	2433	2410	2237	2019	1996	1956	1930	1909	1896	1875	1858	1847	1864	1859	1919	1954	1929	1911	1908	1902	1901	1952	1960	1947	1928	1878	1833	1730	1673	1635	1592	1564	1537	1521	1508	1514	1513	1501	1451	1436	1469	1496	1493	1451	1483	1510	1516	1516	1461	1481	1495	1512	1522	1516	1517	1522	1527	1532	1534	1532	1529	1527	1521	1520	1517	1511	1508	1501	1487	1490	1509	1548	1555	1555	1552	1544	1545	1549	1552	1558	1559	1562	1570	1587	1607	1591	1637	1822	2273	2863	2978	3032	3065	3111	3113	3134	3118	3117	3124	3133	3154	3158	3140	3091	3033	2986	2987	2986	2996	3010	3007	2982	2964	2948	2937	2964	3028	3054	3108	3135	3148	3145	3143	3127	3121	3111	3124	3137	3135	3119	3081	3080	2992	3009	3018	3022	3014	3034	3074	3101	3064	2968	2975	2981	3026	3042	3014	2993	2904	2681	2565	2264	2189	2188	2191	2199	2201	2189	2158	2140	2177	2174	2175	2175	2178	2206	2204	2178	2173	2165	2165	2163	2169	2169	2177	2176	2175	2169	2170	2177	2183	2179	2163	2170	2189	2208	2218	2275	2474	2901	2899	2837	2739	2584	2320	1943	1892	1951	2074	2170	2379	2594	2728	2728	2718	2709	2704	2692	2679	2649	2659	2678	2688	2682	2707	2717	2731	2732	2752	2778	2767	2775	2761	2814	2790	2794	2753	2757	2702	2601	2475	2365	1720	1614	1603	1600	1605	1605	1619	1608	1595	1585	1581	1580	1581	1581	1569	1555	1543	1528	1528	1549	1554	1560	1570	1571	1570	1565	1568	1566	1566	1567	1568	1581	1580	1572	1567	1559	1550	1551	1556	1559	1555	1555	1559	1566	1573	1575	1567	1558	1555	1562	1564	1562	1560	1562	1575	1572	1602	1752	1843	2084	2219	2219	2215	2177	2144	2123	2150	2192	2185	2163	2166	2089	2068	2045	1979	1961	1874	1878	1868	1881	1881	1890	1873	1843	0	0	0	0	0	0	0	0
0	0	0	0	0	0	0	0	1267	1276	1276	1303	1317	1276	1246	1270	1270	1270	1275	1285	1298	1319	1328	1328	1327	1330	1328	1326	1326	1329	1329	1321	1320	1320	1317	1318	1320	1319	1319	1309	1286	1269	1272	1296	1323	1326	1325	1325	1325	1324	1318	1315	1320	1323	1325	1318	1317	1312	1318	1318	1320	1318	1304	1342	1365	1338	1328	1323	1320	1325	1319	1333	1377	1380	1361	1371	1371	1371	1371	1379	1375	1367	1365	1381	1417	1431	1431	1411	1414	1427	1438	1436	1423	1422	1455	1499	1554	1601	1640	1678	1717	1748	1766	1772	1767	1759	1762	1760	1769	1766	1778	1789	1793	1779	1744	1722	1713	1737	1759	1735	1720	1779	1799	1782	1767	1746	1745	1793	1828	1854	1859	1835	1801	1757	1692	1660	1675	1725	1803	1926	2007	2072	2111	2137	2170	2187	2202	2250	2255	2231	2224	2206	2170	2146	2155	2168	2188	2227	2264	2345	2535	2687	0	0	0	2766	2778	2775	0	0	0	0	0	0	0	0	0	1422	1378	1396	1389	1369	1360	1342	1350	1373	1381	1380	1378	1384	1380	1377	1380	1391	1403	1400	1401	1407	1404	1401	1382	1375	1380	1388	1369	1362	1358	1359	1367	1372	1376	1388	1398	1403	1398	1387	1401	1404	1398	1392	1381	1396	1412	1444	1429	1409	1411	1390	1396	1388	1398	1416	1404	1404	1409	1408	1404	1402	1402	1411	1431	1432	1430	1426	1419	1418	1424	1429	1433	1428	1445	1414	1422	1425	1415	1418	1415	1408	1403	1428	1438	1439	1442	1444	1452	1526	1784	2222	2806	2850	2875	2899	2928	2959	2944	2950	2956	2964	2948	2905	2914	2987	3012	3023	3003	2986	2990	2993	3006	3030	3043	3040	3069	3041	3079	3115	3123	3107	3092	3067	3082	3056	3059	3029	2995	2807	2613	0	0	2280	2274	2284	2317	2379	2433	2438	2426	2390	2280	2127	2019	1976	1958	1935	1929	1912	1898	1904	1929	1902	1939	1951	1918	1905	1910	1907	1903	1932	1946	1938	1913	1848	1833	1746	1708	1657	1605	1565	1538	1523	1526	1529	1542	1526	1476	1446	1465	1488	1475	1444	1457	1494	1497	1495	1472	1491	1502	1511	1520	1511	1508	1515	1522	1531	1536	1541	1531	1525	1515	1503	1505	1503	1500	1495	1488	1487	1505	1549	1554	1550	1544	1537	1534	1536	1539	1548	1553	1556	1566	1572	1587	1578	1636	1788	2151	2758	2831	2900	2951	2991	3028	3024	3024	3034	3072	3097	3098	3085	3049	3016	2980	2960	2976	2973	2865	2860	2875	2912	2912	2886	2874	2879	2929	2938	2946	2945	2946	2967	2986	3002	3002	2990	2987	2993	3045	3068	2887	2801	2804	2842	2867	2859	2811	2772	2764	2798	2828	2843	2857	2870	2875	2850	2800	2786	2779	2628	2500	2253	2190	2188	2183	2187	2194	2175	2152	2157	2191	2162	2162	2168	2183	2196	2195	2171	2160	2173	2164	2163	2171	2168	2171	2167	2164	2169	2170	2179	2178	2170	2159	2166	2187	2205	2220	2237	2393	2771	2759	2645	2597	2554	2367	2272	1903	1916	1971	2039	2247	2541	2657	2662	2658	2649	2644	2620	2580	2542	2553	2563	2561	2557	2556	2572	2588	2633	2665	2678	2689	2665	2620	2610	2605	2613	2657	2644	2604	2519	2399	2249	1729	1608	1598	1606	1612	1619	1617	1602	1590	1587	1582	1584	1595	1599	1586	1568	1558	1530	1517	1533	1538	1545	1548	1550	1555	1561	1557	1562	1568	1573	1578	1590	1595	1576	1571	1559	1553	1558	1565	1564	1558	1554	1561	1566	1573	1574	1562	1555	1553	1557	1563	1560	1562	1580	1575	1598	1724	1903	2110	2101	2245	2245	2240	2203	2173	2155	2176	2209	2203	2193	2224	2173	2139	2108	2059	2069	2107	2129	2013	2028	2028	2007	1961	1881	0	0	0	0	0	0	0	0
0	0	0	0	0	0	0	0	1291	1277	1277	1291	1311	1279	1250	1262	1262	1274	1275	1288	1300	1312	1320	1320	1314	1318	1320	1321	1319	1313	1313	1311	1310	1310	1310	1313	1315	1314	1314	1299	1277	1271	1281	1310	1337	1338	1330	1330	1327	1330	1325	1330	1338	1339	1330	1323	1316	1307	1315	1315	1325	1319	1310	1336	1355	1336	1330	1328	1330	1319	1317	1341	1381	1382	1355	1370	1370	1378	1374	1372	1370	1365	1373	1393	1428	1442	1433	1410	1406	1412	1419	1418	1410	1415	1445	1498	1557	1606	1641	1666	1705	1747	1775	1786	1787	1781	1771	1761	1756	1751	1747	1767	1775	1787	1745	1722	1714	1733	1735	1725	1737	1764	1788	1781	1781	1761	1760	1789	1820	1854	1866	1855	1821	1780	1725	1697	1713	1746	1825	1944	2035	2090	2131	2152	2167	2179	2192	2234	2252	2231	2203	2182	2137	2140	2161	2189	2218	2241	2275	2325	2418	2596	2668	2681	2675	2700	2753	2805	2807	2838	2873	2850	0	0	0	0	0	1446	1389	1387	1376	1358	1368	1356	1351	1363	1369	1376	1379	1380	1378	1377	1382	1385	1411	1408	1405	1404	1399	1398	1395	1382	1382	1380	1386	1381	1363	1354	1362	1368	1374	1387	1397	1406	1405	1396	1397	1398	1396	1397	1393	1406	1420	1455	1421	1396	1400	1404	1383	1376	1380	1401	1383	1405	1411	1405	1409	1415	1412	1420	1423	1432	1435	1434	1428	1418	1418	1436	1443	1431	1423	1443	1421	1406	1411	1404	1413	1407	1398	1412	1440	1438	1440	1448	1455	1514	1768	2193	2676	2794	2809	2835	2870	2864	2847	2880	2917	2925	2910	2865	2829	2879	2886	2917	2912	2918	2924	2933	2947	2931	2926	2874	2830	2844	2948	2988	3002	2980	2956	2893	2822	2773	2807	2807	2842	2784	2576	2393	2301	2290	2314	2313	2323	2380	2447	2466	2452	2397	2284	2112	2034	2002	1969	1957	1943	1913	1910	1913	1926	1928	1927	1948	1914	1909	1918	1922	1907	1925	1934	1919	1894	1838	1845	1753	1716	1658	1604	1566	1548	1544	1548	1560	1568	1558	1492	1469	1459	1454	1453	1456	1471	1489	1491	1493	1485	1503	1513	1518	1523	1522	1519	1516	1520	1530	1544	1548	1541	1528	1509	1506	1504	1503	1497	1496	1496	1505	1530	1547	1555	1546	1537	1531	1525	1523	1526	1536	1548	1549	1551	1547	1544	1557	1618	1752	2082	2613	2759	2848	2878	2885	2899	2935	2953	2977	3022	3082	3075	3008	2817	2786	2775	2792	2823	2840	2809	2768	2794	2815	2828	2798	2788	2805	2820	2822	2841	2853	2860	2852	2836	2774	2747	2750	2785	2835	2821	2853	2794	2739	2727	2738	2768	2736	2707	2684	2668	2701	2726	2756	2749	2753	2762	2734	2705	2693	2638	2596	2425	2238	2192	2190	2199	2192	2187	2182	2157	2159	2168	2158	2158	2166	2180	2190	2195	2191	2159	2169	2156	2150	2155	2169	2166	2168	2167	2172	2170	2172	2170	2162	2155	2166	2179	2195	2216	2235	2319	2407	2478	2485	2495	2503	2415	2303	2173	1849	1919	1969	2041	2287	2555	2595	2585	2579	2538	2309	2261	2421	2464	2467	2460	2450	2441	2453	2503	2545	2584	2583	2591	2544	2514	2493	2481	2496	2550	2548	2513	2442	2271	2120	1753	1630	1625	1609	1612	1615	1611	1601	1598	1589	1586	1590	1601	1606	1592	1579	1561	1530	1515	1517	1526	1524	1519	1525	1524	1518	1525	1547	1565	1571	1579	1591	1592	1576	1572	1565	1562	1566	1578	1573	1566	1566	1571	1575	1578	1579	1569	1556	1552	1557	1569	1575	1580	1586	1587	1642	1763	1942	2106	2137	2168	2168	2190	2183	2183	2181	2181	2192	2191	2193	2198	2181	2129	2093	2098	2125	2169	2190	2201	2131	2131	2116	2098	2072	0	0	0	0	0	0	0	0
0	0	0	0	0	0	0	0	1311	1263	1278	1278	1312	1291	1266	1268	1268	1284	1286	1285	1292	1300	1302	1302	1297	1297	1307	1313	1309	1302	1302	1300	1299	1297	1292	1299	1306	1305	1305	1292	1285	1288	1297	1327	1342	1340	1330	1330	1326	1321	1329	1341	1352	1345	1331	1322	1314	1314	1318	1318	1323	1324	1311	1329	1346	1337	1336	1335	1339	1322	1315	1337	1370	1367	1359	1371	1378	1378	1374	1370	1369	1366	1375	1394	1411	1422	1432	1415	1401	1407	1410	1419	1422	1421	1444	1502	1564	1610	1637	1660	1694	1727	1759	1786	1795	1796	1778	1766	1755	1749	1743	1751	1757	1764	1751	1744	1740	1737	1722	1732	1752	1742	1750	1758	1763	1778	1778	1789	1821	1848	1866	1856	1844	1806	1763	1740	1735	1781	1870	1966	2067	2115	2139	2164	2177	2197	2216	2231	2245	2257	2206	2131	2118	2133	2162	2191	2216	2234	2262	2298	2386	2487	2590	2633	2642	2653	2685	2775	2807	2838	2842	2785	2707	2574	0	0	0	1465	1402	1372	1360	1356	1371	1372	1358	1362	1373	1385	1390	1382	1377	1378	1381	1380	1374	1401	1404	1404	1394	1393	1397	1400	1393	1387	1384	1378	1367	1354	1366	1369	1368	1383	1393	1400	1405	1404	1401	1395	1396	1402	1410	1413	1412	1434	1414	1394	1390	1399	1382	1385	1390	1382	1386	1414	1423	1410	1412	1417	1420	1427	1416	1429	1424	1428	1425	1422	1425	1422	1437	1438	1426	1421	1415	1406	1411	1404	1405	1412	1420	1409	1437	1449	1446	1452	1456	1499	1725	2139	2553	2556	2568	2575	2606	2597	2628	2657	2762	2844	2783	2750	2710	2687	2671	2693	2727	2778	2856	2859	2827	2719	2674	2668	2720	2723	2705	2734	2791	2829	2819	2753	2689	2649	2649	2663	2690	2678	2561	2443	2339	2313	2318	2329	2342	2381	2419	2459	2418	2396	2273	2082	2010	1984	1962	1956	1943	1916	1904	1905	1920	1918	1886	1907	1965	1982	1957	1948	1908	1922	1924	1902	1878	1846	1854	1752	1697	1630	1583	1571	1575	1585	1587	1579	1585	1586	1528	1474	1459	1468	1475	1482	1489	1482	1485	1493	1500	1506	1519	1521	1528	1529	1526	1525	1520	1529	1542	1548	1534	1523	1521	1516	1519	1509	1500	1504	1513	1520	1524	1535	1541	1546	1541	1532	1524	1523	1525	1530	1540	1542	1543	1540	1542	1548	1609	1743	2075	2452	2704	2781	2819	2814	2763	2719	2704	2723	2758	2816	2815	2753	2704	2671	2665	2684	2702	2697	2686	2646	2622	2643	2665	2701	2710	2680	2682	2701	2711	2720	2735	2726	2696	2663	2633	2647	2211	2200	2356	2390	2559	2520	2590	2625	2660	2643	2627	2590	2568	2589	2614	2639	2630	2647	2645	2639	2607	2577	2537	2518	2342	2224	2203	2201	2207	2205	2183	2168	2160	2172	2165	2166	2164	2170	2171	2172	2178	2185	2181	2166	2149	2145	2156	2164	2168	2164	2170	2181	2176	2171	2166	2159	2160	2164	2172	2188	2198	2242	2309	2315	2363	2393	2412	2461	2434	2332	2151	1876	1934	1967	2004	2081	2305	2530	2532	2427	2263	2064	2013	2252	2412	2419	2412	2389	2369	2368	2389	2437	2534	2539	2497	2456	2424	2403	2362	2359	2397	2390	2292	2220	2132	1935	1823	1665	1633	1608	1608	1608	1606	1608	1608	1601	1595	1593	1588	1600	1587	1567	1563	1545	1523	1507	1505	1506	1501	1498	1490	1482	1471	1507	1552	1560	1569	1574	1572	1569	1570	1563	1559	1573	1573	1571	1573	1576	1582	1590	1591	1587	1574	1565	1560	1561	1571	1580	1588	1586	1593	1672	1820	2061	2085	2116	2116	2144	2170	2173	2173	2180	2183	2188	2189	2178	2187	2160	2109	2082	2088	2117	2156	2179	2171	2171	2126	2137	2110	2073	0	0	0	0	0	0	0	0
0	0	0	0	0	0	0	0	1336	1254	1263	1263	1304	1299	1284	1274	1292	1292	1294	1299	1294	1296	1294	1294	1295	1297	1307	1308	1302	1297	1297	1292	1286	1285	1281	1286	1291	1297	1297	1298	1295	1303	1316	1331	1341	1336	1329	1329	1316	1319	1324	1336	1353	1348	1332	1318	1320	1320	1329	1329	1324	1326	1303	1305	1342	1343	1336	1341	1346	1335	1323	1331	1351	1356	1356	1364	1366	1366	1370	1372	1371	1369	1376	1389	1395	1405	1411	1419	1414	1410	1420	1430	1437	1440	1453	1507	1568	1612	1644	1666	1689	1712	1741	1771	1792	1789	1773	1766	1763	1761	1757	1752	1755	1761	1766	1767	1766	1747	1733	1745	1774	1736	1716	1722	1750	1778	1781	1786	1813	1836	1857	1857	1846	1831	1794	1784	1806	1839	1919	2015	2091	2124	2146	2160	2193	2215	2235	2226	2235	2247	2216	2126	2104	2125	2159	2186	2205	2214	2245	2306	2383	2474	2554	2598	2591	2593	2603	2657	2711	2749	2735	2700	2664	2581	0	0	1802	1474	1417	1377	1344	1350	1372	1380	1371	1371	1385	1397	1404	1388	1382	1376	1378	1377	1383	1397	1400	1391	1385	1385	1398	1411	1403	1394	1386	1378	1360	1364	1367	1364	1363	1376	1388	1400	1402	1407	1400	1387	1384	1398	1408	1408	1402	1402	1404	1389	1389	1400	1390	1395	1401	1391	1390	1404	1425	1409	1407	1413	1411	1426	1428	1417	1421	1415	1425	1433	1431	1430	1427	1425	1405	1406	1405	1398	1397	1400	1417	1415	1417	1416	1434	1457	1455	1454	1457	1495	1696	2095	2299	2466	2447	2433	2439	2430	2490	2510	2586	2603	2610	2606	2596	2595	2604	2601	2596	2618	2651	2639	2569	2512	2539	2569	2635	2624	2624	2576	2595	2580	2585	2509	2490	2483	2545	2563	2563	2527	2489	2444	2394	2351	2335	2341	2362	2392	2408	2415	2406	2372	2264	2059	2023	1970	1965	1966	1970	1956	1935	1924	1934	1905	1867	1905	1977	1998	1973	1966	1937	1929	1915	1895	1874	1859	1832	1729	1636	1592	1575	1580	1599	1601	1581	1563	1553	1548	1520	1479	1455	1468	1480	1500	1491	1476	1477	1497	1506	1498	1507	1517	1525	1531	1532	1528	1524	1530	1540	1537	1527	1523	1529	1535	1528	1517	1515	1518	1523	1512	1515	1521	1527	1539	1547	1543	1541	1537	1543	1546	1538	1530	1529	1532	1540	1549	1601	1765	2161	2386	2582	2623	2642	2631	2547	2524	2510	2502	2493	2539	2563	2540	2511	2564	2590	2576	2615	2636	2592	2558	2534	2497	2514	2515	2523	2476	2490	2544	2589	2613	2626	2623	2596	2544	2313	2101	1982	1740	1679	1670	1996	2358	2400	2437	2544	2557	2551	2493	2449	2438	2441	2431	2438	2467	2512	2488	2492	2455	2437	2316	2259	2211	2199	2211	2209	2204	2177	2165	2173	2184	2161	2175	2174	2174	2163	2164	2171	2185	2181	2159	2146	2139	2145	2150	2157	2166	2172	2173	2186	2180	2176	2166	2181	2190	2195	2187	2190	2200	2202	2280	2302	2295	2279	2227	2202	2142	2064	2005	1994	1991	2009	2029	2071	2175	2218	2237	2207	2139	2081	2083	2198	2226	2226	2218	2207	2189	2190	2201	2213	2221	2209	2194	2172	2148	2131	2140	2156	2165	2163	2138	2085	1997	1915	1682	1639	1608	1602	1598	1606	1609	1609	1604	1594	1580	1587	1580	1569	1559	1558	1551	1529	1510	1499	1494	1496	1495	1482	1482	1475	1482	1532	1551	1565	1573	1573	1563	1561	1556	1562	1564	1561	1561	1570	1577	1589	1603	1605	1594	1581	1571	1566	1565	1569	1579	1592	1592	1579	1633	1765	2040	2057	2066	2066	2070	2070	2081	2085	2080	2087	2099	2095	2072	2043	2020	2025	2039	2044	2069	2084	2076	2057	2057	2034	2001	1960	2021	0	0	0	0	0	0	0	0
0	0	0	0	0	0	0	0	1361	1241	1256	1256	1297	1293	1278	1280	1303	1303	1304	1306	1305	1300	1296	1296	1290	1289	1297	1305	1300	1293	1293	1290	1286	1283	1281	1279	1287	1297	1297	1301	1314	1323	1330	1331	1332	1323	1318	1311	1311	1308	1315	1323	1330	1336	1336	1327	1328	1327	1324	1324	1328	1321	1301	1298	1320	1335	1336	1337	1338	1343	1332	1331	1343	1352	1357	1349	1351	1351	1362	1368	1366	1366	1370	1375	1373	1383	1402	1424	1420	1417	1420	1435	1447	1450	1470	1515	1571	1618	1651	1673	1700	1710	1729	1752	1764	1767	1753	1753	1750	1763	1761	1757	1749	1761	1778	1784	1779	1754	1734	1759	1767	1731	1701	1710	1731	1765	1778	1800	1816	1834	1835	1848	1849	1840	1820	1822	1847	1890	1966	2049	2102	2127	2141	2166	2197	2227	2245	2229	2229	2252	2231	2127	2103	2137	2173	2193	2199	2201	2230	2302	2392	2461	2515	2535	2529	2548	2544	2515	2570	2653	2667	2629	2564	2552	2261	2002	1825	1455	1428	1406	1342	1342	1366	1377	1374	1384	1399	1411	1403	1391	1376	1363	1352	1364	1387	1398	1395	1387	1377	1370	1389	1404	1400	1393	1388	1378	1359	1356	1361	1357	1356	1370	1382	1397	1401	1399	1382	1376	1376	1393	1406	1407	1405	1404	1405	1393	1389	1399	1416	1418	1440	1411	1443	1404	1411	1408	1406	1416	1428	1427	1413	1411	1404	1407	1413	1430	1431	1423	1432	1423	1431	1433	1443	1422	1410	1411	1413	1408	1410	1409	1418	1452	1461	1456	1459	1497	1677	2010	2156	2318	2351	2359	2352	2364	2367	2389	2408	2335	2355	2417	2442	2441	2441	2446	2462	2497	2519	2485	2435	2413	2422	2428	2403	2401	2457	2475	2443	2378	2311	2285	2281	2299	2377	2417	2440	2385	2370	2366	2370	2357	2343	2341	2359	2378	2392	2391	2379	2353	2247	2116	2001	1967	1969	1976	1994	1994	1973	1952	1938	1885	1867	1907	1971	1985	1975	1967	1935	1918	1910	1902	1900	1885	1843	1702	1603	1562	1565	1587	1613	1598	1561	1518	1506	1505	1509	1472	1448	1473	1515	1505	1476	1473	1473	1501	1513	1505	1503	1507	1512	1520	1527	1531	1524	1521	1525	1521	1513	1508	1517	1524	1516	1519	1514	1519	1517	1506	1510	1514	1521	1529	1541	1549	1553	1555	1558	1555	1544	1523	1520	1525	1535	1548	1613	1793	2136	2293	2483	2477	2451	2428	2414	2423	2416	2392	2383	2406	2408	2386	2381	2393	2384	2361	2425	2465	2516	2522	2510	2443	2401	2388	2395	2411	2425	2437	2464	2527	2542	2531	2409	2349	2129	1939	1819	1686	1604	1537	1526	1708	1757	2031	2347	2410	2435	2381	2362	2328	2303	2284	2270	2246	2238	2231	2251	2277	2265	2225	2197	2177	2188	2199	2211	2204	2175	2170	2177	2187	2165	2167	2176	2160	2161	2162	2187	2182	2175	2163	2158	2119	2115	2120	2135	2156	2179	2188	2192	2197	2196	2191	2198	2211	2206	2192	2175	2182	2181	2160	2169	2173	2152	2119	2112	2108	2130	2128	2042	1996	2001	1995	2047	2112	2108	2167	2197	2169	2141	2136	2140	2151	2166	2173	2166	2154	2145	2163	2182	2193	2180	2137	2122	2122	2134	2122	2106	2101	2112	2112	2081	2025	1927	1661	1630	1631	1599	1596	1604	1605	1604	1597	1582	1574	1571	1566	1556	1553	1557	1560	1554	1523	1515	1503	1505	1503	1498	1481	1488	1497	1501	1548	1567	1577	1585	1583	1575	1567	1562	1562	1568	1563	1574	1575	1588	1604	1604	1598	1586	1575	1570	1567	1566	1570	1579	1582	1579	1627	1762	2032	2038	2056	2056	2069	2057	2059	2053	2055	2063	2070	2057	2025	2010	1999	1991	2006	2015	2030	2043	2038	2006	2006	1979	1951	1917	1895	0	0	0	0	0	0	0	0
0	0	0	0	0	0	0	1581	1323	1239	1268	1268	1290	1271	1271	1292	1306	1306	1306	1308	1311	1313	1296	1296	1288	1286	1296	1304	1306	1301	1301	1294	1291	1289	1291	1292	1293	1297	1306	1306	1318	1333	1334	1336	1319	1308	1307	1305	1305	1300	1302	1308	1312	1313	1318	1327	1331	1327	1321	1317	1313	1312	1315	1328	1336	1334	1337	1338	1364	1383	1353	1336	1336	1357	1356	1336	1333	1344	1344	1352	1358	1355	1366	1361	1368	1375	1395	1420	1421	1416	1418	1430	1439	1449	1479	1520	1573	1617	1657	1678	1704	1716	1723	1736	1736	1732	1723	1731	1751	1757	1757	1748	1742	1758	1788	1786	1786	1752	1736	1749	1728	1710	1690	1692	1702	1738	1773	1811	1823	1824	1831	1838	1840	1840	1826	1835	1869	1913	1979	2059	2105	2129	2145	2177	2213	2233	2238	2227	2237	2240	2231	2140	2130	2154	2192	2200	2194	2202	2240	2313	2387	2441	2451	2430	2456	2490	2483	2471	2500	2558	2556	2499	2470	2442	2274	1967	1834	1457	1416	1385	1358	1355	1355	1365	1381	1402	1413	1406	1402	1391	1375	1367	1367	1391	1400	1400	1398	1388	1376	1359	1363	1375	1391	1397	1388	1375	1361	1350	1362	1369	1376	1381	1382	1389	1390	1387	1381	1379	1381	1390	1407	1417	1414	1415	1414	1407	1392	1404	1421	1433	1439	1448	1432	1406	1412	1411	1415	1418	1425	1417	1412	1411	1406	1415	1425	1415	1413	1423	1426	1428	1418	1438	1446	1439	1426	1412	1412	1404	1403	1400	1399	1436	1462	1458	1460	1508	1695	1988	2087	2211	2239	2243	2241	2223	2280	2279	2227	2244	2281	2316	2342	2335	2338	2333	2328	2323	2325	2333	2347	2321	2316	2286	2271	2224	2224	2248	2245	2248	2241	2241	2227	2213	2227	2248	2282	2288	2276	2275	2293	2278	2266	2251	2269	2298	2318	2325	2293	2277	2261	2140	2022	1962	1962	1984	2010	2019	2000	1948	1905	1867	1859	1902	1959	1959	1946	1944	1942	1908	1901	1904	1913	1938	1866	1673	1594	1562	1567	1604	1603	1581	1532	1498	1482	1489	1494	1461	1441	1468	1510	1490	1473	1465	1478	1508	1515	1506	1507	1503	1505	1510	1520	1528	1522	1514	1509	1506	1497	1501	1504	1498	1499	1499	1513	1515	1508	1504	1507	1514	1515	1517	1532	1537	1545	1542	1552	1554	1542	1525	1520	1524	1542	1553	1625	1778	1995	2228	2339	2384	2387	2363	2352	2332	2334	2313	2325	2331	2337	2349	2336	2323	2292	2268	2271	2289	2340	2410	2422	2382	2361	2360	2372	2397	2403	2404	2391	2387	2285	2261	2233	2169	1982	1860	1766	1676	1627	1549	1525	1524	1596	1759	2072	2215	2270	2301	2293	2285	2274	2270	2252	2226	2204	2192	2199	2213	2211	2176	2162	2166	2172	2185	2196	2200	2178	2162	2169	2162	2141	2147	2141	2142	2146	2195	2188	2189	2199	2202	2202	2193	2173	2163	2165	2173	2184	2085	2117	2134	2142	2159	2175	2188	2184	2176	2171	2171	2166	2159	2151	2149	2134	2108	2100	2095	2103	2086	2069	2020	1988	1963	1960	2034	2089	2167	2194	2162	2146	2141	2143	2155	2166	2173	2167	2153	2140	2161	2186	2182	2175	2141	2122	2124	2133	2118	2099	2098	2099	2106	2089	2044	1975	1829	1654	1621	1597	1599	1606	1606	1601	1588	1580	1576	1570	1567	1560	1559	1578	1563	1563	1566	1544	1537	1525	1528	1525	1511	1519	1512	1525	1544	1571	1576	1584	1581	1574	1565	1562	1575	1583	1583	1582	1579	1578	1581	1580	1580	1573	1571	1574	1576	1569	1567	1562	1563	1564	1599	1741	1841	2031	2031	2027	2012	1996	1986	2005	2009	2003	2003	2001	1982	1969	1951	1935	1933	1933	1937	1955	1955	1955	1955	1932	1904	1874	1845	0	0	0	0	0	0	0	0
0	0	0	0	0	0	0	1569	1345	1254	1288	1288	1294	1267	1294	1302	1288	1288	1298	1299	1308	1317	1310	1296	1296	1285	1297	1314	1317	1313	1303	1303	1298	1296	1297	1291	1297	1299	1307	1307	1317	1329	1332	1322	1303	1301	1301	1300	1300	1297	1293	1298	1303	1303	1308	1322	1330	1323	1316	1314	1314	1312	1311	1328	1346	1341	1344	1344	1375	1396	1371	1343	1325	1353	1353	1326	1326	1336	1336	1347	1343	1351	1362	1366	1362	1366	1389	1408	1415	1415	1415	1417	1423	1444	1477	1519	1567	1610	1645	1675	1695	1710	1715	1717	1713	1698	1703	1723	1743	1751	1753	1746	1740	1757	1787	1787	1775	1731	1732	1750	1724	1696	1677	1671	1677	1721	1772	1810	1817	1826	1832	1836	1839	1840	1826	1833	1881	1921	1982	2073	2108	2128	2165	2193	2211	2223	2229	2228	2239	2243	2226	2187	2177	2172	2210	2225	2210	2221	2269	2327	2350	2354	2344	2317	2335	2356	2378	2385	2393	2424	2428	2415	2386	2382	2178	1955	1838	1466	1408	1381	1378	1371	1358	1361	1387	1395	1401	1399	1396	1388	1381	1381	1390	1395	1400	1403	1403	1396	1386	1372	1370	1370	1386	1392	1384	1367	1354	1348	1362	1372	1383	1386	1383	1385	1387	1393	1394	1387	1388	1399	1430	1436	1432	1431	1425	1415	1407	1406	1433	1436	1434	1425	1409	1406	1409	1421	1413	1410	1414	1417	1410	1404	1405	1411	1424	1425	1415	1416	1422	1424	1424	1418	1428	1424	1415	1411	1416	1414	1413	1397	1403	1437	1464	1472	1478	1521	1719	1954	2040	2130	2171	2178	2170	2171	2178	2175	2157	2161	2180	2202	2216	2238	2279	2277	2243	2193	2192	2209	2230	2228	2174	2163	2153	2148	2146	2149	2154	2175	2169	2187	2174	2165	2159	2175	2195	2215	2232	2215	2200	2184	2182	2191	2204	2209	2191	2175	2152	2141	2163	2137	2029	1967	1950	1961	2005	2004	1970	1928	1900	1853	1852	1898	1942	1943	1931	1928	1955	1908	1905	1913	1925	1980	1898	1698	1642	1592	1595	1599	1590	1565	1530	1503	1492	1492	1484	1452	1447	1487	1500	1482	1473	1482	1480	1501	1510	1506	1503	1499	1499	1506	1515	1517	1511	1500	1492	1493	1499	1499	1492	1488	1490	1494	1514	1521	1511	1505	1506	1511	1512	1514	1518	1511	1515	1527	1541	1550	1537	1531	1527	1533	1547	1547	1631	1772	1999	2102	2293	2333	2322	2305	2273	2263	2294	2299	2301	2301	2307	2309	2299	2289	2284	2247	2247	2267	2291	2323	2321	2302	2290	2300	2293	2279	2274	2296	2278	2286	2241	2157	2110	2044	1926	1841	1764	1707	1627	1585	1574	1568	1595	1679	1838	2068	2202	2235	2242	2246	2255	2255	2237	2205	2180	2176	2194	2200	2167	2144	2145	2156	2169	2191	2202	2200	2173	2154	2146	2136	2113	2111	2118	2147	2178	2173	2158	2157	2159	2172	2176	2171	2162	2144	2055	2046	2047	2049	2070	2064	2048	2043	2039	2060	2066	2053	2057	2048	2016	1993	1991	2019	2006	2006	2010	2003	1995	2014	2000	1998	1953	1927	1922	1924	1971	2023	2057	2097	2099	2100	2085	2069	2053	2046	2038	2042	2056	2085	2090	2074	2066	2083	2083	2081	2075	2064	2070	2083	2089	2097	2087	2042	1972	1833	1660	1627	1608	1600	1622	1611	1600	1590	1584	1581	1572	1563	1560	1573	1589	1570	1569	1572	1568	1550	1542	1540	1545	1545	1555	1546	1553	1556	1564	1575	1577	1575	1567	1562	1559	1565	1574	1579	1576	1577	1575	1572	1569	1562	1559	1562	1572	1580	1572	1560	1550	1548	1558	1590	1670	1806	1952	1952	1956	1963	1977	1987	1978	1956	1926	1928	1940	1943	1948	1934	1903	1886	1880	1887	1897	1897	1897	1878	1848	1812	1807	1808	0	0	0	0	0	0	0	0
0	0	0	0	0	1840	1840	1607	1370	1277	1299	1299	1299	1279	1281	1288	1274	1274	1270	1286	1301	1319	1317	1303	1303	1287	1305	1322	1326	1326	1312	1312	1298	1292	1292	1299	1303	1302	1303	1303	1313	1318	1318	1306	1295	1296	1302	1303	1303	1301	1300	1296	1296	1295	1309	1336	1331	1324	1314	1317	1317	1314	1310	1318	1349	1344	1345	1351	1383	1392	1366	1330	1316	1350	1346	1320	1332	1337	1337	1345	1348	1358	1368	1367	1360	1361	1385	1403	1411	1415	1406	1405	1412	1435	1467	1516	1566	1599	1636	1660	1692	1707	1715	1713	1700	1687	1695	1720	1741	1757	1761	1754	1747	1757	1785	1783	1774	1744	1750	1750	1742	1706	1664	1659	1667	1713	1775	1812	1821	1837	1849	1860	1862	1853	1833	1839	1872	1929	1985	2075	2112	2147	2174	2191	2206	2208	2220	2230	2239	2237	2199	2206	2210	2224	2258	2261	2260	2270	2302	2317	2291	2258	2237	2245	2249	2252	2262	2272	2307	2325	2321	2301	2276	2278	2151	1920	1818	1451	1390	1375	1383	1378	1349	1356	1384	1378	1375	1373	1359	1374	1389	1391	1391	1397	1402	1402	1403	1402	1400	1392	1376	1373	1377	1381	1378	1364	1349	1350	1358	1371	1382	1388	1388	1386	1400	1405	1407	1400	1401	1411	1445	1442	1431	1430	1425	1415	1405	1402	1426	1434	1437	1413	1404	1401	1410	1414	1402	1408	1415	1421	1408	1407	1412	1415	1424	1423	1424	1416	1421	1427	1426	1423	1417	1412	1407	1418	1419	1412	1417	1416	1421	1443	1467	1481	1489	1530	1711	1922	2008	2056	2089	2125	2130	2132	2128	2140	2121	2118	2122	2146	2170	2192	2176	2154	2131	2111	2110	2130	2146	2154	2148	2134	2128	2118	2125	2133	2144	2134	2130	2128	2125	2119	2118	2126	2139	2159	2162	2134	2126	2124	2140	2153	2147	2133	2127	2131	2123	2120	2122	2101	2025	1980	1940	1938	1948	1943	1932	1914	1882	1860	1844	1895	1944	1946	1953	1950	1954	1927	1914	1924	1936	1989	1938	1775	1649	1610	1584	1578	1580	1557	1546	1522	1508	1503	1485	1439	1478	1505	1505	1485	1480	1480	1480	1487	1492	1488	1487	1482	1486	1503	1510	1510	1500	1491	1485	1492	1497	1497	1491	1483	1487	1501	1518	1527	1517	1510	1511	1513	1513	1512	1507	1503	1512	1521	1531	1531	1529	1531	1535	1546	1553	1549	1632	1780	1965	2069	2190	2255	2301	2287	2274	2259	2257	2266	2261	2260	2251	2250	2246	2242	2245	2271	2274	2279	2292	2282	2261	2229	2218	2213	2190	2174	2155	2163	2183	2173	2146	2117	2086	2003	1920	1853	1790	1736	1662	1649	1633	1627	1635	1713	1851	1971	2100	2164	2163	2156	2164	2161	2161	2151	2162	2169	2195	2171	2143	2131	2118	2137	2169	2195	2216	2201	2166	2149	2134	2120	2101	2101	2105	2091	2080	2080	2088	2108	2121	2129	2113	2069	2050	2030	2031	2029	2034	2044	2053	2030	2007	1993	1997	2026	2042	2031	2037	2024	1995	1963	1960	1996	1994	1991	1995	1987	1968	1976	1971	1960	1945	1897	1899	1920	1936	1955	1978	2002	2009	2000	1992	1980	1970	1971	1960	1938	1942	1945	1951	1974	2006	2024	2034	2026	2028	1968	1994	2038	2055	2066	2096	1960	1918	1848	1688	1638	1615	1640	1635	1623	1594	1580	1574	1568	1552	1538	1546	1558	1570	1566	1565	1571	1571	1555	1547	1547	1554	1561	1563	1562	1558	1558	1562	1568	1566	1563	1557	1556	1558	1561	1568	1569	1568	1557	1540	1534	1534	1541	1543	1557	1568	1574	1567	1560	1547	1544	1544	1561	1631	1754	1862	1862	1949	1960	1967	1965	1949	1913	1889	1878	1881	1890	1883	1865	1855	1869	1875	1877	1864	1838	1838	1813	1796	1806	1804	1790	0	0	0	0	0	0	0	0
0	0	0	0	2014	1790	1790	1547	1408	1306	1289	1274	1274	1250	1255	1267	1254	1254	1254	1266	1291	1309	1314	1297	1297	1287	1308	1324	1333	1330	1319	1319	1301	1296	1301	1305	1309	1309	1304	1304	1303	1311	1310	1301	1298	1304	1308	1305	1311	1311	1305	1300	1290	1298	1334	1346	1339	1327	1319	1317	1317	1318	1316	1326	1344	1343	1349	1352	1377	1382	1360	1335	1339	1352	1349	1338	1341	1345	1356	1356	1363	1369	1373	1365	1361	1362	1380	1405	1416	1408	1405	1422	1429	1440	1468	1514	1568	1609	1638	1665	1697	1711	1720	1722	1706	1697	1707	1726	1751	1761	1759	1758	1755	1754	1776	1779	1776	1737	1747	1749	1742	1709	1659	1665	1680	1736	1787	1799	1809	1829	1849	1882	1889	1871	1846	1836	1873	1907	1975	2066	2108	2143	2175	2180	2186	2196	2209	2221	2222	2214	2188	2153	2151	2163	2172	2196	2215	2235	2223	2206	2194	2196	2194	2204	2200	2196	2196	2204	2227	2229	2234	2211	2181	2176	2114	1869	1762	1443	1365	1368	1382	1367	1334	1347	1385	1373	1358	1350	1352	1368	1371	1369	1370	1393	1399	1398	1398	1401	1404	1398	1376	1371	1375	1382	1375	1362	1348	1351	1357	1368	1378	1384	1386	1393	1405	1415	1412	1405	1406	1428	1438	1434	1426	1424	1416	1414	1415	1402	1399	1432	1431	1406	1414	1396	1403	1417	1401	1406	1395	1418	1427	1431	1409	1411	1406	1418	1419	1415	1421	1427	1410	1415	1416	1417	1405	1418	1421	1424	1420	1428	1441	1449	1469	1488	1490	1523	1692	1895	1961	2005	2038	2060	2073	2079	2078	2082	2074	2065	2084	2105	2120	2128	2104	2080	2066	2067	2072	2073	2098	2114	2126	2108	2107	2111	2103	2084	2086	2090	2084	2093	2095	2084	2067	2071	2086	2090	2084	2081	2084	2090	2096	2106	2085	2085	2095	2093	2080	2066	2050	2029	2013	2001	2005	1993	1977	1899	1894	1906	1880	1845	1841	1892	1940	1965	1965	1964	1958	1930	1919	1922	1935	1955	1939	1790	1629	1594	1572	1571	1582	1577	1557	1536	1516	1504	1482	1437	1486	1505	1503	1477	1474	1474	1470	1475	1480	1477	1477	1469	1476	1496	1502	1494	1489	1485	1493	1499	1501	1498	1488	1487	1494	1509	1523	1530	1525	1521	1518	1519	1519	1513	1506	1509	1517	1519	1522	1521	1523	1532	1546	1558	1560	1560	1627	1795	1881	2054	2122	2187	2252	2267	2249	2226	2224	2226	2214	2203	2221	2215	2213	2200	2200	2207	2200	2185	2171	2211	2206	2188	2195	2198	2127	2108	2105	2130	2118	2120	2118	2109	2066	2009	1953	1898	1833	1773	1741	1698	1674	1656	1670	1735	1868	1980	2051	2086	2104	2104	2125	2122	2112	2104	2106	2121	2089	2085	2089	2103	2100	2102	2153	2198	2211	2185	2153	2128	2125	2107	2092	2085	2081	2073	2074	2079	2084	2078	2081	2067	2044	2027	2007	1997	1994	1993	2002	2034	2031	2010	1983	1965	1959	1958	1947	1939	1930	1902	1881	1883	1914	1910	1906	1907	1899	1890	1885	1895	1880	1867	1854	1822	1777	1803	1866	1913	1929	1955	1953	1948	1922	1892	1892	1880	1863	1855	1852	1852	1855	1855	1890	1925	1916	1931	1964	1891	1899	1943	2019	1997	2070	1865	1820	1806	1678	1639	1646	1651	1640	1622	1592	1583	1577	1574	1564	1555	1540	1544	1550	1553	1549	1561	1556	1553	1551	1545	1543	1549	1560	1562	1562	1561	1569	1567	1563	1560	1559	1561	1565	1565	1567	1579	1583	1583	1553	1544	1547	1547	1547	1546	1560	1564	1565	1561	1553	1549	1548	1562	1613	1726	1726	1852	1903	1907	1904	1861	1841	1839	1839	1815	1802	1813	1810	1808	1802	1803	1826	1818	1793	1763	1763	1723	1703	1709	1725	1754	0	0	0	0	0	0	0	0
