697	697	721	721	723	722	721	717	717	708	700	698	699	699	700	701	705	707	707	712	697	696	697	707	707	718	710	711	710	717	717	719	722	718	711	702	695	695	699	702	705	710	698	685	685	686	698	707	713	718	719	708	702	702	695	701	714	726	726	723	718	687	687	677	684	683	683	683	685	686	691	695	702	702	696	696	692	687	686	689	696	701	706	690	695	701	700	700	698	699	701	699	699	696	695	692	691	696	695	692	691	694	696	697	687	680	679	683	689	693	696	704	704	699	698	698	699	700	700	698	695	685	681	680	681	686	699	707	703	695	690	688	687	679	682	693	687	683	685	692	693	687	681	678	680	681	683	690	690	692	684	683	684	682	692	700	705	705	694	693	694	703	701	695	693	686	681	683	691	697	692	696	690	685	684	684	681	680	687	691	689	687	685	682	682	684	691	694	691	690	680	679	675	671	669	672	671	675	687	689	689	690	689	685	686	682	682	670	667	665	671	662	668	675	691	684	674	673	675	686	693	699	688	687	680	671	677	682	684	681	676	670	672	676	686	689	685	686	682	676	674	679	679	682	673	664	663	663	676	678	677	680	680	677	671	670	671	671	673	672	667	666	666	666	672	680	674	673	667	668	668	670	667	674	673	672	672	674	675	676	668	669	666	673	665	663	657	657	667	675	667	663	661	665	668	662	666	671	670	674	685	681	679	670	667	663	649	655	661	666	668	665	663	663	662	664	662	664	666	674	670	670	659	653	653	649	651	658	659	659	659	657	655	664	660	660	660	663	663	662	662	663	660	651	652	656	647	648	646	642	639	644	650	656	663	668	654	656	668	674	670	669	664	664	660	656	650	645	650	655	659	654	653	653	652	658	665	670	669	667	669	668	668	670	672	673	670	668	668	667	666	663	659	659	661	667	673	681	679	662	661	656	655	654	661	664	661	657	656	656	654	654	654	654	645	642	645	647	646	643	645	644	656	656	655	661	664	661	661	669	669	664	664	669	671	670	667	663	659	653	652	656	651	649	650	645	653	657	659	659	655	655	656	657	656	660	659	655	655	657	650	653	655	654	655	659	662	662	656	649	647	647	650	662	667	662	662	661	651	652	654	655	655	655	662	662	663	663	667	659	657	659	673	673	673	682	684	684	678	673	670	663	662	665	667	671	667	671	667	663	665	668	669	672	674	676	679	679	674	669	666	666	666	667	663	659	662	665	665	664	662	661	662	661	659	648	645	657	663	666	668	667	659	661	655	656	650	652	654	659	662	663	661	664	666	660	659	664	664	663	653	651	653	657	655	650	652	651	660	663	663	664	663	662	655	651	647	647	650	662	665	664	661	658	668	650	647	653	656	653	651	647	647	652	655	657	667	664	652	643	644	646	651	659	660	654	654	651	641	646	647	647	650	652	666	668	656	654	648	641	639	643	639	642	642	643	646	647	646	647	643	640	640	642	642	0	0	0	0	0
690	691	694	718	718	717	713	702	702	697	693	698	696	696	696	695	689	688	692	692	690	688	691	704	709	709	688	691	685	689	694	694	699	698	694	687	686	686	687	698	705	704	689	678	679	679	687	697	705	707	706	696	699	699	695	695	701	705	704	698	692	683	680	680	674	673	673	676	677	680	691	697	698	694	689	689	686	682	683	685	691	691	690	683	683	691	695	696	696	698	698	699	695	695	691	683	680	687	687	688	689	692	691	686	680	677	679	682	687	688	693	694	697	697	697	691	693	690	690	689	688	680	675	670	672	680	682	676	674	675	675	689	693	667	669	679	679	680	681	688	686	684	678	677	675	676	680	683	679	674	669	668	671	680	683	690	692	695	677	690	693	693	704	700	691	680	676	674	677	679	691	691	689	686	682	679	677	679	683	685	681	682	678	678	675	677	679	667	677	686	673	669	666	665	667	672	673	675	678	689	691	686	683	684	684	684	681	679	669	667	669	673	662	668	669	671	669	666	675	676	691	695	685	682	681	691	682	681	681	679	670	669	676	681	673	679	687	686	680	676	672	675	680	678	666	664	661	662	670	672	669	666	675	675	673	675	665	669	667	665	661	661	659	661	667	679	672	668	664	663	663	666	669	669	671	660	650	650	653	654	651	645	654	654	655	658	659	655	654	659	665	658	662	667	668	668	668	672	671	667	675	675	673	673	668	651	643	653	659	664	664	662	660	661	661	659	659	660	660	663	661	665	664	654	653	656	654	660	659	658	657	657	656	654	655	658	659	662	656	656	656	655	654	655	653	655	646	638	638	635	636	641	648	658	666	654	650	653	661	661	658	671	664	671	664	653	645	644	647	652	655	652	649	647	649	652	659	669	667	665	658	650	651	650	666	664	662	664	667	665	665	664	664	664	660	661	666	667	660	659	654	646	650	652	653	650	645	650	654	652	651	651	652	651	640	642	645	645	644	641	640	646	657	657	660	662	660	659	653	649	650	658	657	663	664	669	666	663	656	651	652	656	659	651	646	644	648	653	655	655	652	645	651	659	656	652	649	652	651	649	647	648	650	650	650	653	655	658	653	646	640	647	649	649	656	654	653	655	645	645	647	649	652	653	662	663	655	650	651	655	654	654	664	667	674	677	679	681	677	674	666	651	654	655	655	658	655	656	659	660	660	662	659	662	664	669	673	677	672	665	658	656	657	655	655	653	651	656	664	661	656	657	657	659	652	649	649	649	656	659	661	653	643	654	656	649	646	651	652	658	662	661	661	662	661	654	653	655	655	646	647	648	646	651	655	655	655	652	653	654	657	659	649	646	640	641	639	642	647	647	656	655	657	652	645	640	642	647	648	654	655	655	653	648	649	654	656	648	647	645	642	638	641	643	647	649	649	641	637	640	640	644	649	659	667	659	649	637	635	634	633	629	632	632	638	643	649	646	649	643	644	637	635	635	640	0	0	0	0	0
688	690	692	709	709	706	697	692	690	690	690	694	689	688	688	681	684	687	684	684	683	686	688	692	685	685	688	676	676	674	684	684	695	696	692	688	687	686	686	684	690	692	689	680	679	679	681	683	684	694	692	693	693	690	690	691	688	681	682	683	682	680	678	671	671	669	670	670	672	685	690	691	688	683	681	679	679	678	679	682	682	684	684	677	681	685	692	678	680	681	686	688	689	689	684	679	671	667	667	665	670	684	682	679	677	678	676	680	686	686	690	689	690	695	680	676	675	659	670	681	682	676	674	677	666	666	670	671	671	672	672	675	677	680	681	678	674	672	675	677	684	682	677	675	675	677	671	672	673	661	669	677	672	674	679	681	672	661	670	687	688	685	682	694	691	684	674	661	659	667	669	684	689	684	683	678	671	674	673	674	677	680	677	679	672	674	674	661	671	667	664	662	661	663	669	672	671	674	669	667	664	662	662	667	669	670	673	678	672	668	669	670	657	663	666	665	664	663	661	661	663	664	665	676	679	688	678	679	678	677	666	667	675	663	671	674	684	684	680	677	670	663	669	672	663	663	664	664	664	663	652	652	666	671	670	674	660	654	650	646	647	648	656	657	660	671	666	662	655	660	657	654	653	662	658	651	646	650	648	651	643	640	640	641	651	656	660	656	654	664	661	655	654	658	670	668	668	669	662	660	657	668	663	659	656	655	640	643	654	658	662	662	659	658	657	654	652	652	651	656	659	661	646	651	651	655	658	663	656	652	657	658	655	653	651	654	655	649	650	648	649	650	650	651	652	656	646	640	637	635	635	642	648	662	654	649	646	648	650	648	638	654	660	658	657	653	646	643	636	632	631	647	650	654	651	649	652	657	659	656	650	647	647	647	646	659	656	652	658	659	664	664	661	658	657	656	656	655	658	653	647	642	648	652	653	648	645	649	648	642	641	643	647	635	639	643	646	645	643	636	640	647	655	658	662	641	641	643	643	644	642	648	648	650	644	647	660	660	658	652	652	654	656	654	653	644	644	647	650	648	642	639	640	645	644	640	642	642	648	645	644	646	645	649	649	649	649	649	645	642	641	650	647	644	647	644	643	643	649	643	642	643	650	655	657	649	645	641	644	647	652	652	646	646	652	652	662	663	657	647	642	642	645	646	646	646	645	651	654	659	651	657	654	651	658	665	668	669	665	657	652	652	653	652	651	649	646	642	649	647	635	640	646	651	651	651	650	649	653	653	651	645	646	653	653	651	652	650	652	655	657	657	658	659	650	641	651	654	645	643	642	646	644	649	652	657	654	653	654	652	653	651	646	648	643	634	633	634	637	644	649	651	643	640	639	639	641	642	646	653	653	654	653	649	648	648	647	642	639	638	638	637	640	639	630	635	645	641	638	638	638	641	646	654	655	643	633	630	630	630	624	628	628	630	636	644	646	646	639	625	638	631	630	630	635	0	0	0	0	0
683	682	690	691	691	693	692	685	684	684	686	689	677	671	671	671	678	675	667	676	676	677	676	676	679	679	681	666	667	672	676	685	685	691	692	687	685	686	686	686	686	685	683	678	678	678	678	678	683	686	688	690	689	689	689	684	675	677	685	683	683	673	679	673	673	668	667	666	673	684	679	677	672	670	675	681	681	680	679	679	677	676	676	670	676	679	668	672	674	676	675	675	674	678	678	672	666	663	661	656	661	665	672	676	673	671	669	678	680	683	684	685	688	674	674	672	671	670	667	661	667	678	682	678	672	665	669	671	671	669	670	675	679	681	680	682	676	671	670	670	677	681	660	657	662	664	668	665	653	657	664	672	675	670	674	675	673	669	678	677	668	664	652	655	656	659	657	659	657	657	662	666	681	683	679	672	669	672	672	672	676	676	673	668	668	665	660	659	661	662	663	663	663	662	665	668	659	663	661	661	657	655	651	645	647	655	664	667	665	654	646	650	653	661	666	661	659	657	657	657	658	658	657	656	657	671	672	676	672	667	665	665	669	657	660	666	677	680	679	674	655	650	652	657	653	655	658	661	661	653	652	651	653	663	662	662	657	653	646	642	641	638	646	654	661	646	649	645	641	640	644	646	650	651	657	653	642	641	645	642	637	634	639	636	635	646	658	655	653	659	658	655	649	654	660	665	667	658	658	656	649	646	657	651	649	644	640	644	652	656	658	654	653	652	652	648	646	644	645	649	649	641	641	644	645	650	647	646	644	645	652	651	650	646	642	640	639	640	639	642	629	633	631	638	641	636	627	624	627	637	635	647	646	648	648	645	642	642	646	644	638	635	640	643	651	652	650	644	640	633	629	628	632	636	634	637	634	638	647	649	648	645	643	645	647	653	645	643	657	655	648	647	648	648	647	653	644	641	638	642	651	647	647	649	647	641	641	643	643	632	633	637	634	631	639	643	646	649	646	638	641	648	654	658	646	646	649	649	647	641	638	640	652	644	641	640	656	658	654	649	635	651	642	644	648	649	639	639	636	641	624	617	620	624	635	629	628	630	623	624	628	631	638	640	643	648	645	644	641	637	640	642	640	643	638	637	638	637	641	641	640	638	644	647	644	644	641	636	640	649	650	646	637	634	634	640	647	646	641	640	636	636	635	638	634	640	641	648	650	654	649	638	651	646	645	643	643	647	658	650	646	648	647	647	645	641	636	636	633	634	634	640	645	650	646	647	649	651	649	647	647	645	648	655	652	651	652	651	650	650	647	646	650	651	646	640	639	643	647	640	633	627	631	640	648	652	652	649	649	651	648	640	638	642	642	636	635	634	636	634	632	621	640	637	640	639	638	637	627	627	632	636	639	643	646	644	638	629	631	636	636	634	637	635	625	624	629	632	633	638	638	635	639	640	640	629	628	627	627	627	622	622	622	624	631	638	640	624	614	604	618	620	620	621	626	0	0	0	0	0
667	672	674	679	676	676	679	679	678	679	679	681	677	658	656	656	663	667	672	669	669	669	668	670	675	676	676	665	667	672	676	680	680	682	684	685	681	680	685	685	687	683	681	678	680	680	680	680	682	685	687	689	688	685	677	677	675	675	682	681	677	657	658	671	669	669	666	672	663	661	661	663	667	678	682	689	694	694	692	685	673	670	667	659	656	653	651	656	666	667	669	669	667	666	666	666	664	662	659	657	660	665	671	675	671	667	665	668	670	677	679	680	660	658	657	666	670	670	662	660	661	663	661	659	659	662	659	658	657	661	663	666	674	675	673	675	675	670	668	670	670	664	657	663	666	665	665	665	663	653	658	665	663	663	667	668	665	672	670	666	660	645	648	650	651	655	655	658	659	659	659	661	659	666	670	672	674	674	675	674	672	665	662	667	666	666	662	662	661	656	658	659	659	653	654	655	656	656	652	649	645	645	648	646	646	653	659	663	662	651	646	650	651	653	650	646	645	646	648	649	651	654	656	646	635	636	644	644	641	650	655	665	651	654	656	659	668	670	662	657	637	644	646	647	640	637	647	657	656	655	651	649	647	647	655	656	655	653	638	635	637	638	639	637	640	640	640	644	643	643	643	634	642	646	645	644	649	636	635	635	630	637	642	644	642	636	641	656	650	645	649	651	645	645	645	645	657	656	652	641	634	634	636	639	642	641	642	643	645	647	648	650	648	643	642	636	638	636	632	639	631	635	637	639	633	635	639	640	641	642	642	647	643	639	637	634	630	629	617	623	629	627	626	633	642	640	634	631	632	630	639	634	644	642	642	639	635	635	642	642	632	630	631	637	646	650	648	644	639	634	629	630	628	634	632	629	630	631	629	633	639	643	641	640	643	639	637	636	655	645	645	642	640	637	641	636	636	630	628	632	641	648	648	620	624	639	641	636	632	628	628	632	633	633	638	643	645	646	648	646	641	647	652	645	644	647	647	648	648	638	636	636	634	629	624	637	647	649	645	626	634	629	635	636	641	644	637	637	631	623	620	618	619	621	626	629	628	625	618	619	619	628	630	631	636	638	640	642	637	630	635	631	628	629	633	633	635	636	637	637	635	638	632	637	644	640	640	638	639	635	639	637	633	630	633	635	637	637	636	631	629	626	628	632	633	640	645	644	632	637	634	639	635	645	640	639	638	641	641	639	640	638	640	642	639	637	635	628	631	633	633	640	641	636	641	644	646	649	647	645	645	645	646	647	651	650	649	648	647	645	638	636	635	635	638	636	635	637	641	640	636	638	647	653	652	648	649	647	646	635	634	631	623	628	630	632	639	641	637	631	624	622	624	625	634	635	631	625	625	627	632	635	636	637	637	629	627	621	624	632	632	633	631	626	628	614	605	611	611	633	634	625	625	624	626	626	627	627	624	624	623	623	617	615	617	620	620	619	614	607	601	611	611	619	626	0	0	0	0	0
668	668	670	667	673	673	675	675	672	671	671	668	662	655	662	662	669	672	669	672	672	673	674	676	676	661	661	665	667	677	677	677	677	675	671	668	679	680	681	681	676	678	679	677	681	681	670	670	676	680	679	681	684	679	671	671	669	670	670	667	663	648	648	649	653	653	660	662	659	655	656	655	654	654	660	668	690	695	695	694	692	684	666	652	648	646	646	647	659	662	661	651	653	659	667	662	662	659	657	657	661	664	666	658	658	660	659	661	665	671	668	651	649	647	650	656	663	665	652	654	654	651	653	656	656	660	657	647	644	645	652	663	668	673	665	659	658	660	666	666	665	658	655	662	663	664	661	661	661	662	654	658	658	658	659	662	660	660	661	662	640	634	638	644	647	647	646	649	651	653	653	656	655	653	653	658	665	670	674	668	656	657	656	658	656	661	665	666	651	650	648	653	653	650	641	650	641	638	644	645	640	642	639	639	645	644	634	632	634	640	643	647	650	650	649	643	642	641	642	647	648	638	628	629	641	644	645	644	637	633	631	631	659	660	649	649	649	650	647	634	633	636	631	629	631	637	636	635	637	637	635	635	636	636	637	643	645	655	649	641	639	639	626	623	627	633	633	635	634	632	632	634	628	626	627	626	625	631	630	632	634	635	637	643	641	641	636	634	631	626	626	630	637	642	643	642	638	633	631	633	638	638	640	634	640	642	643	643	642	637	639	642	640	636	632	630	624	626	619	616	621	627	635	627	622	625	632	629	629	631	615	634	629	634	633	628	619	617	618	623	625	624	623	625	637	637	632	630	633	630	623	622	625	635	630	626	623	626	624	636	626	626	631	641	648	647	644	640	639	634	630	629	629	630	632	630	630	627	625	625	628	626	631	639	625	622	631	630	633	636	632	636	636	631	617	630	626	621	620	626	628	623	623	620	625	626	637	634	628	625	623	622	634	640	643	643	634	632	646	645	644	643	641	638	635	641	643	644	642	638	636	633	626	621	626	633	645	648	644	623	623	626	630	629	630	627	625	632	631	626	619	617	619	620	632	629	628	623	616	618	622	627	626	620	627	632	637	641	631	625	625	622	621	624	631	632	630	626	634	618	626	634	625	627	638	641	639	635	633	633	635	631	629	628	627	628	627	627	627	624	618	620	624	625	629	637	640	638	625	622	623	632	629	626	627	634	636	635	636	637	640	636	639	638	639	637	636	635	633	629	630	632	630	631	633	640	647	649	649	636	634	642	642	641	645	645	644	641	644	630	628	627	625	627	624	628	631	635	638	641	640	641	645	650	649	645	629	626	625	613	629	623	619	619	623	625	616	620	626	627	619	616	616	620	625	626	619	619	621	629	628	632	631	632	632	627	624	614	610	614	617	621	621	619	600	603	601	605	605	617	619	622	621	618	618	621	625	624	620	618	617	617	617	615	621	625	622	616	612	608	605	605	608	619	615	0	0	0	0	0
668	666	665	667	667	667	672	671	666	666	666	669	659	655	656	656	663	665	667	671	663	663	659	652	648	644	653	653	662	677	676	674	670	670	666	661	656	657	664	667	667	666	666	677	666	662	656	656	656	660	675	674	667	670	666	666	666	667	663	652	650	646	645	652	659	660	660	658	655	652	648	648	649	652	658	665	671	675	675	679	675	673	656	648	643	646	650	654	657	655	650	649	652	658	660	659	659	659	658	659	661	662	654	652	654	659	662	661	665	659	645	646	644	644	645	649	653	651	650	649	647	638	637	638	641	645	650	643	644	642	649	662	668	668	660	656	654	657	662	665	653	655	653	653	660	659	657	659	654	657	656	657	656	653	653	656	648	648	644	640	636	635	637	640	643	642	645	644	647	653	647	649	646	641	644	649	654	654	653	651	650	651	638	640	638	638	636	642	643	638	640	643	640	636	633	642	637	633	639	628	635	637	637	638	639	636	634	631	632	637	641	644	646	645	638	629	612	614	617	622	620	617	623	629	647	645	641	624	621	622	627	629	630	628	626	623	629	626	628	628	629	629	626	621	624	633	634	629	627	625	621	618	615	619	625	630	638	639	639	635	631	626	621	622	626	626	625	628	631	624	619	622	616	619	624	624	625	627	626	628	630	631	636	635	632	626	621	620	619	614	616	618	621	625	631	630	628	632	631	638	626	638	629	624	624	631	638	639	633	629	623	629	630	630	628	623	623	617	616	622	621	622	626	623	623	623	621	622	622	621	619	613	614	616	621	617	620	620	619	622	623	625	620	615	617	628	634	633	633	629	623	617	617	618	618	619	617	617	618	625	618	622	629	627	637	643	640	635	633	632	629	629	627	627	630	633	634	633	626	623	626	623	623	622	614	614	618	621	626	628	626	613	609	607	617	614	622	624	624	615	613	624	616	619	620	626	627	630	626	625	621	622	614	628	632	631	630	629	623	622	624	634	632	625	624	629	633	639	641	640	636	629	625	625	625	625	631	639	634	627	618	620	619	616	614	619	625	623	623	629	620	614	613	621	625	627	626	618	614	615	627	627	624	616	614	630	636	633	630	625	623	621	618	623	629	631	630	616	612	612	617	623	621	619	630	636	633	635	633	630	631	630	625	622	621	618	617	617	618	615	609	607	608	613	620	623	619	619	619	620	622	625	623	623	624	631	632	625	629	631	632	636	636	633	632	635	634	629	629	629	626	630	627	626	627	633	641	644	641	632	628	624	616	614	614	620	626	628	628	623	622	622	622	621	621	620	622	634	638	633	641	639	641	640	641	624	623	619	612	610	613	613	617	618	621	623	615	618	624	623	616	599	605	609	620	616	616	615	616	623	624	626	627	629	629	612	610	609	607	607	610	615	606	602	601	601	598	598	601	600	613	611	614	613	611	619	611	609	614	616	616	616	615	615	619	613	617	617	613	608	607	607	609	612	617	0	0	0	0	0
666	655	658	658	653	651	651	656	668	675	671	671	669	660	647	650	650	659	661	653	650	650	645	648	642	639	642	642	640	660	672	669	666	666	661	656	650	652	659	661	661	651	665	670	665	656	652	650	650	652	658	660	660	653	658	661	661	655	651	650	648	648	651	666	670	669	669	658	654	649	644	645	645	648	659	663	662	660	659	659	658	659	643	638	640	643	644	641	642	644	649	648	653	656	656	656	652	657	657	659	652	653	653	646	652	658	662	659	651	647	638	625	620	624	638	644	648	649	647	648	645	635	632	634	637	640	641	642	642	642	646	654	656	654	654	649	652	644	642	650	651	652	652	651	650	648	649	651	649	655	658	654	640	636	634	641	647	641	638	638	637	635	638	640	642	643	643	644	644	639	641	645	639	634	631	628	634	633	629	643	647	648	634	631	631	630	629	632	633	635	639	638	635	632	627	625	634	611	609	615	623	633	639	636	624	626	632	633	633	634	633	632	631	627	624	624	615	616	619	619	618	620	621	621	624	615	619	616	619	620	621	622	623	615	620	620	619	620	620	618	623	622	615	611	612	625	621	624	622	620	618	612	611	612	619	622	620	620	623	626	629	621	620	623	625	621	620	622	624	624	621	617	612	616	618	627	627	624	623	622	623	626	624	623	619	617	616	614	613	617	614	618	620	611	610	620	626	627	630	632	624	626	618	613	614	617	623	632	631	627	618	612	612	616	618	618	618	615	616	622	614	614	611	612	612	614	615	623	621	613	614	622	623	618	610	616	616	618	615	619	625	626	619	612	612	614	635	625	616	612	614	611	610	612	609	607	608	611	613	611	614	615	625	625	633	620	619	620	626	632	616	617	617	612	606	604	605	606	611	614	622	620	614	609	609	610	611	614	615	610	609	606	608	619	618	611	623	623	624	619	613	612	611	617	623	626	628	627	625	621	611	618	623	624	622	621	620	616	610	609	616	622	622	615	608	604	609	621	631	626	621	622	619	618	619	621	617	614	613	612	610	608	609	605	610	616	623	621	623	622	623	611	615	624	620	618	618	619	618	616	614	613	619	614	604	620	623	626	630	630	626	621	620	623	634	630	623	617	608	609	614	617	619	615	618	623	628	633	626	624	623	613	610	613	614	611	608	612	613	608	601	598	607	612	617	618	618	619	621	620	625	615	614	617	619	614	612	607	612	608	618	623	620	617	617	615	620	620	620	622	620	616	619	618	618	625	632	633	635	630	625	616	612	612	613	618	622	623	621	618	616	618	618	619	622	624	622	616	610	627	621	640	636	633	620	623	617	610	610	610	613	615	613	616	622	623	624	613	612	611	596	603	596	598	614	614	613	612	614	619	618	618	616	613	610	609	604	607	602	602	607	609	605	601	596	595	595	603	604	598	593	603	603	605	607	611	609	611	607	607	607	607	606	606	601	602	603	605	601	608	608	597	595	596	607	0	0	0	0	0
655	658	651	651	644	630	630	633	640	655	661	661	659	652	647	644	644	652	655	649	642	640	640	638	638	635	637	637	640	642	644	639	641	644	644	648	654	661	660	647	649	649	660	663	657	649	649	646	646	648	654	657	654	651	654	657	656	656	652	651	649	644	652	658	665	661	658	658	647	642	640	640	641	642	644	651	650	651	652	651	651	648	637	633	638	644	639	641	640	638	640	642	637	635	635	636	642	642	643	643	636	635	630	633	652	657	659	656	645	622	622	620	618	622	632	637	640	640	637	636	640	635	637	634	634	633	639	635	637	639	645	650	650	651	642	637	639	636	628	633	640	644	642	636	638	636	632	622	628	637	646	644	638	631	631	633	636	631	634	635	636	635	635	636	637	637	642	640	638	639	631	633	628	623	621	627	628	629	632	637	642	645	635	627	621	623	624	626	628	630	632	630	633	630	622	616	612	608	608	611	619	625	628	631	631	625	627	633	631	615	605	613	620	620	612	617	621	619	615	614	616	616	620	626	623	612	617	614	620	623	619	616	613	609	615	618	619	613	616	615	613	609	609	607	612	619	618	615	614	618	613	607	608	611	616	616	615	613	613	617	621	623	621	622	622	611	612	616	617	620	620	617	610	615	615	615	627	621	619	618	617	621	617	618	614	612	612	604	606	606	608	606	609	611	609	609	612	615	624	630	630	628	632	617	614	616	614	613	614	618	617	617	617	622	624	619	605	604	606	606	611	612	611	609	602	599	610	610	606	607	610	618	619	619	614	604	610	610	613	617	623	625	623	608	608	608	624	618	613	610	606	606	606	600	601	601	610	605	607	605	608	604	607	612	614	612	610	612	606	606	611	612	614	610	605	602	602	605	609	608	614	609	601	603	603	609	613	615	613	607	610	620	613	609	610	607	614	619	624	624	614	605	608	610	611	613	613	614	613	611	612	614	615	616	617	613	612	617	617	616	615	617	619	617	608	604	603	609	607	610	612	614	616	611	609	611	613	610	609	607	605	603	604	604	606	608	607	617	619	620	616	609	602	613	607	608	608	618	617	616	614	611	610	614	613	605	617	621	625	631	624	616	613	617	625	630	625	617	608	609	610	610	609	614	607	608	614	615	618	621	620	613	612	608	608	608	605	606	610	601	592	587	590	596	606	615	618	615	618	614	620	613	613	616	615	612	608	604	606	607	618	624	623	620	615	614	619	619	617	620	615	609	605	605	607	609	610	619	623	628	618	612	609	606	605	615	617	618	616	612	615	617	617	619	622	621	612	609	610	609	621	615	609	610	613	615	617	608	607	614	617	614	611	608	617	622	619	614	609	607	605	593	595	597	597	602	612	611	600	592	597	604	607	604	605	603	604	605	602	603	601	604	604	597	595	597	597	599	592	590	594	589	594	596	597	599	599	593	581	581	592	596	595	596	595	601	601	597	590	609	609	604	591	589	590	0	0	0	0	0
647	651	642	638	633	633	634	634	640	648	649	649	647	636	638	644	647	647	647	642	640	638	638	636	637	635	635	638	638	630	631	631	635	638	638	643	649	652	653	647	649	649	654	656	649	645	642	642	644	644	648	653	649	648	651	656	658	658	659	652	643	620	623	628	643	647	648	648	641	640	644	644	641	639	644	642	643	645	647	642	642	638	632	635	630	640	637	637	635	630	626	630	631	631	627	622	624	626	628	626	626	627	634	642	643	642	639	635	632	633	627	622	621	626	628	634	642	640	637	633	631	634	636	631	626	620	623	627	636	642	643	638	626	627	624	624	628	631	630	633	633	637	633	630	627	622	618	615	622	625	631	634	633	626	631	632	631	629	632	634	638	640	636	631	633	633	630	629	630	633	633	626	626	623	622	623	627	629	631	639	642	646	632	617	619	621	623	623	624	626	630	627	631	626	623	619	611	607	605	610	620	622	618	610	609	606	607	606	606	608	608	609	621	618	616	615	618	615	611	613	614	613	619	617	615	610	610	627	633	615	613	596	588	603	610	608	612	613	615	613	615	613	608	607	609	608	605	606	607	605	606	607	607	609	608	606	608	608	608	611	614	619	621	621	611	607	602	599	615	617	616	610	611	612	613	613	611	610	609	613	613	617	615	614	609	608	603	600	603	603	605	596	602	609	608	609	610	617	621	620	616	613	607	599	610	611	602	604	608	599	610	615	616	620	620	614	606	599	598	601	602	607	605	603	602	605	606	606	606	606	604	606	598	593	596	595	593	599	608	611	615	615	605	597	602	604	608	606	609	606	605	596	600	605	605	607	596	594	598	603	609	609	607	610	611	608	607	608	606	606	608	609	610	604	598	595	595	598	601	603	610	609	606	605	601	613	610	607	602	602	605	608	608	615	612	609	611	614	615	608	597	603	600	598	593	591	592	593	597	599	604	608	608	609	608	606	608	611	612	612	609	613	614	612	607	604	604	601	602	595	598	601	602	596	602	607	607	599	601	605	605	602	600	603	601	600	602	599	601	616	615	609	605	607	602	601	601	603	617	615	615	611	608	610	609	608	605	602	598	613	615	615	609	615	615	624	622	617	607	603	600	594	600	603	608	611	612	611	611	613	613	613	608	611	607	604	596	593	586	582	585	588	591	597	601	608	609	610	611	608	612	612	613	614	617	613	608	603	605	607	611	616	615	611	610	610	610	618	615	608	611	606	606	605	605	605	607	608	604	597	597	603	604	603	604	611	614	612	606	604	610	611	614	618	612	613	611	608	610	610	610	612	608	606	609	614	610	609	612	614	616	611	610	601	596	592	590	599	600	599	595	592	592	591	591	598	600	590	582	588	588	587	592	600	601	601	603	602	600	602	603	606	601	589	582	582	594	594	587	585	588	585	588	590	588	590	592	591	591	580	586	590	594	596	601	600	594	577	572	590	586	598	595	593	586	0	0	0	0	0
639	642	642	632	633	634	634	634	638	636	637	638	638	638	641	644	633	633	634	632	637	635	635	634	636	637	637	633	633	630	630	630	634	636	638	638	640	644	643	643	648	648	644	647	649	643	637	636	635	635	639	642	642	636	637	641	640	639	639	633	623	620	618	616	627	632	633	636	636	641	638	639	643	640	635	635	636	637	637	637	631	631	623	633	638	637	632	618	623	625	624	623	625	628	627	624	621	618	620	618	619	619	627	635	635	634	630	630	625	628	624	620	621	620	624	625	628	628	624	627	632	632	630	624	618	612	613	615	624	628	628	619	617	617	617	616	621	618	621	630	628	624	624	623	619	614	620	619	617	610	610	617	619	613	620	616	613	614	614	614	616	616	618	623	625	625	624	623	624	634	625	621	619	621	616	617	616	608	608	614	615	623	604	605	612	615	619	617	618	615	613	613	620	627	623	619	611	612	615	616	614	608	608	613	614	616	607	602	598	604	605	605	618	616	613	609	610	603	601	606	611	606	613	614	614	602	600	600	610	610	598	595	591	589	595	599	604	608	609	604	605	614	600	600	599	600	603	604	599	590	591	603	599	600	600	604	604	604	606	607	609	613	614	616	608	603	597	596	609	614	614	609	608	608	609	610	598	597	595	605	607	612	606	600	601	600	595	594	599	600	592	584	594	602	608	608	610	618	614	611	609	609	602	607	593	593	601	602	603	597	602	606	611	610	609	611	605	599	596	600	605	600	599	602	601	604	606	607	605	603	600	602	596	595	594	593	585	592	593	608	613	609	602	595	606	606	604	602	603	601	603	592	592	595	604	602	589	592	591	596	614	606	604	598	594	596	599	604	604	610	608	604	603	599	594	595	596	594	598	605	604	601	599	597	600	601	590	595	596	599	600	603	608	609	605	603	599	596	589	585	591	589	597	600	599	593	591	596	599	598	598	602	603	604	597	599	606	605	609	605	605	607	607	602	603	593	595	590	594	594	596	600	602	597	596	604	598	598	599	601	603	600	599	601	599	598	597	593	594	600	602	606	601	596	596	595	594	594	597	610	607	608	605	613	604	601	596	587	583	586	592	609	607	603	601	603	606	605	599	595	592	592	592	588	597	605	607	597	596	596	606	611	606	601	596	593	588	589	578	581	584	587	592	595	600	603	606	606	606	607	606	604	595	599	604	604	596	595	598	602	610	614	614	607	607	606	603	593	593	599	603	603	602	603	605	607	607	604	599	598	599	595	596	591	587	590	594	595	598	598	601	597	602	605	606	606	605	606	608	608	608	604	603	604	600	605	607	607	609	613	614	609	602	598	597	597	599	601	600	593	588	588	588	592	591	588	585	582	590	591	592	592	588	588	596	599	601	600	599	600	602	603	586	582	582	581	570	573	573	575	582	588	587	588	591	593	593	589	589	586	584	586	592	597	598	592	581	562	562	572	575	573	583	581	575	0	0	0	0	0
633	634	632	629	627	629	629	629	630	640	636	629	629	631	634	634	616	616	618	626	635	635	636	636	633	634	634	632	630	630	626	629	632	634	634	634	636	638	635	635	635	639	639	641	642	626	623	623	628	632	632	636	636	630	627	627	628	629	629	628	629	624	618	617	620	624	629	638	636	636	634	626	632	636	639	626	627	628	627	627	621	608	608	621	625	623	620	615	614	620	621	622	619	627	627	623	618	616	612	609	612	620	620	630	631	626	626	615	617	616	613	613	619	619	618	614	613	609	610	610	605	604	605	606	609	611	606	601	600	601	608	613	614	613	611	608	604	611	609	604	602	605	606	607	611	618	619	617	607	608	608	613	616	612	610	606	614	613	612	611	611	611	610	611	613	612	613	609	609	614	614	609	600	607	603	601	601	603	606	608	601	600	603	603	602	608	612	611	610	609	605	610	611	612	612	602	597	591	594	598	604	600	599	608	614	616	611	604	598	594	598	587	613	611	610	610	604	599	601	602	602	611	609	610	610	597	596	591	592	590	589	591	591	588	589	591	594	595	597	602	606	603	594	592	592	597	600	599	589	592	591	587	591	594	595	600	601	602	603	605	608	599	595	596	598	594	594	601	603	610	610	597	596	605	607	601	598	594	593	593	598	604	600	596	590	588	590	594	595	599	590	576	582	593	605	605	603	597	599	602	602	605	594	590	593	592	590	589	598	596	600	605	601	593	592	603	603	596	592	593	593	594	596	597	599	602	602	602	600	599	596	593	592	592	594	594	596	592	591	595	592	595	601	608	610	603	604	603	599	592	589	589	595	593	596	594	588	589	588	597	613	606	603	598	594	595	597	600	603	602	602	599	601	598	596	596	597	593	596	591	593	584	584	585	586	582	586	587	589	591	599	601	603	601	597	592	592	593	584	582	585	593	593	596	595	593	593	597	598	597	594	603	600	593	598	597	597	600	604	604	604	601	597	591	590	589	589	585	587	587	590	597	596	591	598	593	594	595	598	597	590	590	590	587	584	586	588	578	582	592	597	597	601	599	596	594	591	591	595	605	600	601	606	609	606	596	589	584	581	585	589	596	596	593	593	593	594	595	595	592	591	587	583	578	588	592	591	586	595	594	600	606	604	599	593	590	587	577	577	579	574	576	582	589	595	602	605	597	604	602	601	592	589	590	594	594	592	592	591	607	606	605	599	603	602	594	591	589	589	594	595	589	587	586	593	595	603	600	597	591	589	596	590	589	590	586	583	590	589	592	590	594	592	593	597	597	599	601	604	603	600	598	594	593	596	600	604	604	604	612	608	598	595	590	592	594	593	587	586	586	586	582	588	584	584	586	585	582	581	587	593	592	585	583	587	580	579	580	583	589	590	589	586	586	581	571	573	567	571	572	575	581	592	593	591	582	582	582	578	575	577	584	587	592	588	583	579	564	564	563	570	583	570	576	572	0	0	0	0	0
629	632	629	629	622	624	625	632	632	632	626	626	624	624	629	621	616	616	616	627	636	634	631	631	630	628	626	623	622	622	616	623	628	630	632	632	633	630	633	634	634	632	632	630	628	616	611	610	616	622	622	623	623	625	623	624	624	627	629	629	629	624	617	619	620	622	624	625	624	624	623	626	615	614	620	610	613	613	611	608	606	600	600	601	610	618	616	609	609	615	618	617	617	624	624	620	614	609	602	605	610	620	625	625	627	616	611	610	608	603	599	598	598	600	604	613	615	611	598	599	596	594	600	604	605	606	608	603	598	597	604	604	608	607	607	604	598	597	597	599	602	605	605	607	611	611	614	616	605	605	605	605	605	606	606	608	609	609	609	606	605	603	603	599	599	602	607	609	607	600	598	600	604	599	592	592	591	594	601	598	598	599	598	601	599	596	601	607	608	601	603	604	607	607	602	594	590	590	591	599	600	602	601	607	615	617	614	604	595	590	581	597	603	603	603	609	599	595	592	590	597	602	601	603	602	597	588	586	584	585	587	591	592	591	586	588	591	589	595	600	598	593	592	587	590	593	588	584	583	583	580	581	585	593	595	597	597	595	593	604	599	587	585	588	587	582	584	595	604	610	596	588	588	586	596	602	599	593	588	589	596	597	598	592	588	584	583	593	599	598	591	583	586	597	602	603	597	593	591	591	595	598	587	583	588	584	584	588	591	595	597	596	593	590	590	590	587	587	587	589	593	592	592	593	597	599	601	598	586	588	590	589	592	590	593	596	602	591	593	594	592	598	593	592	592	598	606	602	592	579	578	588	592	595	590	593	587	582	580	582	583	586	594	598	595	589	591	595	608	597	596	592	592	590	580	583	585	586	585	588	589	585	584	584	587	584	585	587	590	591	599	600	592	587	585	583	583	589	592	591	591	591	586	590	588	585	585	589	596	596	594	591	589	588	593	592	591	587	588	596	598	595	590	586	586	588	587	583	581	582	586	589	588	589	593	588	592	598	593	586	587	589	592	587	585	587	588	586	583	584	589	593	595	598	594	594	589	591	601	590	594	595	593	592	591	590	583	578	577	582	587	591	594	594	584	583	590	586	584	583	582	579	583	585	580	587	588	585	579	579	595	599	597	593	591	584	580	578	579	579	581	585	588	587	587	591	589	589	589	597	592	585	583	583	584	591	589	588	589	586	578	577	579	594	597	595	591	581	585	582	579	580	580	577	578	595	599	598	593	587	586	585	589	584	589	586	588	600	589	594	594	586	583	581	584	589	591	595	597	587	586	583	583	586	588	593	594	593	594	593	587	588	589	590	584	584	580	576	574	574	575	583	585	587	583	587	587	583	581	588	591	582	578	578	576	572	574	575	581	583	587	589	585	585	574	570	569	568	569	568	575	575	577	588	579	575	575	575	577	579	577	579	581	587	581	577	570	570	563	566	567	567	571	575	571	0	0	0	0	0
625	627	624	624	621	621	624	626	626	614	614	621	619	619	620	619	616	623	623	623	631	632	628	624	624	620	614	612	614	616	616	620	625	627	628	625	625	627	628	630	629	628	626	626	619	613	609	608	613	617	613	613	613	607	609	611	616	622	625	625	624	618	602	610	612	615	615	612	608	613	613	613	604	610	602	607	610	610	607	605	600	597	595	595	595	603	604	605	601	604	613	615	616	616	612	607	599	600	600	604	612	617	621	622	622	612	608	606	601	598	594	596	598	603	603	612	614	610	598	596	594	593	598	601	602	605	605	601	596	593	594	600	599	603	604	600	598	595	596	597	598	601	605	605	612	609	608	613	600	600	599	599	599	597	599	603	594	597	604	607	606	603	598	596	596	599	592	595	601	601	598	594	590	593	592	592	588	590	595	596	598	598	596	595	585	584	583	587	590	590	588	602	599	598	598	588	599	600	602	600	599	597	603	605	605	606	600	600	594	587	588	589	587	595	591	598	595	591	589	594	595	597	596	595	597	593	587	583	582	582	585	587	590	590	589	589	586	587	593	594	581	580	585	586	586	587	581	579	578	577	573	572	573	578	583	593	595	593	588	586	584	584	585	584	581	578	577	579	588	584	582	582	581	583	581	594	595	592	588	590	591	590	589	588	587	588	588	588	593	596	595	597	595	593	590	581	581	588	588	590	589	591	584	579	580	580	581	588	588	592	594	591	586	585	578	578	585	585	585	596	593	590	590	591	592	594	598	589	584	587	592	590	586	584	586	589	590	591	586	592	592	593	599	597	587	592	592	591	582	581	579	578	586	584	584	590	596	590	579	583	581	580	580	589	586	592	594	598	578	575	574	570	570	571	576	583	583	584	585	587	589	585	586	588	589	581	584	590	597	600	600	593	581	580	578	580	582	586	591	591	591	589	581	583	582	582	583	586	593	596	592	585	583	574	573	576	579	581	584	594	596	593	589	582	583	587	585	581	579	580	584	588	589	586	586	582	585	586	587	587	585	586	590	586	585	587	587	586	584	584	584	593	595	597	592	589	583	581	582	582	586	590	589	588	586	587	579	573	573	578	586	568	579	572	576	573	572	575	574	575	575	575	579	578	584	586	584	585	578	575	582	588	590	588	589	587	580	581	569	573	579	582	585	586	581	582	585	585	584	581	580	581	579	574	576	581	585	584	577	570	569	569	570	578	586	591	592	588	577	568	570	575	575	572	575	578	584	601	595	586	576	573	581	580	577	577	587	596	595	590	589	586	581	584	580	582	588	588	587	585	582	580	580	578	578	584	584	582	581	580	582	583	586	582	580	579	580	580	579	578	577	582	583	592	591	588	571	580	580	582	579	574	574	576	571	575	574	573	569	581	582	586	586	583	574	571	569	570	572	571	569	574	573	570	575	572	572	571	577	578	577	577	581	578	577	574	567	567	563	565	567	564	563	568	568	0	0	0	0	0
620	617	619	621	621	618	618	602	602	598	606	607	615	615	615	618	619	620	621	621	622	626	625	619	619	614	612	608	609	615	615	613	609	611	616	619	619	623	626	625	622	619	613	613	612	613	612	612	614	602	600	600	597	593	599	600	601	602	605	606	606	604	606	606	604	601	603	606	607	602	602	601	600	603	598	598	602	600	596	592	597	593	591	591	591	593	601	602	597	598	620	602	603	606	604	588	593	589	595	598	613	617	619	608	610	610	602	599	594	591	596	597	598	606	606	610	611	609	601	598	593	591	594	599	600	603	603	597	592	588	591	597	598	595	598	598	600	598	595	594	589	587	593	598	597	593	596	595	593	588	585	590	585	586	589	592	590	593	595	590	589	588	586	586	595	593	590	585	591	598	597	589	585	585	588	587	587	586	589	593	595	593	593	594	581	584	580	580	580	574	575	577	581	582	584	600	595	583	595	595	591	593	599	595	590	591	594	598	606	588	587	586	579	591	586	587	588	584	583	586	591	592	590	589	588	592	582	583	583	585	586	588	588	587	584	588	583	579	579	582	581	576	579	584	589	587	582	580	575	575	569	568	575	579	588	595	596	587	583	583	581	580	579	578	575	573	581	592	584	583	583	587	589	591	589	583	586	584	588	595	589	589	588	583	584	586	577	581	585	582	581	582	584	585	586	585	590	581	585	585	585	584	580	580	581	579	578	575	587	590	587	584	580	580	574	574	569	579	580	592	587	588	589	588	574	570	573	584	585	587	592	590	582	577	574	572	589	579	583	587	587	588	585	592	585	586	585	585	584	581	579	579	575	577	578	583	586	568	573	578	581	578	579	581	579	587	587	569	571	561	571	567	567	569	571	577	577	581	582	580	581	584	579	584	574	572	580	588	595	600	599	593	574	572	573	577	581	584	588	586	584	589	577	580	578	578	580	582	582	579	581	577	569	569	571	573	575	580	591	594	594	590	588	582	583	584	587	580	578	578	575	583	581	584	581	580	575	576	583	583	583	584	587	585	585	585	582	580	577	575	581	589	590	589	588	585	578	576	574	578	581	583	584	586	584	580	574	572	571	570	561	562	566	570	572	571	572	572	571	571	570	566	573	578	577	581	584	577	573	573	577	578	579	575	576	576	570	572	574	565	572	578	580	581	576	575	583	584	582	577	577	579	574	574	574	577	578	577	569	571	574	575	576	579	578	570	565	565	570	573	569	570	570	570	570	575	574	581	579	573	572	570	569	568	569	576	585	589	591	577	581	582	582	578	581	572	578	583	584	577	576	576	567	567	572	574	573	565	572	575	580	582	582	573	574	577	577	577	583	583	580	579	581	591	586	572	570	570	571	574	576	573	572	573	574	580	574	569	566	563	578	578	580	574	571	565	563	560	560	560	567	567	567	566	568	568	568	569	573	581	579	579	579	576	567	563	563	558	563	563	564	561	563	566	574	574	0	0	0	0
612	613	613	616	616	618	596	587	593	593	598	599	606	611	611	614	617	620	618	618	619	623	622	616	611	611	608	608	613	617	617	604	606	605	611	614	615	615	615	613	612	610	608	614	614	612	618	615	601	597	595	594	594	593	598	600	601	602	596	597	601	601	603	603	602	601	601	602	600	591	595	595	597	598	592	590	590	591	591	590	597	594	589	587	587	589	589	589	592	595	595	588	589	596	600	588	587	586	587	589	592	601	600	606	605	589	589	579	578	580	584	584	584	599	608	610	608	606	594	589	589	593	595	598	597	599	598	593	590	588	588	593	593	590	595	581	584	583	583	584	586	592	594	597	597	591	579	587	574	577	570	571	573	578	581	586	586	590	591	579	575	575	576	575	575	589	588	583	589	592	590	584	581	583	580	581	582	579	580	583	586	587	586	581	582	584	576	573	573	572	570	573	579	581	582	582	569	565	563	561	575	581	582	589	588	590	594	597	599	604	573	574	579	577	583	589	591	587	583	584	586	585	585	589	587	583	584	584	582	584	582	583	585	584	577	581	577	573	575	576	576	576	578	584	586	581	578	577	568	564	562	570	575	579	584	586	593	590	582	579	578	578	572	569	566	566	567	586	592	587	574	582	588	591	595	578	572	579	587	590	594	590	583	586	581	576	577	579	584	582	579	579	578	584	586	590	585	584	588	584	580	580	579	579	575	585	590	585	578	589	585	579	579	575	574	573	568	565	571	576	578	585	591	575	575	579	578	570	574	579	587	585	580	576	574	569	571	581	584	587	590	587	582	574	577	580	582	578	578	579	579	577	576	570	571	580	578	565	567	580	568	574	576	576	575	578	565	564	569	561	559	556	556	567	570	576	576	578	575	577	578	579	579	577	571	577	578	582	589	600	599	593	572	570	567	570	573	581	585	575	572	580	574	575	577	575	575	566	567	572	567	566	567	568	569	573	573	586	589	591	593	590	585	580	583	587	590	585	582	565	568	567	572	570	568	571	570	564	570	575	579	581	582	583	583	577	575	576	575	571	572	586	585	583	577	566	563	575	571	577	576	579	579	580	575	571	566	564	566	568	560	560	564	568	572	572	563	560	558	562	561	563	569	573	573	571	569	563	566	568	567	566	561	565	566	564	568	570	562	561	560	569	572	572	564	571	575	581	573	576	575	573	570	571	572	573	573	567	569	570	572	575	576	577	572	564	563	563	567	572	567	563	564	567	566	560	555	559	563	573	570	567	567	569	561	561	571	571	570	566	571	575	575	571	569	568	570	572	572	572	571	570	569	566	570	567	566	564	563	571	572	574	577	564	564	565	570	572	575	580	582	582	583	579	579	578	567	567	567	569	573	572	569	571	572	573	572	566	554	557	557	561	565	567	568	569	563	558	559	560	566	567	570	573	574	574	573	569	569	575	574	577	573	567	562	556	556	553	560	560	559	560	566	575	579	579	0	0	0	0
608	610	608	609	607	607	586	582	588	588	587	593	602	607	607	610	614	618	617	617	617	620	620	619	615	615	615	616	616	611	604	604	600	602	609	610	600	600	595	596	601	608	608	612	612	620	602	603	599	595	594	592	592	593	597	600	603	600	595	595	600	600	595	596	596	595	594	595	587	586	589	597	597	595	590	587	589	591	592	594	595	590	586	583	584	584	584	575	577	579	579	580	583	589	586	588	584	586	588	592	590	590	587	585	588	575	576	576	577	577	572	569	578	577	580	580	577	578	578	581	583	596	595	594	594	593	591	589	589	587	584	583	578	576	575	574	580	578	580	582	584	590	593	594	592	582	568	574	578	579	578	569	570	571	576	582	583	583	578	575	575	569	568	566	566	568	576	575	587	590	585	578	575	571	578	577	572	571	565	566	576	579	580	580	581	580	577	574	571	572	572	572	574	575	576	576	567	565	562	563	570	575	573	571	573	576	578	565	565	587	595	575	575	573	585	579	584	585	574	583	582	582	582	585	585	586	578	569	568	568	574	575	571	586	577	563	572	571	573	575	572	575	576	586	577	569	564	566	564	564	564	562	575	577	580	581	577	576	577	575	574	574	569	568	565	563	562	567	569	571	579	583	589	591	589	576	576	575	579	584	589	590	587	580	574	573	573	578	581	581	578	576	573	574	581	577	572	569	579	584	579	574	576	575	575	583	578	577	574	571	563	562	563	566	562	559	560	557	559	563	566	570	573	571	571	575	570	570	574	586	583	576	573	570	566	565	571	580	585	586	583	581	574	568	566	571	575	574	575	577	579	576	573	567	567	572	568	563	564	564	564	565	569	577	571	571	558	564	565	559	556	555	567	568	570	573	574	576	577	569	575	576	572	572	570	565	571	574	572	584	598	595	589	568	563	561	557	569	560	554	552	561	559	561	560	560	555	562	581	581	577	573	563	563	568	572	574	583	586	572	567	558	554	563	584	587	582	570	563	563	565	560	562	563	563	566	561	557	556	557	565	573	575	575	574	571	573	573	577	568	561	563	562	562	564	563	561	564	573	582	570	568	578	572	569	568	563	561	562	564	567	569	570	562	554	551	557	558	559	560	559	563	563	564	567	568	566	558	561	565	560	557	553	558	557	557	559	562	560	559	557	557	562	564	566	570	568	567	566	569	569	564	565	566	568	568	565	565	561	565	570	569	569	570	565	563	565	567	569	562	560	560	565	564	562	560	556	558	555	560	564	568	569	567	557	550	553	553	563	566	568	567	569	567	561	564	563	563	566	568	572	572	573	570	569	566	563	565	557	559	566	576	576	563	561	560	561	561	566	564	569	567	568	571	575	573	566	557	564	569	569	564	567	568	568	569	565	563	554	556	556	559	560	563	564	565	561	555	551	553	562	566	570	570	570	570	567	567	564	558	559	559	558	561	558	558	554	552	557	555	556	559	569	578	578	578	0	0	0	0
606	607	603	601	594	594	586	581	582	581	581	597	602	605	604	604	611	616	617	610	610	614	618	612	607	607	599	601	606	605	603	603	599	586	584	587	587	585	585	588	592	598	604	611	612	612	602	596	596	593	591	592	591	591	592	592	599	604	599	595	592	595	595	590	589	591	590	588	580	582	584	591	591	591	587	586	589	591	591	593	593	586	583	583	584	583	583	576	576	577	577	573	576	577	583	579	575	579	583	588	589	582	579	573	574	570	575	572	572	572	570	568	575	573	574	575	576	578	579	580	581	582	589	589	585	580	583	582	581	583	579	573	572	573	572	569	568	574	577	577	577	576	576	582	570	573	579	578	579	574	575	572	567	571	574	581	582	578	574	578	578	574	565	564	563	566	572	579	585	572	575	570	567	564	560	563	565	567	573	574	577	576	575	575	578	576	572	566	569	572	568	568	572	571	570	566	570	566	566	567	569	572	572	571	573	571	569	564	561	559	557	558	557	555	568	578	581	583	574	571	572	571	573	573	574	571	562	559	563	563	569	568	573	565	562	560	567	569	572	575	575	573	581	570	568	564	561	562	559	560	557	555	566	575	577	572	570	568	573	576	567	570	566	568	567	560	562	567	564	572	571	572	567	584	575	575	575	570	562	561	563	568	568	578	574	571	569	572	571	573	572	571	570	570	572	571	567	567	571	573	573	574	574	569	566	570	572	568	560	562	566	563	563	563	559	556	556	556	557	560	563	568	570	571	571	566	565	567	563	561	565	581	576	573	570	568	568	566	571	579	579	574	570	564	565	570	571	556	561	565	565	570	562	560	561	570	569	563	563	558	562	564	567	573	570	567	556	553	550	550	552	554	565	567	568	570	572	574	576	567	566	569	568	567	563	563	565	568	566	566	560	556	555	554	555	552	563	558	555	555	552	551	554	558	553	555	557	560	581	581	574	572	564	560	569	575	573	570	567	568	566	557	557	560	561	567	566	563	558	551	551	555	558	562	565	567	560	556	552	556	563	570	569	566	569	569	571	574	572	567	559	555	557	559	561	567	568	567	568	564	565	564	561	573	565	565	562	563	562	564	566	569	567	562	557	555	549	554	554	555	554	553	554	558	557	563	557	557	563	566	561	554	554	555	552	552	556	558	554	554	555	555	556	560	563	564	561	557	559	564	564	561	561	562	563	562	559	562	564	565	569	565	565	565	561	560	568	564	560	557	553	549	555	560	561	561	560	556	554	557	562	563	561	557	553	549	546	549	552	556	563	563	559	562	560	557	559	559	561	566	569	572	572	569	572	566	561	558	553	554	554	560	568	562	563	560	557	556	557	563	565	564	561	568	571	570	565	558	557	561	562	562	552	550	558	559	562	568	560	560	561	559	557	558	561	565	562	554	558	553	557	561	565	565	564	565	564	560	556	551	547	549	551	553	553	554	552	552	549	551	556	554	564	572	572	570	0	0	0	0
607	607	598	590	587	587	581	579	578	588	588	598	605	597	596	596	603	612	614	602	602	597	600	600	593	594	594	595	598	600	601	599	599	586	587	586	584	582	582	591	595	588	580	583	589	589	593	591	591	591	590	590	593	593	591	594	597	605	597	591	591	590	590	588	587	587	586	583	582	582	581	579	577	577	580	586	590	593	595	594	592	586	582	580	579	579	576	576	570	571	566	570	574	578	578	574	571	574	577	582	585	575	574	570	564	566	571	571	571	573	573	574	571	568	568	571	576	578	576	574	578	576	578	582	576	577	576	577	575	572	574	569	569	570	568	567	569	570	571	571	569	572	566	565	565	565	577	573	570	567	564	566	558	567	577	583	583	573	571	577	577	581	576	566	561	558	558	564	567	568	568	567	564	558	561	564	569	570	573	574	572	568	563	560	567	562	561	562	573	576	575	571	560	561	559	558	559	563	563	559	561	566	567	567	567	565	564	561	559	556	559	559	555	553	554	562	574	577	574	574	572	569	565	556	553	554	558	559	561	560	561	564	564	567	563	557	561	566	566	566	565	565	568	565	563	561	560	559	559	557	556	554	558	567	570	569	565	563	570	560	562	564	566	568	569	560	559	563	563	563	563	568	562	558	567	570	568	563	560	560	560	562	565	560	558	556	556	554	556	570	568	566	565	566	568	570	567	564	563	562	564	562	557	560	562	561	563	559	554	558	562	564	565	566	557	556	555	557	558	559	564	567	565	568	570	559	562	558	556	550	552	567	560	562	562	562	561	566	567	564	563	561	558	559	564	566	553	550	565	566	566	564	560	558	559	571	577	569	561	552	556	562	568	568	568	557	550	548	549	549	550	560	561	565	567	568	565	567	567	565	565	564	564	563	560	559	562	563	561	552	553	551	556	556	555	552	550	556	554	551	549	549	546	550	553	553	552	555	579	579	569	568	566	559	558	570	569	567	565	564	555	555	557	557	556	563	558	557	557	557	548	550	550	557	563	563	559	554	552	561	566	569	561	564	558	563	568	567	565	562	557	547	553	552	560	564	565	564	560	561	560	559	558	561	559	560	558	558	561	563	563	565	564	562	557	555	552	556	560	556	553	551	551	551	554	554	555	557	563	565	562	559	552	551	550	551	551	550	547	545	544	550	552	557	562	564	558	554	548	556	556	551	554	556	556	554	556	560	563	567	567	562	562	544	536	541	555	562	559	555	550	546	549	553	556	556	558	550	548	547	549	550	553	553	555	552	544	546	544	542	547	549	549	551	550	551	553	555	557	564	564	563	561	564	570	560	559	555	555	553	553	554	566	561	565	564	557	555	553	554	557	559	550	554	562	564	557	542	544	544	552	557	550	549	550	557	564	566	566	567	565	559	545	549	551	558	553	557	548	542	547	543	544	544	548	546	547	553	554	544	544	545	545	544	544	543	544	545	552	552	550	552	556	556	561	558	0	0	0	0
607	607	594	588	581	580	580	579	578	588	588	594	594	591	593	593	598	606	604	602	594	594	594	592	588	590	590	594	596	600	598	590	590	582	584	586	586	592	590	590	584	580	578	578	579	585	585	582	576	578	581	581	588	590	590	593	601	597	586	582	580	584	588	580	581	581	573	572	571	573	576	576	577	579	579	581	584	583	582	583	585	582	583	581	578	575	569	569	568	568	565	571	578	578	576	571	566	569	574	575	573	570	565	561	563	565	566	569	570	575	574	574	571	569	567	569	572	572	569	567	572	573	568	572	570	569	569	570	569	564	558	556	558	562	565	567	569	570	566	559	554	550	552	553	554	559	560	556	547	545	544	550	558	565	571	580	576	566	573	576	577	575	568	568	565	557	554	554	556	555	561	557	550	558	565	562	565	570	573	571	569	565	560	552	556	556	557	555	569	571	566	563	555	550	551	552	553	560	553	551	550	560	570	570	568	566	563	561	551	548	549	556	562	558	552	559	564	573	572	563	563	566	560	559	552	551	551	554	560	559	559	562	565	566	563	560	553	554	557	562	562	563	567	562	563	555	563	560	560	556	554	549	544	542	542	548	549	551	553	556	556	557	565	568	568	559	556	558	563	557	552	561	558	556	558	559	562	559	558	556	554	550	555	558	552	554	549	553	554	557	559	563	562	559	562	563	570	562	555	553	560	561	559	559	555	561	561	555	555	556	562	564	564	567	567	555	556	558	559	561	567	571	570	571	563	557	560	555	553	547	544	547	550	553	551	551	554	555	567	565	562	557	557	557	558	554	555	551	551	567	566	559	556	558	559	569	576	574	564	552	550	551	553	555	554	553	555	555	555	549	549	555	556	564	565	560	560	563	562	563	555	564	557	557	555	549	550	552	551	554	549	553	550	552	549	548	549	549	550	548	546	545	542	545	547	550	552	556	574	566	563	564	556	559	552	560	559	561	562	555	551	556	557	560	556	553	553	552	553	542	541	548	560	559	556	556	557	551	553	559	562	563	557	557	556	555	561	564	560	555	544	552	551	552	555	557	556	556	556	553	554	554	553	554	553	553	553	553	549	556	563	563	562	560	558	556	554	560	559	555	552	549	549	551	555	556	557	560	563	562	554	550	548	543	544	544	548	546	545	543	545	545	546	550	558	567	563	553	542	548	548	551	551	552	551	551	555	557	555	551	551	550	549	547	548	552	554	560	559	554	549	543	541	552	555	554	549	546	542	542	541	546	553	558	556	551	546	546	546	543	545	546	546	543	544	548	549	546	556	557	554	556	553	550	556	553	553	553	555	552	549	549	551	557	562	562	559	555	557	553	545	543	541	540	543	550	546	537	542	542	548	545	543	528	526	535	550	550	555	560	558	554	541	538	538	552	548	547	547	541	536	544	544	542	544	542	540	543	538	539	544	544	542	542	541	542	542	545	547	549	551	551	544	544	546	550	0	0	0	0
589	583	583	576	575	577	577	576	585	584	585	585	589	589	590	598	598	599	594	594	592	592	589	587	585	587	592	592	599	602	597	591	582	578	576	583	584	589	580	580	582	581	576	579	582	581	581	565	571	573	574	572	571	567	567	570	573	573	573	569	567	570	580	577	579	576	572	567	565	565	565	566	570	579	579	580	576	568	566	574	580	577	579	579	577	571	568	567	567	567	568	569	574	572	568	567	566	567	567	570	572	568	566	561	557	557	556	563	565	566	571	571	571	570	554	544	545	545	548	557	563	571	564	563	565	569	569	564	561	558	559	558	554	553	564	567	568	568	559	556	554	553	552	552	552	556	554	545	541	539	542	546	548	563	564	564	563	559	558	560	561	566	561	561	557	552	548	548	551	550	553	558	555	556	563	560	562	570	571	571	567	552	551	560	562	546	546	557	554	557	558	560	553	552	549	549	548	548	544	544	546	552	563	567	566	566	565	555	559	550	556	560	561	558	551	552	562	563	555	552	554	556	552	551	549	551	555	557	562	562	560	556	544	561	562	556	556	555	556	555	552	552	553	555	556	555	562	561	555	555	552	548	539	537	539	543	547	552	554	554	553	555	556	555	551	555	556	557	559	564	559	557	556	555	555	555	556	557	556	553	551	549	552	552	551	549	547	546	551	557	556	559	561	561	561	557	553	545	544	549	553	560	561	560	560	559	556	550	551	550	563	564	562	560	558	549	549	552	555	554	556	556	560	564	555	546	556	556	549	546	543	546	547	547	545	551	551	550	551	561	559	556	555	556	555	555	554	552	559	562	563	559	556	557	560	564	559	570	563	552	550	552	554	554	554	557	555	555	553	551	545	554	550	548	547	550	551	555	558	552	545	549	543	536	539	541	543	541	552	551	544	541	546	551	548	545	543	541	539	541	541	542	538	541	542	547	549	563	562	549	546	549	559	560	559	562	544	543	545	549	550	556	560	559	555	552	551	550	548	547	546	547	550	547	549	553	545	552	552	554	548	559	559	553	552	551	552	551	555	548	542	542	546	548	549	553	554	554	551	545	549	551	551	550	548	550	549	548	548	554	561	561	560	549	543	541	547	548	545	548	548	548	548	550	555	558	556	559	560	557	557	549	546	541	539	540	544	543	544	546	545	544	543	544	546	542	541	539	544	547	549	548	550	548	548	544	543	548	548	550	550	552	551	548	548	548	553	553	552	549	549	540	537	541	544	543	542	540	540	542	545	548	552	552	550	545	544	543	544	544	546	545	544	543	543	548	552	542	532	544	534	543	543	547	545	545	543	548	548	551	549	546	550	555	557	557	555	554	556	553	544	540	539	539	543	530	537	538	537	541	539	541	530	527	525	532	532	540	552	551	548	546	538	536	534	536	538	540	544	542	535	535	542	544	543	540	537	531	530	534	542	541	536	536	536	540	542	545	547	549	552	543	543	544	539	545	0	0	0	0
585	580	580	576	574	575	582	582	585	569	568	568	575	584	590	594	594	593	590	587	592	584	584	581	577	577	583	583	594	599	593	581	578	578	573	576	579	569	572	572	572	585	582	582	580	574	565	565	567	567	566	567	564	563	561	561	568	568	569	566	566	569	577	575	575	574	567	562	560	559	566	566	571	573	574	574	570	565	568	570	575	579	577	576	573	571	568	568	569	569	565	563	564	561	561	562	565	567	560	556	554	554	551	557	561	554	553	556	561	563	562	560	556	546	546	548	541	541	541	541	551	560	566	561	566	569	568	566	563	560	558	555	553	550	553	564	564	557	552	553	554	553	550	549	548	546	548	543	539	539	540	543	556	563	565	556	551	548	547	553	561	559	555	557	556	551	545	544	545	547	548	550	553	555	559	552	559	563	563	562	548	550	557	564	559	549	547	550	550	553	552	557	557	545	548	547	545	547	542	541	546	547	554	563	563	565	557	556	557	548	553	560	558	557	550	555	548	546	547	549	550	544	539	547	546	548	552	553	552	562	559	557	549	554	552	554	556	555	554	550	550	553	556	557	557	557	551	550	551	548	545	542	536	535	533	539	540	543	546	547	550	551	555	553	547	542	544	552	562	556	551	545	542	545	548	551	553	545	538	541	547	548	551	550	546	537	537	537	541	545	552	551	552	554	552	549	550	543	542	543	548	554	557	547	545	542	541	540	541	544	548	549	551	549	548	545	536	540	547	549	551	553	551	551	544	545	555	554	551	549	544	548	546	547	546	548	548	548	547	548	549	552	549	549	549	550	551	551	556	556	556	551	548	550	551	546	545	548	555	556	553	548	552	540	542	546	547	548	546	544	541	545	546	546	541	532	532	541	551	545	541	542	539	536	531	537	538	542	549	549	548	542	535	537	537	536	542	534	530	534	539	538	536	538	538	547	548	546	545	545	545	544	548	556	555	551	546	541	540	541	544	546	548	550	545	551	550	548	545	549	545	549	549	543	540	536	542	551	543	543	541	542	544	547	549	549	549	545	545	544	542	537	544	542	544	552	551	550	548	540	537	535	534	537	536	543	537	535	542	553	551	544	543	534	535	540	544	545	543	541	547	548	548	550	552	554	553	553	559	556	547	542	542	540	532	533	536	539	541	545	540	543	540	539	537	537	537	538	541	544	544	533	546	547	542	540	540	542	543	548	549	549	544	544	551	551	552	552	559	540	541	539	540	540	540	540	536	534	534	540	549	550	551	545	538	536	539	540	541	541	539	537	535	541	542	542	542	545	541	519	526	533	540	543	543	541	539	538	529	542	543	543	550	553	554	555	554	550	549	547	541	538	537	534	527	534	531	535	537	538	539	538	529	527	527	535	535	540	550	549	545	541	534	535	531	534	532	538	536	534	535	535	535	537	536	534	532	529	526	530	532	532	532	528	520	522	528	541	548	552	553	553	537	534	542	531	0	0	0	0
578	575	575	568	569	572	574	574	576	568	571	568	568	571	574	576	575	575	579	581	586	578	578	573	565	562	564	570	570	575	571	570	571	573	571	570	567	565	564	568	568	575	581	580	576	565	567	567	565	563	563	559	561	563	563	563	565	565	565	564	565	569	573	575	562	562	563	558	553	551	561	570	570	570	568	568	565	563	563	563	564	553	552	551	553	558	569	569	561	559	559	560	560	558	557	557	557	556	556	555	553	553	551	549	548	551	551	551	552	551	551	553	554	550	545	545	542	541	539	542	543	547	552	554	553	552	551	551	562	558	558	551	547	546	546	546	542	544	548	551	551	549	547	543	542	544	544	542	539	539	539	543	562	563	557	554	550	548	543	541	542	545	550	555	555	551	544	543	541	541	543	547	550	551	551	554	553	550	552	546	541	541	544	551	561	548	547	549	554	546	548	549	548	549	551	551	549	549	541	544	544	544	552	551	550	551	551	553	548	546	547	551	556	547	546	547	545	544	542	538	539	538	541	542	549	546	547	537	542	552	554	550	551	542	541	535	535	539	550	546	551	552	557	559	557	554	547	546	541	545	541	538	538	537	532	533	538	540	542	547	547	547	546	542	541	540	541	550	560	550	546	541	537	540	544	548	551	543	538	533	538	551	550	550	547	534	535	539	539	541	541	547	548	550	547	543	544	535	537	538	539	539	546	543	542	541	538	536	536	539	538	540	537	538	543	537	536	538	540	540	542	542	547	547	540	543	544	542	543	543	543	540	543	543	543	543	543	544	543	545	546	543	539	530	530	534	535	535	535	534	542	541	535	536	537	537	538	541	545	545	543	537	532	535	534	542	538	535	534	537	536	541	543	544	539	536	532	529	536	536	539	541	538	535	529	526	541	545	547	541	544	537	539	540	543	540	538	524	530	534	538	540	538	535	538	540	537	542	545	546	546	543	544	547	547	543	540	540	540	538	541	543	541	539	543	544	548	544	537	545	548	547	543	540	537	537	532	531	529	530	533	541	544	546	544	546	543	536	533	538	539	537	538	536	543	543	543	538	540	539	535	534	532	528	528	538	539	537	548	548	533	533	534	534	537	538	537	543	543	544	538	546	548	547	548	547	546	546	546	542	532	539	540	536	535	529	534	534	543	534	531	532	535	530	527	527	528	532	539	540	540	532	536	546	546	541	538	539	527	537	540	544	552	548	549	552	560	561	549	546	542	539	540	546	535	539	530	528	532	547	547	547	544	541	534	531	531	535	534	530	532	528	527	525	528	530	530	532	527	522	521	520	536	535	539	535	535	536	524	535	532	538	542	551	553	554	551	549	547	544	541	534	531	522	524	527	528	529	533	538	539	534	527	527	528	528	535	541	549	547	541	534	531	531	528	523	524	532	531	531	534	533	535	537	537	535	533	527	518	521	526	526	518	516	516	519	526	541	541	549	552	552	539	529	523	518	0	0	0	0
578	573	567	567	570	566	565	565	565	568	567	563	563	570	573	570	571	571	572	574	574	578	567	569	563	559	570	570	570	567	559	556	566	571	571	557	559	560	561	563	567	567	573	574	571	566	564	565	565	565	565	560	561	562	563	564	564	561	560	558	558	558	560	564	560	560	560	551	554	551	558	568	569	568	565	560	560	558	554	553	551	553	540	540	542	547	556	557	557	552	550	550	554	555	552	553	555	555	554	555	553	552	556	537	539	542	549	545	549	549	549	553	554	550	546	544	539	539	540	542	542	543	542	539	537	538	540	542	547	553	553	549	544	540	540	536	536	538	540	542	545	547	541	537	537	542	553	555	552	551	540	538	540	539	541	541	551	544	537	536	537	542	547	555	552	548	543	540	539	540	542	548	550	550	553	550	548	549	548	544	540	539	542	546	545	542	546	548	552	545	545	545	549	549	550	551	549	546	537	537	538	539	544	549	546	541	538	544	546	545	544	547	538	545	545	546	546	544	537	539	540	540	538	538	537	540	540	541	533	543	549	547	548	547	532	529	531	531	529	541	545	551	554	557	555	540	541	543	542	542	537	535	536	537	542	541	538	539	543	544	544	546	544	543	540	542	543	544	552	552	541	537	531	536	540	539	537	534	531	533	537	548	549	547	543	535	534	536	538	537	533	540	543	545	543	538	538	540	541	538	536	536	541	540	540	540	535	534	533	535	533	533	535	538	538	534	536	536	533	536	535	528	524	535	540	537	535	538	539	539	541	538	540	538	539	538	535	543	542	538	531	530	527	527	528	532	534	533	533	534	537	539	536	536	540	541	539	539	540	539	538	537	530	530	527	525	527	530	531	532	536	537	539	538	533	536	532	532	533	538	538	540	530	527	525	525	534	539	541	537	543	536	538	538	540	540	536	529	519	533	538	537	540	538	538	537	535	533	538	542	542	540	541	542	537	536	535	541	539	538	536	537	536	535	535	540	538	533	531	535	540	539	535	535	525	525	525	525	524	524	527	534	540	542	542	539	540	534	532	533	533	532	531	529	516	526	537	540	545	540	530	528	527	525	526	536	537	535	532	529	524	532	529	529	533	536	539	537	543	540	536	531	538	543	542	542	541	540	540	536	532	526	538	536	534	534	536	539	538	527	524	534	531	530	528	523	528	528	535	535	534	533	536	538	534	533	537	539	536	532	538	537	536	533	530	530	533	534	532	529	540	539	539	547	535	523	524	526	528	538	540	539	542	540	535	527	527	529	529	524	529	527	524	523	527	528	530	528	526	524	530	523	532	531	527	537	533	532	530	520	523	534	543	544	543	536	536	537	543	540	537	537	530	525	525	526	529	527	529	535	529	525	520	531	531	534	525	528	532	533	529	523	521	521	512	515	527	529	530	531	531	534	536	537	538	536	527	517	518	517	523	523	529	528	527	525	526	531	537	537	537	536	527	525	521	517	0	0	0	0
572	573	563	563	559	557	559	561	561	565	567	561	555	555	557	558	563	567	567	567	566	567	562	562	555	567	567	561	559	559	558	557	553	554	557	553	557	558	557	559	560	560	566	567	563	561	558	565	565	554	556	557	558	558	554	552	552	549	544	545	544	546	549	558	550	549	549	548	542	537	538	540	548	547	545	549	549	549	549	548	546	544	547	545	546	546	547	549	547	544	545	545	545	549	551	551	552	544	551	550	553	539	541	534	535	538	541	538	544	545	545	546	540	539	533	538	533	538	538	540	539	543	541	537	538	537	537	539	540	543	546	545	541	537	530	532	531	526	524	524	524	537	534	534	538	531	529	528	524	534	536	536	538	530	527	529	532	531	531	533	535	539	544	552	550	546	541	538	538	540	545	551	553	551	550	543	543	543	542	536	540	540	538	535	534	535	536	547	540	543	544	546	547	545	549	550	546	546	531	529	530	530	531	530	528	528	538	542	539	540	543	543	545	534	534	544	545	535	537	537	536	535	531	528	533	535	535	533	534	538	542	543	543	542	537	535	530	532	532	531	550	547	546	542	536	537	540	543	545	544	536	535	535	536	542	536	532	534	540	538	540	536	539	539	541	540	542	542	550	539	535	532	527	528	534	533	532	531	528	528	530	541	544	543	535	538	537	536	534	533	532	534	537	537	538	540	538	539	539	534	531	532	539	540	539	537	536	534	532	532	529	531	534	534	534	532	536	537	536	530	527	525	522	519	532	531	529	529	532	539	538	536	536	534	531	531	540	538	537	537	532	530	527	529	530	531	533	531	530	531	536	536	533	532	536	534	533	536	539	538	537	536	529	530	526	525	527	528	529	533	537	535	535	532	533	534	531	531	533	534	535	531	527	528	532	524	531	537	537	537	534	534	537	536	537	536	535	529	527	526	530	535	536	538	536	534	528	527	527	534	536	538	538	535	529	528	529	531	535	531	529	534	533	531	528	529	533	533	532	528	524	527	530	527	525	524	524	523	523	524	524	535	535	540	539	537	535	536	530	530	531	529	525	522	516	522	533	538	539	539	530	527	526	523	523	522	535	536	530	527	528	529	530	528	533	533	537	539	538	535	531	531	531	536	534	536	526	534	523	532	523	524	526	525	525	528	532	536	533	533	527	524	535	533	530	528	522	520	517	520	521	536	536	536	536	525	523	531	528	531	532	532	530	527	526	528	528	530	527	526	526	529	524	526	522	523	521	521	524	529	532	533	531	530	529	526	524	523	524	526	528	524	523	526	531	531	528	526	525	525	529	533	539	533	528	523	528	527	527	526	523	523	524	528	530	532	535	534	535	525	525	527	527	528	526	528	529	527	526	530	526	524	526	526	523	523	530	522	524	525	521	515	511	511	521	522	524	526	528	530	529	527	520	525	523	517	516	517	517	518	518	521	522	522	522	522	525	526	525	521	521	524	524	521	507	516	0	0	0	0
569	563	560	555	555	556	557	561	561	563	565	559	554	554	550	555	559	563	563	563	560	559	562	558	555	562	559	555	554	554	554	553	550	551	553	552	555	552	553	552	551	551	551	561	556	548	552	560	554	548	551	552	554	552	551	549	547	547	545	541	543	542	546	548	544	537	537	535	534	536	542	543	541	538	544	545	545	545	545	543	550	547	546	546	546	545	544	546	547	543	542	545	545	546	549	549	547	542	545	551	537	540	534	534	532	533	534	534	538	539	533	529	529	527	526	526	530	533	537	535	535	532	533	536	534	535	536	537	538	536	534	533	532	528	529	530	529	525	524	531	536	536	534	534	528	522	524	525	524	540	538	536	537	529	527	527	528	528	531	532	532	537	545	550	547	543	540	538	537	540	543	543	540	539	539	538	538	537	537	534	540	540	538	534	531	534	531	526	533	537	539	540	539	539	538	548	544	543	523	524	524	527	528	521	519	521	533	539	537	536	527	527	523	524	531	533	529	529	530	529	533	529	530	528	526	530	529	525	534	537	537	540	542	542	538	534	530	530	531	533	545	543	541	540	536	541	539	540	541	537	539	534	533	538	540	537	532	532	532	534	538	538	539	538	534	532	531	533	531	531	528	522	519	532	532	532	527	533	525	523	530	536	534	533	527	527	536	534	531	533	533	534	531	532	533	534	532	535	535	530	529	529	539	530	530	531	533	534	530	529	527	530	530	532	528	529	533	537	534	530	524	522	520	522	534	531	527	526	527	530	529	530	531	533	535	531	537	538	536	528	531	529	530	529	531	532	531	529	530	530	529	526	526	529	527	526	523	529	536	536	530	529	534	537	537	530	528	527	531	534	539	536	530	528	528	527	529	531	534	534	533	525	525	526	527	527	533	540	541	541	536	534	534	532	532	532	532	527	524	524	525	530	534	536	535	532	525	521	520	522	527	532	531	526	524	523	521	526	529	529	531	534	528	525	524	522	519	521	520	519	522	524	526	526	524	521	520	518	518	530	529	532	535	534	537	528	528	531	533	530	528	525	521	517	517	517	517	527	534	534	531	528	527	525	522	525	530	531	527	527	526	527	523	526	527	529	534	535	535	533	530	526	528	532	531	522	528	531	538	531	526	527	527	524	524	526	529	533	533	527	519	523	533	530	527	527	525	519	517	517	520	533	536	535	526	522	520	522	522	520	525	525	525	521	521	523	525	526	524	521	522	522	525	522	522	516	518	518	523	525	526	526	521	519	523	525	523	521	523	525	525	524	522	526	531	529	526	521	522	521	522	519	520	527	525	519	519	521	522	528	525	524	527	529	533	534	536	535	529	518	521	522	522	524	528	527	529	526	523	524	527	525	525	522	521	521	515	515	517	517	516	511	515	519	519	520	520	522	522	528	522	522	521	519	517	516	516	517	516	517	517	518	519	516	515	510	521	516	511	511	508	505	515	513	518	508	0	0	0	0
569	553	556	554	554	557	559	560	566	566	567	559	550	550	549	554	559	557	557	560	559	559	558	551	551	558	557	553	551	551	549	548	546	545	552	555	540	544	543	540	539	540	540	544	540	540	551	545	548	548	547	549	551	550	547	547	544	538	538	541	541	542	544	548	544	534	532	532	531	533	536	538	538	536	543	547	546	543	543	545	549	546	536	544	545	545	543	542	541	539	542	544	547	547	548	550	549	548	545	537	538	535	535	529	526	530	532	530	531	532	530	528	526	525	523	524	526	531	533	534	532	532	532	533	534	532	532	533	527	528	529	531	532	528	524	531	530	523	526	532	535	535	536	527	525	521	521	526	535	537	537	537	534	525	527	524	524	527	530	532	533	538	543	548	547	543	536	531	528	530	531	534	534	535	535	534	534	532	530	529	539	539	535	532	530	530	526	522	519	516	519	524	529	534	535	547	539	536	531	520	523	525	527	524	516	518	530	535	533	526	527	525	519	521	524	523	525	526	528	531	533	530	528	526	525	524	518	518	517	531	531	536	537	539	530	527	524	526	530	530	534	538	537	539	540	542	538	541	540	537	538	529	534	539	536	534	529	527	527	530	536	536	539	534	531	528	524	524	529	529	527	527	530	533	535	532	527	525	529	529	531	534	534	528	526	525	524	527	531	534	534	535	535	531	530	529	531	528	535	529	528	525	529	530	530	530	530	530	532	531	531	529	529	534	522	519	523	530	534	529	522	519	523	519	535	532	531	531	528	527	524	527	530	525	526	527	534	527	524	522	530	530	531	530	529	532	535	532	530	530	529	528	526	525	522	521	523	527	532	523	522	523	524	524	524	525	526	527	531	535	537	531	530	525	524	525	525	525	530	529	529	523	522	523	524	529	527	531	538	541	541	535	532	529	526	523	524	522	519	520	523	529	530	533	533	527	522	518	513	516	519	526	527	523	518	517	523	524	522	526	528	519	527	523	523	520	519	517	517	518	520	522	519	516	520	519	514	513	522	525	525	529	527	533	529	528	530	531	532	531	530	526	523	522	518	516	513	509	520	528	528	525	524	524	521	522	525	524	522	522	521	525	523	523	525	528	528	531	531	531	526	525	525	528	524	522	521	521	531	532	530	530	531	530	524	525	526	521	530	528	517	513	518	524	526	525	520	517	516	518	518	527	531	535	526	520	518	519	518	518	519	521	524	522	521	521	524	521	520	519	516	519	512	517	513	513	514	516	518	523	524	524	518	516	516	516	517	518	518	513	512	511	518	521	522	523	520	517	519	519	519	516	518	527	519	512	514	515	518	521	524	524	527	528	530	533	534	533	521	517	515	515	514	518	523	524	528	523	522	522	522	522	530	521	517	515	508	505	508	513	512	511	514	512	517	516	513	513	514	522	520	519	518	515	513	515	515	517	517	517	518	518	514	508	504	502	516	517	508	508	510	507	515	512	514	506	0	0	0	0
556	546	547	554	554	556	561	565	567	567	566	557	548	542	542	546	552	554	556	556	559	555	550	551	550	549	555	549	549	546	546	543	545	542	539	540	538	538	539	539	540	534	532	532	534	536	539	543	545	547	542	546	550	545	543	544	543	537	537	535	541	542	544	541	536	523	529	527	527	529	531	534	535	539	543	548	547	543	544	544	544	535	533	543	543	542	540	542	535	537	539	543	544	544	544	544	533	536	540	541	536	534	532	525	523	533	527	528	529	529	526	525	527	529	529	521	521	526	542	542	540	532	533	530	527	527	529	530	526	526	526	526	531	525	524	526	524	519	521	525	532	533	532	526	526	524	522	524	525	532	530	526	523	523	526	527	525	527	527	528	522	530	527	527	527	528	529	532	529	521	523	527	529	532	531	531	531	531	530	532	533	534	534	530	528	528	526	523	519	517	519	520	523	527	527	527	533	531	524	515	523	524	525	523	521	519	522	528	522	524	525	518	512	513	518	521	523	524	524	522	524	525	525	525	524	522	516	518	516	523	529	529	534	532	525	525	524	526	528	528	532	532	531	537	541	539	538	528	530	528	527	529	525	525	528	528	530	533	533	532	539	534	538	536	530	524	523	524	527	530	526	521	530	524	531	529	523	518	520	527	535	532	532	523	523	513	517	524	527	529	530	534	534	529	520	516	520	528	530	534	531	525	529	528	531	530	529	528	538	539	539	537	532	519	515	508	511	513	517	510	507	505	513	516	529	529	530	530	526	525	521	518	518	523	523	523	518	516	518	526	530	530	530	529	530	535	536	536	529	530	530	524	521	520	515	514	515	516	518	522	523	521	519	522	521	522	521	524	529	530	531	530	527	523	521	523	522	520	520	520	524	520	519	519	520	523	524	527	532	536	538	536	531	523	517	515	520	518	515	515	526	526	528	527	529	525	522	521	519	511	516	520	523	521	521	516	512	515	515	514	512	515	521	523	521	519	516	518	515	517	519	521	517	516	519	514	513	513	517	519	516	513	523	521	520	520	524	531	520	518	519	519	524	525	523	513	511	507	513	518	519	523	521	522	518	524	523	525	520	517	517	519	519	520	520	518	518	518	523	521	519	506	523	522	521	519	521	521	522	525	532	532	533	532	524	524	525	520	519	519	515	511	507	518	518	517	515	516	516	517	511	508	507	514	530	515	513	512	508	516	517	522	513	515	514	520	524	524	519	510	511	512	511	505	502	509	512	514	517	520	520	508	505	513	507	495	500	505	507	510	507	505	507	507	510	518	515	511	511	514	518	520	518	513	511	510	509	510	510	509	509	516	520	520	523	525	528	530	518	515	514	512	510	507	517	518	519	519	518	521	521	522	530	519	511	507	502	503	507	508	508	515	511	509	510	508	508	505	503	516	518	516	514	514	513	517	514	515	515	517	518	516	510	504	502	502	501	494	494	496	498	502	508	512	512	509	509	0	0	0
546	546	539	549	557	557	561	559	559	559	552	550	548	539	539	546	546	547	549	549	554	549	548	550	540	540	544	540	543	543	543	543	546	546	542	538	538	540	543	540	535	530	529	529	531	536	538	539	541	542	548	548	542	541	539	539	539	531	531	531	537	539	539	534	531	524	527	526	526	525	528	529	535	539	538	539	541	536	533	533	533	533	532	530	529	535	530	530	530	535	537	540	528	524	524	524	525	530	533	532	530	527	519	521	533	536	527	530	530	529	525	526	530	531	524	520	518	519	526	532	533	532	526	518	515	518	516	516	519	519	519	519	512	528	522	521	514	514	514	519	523	530	530	528	526	523	522	521	523	531	529	524	520	518	524	520	525	527	523	521	519	518	528	527	527	526	527	531	529	522	522	524	525	529	529	531	531	531	531	530	530	530	529	528	526	525	525	520	521	526	518	516	523	521	521	514	513	516	515	514	519	520	524	520	521	518	518	518	519	521	521	513	512	512	516	518	521	521	521	523	523	518	523	520	522	522	522	518	518	518	525	527	527	527	524	524	524	526	526	527	529	527	522	519	518	517	517	514	525	521	520	518	514	521	522	526	526	527	535	535	525	519	519	523	520	518	521	519	527	527	528	518	518	518	526	525	521	520	522	533	524	532	530	515	511	511	517	516	522	525	527	535	532	524	509	508	515	518	526	529	525	526	525	529	529	529	528	526	523	528	530	528	524	515	512	505	504	507	509	512	510	506	507	518	521	524	517	530	517	518	518	518	517	513	520	510	513	510	514	521	531	531	522	519	522	526	531	526	520	516	516	517	516	514	509	509	513	516	520	521	519	520	518	514	512	518	518	522	525	526	526	525	523	518	517	522	522	519	518	522	524	521	520	519	518	518	519	518	530	536	538	537	518	514	509	515	520	516	514	512	518	511	508	512	520	527	525	512	507	514	507	509	513	519	518	513	510	514	513	512	509	512	512	513	512	513	515	514	518	513	518	517	508	509	511	514	512	509	511	506	506	502	509	513	514	516	527	521	519	518	517	518	523	525	524	516	511	507	507	511	510	513	517	518	515	519	519	518	516	515	516	516	516	516	514	510	508	511	515	515	511	508	509	526	531	528	522	520	519	511	522	524	526	521	523	522	520	516	513	511	509	508	507	502	514	514	513	516	517	517	508	504	508	513	519	516	512	510	510	517	518	520	521	510	509	508	509	510	518	514	510	510	508	503	499	500	508	511	518	520	513	506	502	501	492	505	505	505	507	506	506	508	507	505	507	510	502	508	510	513	518	519	515	512	510	508	507	506	509	511	508	511	510	513	514	518	523	522	515	510	509	508	508	500	500	502	508	509	510	518	522	529	520	516	511	508	504	508	514	508	503	503	505	505	505	505	505	502	502	506	517	516	513	512	513	515	513	511	511	510	514	511	506	499	501	503	499	499	492	493	497	501	503	506	514	518	518	0	0	0
537	537	539	527	539	539	546	543	546	543	543	544	535	537	544	544	542	536	529	526	526	536	546	545	540	535	532	535	537	539	544	544	545	546	542	537	540	545	542	538	533	525	527	526	526	531	535	538	539	542	548	535	537	534	535	526	522	525	529	529	531	532	530	532	531	534	531	526	523	523	524	526	530	529	535	537	538	534	531	531	531	529	528	528	525	525	521	520	523	526	527	526	516	513	520	522	522	524	526	525	526	519	515	528	533	537	529	532	530	528	525	526	528	528	527	525	520	520	524	527	529	527	522	518	518	520	520	520	517	519	511	511	511	512	515	517	516	509	511	514	518	524	524	522	519	519	520	520	519	520	519	514	513	517	510	519	522	522	520	518	517	517	519	528	526	524	522	520	521	522	521	522	524	528	528	528	529	529	529	528	527	530	529	527	526	524	520	521	525	523	518	513	515	517	516	508	508	510	513	514	515	518	519	519	514	514	518	519	516	518	518	518	510	516	516	518	520	518	510	503	504	509	516	515	518	521	523	519	519	521	518	522	521	522	521	520	506	506	509	510	520	521	518	515	513	515	511	515	512	510	508	507	508	508	511	516	508	508	519	518	512	510	511	512	515	515	515	514	515	514	511	511	503	515	516	520	517	520	532	521	521	519	519	512	510	508	506	514	517	519	521	521	520	513	511	506	512	515	515	523	525	521	523	523	527	527	526	525	524	522	522	524	521	515	511	503	504	505	508	512	506	510	510	513	514	519	518	511	513	514	513	510	514	512	510	508	512	509	513	527	519	516	508	509	511	516	517	516	516	514	513	513	517	512	508	504	504	506	506	506	517	517	514	510	511	515	515	516	519	520	520	521	518	518	514	514	514	513	513	513	514	518	521	520	518	517	521	513	519	523	522	519	513	512	511	516	521	515	513	510	508	510	503	505	501	503	498	493	509	504	504	507	507	507	508	508	509	510	509	508	507	507	507	508	509	510	512	513	516	518	508	508	502	501	506	508	503	501	500	503	502	501	503	506	510	517	516	524	518	515	514	516	520	524	521	519	510	511	508	506	511	511	512	509	508	508	506	513	512	511	513	515	515	511	507	505	506	509	515	514	511	505	505	511	514	516	514	503	501	498	500	503	518	512	510	511	509	507	503	502	495	500	503	501	502	505	507	507	507	505	506	515	519	520	517	512	508	506	511	517	521	526	510	507	503	504	508	508	508	510	506	505	504	495	495	499	499	500	510	515	509	504	501	494	502	505	507	505	501	500	502	505	505	508	504	502	500	498	502	504	501	500	495	497	498	508	507	507	508	511	510	508	503	507	510	514	512	513	507	506	505	505	500	499	499	498	503	506	506	510	518	517	519	514	511	508	508	503	502	499	496	500	502	501	498	498	497	499	500	502	507	516	516	515	508	515	511	511	499	504	503	499	498	497	499	499	501	501	498	495	494	495	496	504	495	495	502	0	0	0
528	528	527	524	523	531	531	533	531	528	528	529	532	537	537	537	532	530	530	526	526	524	534	534	535	528	528	531	536	538	542	542	545	543	538	536	545	542	538	536	525	518	516	521	521	528	534	538	535	535	535	526	526	527	531	528	530	529	527	528	528	530	532	533	533	534	532	522	524	524	524	525	525	527	526	526	528	529	528	524	528	528	528	527	523	518	515	518	523	524	519	512	505	502	508	515	517	517	518	518	515	515	516	524	528	527	527	526	524	520	517	518	525	527	527	528	516	514	514	515	518	523	526	525	524	526	523	521	520	516	509	504	506	509	509	511	512	512	515	518	524	523	520	516	515	513	514	515	517	517	516	513	506	502	507	515	520	520	517	516	516	517	515	518	522	522	517	519	516	516	525	519	522	524	523	523	516	516	516	512	525	527	528	526	526	525	521	521	525	520	516	511	515	513	512	506	507	509	510	510	514	516	518	518	514	517	518	519	518	514	513	503	509	511	513	516	520	513	509	506	499	500	505	507	506	514	522	516	514	517	518	505	510	514	513	501	504	506	502	505	510	511	514	508	507	507	510	515	512	510	501	506	506	506	509	511	503	503	505	509	509	507	506	508	507	505	494	497	501	503	503	501	504	506	510	516	516	514	512	515	514	514	514	515	518	509	506	504	504	510	512	506	506	508	507	506	509	509	512	511	518	516	520	520	524	524	522	521	509	506	517	517	521	514	510	506	506	505	507	510	508	508	508	508	506	504	498	500	507	508	508	509	512	509	508	506	510	513	513	516	516	512	508	503	510	514	515	515	515	511	511	512	509	507	507	503	504	504	503	501	504	503	506	508	507	502	501	510	510	513	521	518	517	514	506	506	505	505	507	508	508	513	513	518	520	517	519	520	517	519	518	512	509	509	508	515	508	503	491	496	498	497	495	495	495	498	497	495	492	501	502	502	501	503	504	508	508	507	507	506	500	500	501	503	506	508	507	515	516	515	513	508	508	509	509	505	501	498	499	502	500	499	499	501	505	504	511	509	506	507	517	514	511	515	518	518	515	512	511	509	505	506	508	504	505	508	507	507	509	508	511	511	510	507	503	498	498	498	510	503	507	504	506	506	507	510	509	500	496	497	500	502	507	505	507	512	503	498	495	493	493	494	496	501	501	503	506	504	502	501	499	495	505	505	505	504	501	503	507	509	519	520	513	494	493	498	504	508	507	506	501	500	498	488	488	487	491	494	495	508	506	503	498	496	497	497	496	503	500	499	501	505	498	505	503	500	500	503	503	511	513	506	502	497	497	502	506	509	506	510	502	499	497	497	497	502	507	504	506	502	501	502	501	500	500	500	504	504	500	506	498	500	505	506	506	506	506	503	503	503	499	494	495	495	495	492	493	497	500	500	499	514	501	506	497	501	501	495	498	496	496	496	495	494	499	497	497	495	496	495	494	492	490	486	499	499	500	0	0	0
521	519	519	524	521	522	522	522	525	524	527	527	528	530	537	528	528	529	530	527	524	524	523	529	526	528	525	524	530	539	539	532	532	535	538	541	541	538	524	522	519	517	515	520	524	524	526	527	528	526	527	530	530	528	527	525	528	524	525	528	529	529	531	534	533	533	530	527	518	523	523	525	515	509	510	510	508	505	510	516	524	528	528	518	514	515	515	528	530	526	518	507	498	500	505	510	513	516	516	511	510	512	514	514	515	517	520	518	521	520	518	515	515	521	525	520	515	512	514	511	515	525	524	522	520	519	517	522	520	515	506	504	499	507	509	500	507	507	508	509	511	513	512	512	511	510	507	515	517	517	512	507	502	503	508	513	519	520	514	513	512	515	511	511	509	511	512	513	514	514	520	517	508	511	514	514	512	511	509	505	517	516	520	523	527	525	521	520	519	513	509	505	508	510	509	506	505	510	514	508	503	501	510	503	502	500	498	504	503	522	503	504	505	507	514	513	518	517	509	492	489	489	495	495	497	507	507	504	501	508	509	506	501	503	500	501	505	507	501	506	504	506	506	503	503	502	505	506	509	509	501	501	503	503	505	504	501	499	501	505	505	505	503	501	502	502	492	496	498	501	505	500	501	503	506	508	509	510	513	507	505	504	504	507	508	500	505	504	503	506	508	509	508	506	504	501	504	503	505	507	509	513	517	519	520	516	517	508	501	503	514	515	514	511	510	509	506	506	506	505	499	501	503	505	506	501	495	495	503	505	503	502	500	501	505	502	503	506	511	512	510	501	503	503	506	512	510	506	503	513	510	508	508	507	497	499	500	505	505	503	504	504	504	504	506	506	510	509	510	511	510	510	512	505	507	504	504	503	503	506	507	507	511	513	517	517	516	507	518	508	511	510	506	505	501	499	498	490	488	492	495	496	492	488	498	498	497	494	492	497	495	494	493	501	503	505	505	505	498	500	502	501	497	496	496	503	509	510	511	512	507	496	502	504	506	506	499	495	492	491	491	495	495	497	499	501	505	508	497	494	493	496	492	498	516	512	515	511	508	509	506	506	506	504	504	506	507	506	505	502	501	494	493	490	492	492	500	501	499	499	496	500	503	504	505	501	501	496	494	495	497	497	506	501	501	498	496	493	490	491	491	493	494	499	499	497	500	501	499	498	497	499	493	489	491	498	499	500	503	496	493	496	496	495	493	498	504	510	501	500	498	495	495	487	484	493	498	497	496	497	501	500	497	497	495	494	494	495	496	498	494	494	494	503	503	507	503	504	505	506	507	504	501	500	497	500	503	506	504	501	494	500	503	506	506	503	502	503	505	503	502	503	503	503	501	499	499	494	497	500	495	497	502	505	505	508	506	502	503	503	495	496	489	489	490	490	495	496	498	497	494	501	494	502	495	489	489	489	491	494	493	493	494	497	495	496	496	501	503	499	493	489	487	485	485	494	491	0	0	0
518	519	519	521	519	518	514	514	516	521	523	523	526	530	530	521	521	527	526	526	525	525	522	520	521	525	518	518	518	521	522	523	523	525	534	536	537	524	522	520	519	515	515	523	523	523	524	524	524	525	529	530	525	525	517	518	522	521	520	520	521	521	522	524	525	528	520	513	510	511	509	509	509	509	509	507	507	505	506	513	519	520	518	514	513	511	513	521	522	519	513	506	501	501	506	509	512	513	512	512	511	511	508	511	512	515	513	510	511	517	515	515	515	515	513	518	513	509	503	508	519	520	517	511	500	501	503	509	507	505	504	499	495	501	505	512	504	506	503	500	501	502	503	499	495	495	501	509	507	507	504	499	498	499	506	509	509	517	512	511	511	511	510	508	506	507	514	520	523	509	508	502	504	502	510	511	506	507	503	501	504	502	510	519	523	525	523	520	516	514	512	503	506	506	507	506	509	518	513	505	500	498	497	501	494	489	496	501	501	521	503	502	506	509	508	505	510	501	499	499	496	491	488	486	485	497	499	501	499	500	504	505	503	504	502	502	504	505	505	499	503	503	502	500	499	500	503	504	505	506	503	501	499	500	503	501	500	498	502	506	506	504	501	497	495	492	490	495	496	498	502	503	502	505	503	498	499	501	506	503	509	508	506	508	502	497	497	498	499	500	503	504	501	504	501	501	500	500	502	506	505	505	510	513	509	508	502	501	500	501	501	509	505	503	508	506	505	504	503	498	498	498	498	500	502	500	491	493	493	497	498	498	500	498	499	499	496	504	505	505	496	498	499	501	503	507	509	506	503	509	507	503	506	498	497	497	499	501	502	496	496	506	507	504	504	505	506	509	508	508	506	504	509	506	507	502	503	500	504	504	506	506	506	501	501	498	499	500	502	506	510	508	505	501	498	498	496	486	493	493	496	497	501	485	491	497	498	497	495	495	491	492	492	495	501	501	501	500	500	502	504	501	497	495	501	500	500	505	500	502	495	493	497	498	498	498	497	492	490	490	482	489	491	491	493	496	499	495	493	493	491	488	489	486	493	498	501	506	504	506	505	505	504	497	500	501	500	497	492	487	490	489	484	486	488	501	497	497	495	495	495	498	496	501	501	489	493	495	490	490	492	492	495	505	492	494	494	492	492	493	492	490	492	495	494	494	493	494	493	492	497	499	483	483	487	495	495	497	502	501	497	488	488	487	493	498	503	506	509	500	495	494	490	491	491	496	500	497	492	495	500	500	497	496	496	493	491	490	487	494	488	488	490	498	499	497	502	500	500	500	496	504	501	500	497	490	501	502	501	495	490	497	501	505	504	501	499	500	500	500	505	505	505	494	494	494	489	486	491	496	499	503	497	501	504	501	498	491	485	483	488	491	488	488	484	486	487	489	496	492	489	482	488	488	488	488	485	486	487	491	488	489	493	493	496	496	491	490	488	487	493	490	490	487	487	487	485	0	0	0
512	515	520	520	519	514	509	509	505	510	515	520	520	520	519	521	510	516	521	521	522	515	515	518	520	519	518	514	510	511	515	517	523	523	527	518	521	522	520	517	516	516	518	520	522	523	523	522	520	524	528	526	508	508	503	506	508	512	518	520	521	518	518	520	521	521	520	511	510	512	513	513	510	507	504	503	503	506	508	513	514	519	514	507	505	506	514	516	517	516	510	505	502	501	507	510	504	498	499	499	502	503	495	497	499	501	501	501	505	507	512	513	512	513	511	510	511	502	499	503	498	494	490	493	496	499	503	507	504	502	497	494	494	498	505	513	515	513	511	503	503	502	498	499	495	495	504	507	508	507	503	498	494	496	498	502	502	500	502	501	503	509	508	505	504	506	510	501	502	502	501	500	497	500	504	505	502	498	498	501	504	496	499	502	512	512	511	512	509	507	507	503	506	506	504	502	508	511	515	505	496	494	499	499	497	494	490	501	503	519	517	512	505	502	499	499	498	500	497	495	494	495	495	492	493	496	498	495	494	494	496	504	503	504	506	504	503	502	498	498	501	498	497	495	495	498	500	502	504	502	502	499	497	493	497	499	500	503	506	504	506	504	503	496	492	486	486	487	492	495	497	497	498	495	498	498	496	497	487	496	501	501	509	510	501	499	499	499	499	500	501	503	501	500	501	496	500	500	501	496	503	495	492	504	499	497	503	507	504	498	502	499	501	500	503	501	501	504	502	494	494	494	494	495	500	497	495	487	490	494	499	497	498	498	494	496	489	495	496	493	492	494	496	499	501	509	507	505	509	503	498	495	496	497	496	498	500	500	501	501	497	491	495	498	496	496	503	505	504	501	497	500	500	504	503	491	494	493	494	498	493	500	498	495	492	493	497	499	500	503	500	498	499	498	494	488	485	496	497	497	498	498	501	495	497	497	497	497	499	498	495	490	490	492	490	498	490	491	491	493	495	497	494	491	495	498	498	498	496	491	489	488	486	488	491	495	495	492	493	486	481	478	485	488	487	488	493	492	491	491	492	490	487	484	482	487	496	497	497	491	493	489	481	479	487	488	489	482	471	484	480	491	488	491	495	495	494	492	491	492	487	488	497	498	496	483	489	488	490	487	490	488	496	493	491	493	493	491	494	494	495	493	491	488	488	491	489	488	487	485	486	489	490	484	486	489	489	491	493	493	487	486	487	488	485	493	500	502	503	505	499	494	490	491	491	494	498	499	498	491	493	488	488	490	490	489	484	487	486	482	483	482	485	489	496	496	494	493	492	484	485	495	500	499	496	482	495	493	498	491	488	488	490	497	496	493	488	490	484	494	494	500	491	491	491	491	484	481	479	494	498	502	494	493	498	498	491	486	482	480	482	483	483	483	483	480	480	488	490	490	483	481	480	484	484	481	480	484	476	489	479	482	480	477	493	484	482	479	483	483	483	481	487	487	487	484	481	0	0	0
506	510	514	514	516	514	504	504	505	502	505	506	506	511	514	510	512	512	517	518	513	512	512	520	517	515	514	510	503	504	508	514	518	518	508	510	510	514	517	516	514	514	510	507	506	500	500	512	518	518	518	513	508	504	504	504	507	511	513	519	514	514	514	515	517	517	515	508	507	509	514	511	511	505	507	503	504	509	507	504	506	507	507	502	502	504	505	507	510	508	505	502	503	504	503	507	502	500	498	502	502	497	497	497	498	499	498	499	499	501	503	507	509	509	506	509	496	495	499	502	499	496	485	486	495	497	504	501	500	498	494	495	494	498	508	515	518	512	507	505	503	501	500	496	498	506	509	510	504	501	499	498	494	493	497	500	501	499	499	497	497	497	505	503	501	494	496	498	501	501	500	499	496	497	498	497	497	494	494	497	493	494	497	501	494	490	491	489	497	495	492	487	502	500	499	503	507	509	509	502	493	491	495	498	500	489	497	503	505	501	499	495	490	494	493	494	494	494	494	494	493	492	492	494	494	495	497	493	490	487	489	502	506	505	503	496	493	496	502	498	496	493	491	492	493	497	499	503	505	500	498	498	495	487	490	488	500	503	504	500	506	508	501	495	488	486	485	485	489	490	494	495	489	490	500	492	492	493	485	486	489	495	499	511	502	501	499	500	503	500	492	494	497	497	496	495	496	494	494	495	501	495	492	490	487	490	488	490	494	496	496	496	490	495	487	499	504	490	498	494	493	491	491	492	494	497	487	494	492	498	498	498	497	496	496	497	490	491	493	490	491	491	492	496	497	496	496	495	505	503	502	501	498	492	495	497	498	498	490	501	497	490	494	498	497	496	496	494	492	485	484	490	504	503	492	488	492	493	495	499	493	493	498	496	490	492	498	498	503	498	499	498	498	496	491	484	484	495	496	498	498	499	501	501	499	495	493	496	495	500	493	493	491	491	487	486	487	488	490	491	494	492	489	489	492	492	488	493	495	490	487	487	485	483	483	490	492	496	490	491	481	481	488	486	482	490	486	488	488	490	489	486	486	481	478	479	486	498	491	486	486	478	482	477	485	488	486	479	471	481	477	471	484	490	493	491	488	483	487	487	490	492	494	497	494	481	484	485	484	487	490	490	489	485	487	488	492	493	493	492	494	495	487	485	484	484	480	484	480	481	484	485	490	482	485	483	483	485	487	487	482	485	492	497	494	487	482	495	504	503	500	491	488	486	484	486	489	493	490	487	491	485	484	486	486	486	485	484	482	479	479	479	485	487	489	490	492	493	489	487	483	495	495	495	493	490	488	491	496	489	487	486	485	496	494	490	489	489	484	486	490	490	489	489	487	482	480	471	470	487	490	489	491	483	490	487	488	482	478	476	477	477	480	480	481	474	473	472	489	488	486	480	480	481	481	480	478	478	475	481	474	476	475	477	477	476	479	479	477	477	478	480	480	482	484	484	479	0	0	0
499	509	512	512	513	508	504	503	503	503	500	500	500	502	507	506	512	505	496	509	512	514	503	503	503	507	502	503	499	500	505	504	503	502	502	503	507	512	513	514	510	505	507	497	495	493	498	498	501	509	509	505	503	502	498	498	499	502	508	505	508	509	509	509	511	512	511	504	499	497	495	497	505	505	505	503	505	506	507	502	498	501	502	493	491	491	495	497	501	490	487	492	497	496	494	494	496	498	508	504	497	497	496	496	497	498	498	496	497	498	498	501	506	504	503	485	485	484	497	501	498	494	482	482	496	498	502	490	496	493	494	492	494	496	507	516	513	508	504	504	505	507	508	505	494	493	499	499	493	498	498	497	492	493	496	498	502	501	498	494	493	489	490	489	497	493	495	499	501	500	499	497	495	495	496	496	494	496	490	485	482	484	486	489	489	485	484	484	488	491	486	482	479	481	490	499	506	508	504	502	489	492	493	496	500	487	486	489	497	503	500	500	501	495	493	489	490	493	493	494	496	488	490	496	498	495	495	490	486	483	485	490	497	497	497	495	500	502	502	494	484	483	481	482	490	497	501	494	495	498	495	497	494	490	482	489	488	488	483	498	502	503	493	490	490	493	493	492	490	487	483	481	482	494	488	492	491	490	478	482	499	494	493	488	498	496	496	497	493	489	486	491	493	491	493	493	492	489	489	493	498	498	494	491	487	486	488	489	492	494	499	496	495	489	486	482	483	489	493	493	492	489	486	486	489	495	485	483	486	486	497	496	489	494	489	492	491	489	486	484	481	482	486	481	486	481	484	486	488	486	487	489	494	493	492	490	491	496	492	489	493	496	493	491	493	491	489	488	486	484	485	489	496	501	497	485	485	488	492	494	497	497	494	492	487	494	497	496	500	498	498	497	498	495	489	485	485	489	492	494	491	494	495	499	499	491	491	497	491	492	493	489	487	491	485	487	488	489	490	491	490	487	487	488	491	485	485	489	494	484	484	486	487	484	486	492	489	482	478	489	483	485	489	484	482	485	480	482	487	483	480	483	481	479	478	479	482	483	488	486	481	481	476	483	484	484	486	484	479	479	474	473	478	488	488	488	484	483	482	483	484	484	485	479	478	477	481	483	486	488	491	488	487	475	479	482	480	472	473	487	484	482	480	485	483	483	483	481	480	479	483	491	488	477	476	481	477	482	484	482	483	484	478	478	488	487	483	482	480	479	485	485	485	480	481	482	485	485	483	482	479	480	481	481	481	480	482	478	480	481	479	480	483	483	485	490	490	491	484	482	489	490	487	490	478	478	478	485	487	487	478	477	476	482	482	488	488	485	481	476	474	474	474	479	478	476	466	473	479	470	473	474	475	475	482	482	484	479	475	471	471	471	476	482	482	469	472	472	471	472	475	477	479	479	479	478	475	475	476	475	474	472	471	475	471	476	476	475	474	472	472	472	472	475	478	481	481	0	0	0
504	504	504	504	504	503	504	505	505	500	496	495	493	493	500	501	505	502	502	506	507	504	503	503	499	491	498	499	499	500	500	499	499	499	499	502	504	508	509	510	505	500	496	498	497	497	499	501	501	503	505	501	504	498	497	497	499	501	505	503	504	504	503	505	505	508	508	504	493	484	478	481	499	498	498	498	499	500	501	491	491	495	496	493	493	492	492	487	483	484	491	489	489	493	496	496	496	498	500	504	500	496	494	493	495	495	492	492	492	489	489	495	490	487	482	482	484	484	489	488	484	481	480	482	487	491	491	487	488	489	489	490	490	494	492	497	500	499	494	493	492	496	494	489	486	482	488	492	487	487	487	492	489	488	493	500	502	500	497	492	489	489	491	487	494	493	494	497	501	497	497	494	494	494	494	494	492	488	489	488	485	483	484	485	484	483	483	482	485	487	485	482	473	480	487	493	498	504	501	491	493	485	491	492	493	487	483	482	490	498	503	501	489	487	487	486	486	487	479	481	488	488	486	483	482	493	481	478	473	473	480	485	493	495	490	491	489	502	495	496	493	482	481	483	487	495	499	492	495	494	490	494	492	489	487	485	485	487	485	485	494	493	486	486	490	493	493	490	486	482	481	484	484	493	486	492	485	480	483	488	488	490	480	488	484	488	491	486	484	483	489	493	492	488	486	488	485	486	487	486	488	490	489	479	480	477	481	483	489	491	493	491	486	487	482	482	481	477	479	478	478	479	485	487	486	492	480	482	483	484	488	487	491	490	489	488	489	489	487	484	486	486	481	480	474	474	481	486	484	483	482	486	485	484	488	488	491	492	492	489	487	488	483	486	486	483	482	483	483	482	484	489	495	498	490	491	487	487	489	483	484	480	476	476	479	486	488	489	492	497	497	496	497	497	494	482	484	486	490	485	482	486	484	489	495	486	486	485	487	490	486	490	492	481	477	474	483	486	486	486	488	488	486	485	484	482	484	487	490	484	485	486	489	488	492	489	484	480	480	485	485	485	482	476	475	476	479	482	484	485	480	479	479	476	476	480	480	478	479	480	482	481	481	481	481	482	486	482	476	474	473	475	477	486	484	484	484	482	481	483	482	486	484	479	474	476	478	486	485	486	485	482	476	478	479	479	477	472	472	472	474	475	478	477	475	475	480	479	479	474	473	474	473	469	468	472	472	475	478	482	486	480	477	478	483	482	479	479	474	475	475	483	482	479	478	479	483	487	486	482	479	481	479	478	476	475	476	474	480	480	478	478	481	481	481	483	483	484	484	478	481	482	481	475	477	470	466	482	480	478	475	472	475	480	481	483	483	482	473	470	467	467	468	470	474	467	471	474	473	470	481	468	466	473	477	475	478	479	475	475	476	474	480	484	480	468	464	470	469	473	476	477	477	478	477	476	474	473	474	478	473	471	471	471	469	474	471	470	469	466	471	471	471	474	476	477	481	0	0	0
