1544	1536	1524	1495	1495	1455	1430	1396	1366	1366	1327	1319	1322	1305	1289	1289	1287	1287	1282	1277	1269	1269	1274	1281	1290	1314	1327	1327	1331	1331	1316	1304	1317	1329	1337	1337	1337	1333	1334	1330	1321	1310	1308	1308	1309	1315	1309	1305	1303	1311	1316	1321	1325	1325	1332	1339	1344	1343	1342	1345	1338	1324	1294	1292	1299	1299	1305	1319	1340	1351	1349	1342	1336	1340	1324	1324	1334	1356	1374	1383	1401	1416	1395	1390	1377	1377	1385	1395	1457	1470	1493	1467	1444	1433	1421	1424	1430	1438	1446	1459	1468	1469	1460	1459	1470	1484	1487	1482	1467	1467	1466	1468	1480	1497	1496	1501	1498	1504	1504	1493	1482	1472	1468	1469	1462	1462	1462	1466	1474	1464	1440	1435	1449	1453	1457	1456	1460	1472	1475	1476	1479	1477	1470	1461	1460	1464	1488	1493	1487	1484	1497	1504	1502	1491	1491	1469	1449	1440	1440	1443	1446	1452	1474	1492	1474	1447	1439	1426	1424	1425	1430	1440	1439	1427	1453	1423	1395	1381	1372	1349	1341	1343	1353	1349	1355	1355	1346	1337	1357	1369	1383	1387	1382	1376	1366	1362	1360	1372	1369	1365	1358	1356	1360	1359	1379	1405	1412	1399	1389	1372	1364	1363	1364	1374	1379	1378	1382	1391	1404	1408	1399	1380	1378	1378	1383	1397	1407	1401	1390	1379	1373	1385	1401	1409	1411	1406	1403	1406	1410	1405	1390	1379	1383	1388	1395	1402	1392	1386	1390	1397	1424	1423	1412	1415	1414	1414	1405	1409	1414	1415	1406	1399	1410	1398	1399	1401	1410	1398	1399	1397	1400	1402	1407	1415	1421	1428	1424	1412	1413	1418	1415	1416	1413	1413	1422	1419	1414	1402	1455	1451	1458	1467	1460	1458	1454	1456	1446	1440	1449	1446	1443	1451	1453	1454	1443	1426	1396	1402	1395	1396	1429	1438	1439	1445	1454	1461	1466	1460	1449	1435	1423	1406	1397	1394	1423	1437	1469	1465	1448	1421	1423	1422	1413	1391	1384	1385	1387	1406	1432	1437	1438	1435	1425	1419	1416	1425	1442	1458	1468	1465	1470	1484	1479	1468	1455	1460	1455	1445	1443	1454	1457	1474	1487	1500	1502	1495	1481	1469	1482	1500	1508	1514	1516	1509	1479	1462	1451	1436	1454	1481	1494	1492	1487	1483	1457	1453	1451	1470	1482	1483	1489	1509	1468	1477	1483	1488	1486	1475	1462	1472	1482	1495	1498	1501	1496	1494	1498	1502	1507	1490	1482	1492	1500	1505	1497	1491	1484	1482	1486	1506	1515	1516	1500	1492	1491	1494	1496	1502	1506	1512	1512	1520	1528	1537	1525	1479	1472	1474	1477	1499	1496	1488	1474	1466	1467	1470	1462	1472	1475	1443	1437	1440	1458	1469	1466	1460	1461	1469	1467	1470	1458	1450	1449	1446	1442	1440	1439	1436	1406	1434	1442	1453	1455	1440	1397	1400	1433	1451	1458	1452	1443	1436	1418	1396	1397	1405	1410	1412	1409	1418	1418	1423	1417	1415	1416	1424	1418	1418	1425	1448	1444	1446	1437	1423	1406	1381	1383	1374	1373	1385	1401	1424	1434	1431	1415	1406	1402	1406	1407	1398	1389	1378	1376	1370	1357	1342	1344	1357	1373	1378	1382	1383	1378	1374	1350	1357	1362	1363	1362	1364	1353	1353	1347	1342	1346	1342	1327	1339	1354	1362	1361	1363	1369	1372	1370	1376	1365	1364	1347	1334	1332	1331	1330	1324	1321	1327	1341	1346	1348	1336	1330	1322	1319	1317	1311	1315	1323	1323	1318	1311	1297	1285	1283	1290	1300	1305	1301	1301	1299	1310	1316	1315	1314	1303	1292	1294	1300	1311	1311	1315	1304	1293	1282	1277	1283	1285	1286	1288	1318	1316	1307	1298	1297	1297	1272	1259	1263	1275	1287	1291	1284	1284	1274	1264	1258	1255	1259	1269	1274	1268	1264	1266	0	0	0	0	0	0	0	0
1507	1502	1476	1464	1464	1432	1413	1392	1363	1363	1335	1319	1319	1303	1291	1291	1278	1288	1288	1287	1265	1265	1258	1266	1275	1291	1306	1303	1303	1312	1299	1296	1303	1317	1332	1332	1334	1334	1332	1331	1328	1325	1318	1318	1327	1327	1321	1309	1308	1314	1315	1318	1318	1318	1322	1322	1323	1322	1328	1326	1328	1319	1301	1301	1303	1309	1309	1324	1347	1359	1356	1335	1334	1342	1332	1338	1354	1363	1366	1375	1381	1389	1382	1386	1384	1386	1436	1419	1419	1427	1442	1441	1440	1438	1441	1443	1446	1446	1443	1433	1421	1412	1417	1429	1445	1462	1471	1445	1418	1434	1449	1443	1434	1441	1453	1462	1470	1471	1477	1468	1464	1458	1456	1446	1442	1434	1442	1442	1427	1419	1416	1413	1424	1435	1443	1445	1454	1456	1456	1446	1445	1447	1446	1442	1426	1416	1418	1440	1448	1448	1456	1457	1454	1463	1457	1444	1440	1447	1445	1444	1441	1431	1440	1436	1430	1419	1428	1422	1415	1417	1422	1421	1415	1401	1410	1423	1393	1378	1360	1346	1362	1370	1361	1348	1356	1352	1350	1343	1337	1353	1371	1382	1382	1376	1368	1365	1366	1375	1371	1370	1370	1370	1372	1371	1386	1422	1417	1405	1388	1377	1359	1354	1359	1371	1383	1386	1386	1383	1380	1376	1375	1373	1368	1380	1391	1407	1413	1411	1402	1384	1380	1385	1395	1404	1408	1401	1403	1397	1400	1391	1378	1371	1369	1376	1384	1391	1385	1372	1380	1384	1400	1406	1407	1411	1409	1408	1404	1406	1408	1410	1405	1398	1389	1386	1387	1388	1363	1360	1364	1379	1391	1403	1400	1389	1385	1388	1388	1385	1393	1402	1408	1405	1396	1387	1381	1377	1369	1370	1378	1392	1395	1451	1452	1449	1449	1449	1434	1421	1425	1423	1422	1432	1437	1410	1392	1374	1356	1366	1375	1378	1377	1396	1425	1436	1429	1432	1433	1430	1425	1418	1396	1388	1387	1399	1422	1439	1428	1418	1396	1379	1371	1364	1373	1369	1371	1376	1407	1436	1438	1437	1429	1408	1405	1404	1404	1407	1416	1424	1422	1437	1448	1443	1444	1416	1418	1418	1413	1411	1410	1421	1424	1431	1450	1461	1459	1454	1442	1430	1437	1447	1455	1458	1469	1479	1464	1445	1445	1446	1459	1465	1455	1458	1448	1436	1423	1420	1424	1432	1444	1423	1424	1428	1427	1425	1436	1437	1441	1442	1439	1437	1466	1465	1463	1430	1444	1453	1465	1473	1469	1438	1438	1447	1493	1489	1477	1468	1464	1464	1467	1469	1468	1455	1449	1459	1469	1477	1474	1469	1463	1465	1470	1478	1482	1464	1445	1423	1443	1452	1446	1450	1462	1463	1454	1454	1439	1413	1407	1412	1413	1407	1402	1412	1429	1434	1432	1436	1447	1446	1448	1440	1439	1425	1420	1385	1388	1393	1394	1371	1370	1378	1400	1430	1424	1393	1386	1385	1406	1428	1439	1429	1407	1392	1388	1381	1387	1392	1390	1392	1392	1388	1395	1393	1388	1379	1380	1393	1392	1362	1375	1380	1379	1427	1410	1401	1368	1365	1365	1359	1354	1358	1364	1368	1371	1355	1355	1358	1378	1384	1390	1382	1360	1348	1350	1345	1333	1332	1331	1335	1344	1351	1357	1359	1358	1339	1335	1339	1342	1344	1350	1344	1341	1332	1335	1323	1324	1295	1291	1300	1319	1335	1343	1346	1336	1318	1319	1311	1312	1318	1318	1322	1320	1321	1317	1309	1306	1309	1330	1335	1325	1321	1313	1308	1306	1307	1304	1293	1294	1302	1307	1289	1279	1275	1275	1284	1291	1298	1301	1293	1290	1277	1270	1263	1261	1271	1279	1285	1294	1299	1299	1294	1285	1275	1271	1268	1263	1262	1257	1258	1252	1294	1284	1264	1257	1251	1249	1245	1247	1252	1257	1252	1252	1245	1240	1234	1222	1214	1216	1221	1227	1216	1204	1202	0	0	0	0	0	0	0	0
1487	1475	1450	1428	1428	1404	1395	1385	1363	1339	1339	1313	1306	1296	1282	1282	1270	1291	1289	1284	1259	1259	1248	1250	1264	1272	1282	1287	1287	1283	1288	1288	1296	1311	1322	1322	1326	1326	1320	1315	1316	1321	1326	1327	1333	1323	1315	1319	1319	1317	1316	1311	1307	1307	1305	1305	1304	1297	1312	1323	1324	1318	1318	1321	1320	1319	1319	1333	1346	1370	1358	1329	1326	1329	1328	1347	1358	1370	1366	1361	1359	1363	1373	1398	1448	1434	1434	1413	1388	1373	1401	1416	1429	1435	1441	1446	1430	1422	1419	1420	1414	1407	1396	1406	1426	1449	1451	1419	1401	1408	1421	1411	1389	1391	1401	1421	1442	1451	1450	1441	1432	1435	1436	1433	1431	1421	1425	1420	1412	1412	1409	1408	1409	1418	1424	1427	1436	1443	1437	1421	1411	1420	1431	1432	1429	1412	1400	1392	1402	1416	1411	1420	1420	1429	1429	1435	1439	1444	1439	1414	1383	1373	1370	1374	1379	1382	1395	1392	1403	1407	1410	1397	1375	1381	1394	1398	1375	1347	1343	1346	1359	1389	1364	1354	1351	1353	1352	1347	1341	1344	1362	1372	1376	1371	1372	1371	1371	1376	1379	1382	1383	1383	1387	1394	1382	1371	1390	1393	1393	1375	1359	1352	1355	1366	1375	1381	1384	1376	1366	1363	1365	1357	1335	1356	1388	1407	1416	1421	1410	1392	1376	1373	1380	1378	1372	1388	1382	1383	1378	1371	1365	1366	1364	1364	1368	1374	1368	1369	1368	1367	1372	1376	1382	1389	1395	1393	1392	1389	1392	1389	1383	1380	1366	1370	1374	1368	1362	1357	1358	1375	1391	1397	1387	1378	1365	1370	1362	1366	1377	1384	1383	1379	1368	1361	1358	1357	1357	1349	1352	1360	1356	1349	1352	1360	1409	1409	1400	1400	1402	1404	1403	1409	1407	1367	1350	1338	1339	1347	1352	1359	1368	1374	1379	1386	1390	1391	1392	1395	1394	1390	1381	1373	1364	1380	1384	1375	1380	1375	1367	1372	1377	1379	1369	1361	1359	1370	1391	1428	1434	1431	1402	1392	1384	1384	1385	1397	1396	1393	1395	1392	1392	1391	1386	1376	1375	1395	1397	1391	1386	1385	1383	1382	1398	1409	1423	1433	1426	1416	1414	1425	1434	1435	1447	1445	1430	1411	1413	1423	1432	1443	1439	1431	1421	1408	1409	1407	1392	1391	1395	1397	1394	1400	1412	1407	1409	1410	1408	1406	1419	1422	1427	1419	1409	1403	1405	1403	1417	1423	1407	1397	1399	1381	1399	1416	1416	1420	1428	1436	1436	1425	1412	1411	1409	1416	1440	1451	1433	1416	1404	1395	1394	1386	1378	1375	1377	1382	1390	1393	1386	1395	1426	1423	1419	1401	1362	1373	1383	1396	1371	1342	1343	1369	1391	1397	1369	1373	1382	1390	1392	1405	1409	1399	1378	1364	1360	1350	1333	1337	1335	1339	1344	1352	1359	1358	1355	1362	1372	1404	1402	1373	1367	1366	1366	1366	1369	1369	1364	1362	1363	1370	1377	1377	1377	1366	1354	1335	1338	1349	1357	1336	1330	1339	1336	1339	1341	1345	1352	1349	1340	1332	1324	1325	1320	1309	1313	1319	1327	1330	1338	1343	1329	1313	1319	1301	1305	1315	1313	1306	1308	1320	1326	1338	1329	1321	1309	1311	1315	1323	1318	1310	1304	1310	1317	1318	1313	1303	1297	1296	1303	1316	1324	1313	1304	1299	1302	1306	1308	1295	1294	1305	1309	1310	1307	1297	1291	1292	1305	1308	1302	1297	1293	1294	1296	1300	1297	1291	1282	1277	1267	1255	1247	1258	1262	1271	1281	1284	1280	1268	1261	1254	1257	1251	1251	1257	1268	1276	1282	1282	1277	1263	1245	1242	1251	1251	1251	1249	1248	1231	1234	1235	1231	1242	1245	1246	1245	1248	1248	1251	1245	1235	1235	1231	1227	1222	1223	1214	1211	1212	1210	1204	1205	1206	0	0	0	0	0	0	0	0
1470	1452	1426	1404	1387	1387	1382	1373	1352	1345	1345	1304	1286	1283	1274	1274	1265	1282	1288	1274	1254	1244	1244	1234	1252	1258	1266	1270	1270	1277	1275	1276	1289	1306	1318	1318	1322	1316	1307	1299	1308	1320	1332	1327	1327	1323	1316	1322	1327	1325	1318	1309	1299	1298	1298	1300	1301	1299	1305	1315	1329	1325	1325	1325	1328	1332	1332	1330	1343	1375	1366	1324	1312	1310	1309	1321	1354	1353	1351	1353	1362	1366	1371	1398	1409	1423	1428	1428	1421	1399	1394	1398	1408	1420	1422	1418	1418	1415	1400	1390	1393	1404	1411	1416	1412	1400	1391	1380	1380	1402	1403	1387	1365	1350	1358	1373	1388	1390	1385	1373	1366	1374	1391	1411	1408	1401	1408	1413	1398	1397	1394	1397	1400	1398	1396	1402	1412	1423	1401	1373	1360	1373	1405	1423	1426	1408	1389	1368	1362	1377	1388	1383	1365	1384	1399	1415	1409	1410	1393	1363	1344	1330	1327	1328	1337	1347	1349	1347	1361	1377	1392	1387	1383	1385	1391	1402	1413	1399	1371	1353	1343	1340	1348	1351	1355	1354	1355	1355	1352	1349	1354	1356	1365	1364	1364	1366	1371	1376	1379	1382	1383	1387	1383	1377	1368	1357	1361	1363	1368	1367	1363	1355	1361	1365	1374	1376	1371	1362	1355	1348	1352	1333	1318	1320	1322	1363	1376	1376	1370	1357	1347	1348	1354	1351	1348	1347	1347	1361	1360	1352	1347	1355	1357	1350	1346	1344	1340	1336	1335	1345	1349	1359	1357	1358	1367	1374	1367	1365	1370	1361	1362	1353	1356	1362	1365	1355	1349	1343	1347	1366	1373	1364	1370	1364	1344	1336	1343	1351	1351	1349	1347	1335	1333	1330	1333	1333	1337	1331	1332	1333	1338	1338	1344	1351	1353	1354	1356	1352	1376	1372	1376	1369	1363	1354	1340	1329	1330	1334	1344	1348	1348	1349	1350	1356	1368	1381	1390	1388	1385	1375	1365	1352	1342	1348	1352	1356	1348	1346	1358	1373	1385	1387	1377	1359	1355	1360	1379	1401	1414	1391	1365	1362	1356	1363	1373	1370	1363	1358	1350	1344	1353	1361	1364	1367	1375	1380	1380	1376	1371	1375	1374	1374	1375	1383	1383	1407	1407	1396	1393	1395	1405	1412	1416	1411	1391	1392	1395	1399	1391	1392	1398	1402	1349	1345	1352	1341	1376	1379	1378	1347	1339	1360	1392	1403	1395	1384	1384	1394	1392	1381	1376	1371	1373	1373	1368	1365	1359	1356	1354	1354	1360	1350	1354	1368	1371	1377	1386	1394	1390	1375	1361	1365	1374	1394	1408	1409	1391	1385	1382	1377	1368	1366	1367	1371	1373	1373	1363	1360	1358	1362	1382	1383	1340	1319	1311	1328	1345	1347	1332	1321	1322	1330	1334	1341	1347	1360	1372	1370	1362	1357	1349	1354	1361	1358	1350	1334	1330	1335	1330	1323	1321	1319	1317	1326	1327	1326	1326	1328	1325	1324	1328	1332	1336	1342	1360	1361	1355	1340	1324	1345	1359	1365	1335	1324	1323	1332	1331	1329	1322	1325	1324	1316	1307	1302	1304	1311	1325	1323	1312	1296	1280	1290	1292	1299	1295	1298	1298	1297	1309	1327	1317	1291	1289	1284	1278	1280	1269	1277	1289	1293	1302	1302	1303	1296	1293	1290	1278	1268	1287	1282	1283	1289	1305	1308	1307	1302	1296	1292	1299	1312	1315	1305	1291	1284	1282	1286	1287	1283	1277	1275	1293	1298	1292	1282	1280	1277	1278	1280	1280	1279	1275	1276	1280	1289	1289	1285	1284	1274	1260	1246	1236	1233	1236	1248	1256	1255	1245	1242	1242	1247	1247	1243	1241	1247	1252	1251	1251	1246	1240	1232	1223	1222	1238	1247	1247	1242	1224	1222	1223	1221	1219	1221	1235	1240	1241	1245	1241	1235	1230	1223	1223	1217	1216	1212	1212	1211	1210	1208	1202	1198	1196	1196	0	0	0	0	0	0	0	0
1428	1399	1399	1388	1380	1380	1374	1370	1364	1342	1342	1292	1271	1266	1262	1265	1261	1271	1273	1267	1257	1248	1248	1247	1251	1259	1274	1276	1276	1276	1271	1271	1275	1282	1305	1311	1311	1307	1292	1293	1305	1321	1329	1323	1323	1315	1314	1321	1327	1323	1312	1303	1299	1304	1304	1308	1309	1302	1303	1315	1328	1328	1337	1340	1338	1332	1319	1319	1336	1372	1381	1325	1303	1298	1304	1304	1319	1355	1370	1371	1376	1374	1376	1380	1391	1395	1390	1390	1388	1389	1393	1399	1405	1409	1404	1399	1397	1400	1389	1383	1372	1374	1388	1400	1399	1390	1381	1371	1369	1387	1398	1390	1374	1369	1373	1385	1388	1375	1363	1341	1332	1332	1348	1378	1384	1393	1405	1409	1400	1398	1397	1390	1378	1365	1356	1357	1357	1368	1379	1370	1358	1360	1381	1398	1402	1383	1370	1363	1364	1366	1368	1358	1345	1341	1343	1361	1376	1366	1352	1344	1338	1331	1327	1330	1331	1346	1355	1359	1366	1367	1371	1373	1379	1349	1341	1356	1361	1356	1350	1335	1329	1326	1335	1347	1353	1354	1359	1358	1362	1343	1339	1346	1353	1352	1351	1357	1365	1364	1367	1368	1372	1375	1376	1363	1358	1345	1346	1349	1356	1360	1359	1357	1358	1361	1361	1359	1359	1347	1336	1346	1349	1333	1321	1312	1315	1323	1349	1354	1347	1334	1321	1320	1325	1329	1332	1329	1327	1320	1316	1328	1332	1343	1342	1341	1338	1337	1330	1326	1326	1328	1338	1336	1331	1329	1342	1344	1341	1338	1343	1335	1335	1336	1341	1346	1343	1338	1327	1325	1334	1341	1325	1313	1328	1317	1310	1296	1295	1311	1321	1320	1324	1327	1327	1323	1321	1315	1313	1314	1320	1314	1305	1327	1329	1334	1333	1329	1328	1330	1325	1320	1313	1333	1347	1342	1333	1325	1323	1322	1334	1347	1347	1346	1350	1354	1360	1369	1370	1372	1357	1353	1335	1327	1322	1328	1330	1337	1332	1338	1362	1371	1374	1356	1351	1348	1340	1335	1346	1360	1360	1348	1340	1335	1338	1329	1334	1341	1342	1336	1335	1341	1348	1355	1356	1357	1356	1355	1349	1346	1351	1355	1358	1358	1361	1366	1375	1382	1386	1380	1375	1377	1377	1377	1378	1373	1371	1374	1380	1384	1327	1332	1339	1342	1343	1332	1324	1313	1321	1325	1324	1315	1311	1313	1317	1321	1316	1307	1313	1317	1321	1322	1328	1343	1354	1359	1360	1349	1340	1347	1343	1329	1317	1325	1335	1350	1359	1364	1377	1378	1359	1330	1313	1316	1324	1354	1371	1364	1355	1356	1353	1341	1340	1346	1347	1356	1374	1372	1344	1341	1346	1343	1317	1313	1310	1302	1307	1312	1319	1317	1297	1292	1314	1317	1321	1326	1337	1357	1363	1351	1333	1319	1314	1332	1350	1357	1343	1339	1338	1338	1329	1323	1318	1313	1314	1317	1316	1308	1298	1294	1291	1294	1295	1303	1309	1322	1338	1338	1332	1304	1293	1280	1276	1274	1273	1260	1258	1256	1264	1271	1289	1304	1320	1314	1298	1279	1257	1257	1266	1259	1246	1244	1258	1270	1278	1275	1268	1263	1267	1259	1255	1268	1303	1297	1281	1269	1249	1245	1240	1258	1262	1252	1248	1257	1260	1268	1271	1270	1258	1251	1258	1266	1270	1284	1293	1295	1298	1296	1294	1294	1297	1300	1280	1273	1265	1249	1254	1259	1261	1260	1252	1247	1252	1259	1256	1250	1251	1252	1257	1254	1257	1253	1258	1239	1247	1267	1274	1276	1274	1265	1251	1233	1222	1223	1231	1240	1245	1241	1232	1228	1227	1227	1230	1227	1228	1233	1236	1237	1237	1231	1217	1203	1198	1209	1226	1239	1240	1236	1218	1214	1217	1218	1217	1207	1202	1224	1235	1229	1226	1223	1220	1220	1209	1195	1191	1198	1203	1204	1205	1205	1196	1188	1182	1183	1183	0	0	0	0	0	0	0
1361	1378	1369	1370	1367	1367	1370	1371	1363	1321	1321	1288	1265	1252	1254	1261	1267	1273	1274	1277	1275	1267	1267	1266	1264	1275	1285	1285	1273	1273	1271	1271	1276	1280	1281	1292	1292	1295	1292	1292	1301	1312	1323	1316	1316	1313	1312	1314	1321	1304	1294	1295	1303	1313	1313	1320	1319	1304	1306	1314	1324	1325	1334	1346	1340	1317	1313	1313	1338	1371	1375	1374	1317	1301	1311	1322	1340	1353	1375	1376	1347	1335	1349	1361	1370	1375	1375	1373	1373	1376	1379	1385	1388	1391	1386	1380	1378	1386	1383	1371	1362	1363	1372	1384	1385	1385	1371	1358	1359	1377	1396	1398	1398	1393	1397	1391	1378	1364	1354	1336	1321	1315	1316	1330	1360	1375	1388	1398	1400	1395	1388	1355	1345	1343	1351	1349	1352	1350	1347	1339	1327	1325	1334	1343	1347	1348	1349	1351	1346	1343	1341	1341	1344	1337	1312	1321	1337	1344	1340	1335	1330	1325	1327	1327	1323	1328	1354	1360	1359	1358	1359	1356	1350	1306	1301	1299	1306	1318	1334	1335	1329	1320	1321	1332	1344	1351	1354	1341	1331	1327	1331	1333	1337	1340	1338	1338	1335	1348	1347	1352	1356	1357	1359	1360	1352	1342	1333	1342	1344	1344	1344	1341	1344	1347	1345	1334	1323	1313	1313	1322	1335	1336	1313	1303	1301	1311	1324	1335	1327	1312	1299	1303	1308	1315	1318	1315	1304	1304	1307	1306	1310	1318	1331	1331	1322	1325	1325	1323	1325	1325	1327	1320	1314	1296	1294	1317	1317	1317	1321	1316	1321	1321	1325	1320	1292	1289	1293	1313	1328	1336	1304	1302	1304	1308	1312	1306	1293	1297	1302	1297	1304	1312	1318	1309	1307	1300	1299	1305	1307	1301	1288	1280	1304	1305	1305	1296	1297	1305	1302	1294	1275	1278	1317	1325	1319	1317	1319	1318	1323	1348	1340	1340	1346	1348	1332	1331	1329	1318	1315	1310	1312	1315	1319	1314	1321	1317	1315	1314	1326	1342	1345	1346	1336	1324	1319	1317	1320	1309	1320	1311	1302	1320	1321	1322	1324	1326	1324	1321	1311	1322	1327	1335	1335	1336	1338	1333	1327	1324	1329	1338	1338	1342	1346	1348	1345	1344	1337	1339	1329	1332	1331	1336	1351	1356	1337	1332	1319	1309	1305	1300	1305	1316	1322	1311	1296	1297	1303	1302	1298	1286	1269	1260	1261	1289	1289	1297	1293	1302	1292	1305	1308	1316	1336	1344	1350	1339	1329	1339	1325	1303	1307	1312	1314	1322	1332	1338	1343	1337	1317	1290	1276	1275	1289	1294	1294	1301	1318	1318	1322	1318	1317	1314	1314	1315	1326	1325	1317	1291	1296	1298	1299	1297	1293	1289	1291	1298	1301	1288	1273	1261	1265	1284	1306	1320	1322	1307	1315	1295	1284	1283	1295	1311	1316	1312	1309	1305	1302	1299	1301	1303	1308	1306	1298	1297	1297	1297	1293	1290	1284	1278	1282	1290	1298	1296	1290	1288	1269	1268	1265	1265	1265	1265	1255	1246	1243	1242	1241	1247	1255	1265	1267	1280	1266	1249	1251	1253	1249	1241	1236	1235	1244	1250	1258	1260	1248	1249	1244	1239	1240	1251	1276	1282	1273	1254	1240	1216	1210	1213	1222	1220	1220	1224	1226	1242	1258	1252	1243	1242	1249	1246	1239	1243	1249	1254	1258	1268	1261	1253	1252	1232	1227	1236	1234	1227	1224	1227	1233	1226	1214	1211	1212	1224	1228	1224	1224	1225	1226	1238	1244	1242	1237	1232	1238	1247	1254	1257	1248	1239	1233	1220	1216	1219	1225	1231	1231	1225	1219	1211	1206	1205	1211	1214	1209	1216	1219	1219	1218	1214	1190	1183	1186	1197	1212	1221	1229	1217	1210	1209	1210	1212	1209	1185	1178	1193	1213	1208	1193	1192	1195	1195	1188	1177	1176	1179	1193	1202	1198	1189	1177	1179	1173	1166	1166	0	0	0	0	0	0	0
1339	1352	1350	1354	1360	1360	1363	1360	1337	1312	1284	1284	1255	1247	1255	1267	1284	1283	1278	1282	1280	1281	1281	1281	1279	1289	1289	1284	1267	1267	1259	1269	1272	1277	1285	1287	1287	1295	1298	1294	1301	1307	1313	1314	1312	1312	1309	1311	1301	1292	1284	1289	1303	1315	1323	1323	1320	1314	1315	1317	1317	1317	1321	1323	1318	1308	1317	1317	1327	1341	1368	1361	1340	1325	1320	1328	1340	1351	1360	1324	1326	1334	1344	1354	1358	1359	1362	1360	1358	1358	1363	1364	1365	1365	1360	1356	1353	1353	1356	1353	1350	1353	1362	1368	1373	1379	1368	1360	1361	1368	1368	1365	1360	1359	1364	1371	1367	1356	1344	1332	1317	1297	1277	1283	1304	1326	1346	1363	1361	1353	1339	1326	1323	1325	1326	1322	1319	1303	1289	1278	1279	1296	1312	1328	1330	1323	1321	1326	1326	1329	1326	1323	1320	1320	1316	1310	1318	1323	1326	1317	1305	1306	1313	1315	1310	1312	1323	1334	1333	1337	1339	1337	1324	1288	1273	1276	1289	1315	1328	1331	1322	1314	1312	1315	1315	1294	1305	1310	1311	1309	1313	1321	1325	1329	1330	1327	1325	1318	1323	1333	1344	1344	1344	1341	1334	1325	1317	1329	1332	1327	1322	1318	1320	1326	1329	1312	1300	1292	1295	1307	1320	1317	1306	1291	1280	1281	1299	1306	1302	1296	1291	1292	1295	1308	1292	1283	1285	1293	1298	1297	1299	1306	1304	1289	1317	1312	1321	1323	1324	1316	1292	1286	1282	1276	1270	1272	1293	1305	1323	1332	1326	1315	1294	1281	1275	1271	1268	1282	1286	1288	1283	1288	1298	1302	1300	1291	1286	1276	1271	1272	1273	1278	1281	1292	1284	1282	1280	1288	1292	1284	1274	1256	1263	1274	1269	1269	1260	1263	1273	1262	1273	1272	1272	1277	1293	1307	1307	1318	1306	1264	1267	1318	1308	1309	1319	1317	1306	1297	1296	1287	1294	1310	1321	1327	1323	1315	1308	1311	1317	1329	1337	1336	1320	1310	1300	1295	1302	1294	1287	1286	1295	1302	1302	1303	1301	1292	1282	1284	1292	1305	1310	1314	1314	1318	1320	1317	1314	1315	1311	1313	1320	1316	1301	1300	1298	1287	1286	1290	1290	1279	1285	1303	1303	1292	1275	1282	1262	1276	1280	1278	1281	1283	1279	1272	1264	1267	1279	1286	1274	1264	1256	1250	1239	1249	1267	1287	1282	1274	1274	1284	1301	1306	1301	1298	1292	1276	1268	1264	1263	1275	1298	1301	1300	1296	1302	1301	1304	1307	1303	1281	1271	1260	1262	1263	1265	1267	1266	1277	1301	1312	1306	1304	1301	1303	1299	1268	1268	1269	1272	1271	1274	1275	1276	1269	1259	1263	1277	1270	1257	1258	1264	1271	1275	1270	1260	1239	1244	1251	1270	1267	1280	1292	1291	1293	1293	1288	1281	1273	1271	1275	1281	1281	1277	1277	1275	1285	1283	1276	1273	1272	1269	1274	1274	1271	1255	1255	1255	1253	1251	1253	1256	1256	1245	1232	1229	1227	1227	1230	1237	1242	1252	1271	1257	1244	1249	1249	1243	1234	1226	1230	1221	1217	1213	1226	1228	1229	1228	1227	1230	1235	1247	1274	1264	1248	1209	1195	1193	1192	1202	1212	1205	1200	1209	1223	1236	1236	1230	1234	1236	1231	1227	1217	1217	1221	1225	1224	1222	1219	1220	1222	1221	1225	1221	1214	1213	1211	1213	1200	1201	1199	1203	1209	1211	1208	1205	1203	1205	1223	1227	1225	1222	1221	1225	1225	1231	1228	1217	1213	1211	1211	1215	1221	1223	1216	1208	1202	1196	1189	1186	1193	1199	1192	1190	1183	1183	1176	1166	1166	1169	1171	1180	1185	1186	1178	1175	1190	1198	1199	1196	1195	1179	1173	1162	1158	1146	1182	1160	1163	1163	1159	1150	1151	1159	1165	1168	1163	1158	1152	1158	1153	1153	1155	1155	0	0	0	0	0	0	0
1334	1338	1340	1341	1347	1347	1353	1353	1331	1320	1288	1288	1259	1268	1292	1284	1310	1293	1288	1283	1280	1285	1290	1290	1292	1296	1295	1279	1260	1260	1260	1273	1274	1275	1277	1285	1291	1291	1296	1300	1302	1307	1312	1314	1313	1313	1312	1304	1295	1287	1281	1285	1296	1316	1326	1326	1325	1337	1333	1323	1315	1314	1319	1317	1305	1309	1317	1329	1329	1334	1336	1337	1341	1342	1340	1339	1337	1322	1322	1316	1312	1316	1331	1342	1349	1347	1345	1343	1343	1343	1344	1349	1346	1342	1335	1334	1330	1331	1335	1339	1344	1350	1354	1352	1353	1367	1374	1363	1349	1348	1351	1347	1335	1325	1323	1326	1333	1336	1335	1339	1328	1305	1298	1302	1309	1326	1343	1354	1345	1334	1317	1309	1302	1295	1293	1293	1302	1307	1309	1303	1308	1315	1324	1327	1326	1312	1298	1296	1302	1316	1314	1314	1314	1312	1314	1311	1304	1308	1313	1306	1301	1304	1310	1306	1300	1295	1297	1300	1305	1316	1316	1310	1294	1268	1264	1274	1291	1309	1320	1323	1312	1299	1293	1291	1279	1275	1284	1290	1295	1293	1305	1312	1321	1319	1308	1322	1311	1308	1311	1317	1325	1324	1321	1320	1318	1312	1304	1310	1311	1307	1294	1292	1298	1300	1306	1293	1282	1266	1268	1282	1297	1295	1282	1278	1267	1272	1290	1297	1293	1283	1283	1284	1291	1287	1266	1265	1271	1280	1284	1290	1289	1288	1277	1272	1266	1257	1281	1292	1287	1281	1279	1271	1270	1266	1255	1254	1267	1257	1253	1262	1272	1268	1256	1246	1250	1257	1257	1242	1248	1259	1264	1280	1288	1291	1279	1270	1266	1270	1261	1253	1248	1226	1234	1253	1257	1258	1264	1275	1277	1277	1266	1249	1241	1237	1231	1230	1231	1248	1245	1256	1268	1268	1265	1267	1273	1278	1284	1278	1269	1243	1250	1259	1267	1268	1276	1273	1270	1275	1268	1283	1290	1296	1299	1298	1321	1314	1313	1289	1294	1302	1319	1313	1296	1282	1247	1236	1246	1264	1262	1261	1270	1281	1289	1292	1287	1276	1267	1274	1284	1294	1298	1305	1312	1316	1313	1313	1313	1311	1304	1293	1276	1271	1277	1250	1257	1256	1258	1256	1262	1260	1261	1285	1281	1274	1255	1242	1243	1247	1265	1263	1262	1272	1271	1260	1250	1249	1260	1267	1265	1255	1246	1240	1239	1244	1253	1273	1269	1262	1254	1264	1276	1281	1262	1261	1257	1255	1247	1243	1241	1273	1291	1295	1291	1288	1281	1282	1290	1277	1274	1272	1270	1270	1277	1278	1274	1267	1249	1241	1253	1278	1290	1285	1282	1236	1258	1256	1253	1261	1262	1255	1255	1253	1245	1233	1223	1219	1223	1242	1251	1252	1253	1253	1253	1245	1232	1232	1234	1237	1243	1246	1253	1256	1266	1265	1266	1267	1252	1248	1247	1256	1266	1261	1258	1253	1252	1263	1270	1274	1261	1256	1249	1248	1252	1249	1241	1239	1241	1249	1245	1247	1251	1247	1228	1218	1215	1213	1216	1217	1221	1227	1225	1222	1220	1232	1238	1242	1239	1228	1219	1213	1197	1191	1187	1190	1189	1187	1168	1166	1189	1207	1207	1214	1214	1208	1190	1176	1183	1192	1199	1202	1196	1195	1196	1202	1197	1199	1199	1211	1210	1216	1214	1207	1201	1205	1209	1209	1211	1210	1210	1211	1215	1216	1210	1197	1200	1200	1195	1193	1195	1195	1190	1190	1189	1188	1189	1189	1188	1204	1210	1210	1205	1199	1194	1191	1179	1184	1191	1195	1201	1203	1207	1211	1206	1186	1161	1155	1159	1165	1177	1178	1171	1174	1175	1175	1189	1174	1158	1160	1161	1166	1167	1169	1167	1162	1153	1162	1179	1179	1177	1173	1166	1157	1156	1135	1130	1128	1142	1142	1142	1136	1141	1146	1146	1145	1143	1148	1145	1143	1141	1143	1143	1143	1143	0	0	0	0	0	0	0
1341	1341	1334	1333	1330	1322	1322	1304	1302	1306	1299	1299	1304	1313	1320	1310	1299	1299	1292	1289	1283	1288	1289	1289	1296	1311	1298	1280	1268	1268	1264	1271	1277	1280	1277	1272	1264	1264	1269	1280	1299	1309	1326	1334	1330	1330	1322	1311	1293	1290	1289	1289	1289	1303	1328	1328	1339	1351	1345	1330	1318	1317	1317	1311	1311	1308	1316	1322	1322	1326	1327	1324	1321	1318	1323	1317	1292	1303	1304	1295	1286	1287	1291	1310	1319	1322	1326	1324	1325	1326	1326	1332	1324	1320	1315	1317	1321	1330	1337	1340	1342	1340	1328	1324	1327	1336	1339	1328	1308	1303	1303	1314	1308	1300	1296	1299	1301	1302	1303	1320	1321	1316	1311	1311	1313	1316	1320	1329	1313	1299	1286	1287	1292	1288	1285	1286	1293	1304	1310	1307	1307	1315	1317	1318	1309	1294	1281	1277	1284	1294	1299	1303	1305	1305	1309	1299	1291	1289	1288	1285	1288	1296	1297	1298	1290	1285	1278	1282	1285	1294	1294	1280	1264	1250	1255	1268	1273	1269	1267	1264	1257	1264	1269	1270	1267	1264	1263	1273	1275	1281	1260	1246	1234	1227	1226	1234	1249	1270	1299	1301	1296	1286	1283	1290	1299	1293	1287	1281	1272	1252	1248	1250	1268	1273	1280	1279	1256	1246	1252	1264	1273	1272	1251	1238	1225	1255	1270	1276	1273	1269	1267	1270	1271	1269	1261	1253	1255	1262	1255	1254	1251	1244	1237	1238	1250	1249	1257	1253	1246	1268	1270	1265	1250	1249	1240	1239	1234	1236	1243	1250	1253	1250	1239	1229	1232	1240	1244	1240	1232	1229	1242	1269	1280	1272	1258	1250	1251	1255	1259	1250	1231	1221	1225	1247	1253	1243	1238	1242	1249	1250	1249	1250	1252	1255	1256	1261	1262	1259	1239	1227	1234	1253	1252	1249	1248	1251	1252	1249	1228	1229	1237	1245	1250	1244	1224	1226	1240	1235	1230	1232	1246	1214	1217	1223	1235	1257	1261	1263	1259	1266	1269	1269	1257	1252	1243	1229	1220	1222	1224	1230	1226	1236	1246	1245	1253	1259	1259	1261	1272	1280	1289	1283	1284	1283	1300	1293	1267	1243	1241	1241	1241	1228	1228	1228	1226	1225	1244	1242	1240	1203	1197	1219	1240	1252	1240	1220	1228	1232	1244	1260	1268	1270	1267	1258	1242	1231	1235	1242	1243	1234	1226	1235	1235	1238	1246	1258	1246	1236	1234	1237	1202	1208	1214	1212	1224	1233	1240	1250	1252	1247	1268	1280	1285	1280	1277	1258	1259	1261	1259	1263	1264	1266	1270	1268	1263	1253	1246	1238	1231	1230	1224	1222	1209	1215	1243	1241	1237	1233	1244	1242	1237	1234	1230	1212	1205	1202	1200	1204	1208	1213	1219	1228	1233	1228	1226	1228	1231	1221	1209	1204	1214	1221	1231	1237	1234	1230	1219	1222	1228	1225	1219	1240	1239	1234	1235	1237	1256	1266	1259	1238	1248	1257	1254	1242	1230	1225	1230	1229	1226	1222	1220	1218	1208	1199	1200	1202	1208	1208	1211	1212	1213	1211	1210	1217	1223	1227	1222	1220	1212	1196	1192	1190	1189	1177	1160	1157	1163	1161	1173	1187	1183	1173	1163	1156	1165	1172	1177	1176	1181	1192	1187	1177	1171	1176	1179	1181	1176	1168	1182	1190	1189	1192	1191	1193	1191	1194	1200	1201	1203	1204	1208	1209	1198	1189	1189	1184	1168	1177	1185	1184	1182	1177	1173	1173	1178	1175	1174	1177	1185	1186	1185	1176	1162	1154	1158	1167	1175	1181	1185	1183	1185	1169	1147	1151	1157	1158	1153	1153	1160	1157	1161	1167	1167	1170	1168	1169	1158	1154	1158	1155	1156	1154	1150	1138	1134	1137	1135	1132	1131	1131	1140	1143	1130	1124	1121	1118	1115	1124	1124	1119	1129	1137	1137	1129	1124	1120	1125	1132	1137	1137	1132	1132	1137	0	0	0	0	0	0	0
1325	1325	1312	1312	1314	1315	1315	1324	1320	1317	1318	1318	1324	1331	1334	1326	1279	1279	1279	1279	1280	1283	1293	1293	1309	1320	1322	1318	1318	1312	1312	1299	1285	1276	1269	1265	1261	1261	1272	1289	1300	1314	1321	1325	1324	1298	1298	1286	1281	1284	1287	1289	1289	1292	1304	1313	1313	1308	1310	1301	1300	1301	1306	1309	1321	1324	1317	1313	1313	1313	1310	1304	1295	1295	1295	1281	1283	1286	1277	1284	1285	1281	1275	1280	1284	1294	1301	1299	1304	1304	1304	1296	1286	1286	1277	1275	1289	1312	1332	1331	1311	1282	1279	1289	1286	1313	1319	1314	1302	1293	1293	1290	1298	1285	1280	1287	1290	1286	1287	1290	1303	1311	1306	1299	1297	1299	1300	1299	1285	1278	1274	1276	1275	1277	1276	1276	1275	1281	1287	1308	1309	1298	1287	1285	1282	1275	1266	1262	1265	1277	1283	1289	1291	1291	1293	1266	1258	1260	1260	1237	1254	1278	1282	1270	1271	1271	1274	1271	1280	1280	1276	1255	1232	1225	1243	1248	1248	1244	1240	1245	1254	1257	1248	1241	1239	1236	1231	1232	1242	1249	1249	1225	1223	1219	1219	1219	1234	1255	1262	1262	1260	1262	1251	1243	1250	1261	1264	1257	1224	1213	1214	1224	1239	1250	1254	1250	1243	1241	1251	1254	1255	1237	1207	1208	1216	1231	1239	1242	1246	1241	1244	1252	1249	1239	1232	1218	1231	1237	1237	1234	1231	1226	1217	1219	1226	1236	1227	1218	1215	1226	1253	1249	1239	1228	1222	1218	1211	1219	1229	1238	1236	1230	1220	1206	1210	1217	1227	1228	1225	1224	1231	1237	1231	1230	1229	1229	1235	1240	1244	1238	1222	1212	1212	1219	1212	1192	1194	1197	1225	1228	1220	1224	1234	1231	1247	1250	1257	1240	1228	1223	1223	1225	1235	1231	1227	1226	1224	1212	1210	1209	1211	1199	1208	1211	1210	1213	1215	1226	1224	1219	1218	1218	1223	1226	1233	1229	1234	1223	1208	1200	1205	1218	1229	1227	1223	1208	1208	1213	1221	1221	1216	1209	1203	1199	1197	1215	1231	1238	1243	1248	1247	1251	1245	1214	1199	1205	1205	1203	1211	1215	1221	1215	1209	1214	1225	1203	1203	1198	1193	1180	1176	1182	1180	1190	1199	1205	1190	1194	1207	1216	1222	1217	1214	1208	1194	1182	1184	1193	1202	1208	1208	1214	1221	1220	1222	1216	1211	1190	1179	1176	1173	1180	1190	1197	1200	1205	1213	1220	1204	1215	1229	1234	1234	1234	1237	1235	1236	1232	1227	1218	1225	1234	1241	1244	1239	1236	1229	1221	1190	1190	1207	1214	1209	1212	1217	1226	1219	1224	1224	1228	1225	1223	1213	1201	1189	1193	1194	1196	1194	1199	1204	1206	1201	1197	1199	1201	1190	1179	1172	1192	1202	1207	1204	1193	1183	1183	1190	1198	1203	1192	1187	1217	1222	1223	1220	1221	1168	1167	1173	1201	1205	1214	1207	1204	1203	1203	1212	1214	1204	1200	1199	1201	1200	1193	1189	1197	1202	1198	1202	1209	1210	1207	1194	1196	1206	1210	1216	1208	1195	1184	1184	1182	1185	1172	1160	1151	1162	1164	1169	1182	1176	1167	1155	1146	1141	1150	1166	1169	1163	1156	1145	1154	1159	1163	1170	1174	1169	1152	1144	1146	1146	1157	1181	1185	1187	1186	1186	1186	1186	1183	1185	1191	1190	1179	1169	1127	1136	1150	1160	1171	1173	1166	1164	1161	1164	1161	1160	1160	1167	1168	1157	1146	1140	1133	1134	1140	1157	1162	1166	1160	1148	1131	1135	1144	1151	1154	1147	1141	1139	1145	1152	1159	1159	1145	1153	1148	1144	1140	1148	1144	1138	1137	1137	1126	1122	1112	1119	1122	1119	1118	1122	1111	1105	1106	1105	1102	1104	1104	1115	1107	1115	1118	1130	1117	1110	1108	1112	1116	1128	1130	1130	1130	1130	0	0	0	0	0	0	0
1258	1258	1254	1257	1292	1317	1317	1324	1322	1320	1317	1326	1326	1330	1313	1283	1279	1261	1268	1273	1272	1273	1282	1282	1296	1307	1312	1312	1305	1304	1304	1296	1285	1272	1266	1262	1267	1267	1283	1288	1288	1280	1283	1290	1294	1274	1274	1254	1244	1250	1261	1273	1274	1275	1277	1281	1281	1280	1279	1271	1266	1278	1298	1306	1313	1311	1300	1302	1292	1292	1274	1277	1282	1279	1279	1285	1282	1271	1262	1268	1277	1273	1268	1275	1276	1283	1282	1274	1270	1268	1265	1265	1261	1260	1260	1265	1266	1270	1284	1291	1262	1232	1224	1237	1249	1275	1296	1295	1292	1282	1280	1279	1280	1283	1279	1277	1273	1271	1272	1275	1287	1298	1295	1285	1277	1278	1280	1275	1268	1260	1257	1258	1258	1263	1266	1270	1268	1265	1264	1258	1271	1275	1275	1274	1270	1261	1254	1246	1256	1261	1265	1262	1257	1251	1251	1245	1241	1232	1215	1209	1219	1232	1241	1239	1240	1240	1234	1235	1238	1247	1245	1228	1211	1204	1228	1235	1229	1228	1232	1247	1262	1258	1247	1237	1228	1224	1222	1219	1228	1232	1231	1212	1213	1215	1215	1200	1191	1205	1226	1238	1242	1243	1245	1238	1239	1243	1245	1234	1207	1207	1205	1211	1226	1240	1241	1238	1233	1236	1242	1223	1203	1196	1191	1203	1217	1227	1230	1221	1210	1198	1192	1188	1207	1189	1191	1189	1190	1194	1211	1216	1210	1201	1199	1196	1196	1207	1213	1207	1206	1208	1214	1214	1199	1189	1205	1185	1187	1205	1219	1224	1222	1214	1199	1186	1185	1195	1200	1209	1218	1233	1238	1230	1208	1207	1209	1206	1215	1226	1228	1213	1200	1191	1199	1204	1187	1183	1188	1193	1192	1190	1192	1190	1194	1194	1198	1187	1190	1194	1200	1208	1210	1206	1199	1212	1207	1204	1201	1193	1196	1198	1197	1172	1172	1169	1168	1182	1202	1219	1216	1209	1202	1206	1201	1201	1199	1200	1203	1193	1187	1188	1186	1188	1206	1209	1203	1194	1189	1197	1205	1210	1205	1196	1188	1179	1177	1178	1193	1199	1198	1208	1214	1223	1216	1202	1186	1187	1199	1206	1205	1198	1197	1187	1167	1163	1155	1156	1167	1170	1170	1178	1166	1166	1171	1170	1167	1169	1167	1167	1187	1195	1186	1188	1187	1180	1175	1171	1172	1182	1189	1194	1193	1194	1195	1187	1182	1189	1199	1194	1186	1172	1163	1183	1190	1193	1196	1196	1200	1205	1201	1199	1194	1199	1193	1193	1184	1178	1177	1182	1195	1196	1204	1204	1202	1200	1200	1199	1173	1165	1167	1177	1191	1192	1199	1207	1201	1197	1193	1193	1195	1185	1181	1190	1194	1191	1187	1186	1181	1183	1184	1185	1192	1184	1180	1180	1181	1173	1162	1155	1161	1169	1179	1175	1179	1179	1174	1177	1181	1178	1169	1169	1173	1187	1197	1146	1151	1155	1153	1150	1152	1148	1149	1157	1163	1169	1167	1169	1179	1185	1186	1183	1181	1183	1189	1189	1180	1183	1179	1179	1182	1186	1198	1194	1183	1182	1191	1199	1205	1196	1173	1174	1175	1170	1164	1157	1160	1159	1162	1168	1172	1168	1155	1150	1145	1139	1139	1152	1162	1163	1159	1144	1136	1135	1148	1153	1157	1144	1137	1127	1125	1119	1125	1129	1162	1177	1185	1186	1180	1169	1160	1161	1160	1152	1141	1126	1120	1126	1126	1128	1132	1139	1158	1154	1150	1140	1126	1126	1141	1143	1149	1146	1134	1128	1127	1123	1119	1117	1130	1136	1140	1137	1122	1118	1124	1128	1142	1145	1140	1132	1128	1133	1139	1139	1138	1137	1137	1132	1123	1120	1120	1132	1132	1134	1122	1118	1108	1105	1111	1111	1104	1100	1094	1091	1098	1098	1095	1086	1078	1078	1082	1105	1102	1104	1112	1108	1099	1095	1098	1104	1106	1114	1114	1116	1119	0	0	0	0	0	0	0
1235	1235	1233	1240	1250	1274	1274	1294	1293	1293	1279	1269	1269	1271	1251	1258	1261	1268	1271	1266	1265	1267	1271	1272	1272	1272	1275	1260	1260	1274	1274	1273	1263	1254	1253	1251	1264	1275	1275	1278	1271	1251	1246	1255	1258	1244	1244	1237	1232	1231	1234	1244	1257	1263	1265	1267	1267	1265	1266	1260	1255	1265	1283	1290	1300	1298	1287	1278	1268	1268	1263	1265	1272	1277	1287	1282	1263	1240	1240	1245	1253	1261	1272	1280	1282	1277	1265	1257	1260	1256	1254	1249	1249	1248	1254	1253	1249	1250	1253	1254	1239	1223	1215	1215	1223	1237	1251	1261	1264	1265	1262	1259	1261	1265	1265	1255	1258	1252	1248	1253	1264	1278	1282	1271	1262	1256	1257	1249	1245	1242	1239	1243	1245	1250	1256	1261	1260	1257	1242	1239	1246	1257	1265	1265	1255	1252	1245	1229	1236	1240	1241	1239	1240	1236	1239	1244	1235	1213	1201	1199	1194	1204	1221	1227	1226	1225	1222	1218	1198	1208	1217	1220	1206	1198	1215	1220	1217	1213	1223	1239	1251	1249	1235	1221	1215	1199	1202	1207	1213	1212	1215	1186	1176	1172	1167	1165	1161	1177	1187	1191	1193	1203	1225	1224	1209	1201	1230	1212	1199	1183	1175	1177	1178	1192	1196	1196	1189	1210	1213	1174	1174	1178	1187	1200	1208	1210	1214	1205	1195	1181	1175	1164	1159	1160	1177	1173	1170	1171	1178	1190	1196	1192	1187	1182	1180	1177	1179	1195	1192	1182	1175	1170	1174	1176	1176	1171	1186	1186	1196	1209	1210	1202	1188	1176	1174	1180	1189	1199	1212	1222	1227	1206	1201	1187	1181	1178	1181	1179	1183	1182	1185	1196	1206	1201	1183	1182	1185	1187	1182	1163	1156	1155	1151	1149	1140	1147	1141	1136	1140	1171	1177	1174	1169	1173	1189	1193	1187	1185	1178	1178	1172	1164	1164	1161	1155	1152	1153	1160	1160	1160	1165	1174	1180	1181	1177	1164	1168	1173	1177	1178	1176	1175	1176	1177	1171	1164	1161	1163	1170	1182	1185	1183	1175	1170	1166	1161	1145	1140	1143	1165	1180	1192	1194	1180	1176	1163	1168	1175	1172	1165	1164	1149	1139	1130	1128	1119	1117	1131	1156	1173	1170	1168	1170	1170	1168	1163	1161	1156	1159	1167	1172	1177	1172	1143	1149	1154	1168	1173	1174	1177	1182	1173	1174	1160	1168	1171	1177	1176	1173	1157	1154	1153	1160	1182	1183	1181	1179	1191	1194	1187	1178	1175	1188	1188	1181	1169	1163	1166	1175	1176	1185	1162	1169	1159	1163	1162	1156	1151	1156	1170	1182	1187	1179	1195	1197	1181	1173	1169	1152	1141	1125	1117	1127	1138	1134	1143	1149	1155	1152	1153	1152	1163	1172	1175	1169	1157	1146	1141	1147	1151	1151	1157	1159	1151	1148	1147	1148	1148	1140	1131	1143	1092	1091	1092	1116	1127	1129	1129	1125	1126	1132	1140	1136	1134	1125	1120	1116	1107	1114	1120	1133	1143	1155	1164	1163	1158	1157	1155	1155	1148	1157	1160	1151	1153	1164	1176	1183	1164	1163	1164	1170	1166	1160	1156	1159	1158	1160	1166	1168	1157	1146	1136	1127	1128	1132	1145	1154	1155	1141	1136	1135	1133	1130	1127	1128	1118	1093	1084	1095	1108	1117	1124	1129	1134	1134	1139	1138	1131	1130	1141	1156	1160	1147	1136	1133	1136	1141	1137	1129	1120	1125	1140	1136	1118	1114	1118	1117	1120	1123	1123	1125	1126	1123	1116	1113	1113	1118	1129	1128	1124	1112	1106	1112	1115	1110	1118	1130	1123	1117	1120	1120	1124	1122	1122	1120	1114	1104	1093	1082	1092	1110	1125	1122	1109	1101	1095	1100	1092	1087	1080	1076	1081	1084	1069	1069	1073	1073	1068	1066	1071	1096	1098	1099	1095	1088	1086	1085	1082	1084	1083	1083	1096	1099	0	0	0	0	0	0	0
1230	1227	1227	1225	1222	1234	1252	1252	1263	1257	1238	1233	1233	1239	1247	1260	1268	1247	1247	1244	1254	1266	1267	1257	1257	1245	1240	1248	1244	1256	1257	1257	1249	1244	1242	1245	1254	1262	1262	1260	1256	1234	1228	1222	1229	1234	1232	1232	1225	1223	1229	1240	1245	1251	1251	1252	1252	1252	1251	1247	1249	1253	1270	1270	1261	1258	1251	1260	1257	1252	1252	1251	1237	1248	1258	1245	1235	1224	1225	1227	1237	1246	1262	1278	1273	1254	1244	1243	1251	1249	1244	1235	1235	1240	1248	1249	1239	1234	1238	1238	1226	1210	1198	1198	1208	1223	1225	1224	1228	1228	1234	1237	1240	1246	1233	1230	1231	1235	1230	1227	1224	1236	1245	1243	1231	1227	1233	1236	1227	1219	1220	1221	1225	1235	1245	1251	1250	1245	1228	1224	1218	1195	1195	1202	1209	1215	1213	1210	1217	1224	1225	1231	1226	1229	1235	1237	1222	1197	1192	1195	1200	1208	1215	1213	1210	1204	1199	1196	1192	1195	1207	1211	1202	1191	1173	1175	1181	1194	1217	1234	1237	1226	1212	1188	1178	1172	1174	1186	1190	1191	1190	1172	1168	1162	1149	1144	1152	1166	1173	1171	1163	1159	1165	1183	1187	1166	1157	1155	1159	1175	1168	1164	1166	1169	1172	1173	1176	1175	1169	1157	1158	1166	1178	1170	1175	1183	1193	1190	1164	1149	1142	1143	1145	1157	1168	1167	1159	1162	1173	1189	1196	1189	1180	1173	1167	1161	1167	1169	1169	1169	1160	1162	1160	1157	1150	1149	1152	1152	1167	1205	1201	1194	1181	1167	1172	1175	1180	1177	1159	1171	1184	1168	1162	1145	1147	1152	1153	1154	1153	1129	1136	1154	1155	1142	1138	1131	1126	1117	1105	1099	1105	1113	1114	1098	1100	1117	1122	1119	1121	1134	1145	1151	1147	1148	1156	1160	1168	1165	1166	1161	1155	1152	1154	1143	1136	1127	1122	1122	1124	1128	1138	1149	1152	1147	1144	1145	1150	1159	1161	1163	1159	1161	1163	1134	1141	1146	1140	1144	1147	1152	1161	1170	1166	1161	1149	1139	1132	1129	1121	1109	1150	1156	1156	1147	1143	1147	1132	1130	1122	1114	1120	1122	1110	1114	1116	1115	1114	1122	1130	1137	1126	1136	1145	1149	1154	1155	1131	1122	1122	1132	1147	1146	1133	1123	1121	1128	1137	1147	1148	1147	1148	1154	1139	1137	1136	1145	1138	1142	1142	1138	1137	1136	1140	1157	1160	1162	1169	1182	1179	1160	1150	1157	1168	1162	1165	1160	1152	1152	1143	1137	1142	1134	1143	1146	1148	1151	1147	1139	1139	1150	1151	1140	1129	1139	1153	1156	1160	1152	1141	1130	1131	1135	1122	1108	1104	1104	1106	1124	1131	1139	1136	1142	1145	1134	1126	1131	1130	1130	1136	1128	1128	1131	1125	1119	1120	1125	1122	1123	1089	1093	1083	1086	1086	1092	1096	1107	1112	1115	1118	1117	1121	1130	1131	1120	1106	1098	1084	1084	1085	1074	1073	1095	1103	1117	1125	1127	1140	1141	1138	1146	1130	1118	1116	1126	1135	1139	1142	1142	1137	1132	1148	1161	1156	1144	1138	1144	1146	1147	1133	1145	1134	1116	1117	1116	1116	1116	1136	1143	1130	1127	1129	1130	1125	1115	1110	1094	1088	1077	1086	1091	1086	1090	1087	1084	1087	1089	1088	1086	1088	1085	1087	1085	1072	1071	1081	1089	1099	1102	1102	1103	1105	1105	1108	1106	1105	1104	1098	1092	1092	1091	1114	1117	1116	1108	1110	1111	1114	1119	1123	1118	1111	1108	1105	1097	1088	1083	1098	1099	1099	1087	1081	1079	1085	1085	1098	1089	1079	1069	1072	1082	1093	1098	1083	1068	1060	1064	1073	1075	1070	1067	1069	1073	1070	1064	1059	1060	1060	1061	1060	1054	1078	1088	1090	1086	1082	1078	1070	1064	1062	1058	1058	1060	1075	0	0	0	0	0	0	0
1214	1212	1212	1216	1217	1225	1236	1236	1243	1236	1232	1231	1231	1234	1242	1251	1250	1214	1214	1223	1233	1243	1251	1246	1246	1236	1229	1230	1229	1228	1223	1223	1222	1226	1224	1229	1235	1231	1231	1237	1237	1219	1213	1191	1190	1203	1221	1221	1222	1221	1229	1235	1239	1240	1241	1240	1233	1233	1230	1234	1239	1248	1251	1243	1229	1220	1217	1221	1231	1231	1231	1241	1219	1212	1215	1205	1206	1199	1206	1211	1200	1203	1222	1235	1241	1235	1226	1219	1214	1214	1228	1229	1229	1229	1227	1222	1219	1222	1218	1214	1209	1203	1197	1194	1205	1207	1207	1207	1205	1216	1208	1197	1187	1193	1201	1200	1195	1199	1206	1208	1209	1213	1222	1228	1227	1224	1224	1222	1213	1205	1205	1203	1203	1200	1201	1195	1189	1180	1187	1181	1177	1164	1170	1179	1186	1189	1189	1190	1189	1192	1195	1204	1214	1226	1233	1208	1195	1185	1190	1191	1199	1202	1188	1186	1179	1177	1180	1186	1191	1190	1178	1174	1166	1155	1162	1165	1171	1178	1183	1222	1218	1202	1179	1159	1144	1144	1151	1162	1162	1166	1145	1152	1159	1157	1147	1137	1138	1148	1144	1139	1141	1142	1153	1165	1163	1148	1137	1135	1135	1137	1142	1157	1156	1159	1164	1168	1165	1166	1161	1158	1156	1155	1153	1149	1143	1152	1161	1133	1120	1130	1136	1146	1154	1159	1162	1154	1145	1151	1169	1185	1192	1185	1175	1166	1160	1152	1153	1155	1152	1146	1144	1143	1137	1122	1125	1127	1131	1134	1140	1147	1172	1182	1173	1162	1153	1151	1147	1150	1146	1143	1136	1131	1124	1123	1121	1116	1114	1114	1112	1116	1119	1120	1126	1125	1127	1128	1122	1110	1101	1100	1105	1112	1112	1093	1106	1113	1114	1107	1111	1121	1129	1124	1119	1117	1125	1136	1150	1160	1160	1156	1153	1156	1113	1112	1116	1111	1114	1116	1119	1119	1125	1125	1123	1131	1130	1126	1130	1138	1138	1138	1141	1142	1144	1125	1127	1125	1119	1121	1124	1123	1126	1124	1130	1132	1130	1132	1128	1119	1111	1102	1105	1108	1113	1115	1115	1127	1126	1124	1116	1108	1106	1108	1104	1109	1115	1110	1110	1119	1128	1116	1113	1117	1129	1134	1137	1104	1108	1104	1102	1105	1118	1127	1124	1112	1109	1114	1122	1131	1135	1132	1133	1132	1125	1119	1112	1116	1122	1126	1129	1126	1120	1120	1121	1121	1132	1142	1154	1156	1143	1139	1131	1125	1125	1120	1148	1141	1125	1115	1115	1128	1127	1121	1127	1132	1111	1120	1127	1127	1116	1114	1115	1120	1096	1093	1085	1119	1129	1134	1129	1123	1121	1133	1134	1118	1108	1096	1099	1106	1124	1130	1124	1117	1111	1107	1105	1111	1116	1119	1114	1098	1095	1092	1093	1094	1100	1108	1082	1083	1085	1090	1089	1079	1083	1093	1099	1106	1098	1097	1107	1110	1112	1109	1104	1095	1088	1081	1079	1078	1078	1074	1086	1087	1092	1101	1113	1122	1120	1111	1120	1117	1109	1101	1116	1119	1122	1125	1127	1131	1126	1123	1124	1131	1131	1127	1128	1128	1126	1119	1108	1108	1105	1105	1104	1105	1099	1101	1120	1121	1118	1122	1124	1116	1105	1091	1083	1083	1082	1079	1074	1072	1078	1079	1077	1083	1086	1087	1072	1061	1059	1061	1063	1062	1056	1054	1055	1077	1084	1085	1083	1087	1085	1090	1086	1085	1094	1084	1084	1085	1082	1092	1111	1110	1105	1100	1096	1091	1091	1093	1105	1108	1108	1107	1101	1088	1081	1076	1080	1080	1080	1076	1073	1072	1067	1056	1052	1052	1055	1054	1048	1051	1056	1064	1068	1057	1052	1050	1050	1051	1050	1049	1057	1062	1075	1069	1062	1062	1058	1056	1051	1051	1050	1061	1073	1075	1078	1075	1063	1057	1048	1048	1047	1050	1054	0	0	0	0	0	0	0
1193	1196	1196	1202	1206	1211	1223	1223	1224	1224	1218	1220	1224	1224	1219	1224	1218	1195	1195	1202	1214	1226	1237	1231	1231	1214	1209	1212	1209	1209	1213	1213	1212	1213	1216	1220	1222	1221	1218	1218	1223	1190	1187	1180	1178	1181	1196	1196	1192	1190	1196	1204	1215	1216	1220	1214	1204	1204	1203	1198	1199	1209	1217	1214	1203	1186	1179	1179	1195	1207	1218	1184	1188	1189	1190	1174	1174	1179	1181	1171	1171	1176	1182	1184	1189	1187	1186	1182	1183	1188	1196	1210	1208	1204	1204	1192	1185	1187	1194	1193	1204	1200	1197	1196	1196	1185	1182	1187	1199	1197	1189	1182	1179	1177	1177	1181	1184	1192	1199	1200	1206	1209	1211	1216	1213	1206	1203	1199	1190	1192	1187	1189	1189	1189	1187	1167	1158	1156	1154	1148	1144	1147	1153	1170	1178	1180	1180	1182	1186	1187	1189	1190	1190	1181	1180	1175	1176	1177	1182	1178	1171	1167	1154	1148	1151	1160	1168	1173	1170	1168	1166	1162	1165	1168	1168	1163	1166	1160	1145	1146	1145	1135	1119	1126	1134	1142	1148	1148	1145	1126	1107	1114	1144	1149	1136	1126	1129	1131	1126	1121	1119	1125	1134	1143	1139	1132	1126	1122	1124	1122	1124	1122	1111	1099	1110	1115	1119	1126	1131	1132	1131	1144	1137	1126	1124	1123	1116	1108	1101	1123	1131	1138	1146	1146	1147	1136	1120	1134	1153	1167	1175	1174	1165	1151	1147	1137	1146	1147	1118	1120	1123	1129	1132	1129	1125	1124	1120	1121	1116	1101	1102	1106	1102	1097	1110	1120	1124	1118	1126	1126	1125	1119	1117	1112	1118	1113	1107	1103	1105	1105	1103	1103	1105	1108	1107	1115	1107	1101	1093	1088	1098	1103	1098	1092	1102	1105	1105	1094	1102	1117	1123	1120	1108	1106	1107	1118	1125	1122	1127	1133	1138	1110	1106	1099	1096	1094	1100	1108	1111	1108	1105	1108	1110	1111	1109	1109	1110	1111	1111	1113	1115	1124	1123	1106	1112	1113	1101	1094	1097	1101	1108	1116	1125	1124	1122	1129	1125	1119	1103	1095	1093	1094	1093	1095	1099	1102	1101	1097	1088	1081	1077	1084	1093	1090	1096	1105	1103	1104	1103	1101	1100	1093	1087	1084	1080	1080	1090	1091	1091	1098	1109	1121	1123	1115	1110	1102	1102	1118	1127	1125	1123	1124	1106	1084	1086	1090	1100	1111	1113	1108	1103	1103	1102	1103	1104	1109	1124	1122	1123	1124	1117	1110	1108	1118	1111	1090	1086	1096	1107	1114	1111	1100	1100	1094	1098	1097	1102	1108	1101	1089	1087	1098	1089	1081	1078	1083	1095	1106	1116	1119	1114	1110	1107	1105	1083	1064	1061	1071	1083	1086	1093	1089	1086	1079	1076	1084	1088	1091	1095	1097	1092	1089	1085	1078	1077	1079	1074	1069	1069	1085	1082	1073	1062	1058	1070	1074	1073	1068	1067	1068	1068	1065	1055	1062	1069	1075	1074	1078	1075	1074	1083	1081	1078	1086	1100	1115	1116	1108	1095	1089	1086	1085	1086	1107	1109	1109	1114	1119	1121	1117	1115	1119	1101	1095	1098	1102	1104	1100	1103	1107	1105	1103	1103	1096	1085	1081	1071	1065	1071	1075	1078	1086	1083	1074	1071	1074	1079	1074	1068	1058	1060	1056	1059	1066	1076	1074	1058	1047	1039	1039	1046	1047	1042	1036	1031	1029	1065	1065	1067	1071	1078	1077	1071	1062	1061	1061	1067	1051	1056	1059	1057	1071	1063	1065	1069	1066	1062	1054	1056	1071	1079	1096	1089	1076	1069	1062	1062	1066	1072	1075	1072	1061	1034	1028	1029	1034	1034	1035	1037	1047	1058	1062	1058	1046	1033	1030	1028	1028	1029	1036	1045	1052	1056	1053	1047	1047	1051	1048	1051	1052	1051	1036	1043	1058	1071	1068	1058	1043	1037	1037	1035	1041	1038	0	0	0	0	0	0	0
1177	1177	1177	1185	1192	1199	1202	1202	1211	1204	1200	1196	1191	1191	1190	1188	1190	1174	1184	1184	1196	1210	1216	1203	1183	1183	1180	1183	1193	1198	1204	1204	1206	1205	1208	1217	1224	1214	1212	1212	1204	1178	1172	1164	1169	1174	1173	1172	1172	1179	1179	1183	1189	1191	1196	1189	1186	1190	1190	1192	1191	1196	1203	1192	1184	1171	1170	1172	1178	1183	1168	1168	1165	1163	1166	1164	1161	1160	1156	1159	1163	1158	1162	1167	1170	1172	1170	1174	1179	1184	1186	1187	1182	1177	1170	1170	1165	1170	1174	1178	1187	1189	1180	1174	1167	1154	1147	1160	1181	1193	1183	1175	1173	1171	1172	1173	1178	1181	1181	1175	1146	1183	1202	1205	1203	1190	1148	1152	1165	1158	1149	1150	1162	1171	1169	1155	1146	1143	1144	1137	1133	1133	1150	1161	1168	1173	1173	1160	1167	1171	1177	1181	1174	1160	1153	1163	1167	1168	1170	1144	1119	1115	1128	1132	1139	1139	1141	1140	1139	1154	1151	1149	1153	1159	1165	1148	1126	1126	1127	1132	1140	1134	1130	1130	1132	1137	1144	1139	1109	1097	1090	1099	1128	1134	1125	1122	1123	1122	1115	1115	1116	1117	1125	1128	1123	1119	1112	1110	1111	1109	1106	1104	1094	1087	1103	1110	1120	1125	1127	1124	1121	1118	1118	1113	1115	1121	1114	1099	1082	1082	1090	1107	1131	1128	1124	1111	1097	1099	1105	1115	1115	1136	1136	1129	1106	1089	1091	1095	1101	1123	1128	1125	1125	1126	1123	1119	1107	1104	1095	1093	1099	1103	1101	1098	1083	1078	1083	1099	1113	1116	1114	1110	1108	1107	1109	1104	1097	1090	1089	1093	1092	1088	1090	1094	1096	1105	1096	1089	1080	1077	1086	1094	1095	1094	1098	1094	1097	1083	1093	1103	1109	1107	1098	1093	1091	1091	1083	1085	1085	1096	1101	1095	1093	1092	1088	1084	1091	1102	1103	1103	1095	1092	1093	1090	1086	1071	1078	1085	1094	1091	1099	1100	1086	1080	1084	1099	1093	1087	1085	1090	1091	1095	1101	1107	1102	1095	1088	1076	1072	1084	1078	1070	1056	1078	1083	1076	1066	1054	1048	1044	1048	1064	1071	1071	1065	1064	1055	1052	1062	1072	1072	1062	1048	1054	1055	1067	1072	1076	1078	1081	1083	1079	1092	1103	1097	1088	1089	1094	1106	1122	1119	1106	1084	1076	1071	1069	1079	1094	1096	1092	1089	1088	1090	1090	1084	1088	1093	1104	1111	1107	1099	1097	1095	1078	1075	1065	1063	1069	1070	1070	1066	1075	1088	1084	1083	1088	1090	1088	1084	1077	1067	1078	1073	1069	1071	1078	1083	1083	1081	1081	1074	1071	1073	1068	1063	1059	1051	1050	1052	1060	1071	1073	1070	1067	1069	1067	1077	1075	1078	1082	1086	1063	1061	1067	1070	1071	1066	1058	1058	1063	1071	1057	1057	1060	1066	1067	1065	1064	1061	1063	1063	1056	1049	1045	1042	1053	1052	1059	1066	1066	1062	1071	1073	1076	1083	1087	1080	1070	1058	1053	1062	1068	1062	1065	1077	1093	1099	1104	1092	1089	1087	1069	1067	1070	1074	1078	1075	1067	1093	1098	1063	1043	1039	1044	1046	1042	1037	1031	1030	1036	1040	1041	1043	1048	1063	1065	1068	1060	1050	1039	1028	1039	1044	1050	1060	1061	1048	1037	1029	1025	1028	1033	1030	1028	1024	1016	1012	1018	1052	1057	1065	1056	1042	1045	1040	1037	1034	1034	1044	1050	1050	1043	1024	1016	1015	1037	1031	1029	1035	1044	1057	1055	1037	1028	1028	1032	1041	1050	1050	1050	1043	1017	1017	1019	1022	1029	1028	1022	1023	1033	1046	1053	1043	1030	1025	1020	1008	1005	1004	1010	1012	1015	1019	1016	1013	1013	1015	1030	1037	1030	1019	1022	1033	1033	1044	1053	1056	1045	1045	1040	1037	1035	1038	0	0	0	0	0	0	0
1167	1165	1166	1166	1168	1178	1183	1179	1179	1179	1179	1171	1163	1163	1164	1170	1172	1154	1160	1160	1171	1177	1174	1150	1149	1149	1153	1164	1180	1191	1193	1190	1190	1188	1197	1207	1212	1207	1192	1192	1161	1155	1151	1153	1159	1161	1165	1171	1171	1180	1182	1175	1173	1165	1161	1166	1176	1169	1169	1169	1166	1172	1159	1156	1157	1163	1161	1164	1168	1160	1159	1156	1156	1153	1156	1155	1158	1157	1149	1156	1157	1152	1142	1137	1145	1150	1146	1150	1160	1178	1180	1175	1166	1158	1145	1143	1143	1143	1146	1153	1158	1154	1139	1124	1117	1118	1128	1137	1145	1162	1169	1165	1162	1168	1170	1173	1171	1166	1139	1118	1132	1115	1134	1149	1157	1146	1118	1149	1140	1127	1113	1117	1130	1143	1154	1146	1143	1151	1144	1141	1132	1127	1137	1153	1164	1162	1161	1138	1130	1129	1143	1150	1136	1134	1131	1151	1156	1157	1138	1129	1114	1110	1108	1115	1119	1117	1108	1100	1097	1112	1131	1136	1143	1139	1117	1109	1111	1119	1122	1124	1133	1135	1130	1123	1116	1115	1116	1106	1096	1082	1076	1082	1097	1122	1114	1103	1106	1107	1110	1111	1114	1121	1127	1129	1122	1115	1101	1093	1093	1097	1086	1076	1080	1082	1095	1101	1109	1113	1109	1114	1108	1104	1093	1092	1104	1109	1108	1091	1054	1054	1069	1076	1082	1096	1093	1066	1078	1078	1079	1088	1089	1095	1112	1101	1085	1082	1077	1080	1085	1117	1101	1090	1091	1098	1098	1094	1080	1081	1080	1079	1088	1088	1083	1080	1072	1061	1071	1085	1097	1089	1100	1099	1099	1099	1101	1097	1087	1075	1065	1084	1081	1076	1068	1058	1070	1083	1088	1081	1073	1072	1074	1076	1080	1086	1085	1073	1060	1073	1074	1088	1092	1087	1082	1083	1079	1066	1066	1070	1073	1081	1088	1087	1083	1080	1069	1055	1054	1078	1091	1087	1080	1083	1066	1040	1036	1032	1033	1046	1053	1054	1056	1060	1056	1052	1067	1086	1092	1075	1061	1066	1070	1071	1056	1049	1049	1053	1067	1059	1052	1029	1032	1043	1043	1054	1058	1060	1053	1040	1041	1037	1038	1042	1047	1047	1041	1052	1056	1060	1046	1029	1025	1026	1031	1039	1057	1054	1045	1029	1034	1038	1040	1041	1054	1050	1061	1047	1054	1084	1090	1097	1093	1086	1079	1070	1065	1063	1069	1067	1076	1079	1079	1072	1069	1067	1062	1074	1083	1081	1081	1081	1062	1060	1061	1055	1049	1050	1049	1052	1053	1054	1055	1056	1054	1070	1074	1077	1077	1074	1070	1059	1041	1042	1046	1060	1071	1077	1080	1071	1048	1042	1042	1055	1055	1056	1059	1051	1043	1035	1046	1055	1060	1060	1061	1061	1062	1065	1066	1063	1052	1031	1035	1035	1027	1032	1042	1038	1038	1040	1046	1045	1042	1043	1051	1056	1060	1060	1052	1048	1039	1043	1050	1052	1043	1040	1030	1010	1008	1020	1028	1039	1051	1062	1063	1069	1073	1066	1058	1050	1039	1030	1024	1036	1037	1031	1027	1039	1056	1068	1067	1047	1038	1036	1043	1041	1028	1011	1014	1022	1024	1031	1038	1038	1026	1018	1021	1034	1040	1045	1040	1034	1035	1032	1041	1039	1044	1052	1055	1040	1028	1019	1016	1025	1029	1032	1044	1048	1040	1035	1027	1014	1018	1018	1020	1018	1015	1007	1004	1009	1017	1023	1027	1023	1025	1020	1015	1011	1011	1017	1016	1033	1036	1030	1019	1011	1001	1003	1005	1011	1023	1037	1046	1039	1039	1032	1028	1028	1037	1038	1036	1027	1012	1002	1004	1012	1016	1019	1018	1015	1009	1013	1019	1019	1014	1016	1013	1008	1002	992	991	993	1001	1000	1005	997	997	997	1002	1009	1011	993	993	997	1013	1029	1026	1020	1023	1038	1038	1028	1023	1023	1024	0	0	0	0	0	0	0
1151	1141	1138	1138	1146	1146	1157	1163	1163	1160	1162	1155	1152	1152	1149	1149	1141	1154	1141	1141	1143	1144	1131	1122	1120	1120	1132	1145	1158	1170	1176	1170	1170	1173	1184	1193	1183	1174	1170	1161	1132	1128	1126	1126	1131	1151	1159	1164	1164	1169	1166	1142	1128	1121	1125	1132	1145	1147	1139	1139	1140	1143	1132	1136	1148	1150	1143	1142	1157	1149	1149	1148	1148	1143	1143	1147	1151	1140	1147	1152	1145	1139	1132	1122	1114	1107	1107	1114	1131	1151	1163	1161	1155	1140	1126	1127	1127	1120	1128	1138	1144	1139	1125	1110	1103	1107	1113	1123	1125	1124	1133	1141	1140	1133	1125	1119	1116	1113	1110	1111	1098	1108	1118	1128	1129	1104	1091	1085	1091	1095	1092	1084	1083	1086	1088	1090	1088	1090	1106	1111	1107	1073	1062	1067	1070	1079	1085	1084	1075	1072	1081	1088	1085	1091	1081	1103	1119	1121	1116	1107	1102	1096	1089	1085	1090	1099	1093	1084	1079	1077	1082	1083	1084	1083	1081	1091	1100	1110	1098	1092	1097	1090	1086	1075	1070	1072	1082	1083	1079	1063	1065	1073	1090	1099	1082	1074	1085	1084	1095	1099	1109	1121	1129	1128	1114	1086	1077	1073	1074	1075	1075	1070	1074	1078	1081	1081	1091	1090	1076	1073	1075	1063	1075	1071	1085	1098	1103	1089	1066	1044	1052	1072	1080	1084	1063	1060	1062	1064	1062	1068	1070	1063	1076	1088	1082	1076	1073	1073	1074	1089	1066	1058	1052	1052	1050	1048	1048	1050	1052	1068	1065	1067	1069	1077	1071	1064	1041	1032	1030	1026	1039	1047	1048	1069	1072	1041	1040	1033	1027	1043	1057	1062	1041	1029	1033	1037	1045	1050	1069	1072	1074	1069	1070	1070	1072	1057	1042	1033	1046	1048	1052	1048	1042	1038	1035	1040	1052	1058	1062	1062	1069	1071	1075	1063	1039	1044	1047	1051	1051	1049	1050	1046	1041	1031	1035	1031	1015	1022	1036	1045	1046	1039	1035	1027	1034	1035	1037	1008	1012	1031	1038	1046	1045	1022	1017	1024	1040	1038	1021	1008	1007	1027	1038	1041	1048	1051	1033	1029	1025	1025	1018	1024	1040	1037	1036	1031	1028	1023	1019	1020	1021	1021	1023	1022	1027	1028	1020	1027	1038	1046	1048	1048	1041	1033	1025	1024	1030	1034	1076	1086	1085	1082	1073	1069	1068	1073	1068	1053	1049	1049	1052	1044	1040	1049	1055	1060	1069	1055	1049	1044	1044	1042	1039	1034	1035	1038	1039	1041	1038	1044	1039	1039	1036	1046	1050	1053	1059	1058	1045	1021	1027	1025	1024	1036	1042	1046	1041	1026	1020	1034	1030	1029	1032	1042	1047	1047	1038	1039	1044	1046	1054	1046	1038	1033	1039	1042	1020	1017	1023	1036	1030	1028	1034	1036	1030	993	989	1002	1037	1032	1022	1027	1033	1042	1050	1048	1038	1031	1030	1036	1037	1038	1039	1034	1015	1007	1007	1015	1022	1031	1047	1057	1049	1041	1036	1035	1039	1038	1028	1017	1013	1017	1021	1020	1020	1029	1037	1040	1036	1028	1030	1018	1018	1016	1010	1006	1003	1018	1019	1023	1030	1026	1019	1015	1016	1027	1036	1039	1019	1013	1011	1010	1025	1037	1031	1023	1020	1004	994	994	1007	1016	1021	1021	1028	1038	1037	1025	1015	1007	1008	1012	1015	1011	999	999	999	1002	1002	1007	1007	1003	1005	1002	998	996	1000	1007	1006	1009	1004	1003	999	987	980	980	989	998	998	1007	1012	1024	1010	1012	1022	1029	1031	1029	1021	1010	999	992	993	1003	1011	1005	1003	1004	1002	1003	1004	984	991	989	1006	1000	993	987	984	988	992	997	992	985	985	988	988	986	971	976	983	988	993	1014	1009	1006	984	981	981	993	991	981	986	0	0	0	0	0	0	0
1121	1114	1116	1116	1123	1131	1139	1144	1144	1143	1141	1140	1139	1119	1119	1111	1122	1134	1126	1126	1122	1125	1120	1110	1105	1109	1109	1119	1126	1130	1138	1146	1146	1154	1155	1148	1153	1159	1153	1132	1125	1120	1121	1125	1133	1138	1135	1136	1120	1120	1116	1115	1110	1111	1114	1120	1131	1136	1122	1122	1112	1112	1118	1126	1137	1137	1137	1129	1113	1141	1139	1136	1136	1132	1116	1117	1124	1125	1118	1125	1128	1127	1123	1111	1103	1098	1095	1098	1101	1106	1138	1146	1146	1131	1114	1107	1104	1104	1109	1121	1126	1126	1109	1098	1091	1098	1106	1112	1113	1111	1115	1116	1115	1113	1111	1109	1106	1111	1109	1110	1096	1085	1094	1103	1098	1081	1082	1086	1092	1094	1088	1078	1074	1065	1063	1065	1070	1075	1075	1072	1065	1055	1055	1057	1065	1072	1079	1079	1065	1062	1064	1065	1055	1044	1053	1065	1073	1079	1083	1077	1089	1082	1079	1078	1086	1095	1092	1082	1075	1067	1066	1075	1073	1066	1051	1044	1063	1074	1075	1079	1085	1081	1070	1055	1043	1055	1067	1066	1059	1052	1062	1073	1088	1075	1073	1067	1054	1054	1064	1059	1062	1073	1082	1088	1088	1082	1076	1069	1066	1065	1067	1077	1078	1061	1063	1063	1067	1068	1068	1066	1060	1049	1043	1040	1053	1071	1087	1080	1063	1042	1044	1065	1055	1038	1043	1047	1045	1049	1056	1058	1050	1060	1062	1072	1072	1069	1065	1062	1060	1055	1044	1044	1042	1041	1043	1039	1038	1039	1040	1046	1055	1055	1053	1059	1060	1049	1036	1028	1018	1024	1033	1045	1047	1039	1032	1031	1032	1026	1026	1024	1024	1027	1031	1023	1027	1031	1036	1035	1042	1062	1066	1064	1061	1057	1059	1041	1032	1025	1021	1026	1037	1032	1027	1030	1026	1024	1034	1037	1041	1045	1052	1062	1052	1047	1037	1040	1045	1044	1040	1042	1045	1043	1035	1030	1031	1024	1015	1017	1027	1036	1036	1029	1014	1010	1015	1008	1000	985	978	983	977	981	990	998	1009	1011	994	999	1006	1011	1014	1023	1033	1034	1034	1027	1028	1016	1013	995	985	988	999	1007	1015	1019	1008	1008	1015	1031	1028	1018	1007	1005	1010	1012	1015	1013	1024	1049	1053	1052	1037	1011	1008	1011	1018	1025	1033	1072	1072	1068	1048	1037	1040	1045	1034	1030	1022	1023	1021	1023	1033	1039	1040	1050	1049	1044	1037	1029	1022	1028	1029	1031	1023	1020	1023	1020	1024	1032	1036	1033	1035	1035	1036	1030	1025	1005	1001	1012	1016	1018	1016	1000	1016	1029	1022	1014	1011	1014	1023	1023	1023	1015	1029	1034	1035	1024	1018	1034	1043	1030	1023	1023	1014	1014	1007	1008	1017	1029	1032	1028	1027	1024	1010	990	989	1004	1010	1007	1004	1008	1011	1021	1038	1039	1031	1022	1018	1020	1020	1024	1028	1027	1016	1011	1007	1010	1020	1028	1041	1052	1046	1043	1030	1024	1024	1024	1008	1002	996	1007	1015	1015	1021	1026	1035	1018	1011	1009	1003	1002	1004	1007	1005	1003	995	1005	1004	1008	1006	1009	1006	1000	997	1002	1000	998	995	999	993	984	1005	1008	996	985	987	990	987	991	1010	1008	1000	1006	1006	1006	1004	997	984	979	983	982	980	977	983	986	981	986	998	1004	1003	1001	997	998	992	992	996	1000	996	979	968	966	967	971	968	966	970	980	986	996	1001	997	991	983	1014	1025	1028	1019	1007	997	989	984	984	995	994	984	995	995	999	999	987	982	983	979	981	983	982	983	976	981	986	986	981	981	975	969	963	957	958	964	975	982	982	976	982	972	957	957	947	946	950	956	973	0	0	0	0	0	0	0
1089	1092	1100	1100	1105	1114	1122	1122	1122	1122	1116	1113	1109	1102	1102	1105	1109	1119	1109	1103	1103	1110	1115	1109	1102	1100	1100	1096	1096	1094	1100	1110	1122	1122	1133	1139	1145	1146	1129	1125	1104	1103	1107	1119	1124	1117	1105	1107	1106	1106	1107	1106	1107	1107	1109	1116	1118	1112	1112	1112	1112	1110	1113	1115	1121	1121	1117	1114	1096	1092	1092	1092	1095	1095	1099	1091	1084	1088	1087	1086	1098	1109	1114	1102	1093	1087	1085	1084	1080	1081	1080	1117	1130	1112	1101	1094	1094	1091	1091	1094	1111	1100	1087	1078	1079	1090	1096	1096	1098	1098	1099	1100	1101	1098	1096	1098	1090	1090	1090	1090	1075	1073	1074	1078	1076	1063	1074	1086	1090	1088	1077	1068	1061	1051	1048	1053	1061	1064	1063	1058	1051	1049	1047	1050	1058	1068	1074	1057	1049	1048	1048	1046	1033	1034	1042	1055	1062	1056	1050	1050	1051	1045	1051	1063	1061	1052	1060	1051	1049	1048	1053	1059	1053	1039	1029	1025	1049	1050	1056	1058	1062	1062	1047	1039	1039	1046	1055	1054	1045	1042	1038	1039	1044	1051	1061	1058	1048	1030	1028	1032	1025	1021	1029	1049	1062	1072	1074	1077	1052	1040	1039	1066	1063	1053	1051	1050	1053	1047	1050	1058	1064	1066	1060	1054	1048	1031	1024	1045	1040	1040	1049	1052	1032	1026	1036	1040	1043	1026	1024	1042	1037	1042	1042	1046	1049	1054	1055	1055	1053	1040	1031	1029	1037	1041	1038	1035	1025	1023	1031	1036	1039	1042	1045	1053	1052	1038	1028	1025	1022	1017	1035	1043	1023	1012	1011	1007	1006	1002	999	1019	1021	1022	1024	1019	1021	1025	1027	1027	1031	1033	1043	1054	1045	1036	1030	1029	1027	1022	1013	1008	1014	1014	1004	1004	1009	1013	1013	1013	1011	1010	1014	1024	1026	1019	1025	1037	1036	1035	1035	1037	1036	1035	1027	1014	1014	1014	1006	1005	1012	1010	1008	1007	1002	1003	993	992	982	977	977	973	971	976	981	987	997	1000	977	983	989	1002	1012	1021	1027	1020	969	967	1000	996	986	979	972	973	970	987	997	1000	990	995	1003	1005	1020	1015	995	991	994	999	1003	1003	1014	1027	1032	1005	1004	1007	1009	1008	1009	1012	1011	1027	1031	1036	1014	985	986	989	995	1018	1012	1013	1008	995	998	1020	1030	1035	1035	1027	1022	1014	1013	1018	1013	1008	1010	1006	1002	1005	997	1008	1025	1026	1027	1011	1006	1001	996	996	998	1010	1016	1015	993	989	995	1008	1005	1003	1003	1008	1011	1015	1019	1012	1007	1008	1004	1003	999	1000	1000	1005	998	986	974	969	979	993	1006	1010	1004	1000	1000	997	1000	990	986	984	986	984	995	993	993	990	993	1000	1010	1014	1012	1012	1004	1004	1005	1004	1004	1005	1001	999	1006	1021	1034	1044	1043	1032	1022	1016	1016	1012	1001	994	989	992	1005	981	984	990	991	992	996	998	991	990	991	993	992	988	990	996	993	998	993	992	991	985	984	989	987	982	980	986	979	974	971	969	955	941	935	946	960	966	968	966	992	991	983	979	980	977	971	969	965	966	959	956	957	957	962	973	984	994	998	994	992	994	994	993	992	991	973	960	956	947	952	950	952	953	950	972	977	983	983	984	982	973	970	989	998	1003	995	991	982	977	979	979	981	979	981	988	995	992	986	982	981	979	977	972	966	963	965	970	972	972	967	967	963	955	949	946	947	957	967	976	974	950	972	964	957	957	956	957	959	959	958	0	0	0	0	0	0	0
1077	1082	1080	1084	1084	1093	1099	1098	1095	1095	1094	1094	1097	1099	1099	1101	1105	1110	1085	1089	1089	1101	1106	1082	1074	1077	1077	1084	1091	1083	1094	1093	1105	1105	1119	1130	1127	1112	1108	1104	1093	1093	1096	1097	1096	1091	1094	1097	1100	1100	1101	1100	1098	1091	1087	1090	1091	1093	1100	1110	1110	1107	1099	1093	1088	1087	1090	1079	1087	1085	1085	1084	1086	1086	1086	1080	1079	1074	1068	1070	1072	1073	1066	1062	1076	1071	1068	1068	1064	1057	1056	1063	1063	1055	1050	1068	1067	1067	1062	1062	1068	1065	1067	1066	1063	1063	1063	1064	1067	1073	1078	1083	1081	1047	1044	1061	1071	1075	1076	1060	1059	1059	1056	1053	1045	1046	1052	1074	1075	1069	1059	1045	1042	1037	1037	1038	1045	1050	1053	1053	1050	1042	1040	1046	1054	1061	1048	1040	1032	1032	1036	1028	1019	1021	1025	1041	1048	1047	1041	1042	1030	1021	1026	1032	1042	1039	1024	1010	1004	1011	1023	1040	1043	1034	1035	1030	1020	1028	1013	1015	1027	1035	1036	1034	1035	1041	1037	1034	1033	1032	1036	1039	1037	1035	1052	1055	1051	1041	1031	1022	1016	1009	1017	1027	1037	1043	1058	1046	1023	1002	1002	1053	1050	1043	1040	1035	1027	1029	1023	1023	1030	1034	1034	1038	1041	1032	1023	1015	1010	1024	1049	1052	1046	1019	1024	1035	1030	1017	1017	1023	1023	1017	1011	1003	1001	1019	1033	1037	1029	1021	1022	1021	1030	1036	1040	1038	1025	1021	1023	1022	1024	1028	1036	1045	1042	1027	1015	1005	1000	1003	1000	1004	986	986	988	991	1000	1001	1001	1000	998	999	1022	1018	1020	1019	1013	1016	1027	1024	1020	1006	1001	997	1002	1007	1013	1014	1007	996	994	996	994	995	1002	1007	1009	1009	1007	1005	1005	1002	997	977	998	1000	994	995	1009	1011	1003	993	992	998	999	985	984	983	990	991	992	994	997	987	975	982	975	972	975	978	976	974	972	965	961	960	965	977	980	985	983	998	1001	960	951	952	954	962	960	962	963	967	975	975	975	976	968	958	963	981	995	991	981	976	976	981	984	994	1000	998	977	981	984	991	1003	1003	1005	1002	1000	1005	1000	1002	988	980	981	980	981	981	985	988	988	988	993	1022	1012	1007	1006	1006	1004	1007	1007	1010	1004	1006	997	994	993	993	992	985	985	1000	999	997	996	995	992	986	986	1007	1010	996	985	985	983	990	996	995	1000	1004	1006	1001	1001	997	997	996	982	982	975	979	995	1001	989	975	956	952	957	965	992	995	991	981	971	983	992	984	982	979	970	964	969	983	985	977	976	977	976	985	988	970	972	979	982	970	967	980	981	987	991	992	998	1010	1011	985	978	982	984	987	976	974	936	943	972	976	979	979	974	967	975	984	985	983	986	985	981	984	987	991	991	990	981	970	965	969	974	978	976	969	970	968	965	964	966	962	955	942	933	934	939	945	950	952	948	943	936	947	948	961	957	947	948	951	949	944	949	958	961	965	968	977	987	985	986	988	986	982	970	963	955	951	951	947	940	929	932	937	937	951	964	965	968	968	968	966	963	962	961	988	991	982	979	975	974	973	975	975	978	988	993	987	981	985	981	974	966	957	954	950	953	957	958	956	956	951	947	942	936	938	941	949	958	967	953	945	940	957	957	956	955	954	952	951	951	0	0	0	0	0	0	0
1054	1060	1065	1070	1070	1072	1066	1059	1074	1074	1075	1083	1088	1094	1094	1089	1084	1088	1065	1076	1076	1079	1079	1067	1067	1066	1066	1073	1086	1085	1075	1068	1054	1054	1067	1083	1094	1095	1096	1095	1074	1074	1078	1073	1062	1056	1060	1085	1093	1094	1094	1084	1071	1060	1058	1055	1062	1085	1085	1092	1092	1062	1067	1073	1067	1068	1073	1052	1058	1064	1079	1086	1084	1080	1080	1075	1067	1064	1055	1052	1050	1051	1048	1030	1038	1052	1057	1054	1047	1041	1042	1044	1046	1052	1051	1046	1040	1038	1038	1043	1043	1052	1063	1062	1053	1045	1044	1048	1055	1060	1042	1048	1039	1032	1027	1033	1047	1057	1058	1047	1031	1023	1020	1027	1029	1032	1038	1053	1057	1054	1048	1033	1025	1024	1030	1030	1034	1037	1041	1035	1028	1025	1028	1037	1038	1033	1025	1013	1015	1019	1020	1017	1018	1019	1019	1009	1011	1031	1034	1029	1002	995	994	1003	1005	1018	1012	1002	996	1002	1014	1021	1008	1018	1020	1028	1030	1027	1012	1007	1013	1027	1039	1036	1028	1019	1015	1012	1007	1006	1023	1025	1026	1030	1039	1037	1039	1033	1015	1001	996	1003	1010	1018	1023	1024	1018	1007	998	996	996	1001	1034	1033	1025	1024	1020	1015	1009	1010	1010	1010	1019	1021	1006	1020	1016	1011	1010	1015	1029	1027	1043	1029	1021	1020	1012	1007	1006	1014	1015	1010	1000	994	1002	1011	1022	1026	1021	1015	1006	1018	1020	1020	1006	996	1002	1010	1016	1015	1010	1011	1023	1016	1019	1017	1006	989	976	976	979	980	981	982	983	985	995	1002	999	998	1000	993	989	981	979	967	991	999	1007	1010	1005	998	991	990	997	999	1001	996	992	988	982	977	986	987	991	1001	1004	1003	1001	999	989	984	973	974	979	979	978	991	1002	1000	995	984	983	979	978	975	975	973	976	975	979	985	980	976	971	966	962	967	972	977	970	969	963	955	950	951	959	972	971	968	964	961	959	952	955	956	957	960	961	962	969	970	967	972	974	975	969	961	955	955	964	968	968	967	969	970	966	961	957	963	966	963	970	976	982	1000	994	989	981	984	992	990	971	969	961	969	970	978	981	957	958	968	997	1002	995	991	977	968	968	974	976	981	976	973	974	981	983	989	986	983	980	978	983	984	985	982	973	966	975	985	992	985	979	960	955	951	948	950	963	989	1003	1003	994	987	986	975	953	952	962	978	993	997	964	958	946	941	942	953	959	976	973	962	958	959	969	974	979	971	964	961	965	967	974	973	966	961	961	964	963	958	955	955	972	958	958	961	969	976	988	990	993	992	986	972	964	956	962	958	951	937	934	937	942	966	964	970	966	955	952	959	972	984	982	959	953	955	962	967	961	950	942	942	953	962	969	973	968	960	954	951	950	952	956	958	955	949	936	928	936	942	947	946	940	935	936	944	944	942	938	930	939	944	944	936	937	946	958	959	962	960	947	947	949	947	937	933	928	937	935	941	946	942	922	906	918	939	939	944	944	955	957	953	948	946	945	945	946	950	969	972	970	970	962	960	953	949	947	949	944	947	949	957	962	960	939	934	939	945	948	951	951	942	942	938	933	932	931	929	931	938	941	946	943	939	925	949	949	954	951	948	947	946	941	0	0	0	0	0	0	0
1023	1028	1027	1032	1032	1038	1040	1048	1053	1053	1057	1065	1070	1067	1068	1068	1055	1061	1065	1039	1057	1057	1060	1062	1060	1059	1055	1055	1059	1059	1051	1035	1034	1046	1046	1061	1065	1067	1065	1062	1051	1051	1059	1054	1042	1036	1041	1059	1067	1072	1072	1065	1060	1050	1041	1038	1040	1037	1041	1043	1050	1050	1054	1064	1069	1062	1030	1029	1028	1033	1039	1049	1038	1056	1056	1059	1039	1038	1025	1014	1011	1016	1017	1022	1032	1046	1053	1051	1037	1027	1024	1036	1044	1042	1045	1051	1053	1042	1042	1044	1050	1050	1063	1059	1049	1040	1038	1031	1028	1029	1029	1032	1021	1011	1007	1018	1030	1037	1039	1028	1013	1006	1006	1007	1018	1020	1024	1030	1037	1041	1039	1029	1021	1018	1024	1028	1029	1027	1026	1024	1013	1010	1015	1025	1019	1014	1001	1000	1004	1007	1011	1016	1020	1020	996	987	985	1004	1002	1001	993	989	991	987	978	985	996	995	993	994	983	985	992	999	998	1001	1000	996	996	1006	1007	1005	1011	1019	1009	999	996	996	992	992	994	1012	1013	1016	1018	1024	1026	1023	993	968	964	962	980	997	998	983	983	997	997	995	991	991	1009	1004	1009	1010	1013	1007	995	990	994	995	1004	997	983	975	998	1010	1009	1009	1010	1012	1001	1004	995	1012	1005	1001	1001	1005	1005	988	985	989	987	990	996	1008	1008	1005	1000	1001	994	989	982	986	989	999	1005	1005	1003	997	1002	997	996	990	971	969	971	973	976	977	972	974	972	972	990	994	996	987	983	979	972	968	969	969	970	969	970	985	978	968	965	977	975	974	970	965	970	966	967	970	969	974	975	988	993	992	986	975	975	965	968	972	977	961	952	963	979	990	988	985	976	976	977	975	972	971	968	969	969	971	970	969	965	963	963	966	965	963	959	960	949	941	939	941	958	966	963	956	950	949	947	954	957	956	950	953	962	971	976	975	957	967	971	974	974	966	960	956	951	946	950	951	953	955	946	938	940	947	954	958	959	957	951	956	957	956	951	950	927	940	948	950	944	935	935	941	947	947	942	939	953	958	971	970	959	951	957	964	969	969	968	966	967	969	966	961	967	962	963	959	950	945	957	950	939	930	945	951	965	959	953	941	942	942	943	953	960	962	966	972	983	986	974	964	956	955	965	977	980	966	958	948	936	930	934	942	944	949	954	949	946	945	953	961	970	962	957	953	959	959	965	964	954	954	951	952	955	953	955	954	945	949	953	955	955	966	968	975	984	990	985	956	959	965	966	957	948	932	932	932	937	942	940	932	932	943	941	943	951	948	948	940	933	929	936	935	937	934	926	928	937	954	966	970	958	940	936	940	939	942	948	953	954	938	926	919	926	936	942	939	934	930	933	932	938	937	929	925	934	939	941	939	929	929	937	933	928	926	935	938	937	931	922	913	909	909	915	932	936	932	926	920	914	928	940	941	940	950	950	943	940	936	932	921	921	921	923	929	956	959	958	946	929	917	912	914	919	936	939	946	947	945	938	934	937	939	941	944	942	942	936	932	925	924	921	919	920	917	920	928	932	925	916	900	928	936	942	944	939	936	925	0	0	0	0	0	0	0
988	1000	1010	1020	1024	1024	1031	1033	1033	1037	1037	1041	1044	1046	1043	1043	1034	1029	1031	1027	1031	1031	1038	1041	1040	1038	1037	1037	1027	1016	1011	1014	1034	1050	1050	1053	1044	1036	1023	1035	1034	1041	1041	1037	1032	1026	1030	1040	1056	1052	1052	1050	1044	1036	1025	1017	1024	1030	1031	1029	1032	1032	1040	1036	1038	1035	1013	1015	1018	1014	1017	1015	1008	1014	1019	1019	1026	1022	1012	1006	996	985	983	1000	1023	1033	1034	1034	1026	1017	1010	1010	1021	1031	1038	1045	1048	1047	1040	1036	1041	1043	1051	1051	1037	1016	1013	1020	1022	1019	1021	1017	1009	997	992	1001	998	997	1006	1002	997	995	993	996	1003	1003	1004	1003	995	1000	1005	1003	1001	1002	1000	1012	1024	1019	1013	1005	1003	998	1000	1012	1012	1007	1005	1004	1001	1002	1006	1012	1014	994	985	981	975	970	970	972	978	984	985	980	971	970	972	976	982	979	971	969	972	979	982	985	986	985	986	983	985	982	975	981	977	980	982	986	985	979	978	980	1003	996	995	1004	980	972	964	958	956	962	969	975	974	968	973	975	991	987	984	987	985	990	994	988	985	978	979	976	982	987	990	983	976	979	975	973	977	979	982	970	963	966	966	974	975	998	995	996	984	981	983	983	981	985	993	996	990	992	964	960	964	960	958	960	970	978	970	973	974	981	983	980	971	965	957	961	967	971	968	968	966	963	961	958	957	959	956	962	944	948	953	955	957	956	958	963	954	952	958	958	955	960	963	961	955	961	958	960	964	969	965	967	967	973	973	953	951	955	942	946	956	964	960	938	943	937	954	957	970	973	967	972	969	957	947	938	958	958	961	947	950	953	946	954	962	966	960	959	951	948	942	937	937	937	953	955	953	947	940	939	941	946	939	934	942	948	960	967	974	970	944	947	950	955	957	954	956	951	945	938	935	936	932	937	935	933	933	935	937	935	926	923	921	926	901	912	918	927	934	934	934	929	917	917	934	937	935	935	933	924	927	941	932	935	941	944	944	951	958	964	966	964	959	935	935	933	930	934	936	924	922	935	935	934	927	934	942	944	950	949	943	941	940	942	947	947	952	949	953	950	965	969	964	958	952	949	961	970	970	959	953	945	932	925	921	929	929	928	931	933	933	936	945	949	950	945	938	948	949	953	952	945	949	954	954	954	952	950	944	934	927	928	932	938	951	949	951	961	946	939	935	927	922	924	923	925	928	925	928	927	926	926	928	928	928	929	929	921	904	918	923	927	923	920	922	925	924	922	922	918	924	935	947	943	922	913	919	933	935	932	935	940	934	920	914	915	924	932	931	929	922	922	930	935	938	932	923	920	929	936	936	935	924	915	910	907	910	916	927	933	930	925	917	904	897	891	891	890	887	882	881	889	908	916	932	933	924	918	910	911	907	906	903	900	899	900	903	903	901	933	933	918	908	904	899	899	903	913	937	944	937	931	928	927	935	933	932	930	922	922	921	919	917	916	915	909	904	896	899	913	922	915	903	903	900	898	897	913	918	917	914	0	0	0	0	0	0	0
988	986	995	1003	1010	1010	1012	1013	1007	1000	1000	997	1005	1019	1024	1024	1014	1012	1018	1019	1024	1024	1027	1032	1035	1034	1028	1028	1008	999	994	994	1006	1021	1021	1016	1014	1004	1008	1024	1019	1002	1002	1004	1015	1020	1011	1011	1009	1013	1020	1020	1023	1022	1012	1008	1011	1020	1017	1018	1015	1015	1015	1010	1008	1006	1011	1011	1010	1007	1007	1003	1000	992	997	997	1001	1008	1007	1006	997	982	981	980	994	1011	1018	1021	1017	1013	1005	999	1000	1009	1021	1027	1028	1022	1020	1022	1029	1032	1031	1015	993	996	1000	1003	1002	1002	1005	1005	1000	991	980	977	975	979	983	981	982	984	987	986	982	973	975	980	985	978	976	972	964	969	973	985	997	996	987	986	983	979	976	979	984	990	994	996	996	995	997	991	980	984	977	974	968	965	962	961	969	975	977	975	964	958	963	965	965	973	966	964	967	972	971	979	979	978	977	973	974	972	967	963	964	961	971	979	986	983	968	971	976	969	980	969	962	962	958	956	958	957	965	965	964	956	971	971	968	980	981	965	966	969	968	971	975	977	983	994	998	992	986	990	982	961	947	942	961	965	968	959	959	955	955	957	954	944	934	926	957	968	975	979	978	973	967	968	978	961	957	953	951	949	950	949	949	955	948	947	949	951	952	953	949	949	952	952	959	964	961	957	955	949	939	931	934	946	950	942	937	938	944	950	950	943	941	947	949	947	945	945	950	946	950	948	945	938	939	954	953	957	961	959	960	956	946	932	928	919	922	931	934	932	930	921	938	937	938	949	953	956	963	955	937	936	940	929	922	921	929	937	941	925	922	947	953	957	948	947	942	942	944	938	941	943	946	948	935	935	936	933	929	932	926	921	912	903	919	944	941	936	936	936	942	940	931	929	932	937	937	932	929	921	921	920	924	924	925	920	907	902	904	908	908	905	898	900	917	927	937	935	926	918	913	912	922	927	923	924	923	912	911	918	924	927	933	929	923	920	921	924	919	919	922	921	925	924	927	926	919	914	913	913	920	925	926	927	935	941	945	948	945	942	942	941	946	948	916	915	922	923	930	939	941	921	911	907	920	923	925	926	939	940	930	922	914	917	918	917	918	924	934	943	940	933	930	928	921	939	941	938	930	939	939	937	955	951	923	928	930	919	910	903	904	914	923	926	931	938	938	930	928	923	924	909	902	905	914	930	928	921	914	919	923	923	920	916	909	906	907	909	915	917	918	912	911	908	909	909	906	909	915	911	917	914	913	906	910	913	911	906	907	919	920	909	905	904	922	921	925	925	913	914	920	936	934	923	915	912	913	917	921	919	916	911	905	900	899	905	917	922	921	918	907	895	893	890	887	883	881	875	879	880	888	888	897	896	897	894	894	898	906	901	898	895	894	893	890	881	860	854	865	884	880	889	896	897	898	896	907	915	920	921	915	906	903	898	891	899	899	907	917	917	913	913	908	900	890	886	896	902	911	904	898	898	891	895	895	897	909	910	906	0	0	0	0	0	0	0
977	971	978	984	1000	1000	998	998	998	999	999	996	997	1002	1005	1010	1010	1010	1015	996	996	996	1001	1011	1015	1012	994	975	975	974	975	981	988	995	998	998	1003	1003	1011	1017	986	983	983	981	992	1007	1009	1000	999	1006	1016	1016	1010	1003	1001	1000	999	1005	1003	987	990	992	992	998	1001	997	997	994	990	985	984	988	987	984	987	988	988	994	995	993	990	980	976	978	981	986	991	1008	1011	1001	980	989	992	991	990	999	1008	1006	998	996	995	990	967	958	957	957	977	993	996	997	994	987	981	976	971	963	957	960	964	952	955	978	982	974	959	954	958	966	970	966	964	962	962	961	967	975	982	983	975	974	968	970	965	964	964	962	973	978	971	960	954	958	948	952	972	966	959	950	956	955	959	964	968	967	959	950	956	959	969	974	972	967	967	970	974	978	978	972	963	956	958	962	961	959	957	955	954	959	965	965	966	951	947	953	964	954	957	959	959	954	942	941	959	954	946	930	930	930	930	933	961	957	950	961	967	967	966	970	977	967	947	942	950	958	950	945	941	940	951	955	953	945	940	943	947	952	952	931	922	915	914	921	927	956	947	957	956	948	950	950	950	949	947	944	945	944	941	947	945	940	937	932	937	941	940	945	942	929	917	920	931	941	946	944	939	933	929	932	943	946	921	923	925	942	942	934	928	928	928	934	936	936	937	944	936	941	936	929	925	916	912	913	915	917	919	926	913	915	910	912	907	923	925	918	918	918	922	935	939	942	933	928	927	918	919	924	929	923	916	915	923	921	914	908	914	921	923	924	928	923	924	929	933	927	932	935	931	925	926	919	926	922	919	915	921	919	914	911	908	910	914	919	926	923	901	910	920	922	927	930	933	925	923	906	904	907	910	896	894	892	895	896	899	902	904	906	902	897	904	919	914	914	909	901	900	903	910	910	913	912	906	898	904	906	910	917	926	922	916	914	901	901	902	902	906	910	908	907	913	917	917	913	906	908	910	915	906	902	911	921	928	937	937	942	940	944	924	915	891	882	883	885	892	896	907	911	904	878	875	880	884	892	898	915	920	916	910	910	906	901	910	914	920	923	921	908	900	905	906	897	903	909	926	940	948	938	918	907	911	918	923	921	910	901	898	903	913	920	917	921	917	917	905	907	915	914	907	898	895	899	899	891	891	901	921	920	909	904	905	909	908	911	912	911	905	906	904	905	895	895	887	886	897	905	912	913	912	906	905	904	903	901	896	895	898	899	894	903	905	915	921	910	906	904	900	903	908	906	904	904	905	912	915	917	915	912	905	897	893	893	894	898	908	907	899	897	894	887	885	882	876	880	879	878	879	880	881	885	888	890	890	896	895	896	893	893	892	887	877	868	867	884	879	878	875	877	880	877	891	894	892	895	897	899	896	892	878	872	867	867	874	882	891	900	901	897	886	881	883	891	893	898	897	892	892	887	885	892	890	893	898	897	892	0	0	0	0	0	0	0
971	961	965	967	968	968	974	985	990	985	985	980	978	980	987	994	994	1005	1006	982	984	986	986	988	989	980	976	969	969	968	971	977	978	982	985	985	989	994	1002	991	975	972	976	976	971	976	995	1008	1009	1011	1006	997	997	990	983	980	982	986	985	986	987	990	990	992	978	977	979	979	980	975	972	975	976	977	972	971	971	972	973	977	977	970	970	970	972	970	971	966	966	967	970	975	979	980	978	983	988	990	977	969	964	969	971	969	963	963	970	970	990	992	988	975	973	971	966	962	953	945	941	934	943	962	964	952	948	948	951	955	957	955	951	951	953	952	957	960	957	956	957	951	953	953	948	950	952	954	944	959	948	938	939	940	941	943	952	956	951	948	948	944	945	951	956	960	948	942	948	958	963	965	962	960	962	967	975	975	964	943	939	940	946	954	961	956	948	942	942	946	951	947	940	904	903	943	953	951	955	954	943	934	926	927	936	943	939	925	926	923	918	909	909	941	932	942	943	960	960	962	947	928	924	932	916	921	923	940	937	938	939	943	941	928	933	932	940	945	941	920	914	907	908	908	913	913	923	936	940	938	932	930	929	927	930	935	916	918	929	930	919	918	920	915	919	925	932	937	938	927	920	916	920	937	939	936	932	930	926	924	922	927	915	912	914	919	929	925	914	913	891	897	905	917	930	938	937	930	920	922	922	922	920	915	911	911	909	909	906	902	910	908	903	917	909	912	912	910	905	917	928	924	924	924	921	910	908	906	920	918	913	914	921	921	906	902	901	906	913	914	907	900	900	908	916	922	916	913	911	903	905	905	909	909	907	902	911	914	912	912	908	904	903	902	906	911	899	906	916	918	921	912	919	913	898	886	866	862	877	883	884	887	888	890	891	891	884	891	896	899	900	895	889	888	889	889	891	897	899	900	898	898	891	890	894	894	893	890	888	889	898	898	897	891	887	880	882	896	897	886	886	888	903	911	910	903	905	906	883	881	875	899	902	894	909	867	879	885	891	892	884	876	872	867	871	882	884	886	875	876	881	885	890	890	887	890	901	902	892	886	886	889	889	885	885	891	898	902	899	890	876	874	878	893	907	914	912	911	908	904	903	902	902	911	907	887	889	895	900	909	910	902	899	900	901	907	910	910	902	894	886	887	879	875	873	877	876	875	894	898	901	906	911	910	909	906	903	899	899	894	890	877	874	880	889	897	904	900	900	899	897	893	895	894	895	881	880	878	888	890	889	888	887	893	895	877	874	883	894	893	895	892	893	902	905	905	912	909	901	898	894	888	883	882	893	900	897	895	893	882	883	882	877	875	876	876	873	872	873	879	882	881	881	886	884	887	885	871	867	868	860	863	870	884	877	873	868	868	861	867	878	880	889	891	890	886	879	874	870	864	862	862	864	875	885	888	882	879	874	866	863	863	874	877	881	872	872	872	875	882	884	886	889	889	882	0	0	0	0	0	0	0
961	961	951	944	943	947	947	955	963	964	961	961	963	969	982	990	990	989	987	982	978	972	972	964	965	972	973	971	971	968	968	971	973	973	975	975	977	978	973	974	965	960	966	966	976	972	981	990	989	989	984	974	974	976	973	966	963	967	975	981	984	983	983	983	964	961	958	962	962	962	961	962	967	966	959	954	955	955	953	963	964	962	959	961	959	955	951	955	963	964	966	965	968	971	972	974	973	971	961	956	955	961	962	962	969	961	960	958	959	959	961	966	966	963	961	961	958	942	937	926	928	931	934	933	933	933	935	942	944	944	941	938	943	945	946	945	944	932	930	931	935	932	932	936	938	928	923	923	923	918	927	930	935	944	956	958	950	938	932	932	935	938	943	937	936	938	940	940	943	945	949	916	910	910	920	921	926	926	924	914	925	939	947	946	934	923	916	915	920	919	909	897	902	910	918	923	932	933	927	920	920	923	933	937	933	923	911	907	903	903	904	911	923	928	929	929	925	918	915	912	903	905	898	905	911	917	921	936	943	933	928	923	917	910	905	903	907	909	915	906	902	897	900	909	910	912	912	909	923	918	921	919	905	905	891	905	913	894	898	894	892	893	902	909	914	918	934	926	912	910	913	913	930	926	922	918	914	908	908	920	909	909	915	916	912	906	897	889	887	887	888	908	917	917	912	903	909	914	915	913	911	904	906	905	907	906	902	903	908	915	920	908	910	909	908	904	899	884	888	905	921	924	910	912	911	906	903	901	881	881	888	893	895	891	891	899	901	900	886	896	895	893	893	887	882	881	888	891	896	897	900	900	897	895	908	911	913	909	903	900	897	891	901	905	911	895	890	884	881	894	884	883	877	869	864	863	859	878	879	868	865	863	865	871	868	871	875	894	891	880	877	877	878	885	885	889	886	889	892	890	888	883	889	889	883	880	884	882	874	868	864	857	864	865	867	877	876	874	874	874	883	879	880	877	879	874	870	865	867	858	861	860	854	860	862	868	866	867	866	865	860	860	858	865	868	869	864	868	870	874	875	878	880	875	876	877	877	874	872	868	863	865	869	876	885	889	885	883	883	884	881	879	881	882	874	870	876	880	877	877	877	893	897	898	871	872	872	879	885	886	886	893	897	902	905	902	896	881	870	872	871	864	864	867	866	867	871	878	897	904	909	899	894	898	898	874	865	871	877	881	878	874	872	875	878	882	867	862	864	858	854	853	861	858	855	860	886	889	882	856	855	859	863	867	875	873	870	872	876	881	883	884	883	884	884	886	896	887	881	868	861	863	875	881	876	872	869	873	880	882	881	872	872	871	869	868	874	878	879	877	874	873	874	876	867	859	848	845	853	857	857	862	855	849	856	850	853	858	868	879	884	878	872	860	853	849	850	853	853	856	859	871	881	872	870	870	867	866	869	864	857	857	861	861	859	853	854	877	875	869	869	874	873	0	0	0	0	0	0	0
955	955	941	935	931	935	935	948	953	957	949	949	955	963	972	977	978	978	975	977	950	949	949	950	953	967	968	970	965	965	963	972	970	962	961	960	960	962	960	963	951	954	969	969	972	973	970	976	979	979	978	972	972	957	949	944	943	950	963	970	974	976	967	967	951	943	939	944	943	943	951	956	948	945	941	937	936	936	936	947	958	959	955	946	938	936	933	943	957	960	959	959	956	953	952	948	951	954	941	941	941	944	942	941	936	930	926	927	934	946	955	962	958	958	951	950	951	935	926	924	928	922	914	912	918	928	930	935	931	931	934	936	936	938	937	935	928	923	919	919	921	921	920	924	922	918	914	908	908	910	916	917	929	941	940	939	927	924	910	910	920	926	927	926	914	914	921	918	910	901	902	902	903	903	912	915	916	914	913	906	913	916	922	932	924	917	913	911	911	912	913	902	902	908	914	917	921	922	914	899	912	912	922	928	928	921	907	905	897	901	905	912	916	919	904	899	899	901	895	889	895	895	889	895	896	899	910	917	921	917	911	915	908	905	895	888	887	890	894	908	901	889	898	898	899	897	894	869	875	883	893	898	901	900	889	886	891	895	898	900	903	902	900	896	897	897	897	906	894	893	903	901	899	905	908	906	903	895	889	890	896	905	916	915	909	899	897	889	885	886	884	886	894	899	899	898	902	908	907	900	898	895	898	899	909	903	897	896	898	897	897	893	884	880	895	891	881	891	881	882	882	875	848	845	910	902	891	870	874	878	880	884	885	884	878	889	889	858	865	878	878	888	873	871	872	874	874	877	884	893	895	893	888	878	863	850	862	877	876	872	863	870	864	864	875	881	884	881	872	862	858	857	857	857	850	845	850	868	869	867	865	863	860	853	851	852	869	878	881	869	863	859	867	867	880	884	874	876	884	886	884	883	883	877	871	875	881	877	870	863	848	854	859	860	855	855	857	856	852	856	857	860	872	871	874	862	861	858	850	850	850	850	845	855	859	862	863	862	860	850	845	853	853	851	861	859	855	853	855	861	869	868	868	866	867	871	866	862	858	855	858	862	872	882	883	878	865	867	870	880	875	871	879	875	864	852	851	850	872	874	877	867	876	879	883	862	862	866	864	866	868	866	873	879	883	882	876	875	864	865	864	864	863	861	857	857	865	870	875	872	863	842	842	848	859	844	851	865	873	877	877	869	866	864	857	859	859	859	853	846	846	842	845	842	848	852	863	863	851	849	850	853	863	867	865	855	848	846	841	838	844	851	856	860	860	864	865	863	859	855	858	867	869	868	865	855	852	858	864	866	867	867	869	868	864	861	866	871	873	869	865	865	868	864	860	855	846	843	842	849	850	851	851	851	846	846	839	845	850	851	854	853	854	853	854	855	850	849	849	852	858	863	865	860	862	865	871	870	865	843	824	828	835	835	830	828	834	836	849	846	852	865	873	0	0	0	0	0	0	0
948	948	941	923	925	931	931	942	946	950	942	942	945	951	963	961	959	959	961	952	935	934	938	938	948	934	930	931	940	940	942	941	950	954	949	945	945	946	945	950	932	931	938	963	963	965	963	965	971	973	971	963	951	951	944	938	933	938	948	955	959	962	956	940	940	932	926	926	925	924	925	929	937	943	938	930	925	926	926	932	938	955	942	926	928	933	929	923	925	936	937	931	923	923	926	927	921	923	924	922	915	914	909	905	914	927	922	916	917	923	932	936	942	941	935	938	932	923	912	916	922	922	915	912	915	922	927	924	923	924	929	934	933	927	926	922	916	915	914	914	914	916	918	920	920	914	909	906	906	905	904	908	919	924	913	923	917	899	901	904	913	911	913	896	891	902	911	907	901	896	893	896	900	901	906	908	913	916	900	896	900	907	911	911	913	908	910	909	911	918	896	896	888	896	907	912	912	920	910	899	895	898	901	917	917	897	895	894	892	896	900	907	909	911	903	894	897	898	894	890	890	882	880	885	888	891	909	903	903	899	892	895	901	893	890	891	887	891	889	891	888	884	891	891	889	862	862	868	871	875	884	894	897	898	890	883	892	897	899	897	902	903	903	887	879	882	877	874	873	878	890	891	887	889	894	897	895	889	885	887	891	902	905	905	901	896	896	892	886	886	887	893	895	899	898	895	894	905	897	899	889	874	871	870	874	877	883	886	881	864	863	865	867	870	878	881	883	856	861	873	856	862	869	843	840	846	852	858	866	866	865	866	849	850	850	855	856	858	859	857	851	845	856	857	853	859	862	864	868	874	874	853	845	842	843	847	857	864	868	869	861	853	851	856	862	863	858	855	853	856	854	852	851	851	850	849	853	848	844	845	846	847	839	840	842	847	850	855	857	858	860	857	853	855	853	856	857	863	846	850	850	842	844	849	858	870	876	874	865	848	844	852	852	850	847	849	850	844	845	850	851	846	851	847	851	841	840	842	845	848	851	845	846	854	858	858	865	862	854	847	838	849	849	844	855	851	849	852	857	855	857	857	855	857	857	856	851	843	841	844	840	840	849	866	865	855	843	842	846	866	867	862	823	829	829	840	844	849	850	843	836	837	844	864	873	871	860	857	853	850	851	854	859	859	856	852	837	862	867	867	865	864	855	848	846	848	853	844	834	830	829	827	829	837	846	840	841	854	870	864	853	857	856	854	844	838	850	854	851	844	839	835	838	842	843	849	851	849	840	843	848	849	851	860	855	846	844	843	841	838	843	843	847	855	861	864	852	844	844	850	858	861	862	860	861	849	843	852	858	862	860	860	863	861	857	853	856	861	861	855	850	851	860	863	861	857	851	838	836	841	841	841	841	843	846	843	835	828	838	842	845	844	843	847	848	849	850	850	844	841	845	850	847	844	847	853	851	846	812	817	815	828	828	824	827	830	830	833	838	838	838	847	845	0	0	0	0	0	0	0
935	930	930	919	923	930	930	930	924	925	928	929	929	936	931	942	940	940	945	940	923	922	929	929	921	911	903	908	917	917	924	925	924	933	925	923	923	929	933	937	918	919	921	927	927	947	955	957	959	963	959	953	944	944	940	934	928	924	932	944	949	953	949	931	931	921	917	917	920	922	924	924	925	937	938	932	930	922	921	921	924	923	917	913	910	913	917	913	903	902	903	904	902	910	913	877	882	887	891	898	903	901	904	904	908	916	912	898	897	902	910	917	920	920	915	910	902	895	894	905	916	922	914	906	899	902	901	899	902	915	920	924	922	916	915	910	905	906	911	913	917	914	913	920	917	909	902	898	893	896	897	902	900	898	902	903	899	895	890	893	890	893	891	885	882	891	900	898	895	894	894	893	899	903	906	904	902	898	889	887	887	895	898	898	894	891	900	904	906	902	888	881	875	879	901	906	899	914	920	918	901	900	905	900	889	880	882	884	887	896	896	896	902	901	895	887	887	892	889	881	872	878	878	877	882	885	898	894	884	876	876	887	894	885	879	892	893	893	892	890	889	892	893	890	877	870	868	866	866	869	881	888	888	887	873	869	864	901	896	888	877	881	890	889	873	864	862	865	866	872	876	878	874	872	883	885	880	872	869	875	885	894	899	898	897	894	893	889	886	888	887	880	882	895	898	896	893	896	908	888	865	857	860	863	862	861	865	877	874	858	850	847	849	858	856	852	848	854	849	847	848	854	857	849	840	839	841	858	866	861	857	843	838	837	836	845	849	851	851	848	842	839	840	856	858	852	853	860	862	865	863	850	845	842	840	853	859	861	860	852	850	842	844	845	847	850	850	846	842	842	851	852	849	844	845	843	848	849	836	832	833	833	836	831	837	840	847	847	848	850	851	851	848	846	845	844	844	843	844	844	847	849	846	844	857	865	870	869	854	846	844	841	847	843	846	843	844	840	841	844	844	844	835	835	833	830	831	835	836	844	847	839	833	836	844	855	864	861	859	852	851	848	848	840	835	845	848	852	855	855	851	847	845	845	844	852	840	835	823	824	821	822	824	829	840	849	847	843	836	833	820	819	821	816	808	821	840	845	846	841	835	831	834	838	845	850	869	855	844	840	842	841	847	851	850	831	823	836	851	854	861	847	842	837	834	839	839	829	821	820	820	819	818	821	836	846	850	857	855	840	840	840	844	842	835	824	822	830	842	843	835	830	834	841	849	853	849	839	839	842	844	842	841	839	844	839	841	840	839	837	838	836	839	842	854	861	857	844	836	840	851	858	850	842	837	835	838	847	853	853	850	848	851	846	846	845	848	849	845	839	840	846	848	850	854	852	850	837	831	830	832	830	832	835	835	833	830	813	810	826	829	829	827	829	836	835	829	829	825	820	819	822	824	821	820	840	833	811	808	813	813	815	815	818	827	831	832	830	830	825	818	830	826	826	0	0	0	0	0	0
915	918	918	906	899	899	902	902	906	914	919	913	913	902	915	927	930	930	928	925	923	912	907	907	902	893	891	894	906	915	915	916	911	910	919	922	918	918	919	925	902	905	910	922	936	936	950	953	951	950	948	940	930	924	924	912	911	909	912	926	944	948	941	891	895	895	900	904	905	916	917	916	914	917	923	927	919	918	918	918	922	924	912	912	905	906	900	897	892	890	890	892	893	879	868	871	882	889	887	890	892	892	887	889	888	892	893	891	876	865	865	878	882	884	881	892	886	885	886	894	902	908	894	895	889	888	890	890	882	878	907	916	907	903	896	887	880	897	904	913	913	907	900	893	891	892	882	879	882	888	890	890	882	886	889	886	885	894	893	885	881	881	883	887	884	881	887	892	892	892	890	890	895	898	887	880	884	883	879	876	879	890	890	884	879	878	879	880	890	882	871	867	869	877	882	892	890	881	899	901	898	900	903	904	896	880	875	871	867	881	893	893	892	890	887	870	875	871	868	870	873	874	876	873	877	880	887	882	875	864	870	877	879	873	865	861	881	888	890	889	888	889	886	882	878	871	873	866	861	862	868	880	881	865	850	858	849	849	846	852	864	866	870	872	871	862	857	857	861	869	874	863	855	860	868	872	872	868	855	858	862	872	877	868	868	868	867	870	849	845	849	855	862	873	871	871	869	875	875	864	855	853	855	860	860	861	855	855	853	851	849	842	844	853	840	846	844	838	827	829	830	831	844	846	844	845	853	861	863	863	851	835	828	829	833	825	826	834	847	849	834	834	834	834	838	859	851	847	832	835	850	849	843	839	847	856	856	837	834	828	826	826	818	820	830	835	837	839	834	833	822	835	830	832	826	824	829	836	830	829	828	825	821	822	825	824	831	840	837	840	842	839	849	843	842	845	840	840	838	839	844	838	840	840	847	861	865	856	846	841	838	833	834	837	838	836	840	840	842	841	830	826	828	829	823	827	831	834	827	826	826	824	825	824	830	834	844	853	851	848	846	849	847	831	840	839	840	845	851	850	846	848	844	840	838	844	828	829	823	820	815	814	818	827	826	830	826	823	821	815	808	814	815	813	805	817	834	840	839	835	831	829	833	831	835	831	850	861	839	826	826	833	840	832	820	814	814	808	827	839	833	833	828	828	839	839	834	827	813	810	808	805	809	820	842	847	839	835	844	844	835	834	831	827	818	813	814	823	821	825	824	824	836	843	850	849	838	832	835	839	838	836	833	823	828	834	833	828	828	828	828	828	830	834	838	853	860	855	838	832	827	825	821	818	831	830	836	844	844	840	836	834	826	828	829	836	843	841	832	827	828	829	824	823	841	843	835	833	827	829	826	821	822	826	828	827	823	809	801	797	817	815	810	809	812	823	823	808	805	805	809	815	812	811	816	806	803	805	803	809	808	808	812	816	821	828	827	810	811	807	807	804	801	801	0	0	0	0	0	0
