0	0	0	0	0	0	0	1582	1409	1280	1254	1254	1264	1263	1258	1262	1294	1294	1326	1335	1332	1312	1287	1287	1279	1286	1292	1297	1295	1294	1294	1306	1312	1317	1327	1341	1352	1348	1348	1327	1318	1310	1310	1315	1317	1312	1304	1304	1304	1315	1335	1351	1352	1343	1325	1314	1305	1304	1300	1300	1309	1313	1335	1317	1326	1328	1346	1339	1355	1341	1331	1338	1355	1377	1391	1381	1369	1369	1362	1355	1353	1360	1378	1405	1392	1373	1376	1380	1393	1408	1423	1442	1463	1471	1492	1515	1549	1582	1610	1628	1666	1703	1733	1743	1737	1728	1725	1728	1726	1731	1725	1718	1710	1736	1768	1774	1776	1791	1769	1747	1743	1751	1659	1640	1649	1701	1724	1804	1836	1852	1863	1880	1878	1885	1891	1888	1903	1936	2000	2093	2158	2169	2160	2159	2158	2141	2120	2119	2124	2126	2187	2168	2149	2141	2148	2169	2191	2225	2269	2335	2413	2468	2494	2500	2554	2617	2631	2559	2542	2567	2579	2546	2515	2452	2218	2063	1900	1483	1414	1413	1384	1395	1379	1359	1369	1366	1365	1365	1371	1379	1389	1397	1385	1380	1370	1372	1381	1405	1417	1411	1413	1410	1403	1399	1403	1407	1409	1406	1396	1384	1379	1384	1387	1391	1392	1398	1404	1405	1411	1424	1426	1399	1389	1386	1398	1413	1411	1401	1398	1411	1413	1408	1412	1407	1418	1405	1426	1415	1417	1419	1419	1427	1405	1401	1403	1413	1416	1410	1411	1420	1416	1430	1431	1431	1427	1420	1413	1407	1398	1395	1400	1416	1424	1445	1497	1548	1747	2053	2302	2476	2479	2467	2421	2438	2439	2463	2480	2515	2488	2471	2533	2497	2440	2427	2413	2395	2408	2377	2392	2397	2435	2432	2425	2449	2472	2469	2464	2461	2437	2434	2439	2456	2452	2422	2419	2425	2412	2431	2427	2399	2341	2315	2323	2338	2352	2360	2357	2347	2303	2225	2129	2074	2033	2011	2002	1967	1921	1895	1879	1879	1854	1857	1870	1912	1924	1931	1938	1955	1962	1965	1958	1935	1900	1761	1724	1687	1645	1610	1582	1564	1553	1541	1544	1558	1517	1488	1492	1480	1490	1468	1460	1484	1483	1496	1508	1492	1491	1497	1516	1523	1525	1528	1530	1529	1534	1520	1504	1506	1519	1529	1532	1542	1545	1550	1551	1537	1528	1538	1531	1521	1510	1519	1531	1545	1546	1546	1542	1539	1548	1551	1550	1563	1607	1752	2026	2226	2434	2442	2437	2430	2465	2482	2462	2464	2485	2500	2495	2486	2468	2442	2458	2483	2486	2456	2442	2453	2481	2481	2472	2479	2505	2543	2548	2529	2516	2523	2539	2518	2340	2370	2455	2482	2429	2422	2444	2449	2431	2416	2425	2442	2423	2418	2421	2400	2367	2369	2354	2323	2281	2239	2237	2282	2333	2310	2266	2226	2219	2201	2193	2182	2198	2193	2183	2201	2199	2175	2184	2188	2182	2176	2180	2181	2185	2172	2174	2175	2188	2171	2175	2168	2176	2191	2201	2205	2203	2201	2209	2208	2209	2210	2216	2221	2186	2166	2138	2103	2116	2123	2124	2132	2127	2127	2156	2126	2070	1982	1956	1958	2047	2127	2148	2180	2210	2214	2210	2213	2213	2219	2232	2237	2232	2209	2191	2195	2210	2220	2224	2227	2232	2237	2230	2212	2204	2200	2205	2169	2107	2034	1957	1643	1614	1624	1609	1595	1593	1601	1625	1647	1645	1630	1608	1595	1589	1586	1584	1543	1526	1545	1547	1541	1552	1560	1561	1547	1547	1547	1540	1554	1561	1566	1560	1555	1557	1563	1565	1569	1579	1569	1585	1580	1574	1567	1554	1561	1575	1586	1590	1583	1582	1586	1593	1598	1584	1657	1810	2007	2047	2111	2111	2131	2131	2109	2092	2077	2078	2092	2098	2087	2083	2076	2061	2056	2059	2069	2082	2100	2089	2089	2083	2069	2071	2100	0	0	0	0	0	0	0	0
0	0	0	0	0	0	0	1589	1416	1276	1255	1255	1271	1269	1249	1253	1314	1314	1326	1332	1330	1311	1280	1280	1277	1281	1289	1290	1287	1288	1288	1297	1306	1310	1325	1340	1349	1342	1336	1336	1329	1329	1329	1327	1326	1318	1309	1308	1308	1315	1333	1350	1351	1339	1322	1312	1304	1302	1304	1311	1314	1326	1337	1322	1329	1341	1341	1358	1358	1350	1353	1359	1362	1370	1376	1368	1363	1360	1360	1355	1361	1388	1410	1414	1421	1394	1377	1390	1401	1410	1430	1444	1459	1466	1486	1513	1543	1578	1615	1641	1672	1703	1720	1735	1736	1738	1742	1745	1752	1748	1745	1731	1720	1720	1758	1766	1775	1792	1764	1755	1758	1734	1653	1661	1672	1719	1742	1796	1827	1837	1858	1866	1875	1866	1864	1865	1896	1929	2006	2110	2158	2173	2178	2182	2170	2151	2132	2131	2136	2143	2144	2125	2117	2120	2138	2162	2196	2226	2264	2321	2383	2419	2410	2429	2468	2534	2573	2547	2442	2454	2478	2476	2470	2441	2204	2035	1894	1490	1435	1421	1369	1352	1348	1349	1372	1384	1381	1382	1381	1382	1392	1396	1397	1385	1377	1373	1379	1386	1399	1400	1395	1372	1370	1373	1384	1393	1398	1399	1397	1394	1397	1398	1392	1389	1393	1395	1403	1406	1410	1420	1424	1404	1399	1403	1397	1396	1407	1401	1400	1398	1415	1415	1414	1418	1426	1416	1418	1414	1413	1407	1404	1422	1421	1432	1400	1405	1413	1416	1419	1420	1426	1428	1432	1435	1426	1413	1406	1391	1399	1391	1375	1405	1424	1436	1473	1563	1759	2040	2219	2320	2315	2302	2302	2324	2331	2351	2369	2420	2425	2368	2314	2354	2373	2374	2382	2365	2335	2315	2315	2292	2271	2277	2268	2264	2265	2263	2282	2329	2356	2375	2375	2370	2351	2318	2294	2295	2312	2349	2355	2345	2302	2246	2220	2231	2251	2284	2322	2317	2280	2224	2091	2029	1973	1969	1976	1966	1935	1898	1884	1879	1854	1842	1877	1923	1933	1930	1930	1944	1951	1955	1948	1957	1892	1712	1681	1654	1636	1622	1611	1601	1575	1545	1534	1534	1508	1482	1495	1506	1503	1471	1455	1451	1465	1496	1513	1500	1501	1502	1521	1526	1528	1529	1531	1532	1530	1521	1505	1507	1515	1523	1525	1528	1541	1541	1548	1542	1531	1532	1523	1518	1518	1524	1536	1545	1554	1554	1553	1546	1547	1547	1549	1557	1575	1692	1982	2148	2233	2259	2269	2299	2380	2415	2431	2423	2441	2461	2457	2441	2423	2411	2429	2453	2449	2428	2421	2426	2429	2417	2419	2435	2463	2487	2482	2461	2441	2438	2301	2298	2315	2321	2308	2293	2266	2250	2262	2326	2339	2333	2302	2312	2331	2347	2345	2313	2328	2326	2317	2292	2255	2233	2229	2266	2281	2252	2234	2215	2207	2194	2171	2155	2149	2170	2181	2184	2180	2157	2132	2168	2181	2189	2202	2196	2179	2167	2171	2173	2180	2174	2167	2167	2171	2178	2188	2095	2107	2111	2125	2126	2125	2132	2144	2146	2148	2140	2107	2090	2102	2110	2112	2116	2117	2109	2114	2083	2079	2032	1967	1937	1974	2038	2095	2180	2205	2206	2206	2215	2222	2229	2234	2240	2238	2213	2189	2193	2208	2208	2215	2221	2225	2233	2230	2213	2210	2211	2207	2191	2148	2058	1934	1849	1651	1628	1614	1592	1585	1599	1620	1633	1632	1616	1598	1589	1580	1570	1572	1546	1542	1537	1555	1556	1554	1566	1570	1555	1552	1545	1543	1544	1557	1557	1558	1558	1566	1568	1567	1578	1584	1586	1585	1574	1564	1554	1550	1554	1560	1578	1587	1585	1585	1589	1593	1604	1604	1625	1734	1900	2005	2005	2027	2035	2026	2010	2010	2012	2026	2040	2046	2045	2037	2032	2015	2010	2001	1997	2008	2020	2045	2045	2036	2020	2015	2008	0	0	0	0	0	0	0	0
0	0	0	0	0	1804	1804	1621	1428	1282	1266	1266	1284	1281	1255	1264	1304	1304	1315	1318	1318	1310	1296	1290	1290	1286	1280	1280	1280	1283	1285	1285	1285	1294	1310	1323	1337	1333	1334	1334	1332	1337	1328	1321	1320	1318	1315	1314	1314	1319	1331	1347	1347	1335	1320	1309	1297	1298	1304	1320	1320	1330	1337	1336	1351	1348	1354	1361	1354	1352	1369	1379	1371	1361	1359	1355	1357	1359	1359	1372	1390	1394	1403	1412	1415	1407	1395	1407	1420	1429	1426	1433	1442	1437	1475	1512	1555	1591	1631	1657	1674	1698	1716	1721	1731	1735	1748	1759	1763	1758	1756	1745	1735	1719	1759	1767	1778	1769	1745	1754	1763	1720	1662	1679	1704	1737	1742	1770	1796	1816	1836	1855	1873	1871	1854	1851	1895	1932	1985	2101	2139	2166	2178	2188	2173	2161	2149	2156	2163	2169	2122	2107	2098	2094	2113	2175	2214	2219	2227	2284	2336	2355	2338	2348	2370	2389	2407	2374	2344	2382	2403	2411	2398	2395	2195	2012	1872	1489	1455	1419	1344	1339	1339	1356	1399	1393	1405	1402	1391	1385	1390	1392	1394	1388	1381	1384	1387	1384	1392	1389	1378	1366	1359	1355	1362	1370	1385	1388	1391	1391	1394	1397	1388	1388	1389	1394	1405	1401	1403	1407	1402	1411	1414	1406	1398	1391	1389	1399	1395	1402	1407	1424	1419	1420	1418	1432	1430	1409	1410	1405	1396	1396	1391	1410	1439	1424	1413	1420	1426	1423	1430	1427	1440	1450	1450	1419	1411	1404	1396	1388	1381	1408	1428	1434	1468	1563	1770	2021	2108	2230	2247	2233	2212	2191	2207	2228	2227	2256	2286	2281	2231	2211	2263	2274	2291	2284	2270	2250	2255	2222	2190	2157	2138	2119	2137	2171	2192	2235	2252	2259	2249	2246	2232	2212	2207	2215	2240	2266	2276	2270	2234	2196	2172	2165	2139	2130	2176	2216	2213	2172	2104	1994	1932	1926	1954	1940	1912	1871	1864	1869	1863	1836	1887	1933	1937	1932	1941	1953	1951	1942	1933	1968	1888	1699	1657	1632	1633	1639	1653	1647	1621	1572	1539	1523	1507	1473	1485	1522	1505	1480	1465	1457	1458	1493	1516	1509	1508	1510	1514	1525	1526	1528	1531	1535	1532	1523	1512	1507	1506	1514	1522	1522	1533	1533	1544	1539	1531	1520	1517	1517	1519	1524	1528	1543	1552	1562	1555	1550	1544	1547	1544	1532	1540	1714	1988	2089	2204	2227	2221	2232	2249	2233	2260	2306	2380	2420	2414	2400	2348	2338	2340	2379	2377	2366	2354	2361	2362	2376	2406	2427	2428	2425	2406	2408	2303	2282	2269	2273	2286	2294	2293	2268	2247	2241	2276	2281	2266	2249	2236	2217	2205	2206	2211	2222	2244	2279	2275	2261	2237	2227	2236	2252	2262	2230	2216	2204	2196	2182	2166	2155	2141	2140	2138	2136	2141	2141	2110	2129	2175	2195	2178	2140	2117	2109	2121	2132	2146	2123	2108	2099	2052	2038	2029	2023	2020	2030	2022	2039	2052	2026	2004	2027	2039	2040	2043	2026	2032	2032	2030	2011	2015	2010	2011	2028	2031	2013	1930	1888	1878	1922	1987	2026	2038	2057	2108	2133	2140	2137	2127	2138	2141	2132	2148	2155	2101	2095	2085	2101	2126	2128	2124	2170	2179	2196	2205	2195	2167	2077	1935	1849	1682	1668	1628	1627	1605	1600	1602	1619	1614	1605	1592	1582	1574	1565	1561	1558	1556	1552	1555	1575	1575	1578	1576	1562	1558	1548	1549	1551	1551	1553	1558	1569	1578	1582	1578	1572	1577	1580	1579	1574	1559	1554	1552	1553	1561	1571	1580	1588	1587	1585	1596	1604	1620	1624	1680	1818	1976	1976	2003	2009	2003	1994	1999	2008	2005	2010	2011	1999	2001	1997	1985	1960	1932	1925	1929	1948	1948	1940	1923	1905	1914	1933	0	0	0	0	0	0	0	0
0	0	0	0	1969	1811	1811	1643	1395	1273	1263	1263	1287	1298	1283	1296	1299	1299	1295	1306	1308	1310	1309	1307	1307	1298	1287	1284	1278	1284	1283	1283	1282	1293	1308	1321	1322	1314	1315	1315	1323	1325	1317	1312	1311	1313	1316	1318	1318	1323	1333	1341	1342	1332	1320	1308	1297	1298	1312	1331	1331	1339	1342	1338	1351	1346	1350	1351	1354	1354	1370	1374	1362	1332	1334	1333	1348	1366	1366	1387	1396	1385	1387	1395	1403	1408	1412	1428	1444	1444	1434	1423	1407	1418	1454	1513	1569	1609	1639	1657	1683	1702	1710	1713	1716	1724	1739	1742	1742	1745	1753	1748	1736	1717	1751	1763	1766	1761	1739	1736	1751	1710	1671	1691	1715	1745	1745	1767	1786	1804	1820	1850	1872	1885	1868	1877	1912	1948	1995	2091	2119	2152	2168	2172	2172	2158	2153	2168	2179	2182	2149	2123	2122	2121	2146	2195	2189	2190	2201	2228	2263	2292	2277	2267	2307	2332	2331	2285	2277	2301	2326	2266	2291	2340	2201	1993	1870	1484	1447	1391	1335	1333	1338	1366	1398	1381	1380	1389	1375	1373	1383	1387	1394	1393	1394	1393	1397	1399	1387	1371	1386	1378	1359	1353	1356	1364	1378	1393	1379	1383	1388	1389	1383	1386	1400	1396	1396	1396	1395	1382	1391	1415	1416	1405	1394	1382	1382	1377	1397	1399	1407	1412	1411	1409	1419	1421	1432	1409	1410	1410	1402	1398	1398	1411	1410	1424	1424	1425	1425	1434	1433	1431	1421	1408	1431	1423	1417	1408	1409	1394	1403	1415	1436	1443	1472	1566	1777	1947	2040	2102	2172	2174	2167	2120	2097	2118	2126	2143	2180	2178	2161	2153	2150	2140	2151	2172	2182	2177	2164	2160	2152	2116	2098	2091	2106	2133	2139	2099	2092	2119	2160	2198	2207	2186	2169	2155	2167	2175	2171	2163	2147	2162	2142	2111	2100	2091	2088	2106	2147	2159	2155	2040	1970	1960	1955	1929	1878	1846	1839	1866	1869	1839	1889	1937	1942	1937	1954	1959	1954	1936	1928	1961	1891	1713	1663	1643	1644	1655	1675	1664	1649	1599	1563	1535	1505	1469	1481	1510	1504	1486	1472	1455	1456	1492	1509	1506	1507	1506	1507	1518	1521	1526	1537	1539	1533	1522	1510	1505	1510	1511	1516	1523	1521	1536	1545	1545	1536	1519	1510	1510	1510	1516	1525	1534	1546	1551	1545	1539	1538	1544	1555	1532	1528	1745	1871	2084	2164	2203	2208	2203	2202	2202	2214	2235	2285	2300	2302	2287	2280	2282	2281	2247	2216	2204	2216	2234	2268	2327	2355	2370	2351	2332	2205	2221	2230	2246	2257	2259	2265	2256	2248	2266	2251	2239	2248	2243	2236	2239	2223	2213	2192	2185	2168	2147	2155	2171	2202	2200	2204	2206	2214	2232	2197	2187	2186	2186	2170	2165	2158	2149	2142	2114	2095	2101	2118	2126	2117	2106	2107	2105	2096	2078	2056	2053	2071	2089	2096	2040	2038	2040	2043	2036	2025	2011	2002	2000	1987	1987	1989	1979	1989	2013	2027	2020	2012	1992	1986	2005	2012	1995	1994	1981	1975	1984	1986	1987	1915	1852	1845	1883	1929	1959	1982	1994	2025	2033	2054	2057	2045	2060	2059	2054	2052	1983	1979	1995	2012	2036	2062	2055	2033	2039	2072	2128	2130	2080	2049	2002	1946	1817	1700	1644	1638	1627	1614	1605	1604	1606	1609	1606	1589	1572	1556	1558	1552	1564	1565	1563	1565	1582	1584	1581	1577	1569	1561	1555	1551	1550	1549	1548	1556	1572	1585	1590	1586	1577	1577	1575	1574	1564	1555	1554	1554	1553	1550	1561	1573	1581	1580	1585	1586	1600	1603	1622	1646	1733	1919	1919	1956	1970	1967	1945	1975	2002	2011	1999	1988	1996	1999	1983	1947	1920	1906	1906	1946	1956	1956	1934	1892	1868	1856	1859	0	0	0	0	0	0	0	0
2255	2255	2216	2124	2008	1854	1854	1663	1390	1261	1256	1296	1296	1308	1297	1295	1282	1282	1283	1291	1303	1307	1314	1318	1318	1316	1299	1292	1295	1292	1293	1293	1294	1306	1314	1315	1300	1296	1300	1300	1303	1306	1303	1303	1309	1318	1318	1313	1322	1322	1330	1334	1331	1323	1314	1303	1299	1306	1321	1337	1337	1346	1345	1351	1344	1336	1340	1344	1352	1352	1365	1364	1329	1321	1326	1337	1352	1367	1390	1390	1395	1387	1378	1384	1394	1405	1418	1439	1452	1448	1424	1392	1392	1409	1446	1496	1568	1619	1640	1658	1690	1698	1707	1710	1707	1713	1721	1716	1709	1720	1733	1741	1737	1714	1748	1759	1764	1755	1731	1721	1740	1725	1692	1703	1722	1764	1762	1789	1798	1804	1807	1838	1863	1897	1901	1909	1938	1974	2004	2083	2118	2152	2165	2174	2171	2154	2148	2151	2169	2179	2187	2155	2168	2193	2201	2188	2163	2163	2169	2190	2186	2179	2140	2127	2159	2228	2245	2231	2206	2217	2191	2185	2195	2249	2228	1990	1881	1498	1397	1363	1328	1328	1340	1356	1389	1371	1365	1366	1376	1379	1379	1383	1392	1399	1399	1398	1401	1399	1391	1379	1393	1385	1377	1367	1362	1371	1376	1366	1370	1375	1380	1379	1378	1398	1409	1408	1394	1390	1382	1371	1383	1415	1416	1408	1393	1381	1381	1378	1380	1395	1400	1407	1405	1401	1408	1417	1434	1415	1429	1405	1409	1409	1389	1397	1415	1423	1421	1426	1436	1431	1428	1431	1420	1408	1428	1422	1420	1416	1382	1421	1420	1417	1438	1454	1481	1575	1768	1903	1967	1999	2038	2064	2082	2090	2086	2088	2093	2110	2122	2106	2134	2133	2117	2110	2118	2127	2138	2133	2136	2132	2123	2100	2081	2071	2070	2085	2094	2089	2046	2089	2133	2164	2145	2129	2111	2100	2094	2093	2096	2101	2090	2083	2079	2082	2078	2055	2039	2036	2043	2048	2069	2054	2036	1990	1926	1911	1874	1845	1853	1868	1867	1842	1883	1944	1939	1941	1964	1962	1951	1932	1913	1932	1933	1824	1694	1664	1652	1658	1670	1668	1653	1612	1572	1536	1507	1468	1470	1484	1495	1482	1464	1456	1458	1495	1509	1503	1506	1501	1499	1510	1518	1523	1527	1526	1524	1511	1504	1501	1506	1510	1509	1515	1516	1527	1545	1558	1545	1527	1512	1508	1511	1521	1529	1536	1544	1540	1534	1529	1533	1546	1557	1546	1535	1770	1875	1985	2081	2144	2170	2182	2182	2178	2186	2186	2186	2173	2164	2176	2213	2243	2240	2187	2174	2172	2176	2183	2189	2191	2191	2200	2096	2073	2076	2097	2114	2127	2180	2225	2206	2218	2199	2189	2175	2169	2167	2174	2184	2187	2181	2164	2135	2142	2122	2121	2139	2136	2169	2171	2175	2180	2172	2157	2133	2136	2143	2143	2150	2149	2149	2145	2128	2099	2082	2085	2117	2124	2111	2101	2085	2073	2053	2050	2050	2041	2042	2014	2004	2006	2008	2013	2024	2019	2007	1981	1985	1982	1969	1962	1959	1960	1952	1943	1938	1937	1939	1940	1933	1929	1913	1882	1850	1824	1834	1893	1923	1898	1850	1804	1796	1840	1878	1904	1922	1945	1969	1981	1994	1961	1940	1933	1938	1926	1887	1849	1851	1865	1904	1939	1866	1945	1939	1921	1924	1982	2044	2021	2033	1930	1867	1728	1657	1652	1644	1628	1614	1604	1602	1605	1609	1610	1598	1576	1556	1554	1553	1560	1558	1567	1573	1582	1583	1581	1576	1571	1559	1551	1553	1551	1553	1548	1552	1561	1581	1587	1584	1554	1552	1554	1556	1559	1565	1566	1565	1559	1555	1551	1561	1571	1575	1577	1577	1585	1596	1601	1616	1681	1681	1869	1925	1934	1922	1887	1888	1891	1890	1856	1834	1868	1905	1902	1876	1858	1841	1873	1874	1878	1878	1865	1856	1825	1818	1815	0	0	0	0	0	0	0	0
2167	2167	2177	2119	2016	1869	1869	1652	1408	1278	1279	1299	1299	1305	1301	1294	1285	1281	1281	1295	1302	1307	1311	1315	1315	1315	1310	1302	1297	1295	1296	1296	1303	1307	1312	1295	1282	1284	1290	1290	1296	1297	1296	1304	1315	1323	1324	1317	1318	1318	1322	1321	1317	1312	1303	1294	1296	1302	1312	1330	1339	1339	1349	1352	1337	1323	1327	1337	1346	1349	1358	1348	1320	1308	1316	1338	1355	1369	1388	1388	1394	1389	1384	1390	1399	1402	1417	1434	1440	1428	1402	1404	1434	1457	1487	1508	1553	1607	1643	1673	1688	1706	1708	1707	1708	1714	1712	1701	1690	1698	1726	1741	1739	1724	1746	1758	1770	1761	1734	1728	1755	1743	1713	1711	1727	1784	1802	1811	1814	1820	1815	1818	1850	1892	1906	1922	1944	1981	2019	2062	2096	2140	2172	2173	2165	2145	2133	2127	2123	2111	2121	2142	2171	2189	2172	2145	2136	2140	2134	2141	2133	2107	2070	2052	2061	2092	2119	2125	2102	2087	2088	2105	2104	2121	2147	1933	1846	1540	1391	1349	1327	1327	1339	1356	1373	1363	1370	1375	1381	1384	1382	1381	1385	1386	1391	1399	1399	1395	1391	1391	1397	1393	1386	1381	1386	1381	1375	1359	1362	1368	1369	1376	1379	1393	1415	1405	1398	1390	1379	1364	1380	1415	1417	1409	1397	1396	1389	1385	1378	1390	1397	1396	1394	1410	1409	1416	1445	1440	1417	1419	1419	1406	1407	1419	1415	1417	1415	1419	1416	1413	1407	1404	1415	1404	1437	1426	1416	1410	1377	1405	1414	1414	1440	1456	1479	1571	1756	1840	1944	1975	1992	2010	2031	2052	2062	2066	2060	2050	2040	2046	2096	2103	2095	2086	2092	2108	2095	2089	2091	2096	2096	2073	2051	2024	2020	2032	2052	2044	2008	2014	2024	2026	2024	2032	2034	2033	2011	1998	1986	1988	2002	2015	2015	2020	2019	2011	1997	2006	2009	2013	2006	1995	1998	1998	1951	1936	1928	1880	1863	1876	1859	1853	1902	1965	1957	1954	1964	1958	1945	1928	1914	1933	1952	1863	1712	1675	1645	1642	1652	1652	1638	1611	1576	1535	1516	1469	1453	1457	1481	1482	1462	1462	1467	1497	1507	1503	1499	1496	1484	1491	1510	1517	1521	1516	1500	1487	1491	1499	1503	1501	1506	1511	1514	1522	1546	1559	1558	1539	1524	1519	1523	1533	1546	1551	1547	1542	1534	1536	1538	1531	1540	1549	1557	1735	1882	1974	2066	2124	2155	2172	2178	2179	2168	2159	2151	2137	2127	2139	2168	2186	2157	2118	2135	2142	2154	2150	2145	2125	2047	2040	2041	2030	2037	2049	2070	2086	2078	2093	2078	2063	2018	2007	2021	2060	2083	2087	2085	2102	2106	2084	2074	2072	2075	2099	2104	2100	2108	2090	2095	2106	2100	2080	2080	2075	2063	2058	2059	2079	2094	2094	2071	2054	2066	2091	2116	2119	2103	2070	2049	2049	2036	2039	1977	1983	2001	2002	1995	1995	1984	1983	2003	2003	1989	1960	1963	1968	1970	1959	1953	1952	1948	1935	1927	1924	1931	1923	1914	1880	1864	1869	1870	1864	1854	1857	1861	1874	1874	1848	1827	1829	1835	1845	1846	1783	1793	1812	1808	1799	1788	1816	1814	1782	1745	1723	1715	1741	1775	1743	1730	1738	1787	1854	1860	1868	1872	1932	1913	1874	1869	1697	1653	1646	1611	1605	1600	1593	1593	1597	1604	1610	1598	1580	1574	1565	1558	1545	1553	1569	1571	1571	1576	1579	1578	1568	1559	1555	1556	1559	1566	1561	1557	1557	1559	1551	1550	1539	1546	1551	1555	1553	1559	1560	1560	1553	1552	1557	1561	1566	1569	1570	1573	1585	1593	1598	1604	1657	1657	1661	1873	1891	1876	1857	1845	1842	1835	1810	1793	1761	1741	1753	1776	1788	1798	1766	1723	1708	1708	1712	1711	1706	1693	1680	0	0	0	0	0	0	0	0
2144	2144	2117	2098	2007	1811	1811	1621	1457	1308	1296	1295	1295	1293	1294	1283	1285	1286	1286	1294	1301	1308	1305	1304	1304	1297	1293	1293	1293	1293	1298	1298	1304	1302	1297	1285	1277	1278	1282	1293	1293	1304	1302	1314	1325	1328	1323	1314	1313	1313	1312	1312	1313	1307	1306	1291	1284	1282	1293	1312	1323	1323	1345	1352	1328	1318	1325	1333	1346	1349	1349	1330	1320	1312	1318	1334	1351	1371	1385	1385	1386	1388	1393	1409	1404	1408	1420	1425	1426	1402	1397	1428	1460	1489	1512	1531	1547	1588	1648	1680	1694	1706	1715	1715	1720	1723	1723	1710	1692	1699	1720	1743	1737	1733	1750	1764	1786	1782	1757	1753	1756	1755	1711	1712	1736	1798	1816	1814	1814	1817	1811	1812	1838	1878	1892	1899	1920	1945	1975	2028	2069	2117	2147	2139	2117	2101	2091	2075	2052	2044	2037	2025	2011	2006	2005	2032	2064	2080	2097	2106	2082	2058	2037	2028	2026	2022	2018	2006	2015	2018	2027	2057	2070	2057	2043	1887	1796	1564	1402	1349	1335	1343	1358	1364	1372	1363	1369	1379	1385	1385	1381	1376	1379	1379	1377	1371	1374	1369	1384	1387	1392	1395	1390	1389	1387	1380	1373	1371	1362	1363	1367	1371	1383	1385	1393	1395	1393	1389	1379	1360	1378	1395	1425	1413	1406	1403	1396	1390	1379	1389	1396	1406	1410	1419	1419	1416	1425	1436	1429	1420	1411	1416	1413	1412	1410	1419	1420	1422	1412	1388	1392	1394	1396	1411	1421	1424	1409	1382	1405	1407	1405	1414	1441	1451	1472	1580	1723	1853	1921	1964	1972	1972	1980	1996	2006	2011	2008	2000	1996	2001	1997	1999	2005	2015	2022	2026	2018	2028	2028	2038	2026	2019	1999	1963	1958	1966	1991	1995	1971	1975	1983	1992	1990	1982	1984	1991	1977	1960	1941	1951	1972	1981	1980	1977	1970	1973	1978	1990	1983	1988	1993	1987	1986	1991	1998	1971	1916	1907	1903	1889	1872	1900	1959	1966	1965	1971	1975	1966	1945	1932	1921	1928	1958	1862	1715	1669	1636	1624	1636	1641	1627	1602	1578	1547	1542	1477	1438	1446	1472	1479	1459	1474	1478	1494	1495	1497	1493	1482	1468	1469	1480	1501	1505	1499	1483	1473	1482	1497	1506	1510	1513	1525	1511	1516	1528	1540	1547	1549	1540	1535	1538	1539	1546	1555	1549	1541	1539	1540	1534	1539	1537	1538	1560	1743	1873	1974	2074	2116	2124	2125	2123	2130	2138	2133	2129	2115	2097	2084	2066	2067	2069	2076	2091	2122	2136	2134	2061	2014	1985	1988	2000	1998	1994	2003	2030	2042	2013	1999	2002	1994	1983	1977	1978	2022	2036	2022	2023	2023	2014	1989	1981	2000	2013	2000	1990	2002	2013	2011	2037	2010	1975	1967	2035	2042	2038	2034	2025	2037	2044	2038	2028	2018	1994	1984	1994	2046	2049	2022	2009	2004	1945	1926	1913	1911	1923	1944	1949	1938	1937	1956	1980	1989	1988	1951	1947	1962	1958	1945	1929	1920	1911	1901	1896	1887	1901	1898	1892	1872	1865	1873	1874	1867	1857	1858	1859	1858	1857	1846	1835	1829	1830	1837	1856	1804	1787	1773	1745	1717	1712	1714	1720	1677	1651	1620	1592	1568	1609	1681	1693	1700	1730	1755	1793	1792	1787	1794	1792	1802	1758	1667	1641	1618	1632	1621	1608	1601	1592	1590	1596	1606	1610	1602	1584	1568	1558	1547	1557	1563	1553	1556	1560	1569	1575	1570	1570	1567	1570	1581	1577	1568	1558	1555	1548	1548	1542	1539	1543	1553	1555	1554	1558	1557	1555	1551	1551	1561	1570	1565	1559	1564	1565	1571	1586	1590	1584	1584	1576	1630	1642	1657	1665	1671	1670	1661	1650	1638	1627	1610	1610	1619	1640	1651	1633	1620	1605	1605	1603	1602	1603	1617	1630	1647	0	0	0	0	0	0	0	0
2126	2126	2086	2030	1917	1777	1624	1624	1484	1321	1297	1290	1290	1275	1277	1285	1286	1283	1283	1288	1302	1313	1308	1297	1287	1287	1288	1286	1296	1299	1305	1308	1308	1301	1292	1286	1279	1276	1281	1294	1294	1308	1316	1322	1323	1324	1320	1311	1305	1305	1309	1313	1320	1324	1318	1302	1293	1280	1292	1302	1314	1314	1339	1340	1318	1324	1332	1343	1351	1353	1341	1323	1311	1316	1334	1336	1342	1365	1373	1374	1374	1389	1404	1416	1417	1416	1420	1420	1413	1402	1398	1438	1472	1486	1501	1541	1557	1585	1667	1691	1703	1717	1729	1726	1738	1753	1745	1736	1725	1723	1727	1732	1728	1738	1753	1769	1776	1768	1763	1757	1754	1740	1698	1699	1724	1781	1797	1795	1794	1795	1805	1809	1818	1852	1873	1876	1887	1912	1962	1996	2023	2033	2037	2045	2023	2032	2032	2023	2002	1988	1985	1971	1966	1960	1959	1980	1998	2007	2006	1992	1984	1979	1999	2003	2000	1975	1964	1955	1958	1950	1975	2002	2018	2024	1998	1823	1755	1547	1415	1350	1349	1366	1384	1379	1379	1360	1367	1380	1382	1380	1380	1379	1380	1377	1370	1363	1359	1357	1360	1370	1388	1393	1390	1391	1392	1377	1381	1384	1378	1369	1372	1378	1388	1390	1399	1401	1401	1390	1374	1362	1375	1398	1406	1408	1413	1405	1402	1385	1399	1407	1393	1400	1405	1423	1433	1427	1419	1434	1422	1405	1411	1415	1411	1411	1407	1422	1420	1419	1397	1400	1390	1395	1390	1393	1398	1404	1379	1408	1418	1409	1402	1420	1436	1441	1438	1516	1693	1822	1908	1941	1952	1949	1948	1945	1964	1975	1977	1983	1990	1984	1965	1955	1942	1936	1923	1914	1923	1948	1962	1975	1975	1958	1931	1934	1940	1936	1934	1936	1940	1956	1976	1970	1958	1938	1935	1957	1959	1949	1934	1938	1938	1942	1961	1971	1980	1966	1960	1955	1944	1958	1966	1965	1969	1982	1992	1986	1971	1959	1940	1913	1901	1923	1935	1943	1954	1970	1981	1978	1962	1945	1927	1932	1955	1865	1721	1661	1637	1631	1629	1630	1616	1602	1581	1565	1550	1478	1433	1434	1464	1474	1451	1490	1490	1491	1468	1485	1482	1471	1452	1441	1454	1472	1486	1490	1481	1473	1482	1498	1512	1517	1523	1530	1510	1502	1505	1512	1524	1542	1545	1551	1540	1532	1538	1543	1540	1535	1536	1538	1533	1524	1523	1531	1565	1755	1846	1964	2057	2094	2096	2104	2098	2099	2104	2107	2107	2102	2078	2045	2007	2013	2037	2042	2042	2048	1989	1992	1989	1975	1965	1977	1982	1982	1985	1986	1991	1986	1982	1972	1975	1977	1974	1968	1967	1973	1977	1970	1971	1968	1958	1958	1948	1953	1958	1957	1947	1952	1955	1970	1963	1953	1936	1956	1959	1985	1998	2002	2006	2013	2026	2019	1997	1985	1967	1952	1929	1917	1902	1908	1875	1900	1916	1894	1893	1893	1903	1916	1914	1911	1905	1912	1924	1944	1939	1914	1925	1936	1941	1934	1927	1913	1901	1887	1872	1852	1868	1887	1872	1864	1878	1880	1875	1867	1857	1847	1845	1855	1856	1843	1837	1833	1836	1831	1824	1789	1768	1756	1748	1739	1739	1710	1666	1620	1589	1565	1555	1554	1556	1587	1652	1678	1634	1645	1681	1710	1734	1744	1744	1747	1708	1660	1631	1639	1635	1651	1633	1606	1593	1586	1587	1597	1605	1600	1584	1568	1562	1562	1566	1564	1540	1541	1550	1558	1567	1574	1575	1576	1574	1579	1573	1563	1557	1555	1556	1548	1544	1540	1543	1550	1553	1562	1559	1559	1552	1546	1549	1565	1572	1567	1564	1560	1563	1568	1573	1581	1589	1589	1576	1566	1579	1586	1591	1587	1582	1576	1581	1592	1601	1580	1568	1574	1577	1577	1575	1585	1593	1593	1593	1578	1572	1575	1585	1598	0	0	0	0	0	0	0	0
2094	2033	2033	1965	1866	1756	1631	1631	1505	1324	1279	1279	1279	1261	1277	1287	1287	1284	1284	1285	1298	1312	1307	1292	1277	1277	1278	1294	1307	1313	1313	1307	1307	1300	1294	1293	1288	1285	1291	1303	1303	1316	1319	1318	1320	1322	1318	1311	1306	1306	1309	1315	1328	1325	1316	1307	1304	1311	1308	1310	1319	1319	1329	1324	1308	1331	1339	1353	1350	1350	1338	1325	1312	1311	1345	1344	1343	1349	1354	1375	1375	1394	1409	1422	1425	1424	1424	1416	1407	1400	1402	1434	1466	1468	1484	1519	1566	1590	1672	1698	1715	1726	1736	1747	1754	1767	1761	1756	1746	1738	1726	1718	1722	1734	1757	1773	1763	1738	1741	1741	1750	1726	1683	1678	1699	1758	1778	1775	1772	1785	1793	1806	1815	1822	1839	1862	1893	1922	1954	1975	1975	1951	1939	1934	1935	1939	1940	1960	1961	1961	1946	1947	1942	1926	1932	1943	1956	1964	1957	1943	1933	1949	1964	1954	1941	1911	1910	1914	1905	1847	1843	1875	1899	1967	1959	1751	1696	1514	1404	1344	1349	1387	1398	1384	1384	1362	1370	1377	1384	1382	1380	1382	1387	1385	1376	1367	1353	1345	1344	1366	1372	1383	1392	1399	1399	1400	1390	1388	1385	1381	1389	1393	1396	1397	1402	1403	1401	1393	1376	1368	1369	1389	1401	1401	1399	1408	1390	1384	1409	1416	1392	1424	1430	1438	1418	1441	1417	1412	1393	1417	1408	1406	1402	1404	1405	1406	1429	1407	1417	1395	1393	1385	1386	1390	1414	1425	1416	1416	1414	1415	1407	1416	1430	1433	1428	1519	1648	1782	1886	1910	1915	1915	1901	1905	1905	1919	1923	1939	1956	1958	1940	1931	1902	1867	1860	1868	1898	1924	1941	1937	1923	1897	1899	1914	1916	1907	1898	1902	1924	1949	1967	1944	1901	1879	1886	1902	1917	1914	1913	1903	1889	1894	1904	1912	1921	1939	1941	1938	1929	1926	1919	1930	1945	1944	1950	1954	1964	1949	1945	1919	1905	1896	1905	1906	1924	1948	1974	1981	1961	1931	1929	1922	1937	1867	1718	1677	1644	1625	1618	1617	1608	1598	1581	1568	1544	1476	1448	1441	1449	1464	1460	1489	1496	1481	1444	1467	1469	1464	1452	1442	1444	1457	1471	1481	1478	1474	1483	1496	1511	1517	1521	1519	1505	1491	1483	1486	1502	1531	1537	1542	1533	1530	1523	1524	1524	1526	1527	1532	1529	1527	1520	1532	1567	1738	1815	1919	2021	2059	2075	2071	2076	2074	2073	2073	2078	2066	2028	1995	1986	2001	2004	1944	1974	1971	1959	1951	1950	1934	1936	1949	1953	1966	1961	1963	1963	1958	1940	1954	1959	1959	1964	1960	1920	1924	1943	1933	1937	1920	1919	1930	1926	1939	1932	1924	1926	1935	1940	1935	1925	1928	1952	1973	1965	1954	1943	1933	1919	1915	1928	1914	1923	1913	1899	1897	1884	1844	1847	1845	1852	1867	1871	1867	1851	1864	1885	1890	1898	1897	1885	1862	1871	1887	1895	1882	1873	1870	1882	1896	1898	1908	1891	1866	1851	1843	1856	1868	1867	1870	1868	1868	1854	1847	1839	1829	1804	1778	1776	1788	1817	1831	1835	1827	1810	1768	1751	1745	1741	1753	1742	1730	1707	1641	1555	1539	1541	1559	1558	1565	1589	1648	1630	1639	1640	1639	1629	1623	1668	1680	1660	1672	1619	1624	1631	1640	1617	1596	1589	1586	1582	1587	1592	1595	1582	1568	1560	1563	1565	1563	1551	1538	1540	1550	1562	1574	1577	1574	1569	1563	1556	1548	1548	1556	1570	1566	1552	1546	1546	1556	1567	1568	1567	1560	1552	1543	1543	1552	1553	1553	1560	1559	1554	1558	1569	1575	1568	1568	1573	1560	1563	1569	1574	1575	1571	1566	1571	1580	1594	1571	1564	1568	1573	1569	1573	1583	1594	1594	1595	1578	1572	1569	1581	1596	0	0	0	0	0	0	0	0
2030	1979	1979	1917	1830	1751	1650	1650	1524	1355	1254	1264	1264	1266	1274	1281	1284	1283	1283	1282	1291	1300	1302	1286	1279	1279	1290	1301	1313	1320	1310	1297	1297	1286	1291	1297	1303	1303	1309	1314	1314	1315	1312	1313	1318	1322	1320	1311	1308	1311	1311	1314	1319	1315	1310	1307	1312	1318	1324	1326	1327	1325	1325	1310	1306	1329	1338	1336	1340	1339	1334	1332	1320	1318	1350	1351	1347	1334	1351	1378	1378	1390	1399	1407	1408	1410	1402	1403	1398	1398	1418	1442	1456	1462	1476	1504	1569	1588	1647	1699	1723	1738	1750	1760	1768	1764	1763	1764	1760	1744	1725	1713	1730	1749	1781	1783	1774	1742	1705	1719	1749	1734	1686	1682	1692	1733	1774	1784	1781	1792	1816	1839	1840	1836	1846	1865	1890	1919	1924	1920	1925	1920	1916	1913	1911	1901	1896	1891	1904	1923	1930	1930	1915	1898	1883	1884	1907	1917	1903	1894	1903	1918	1935	1928	1898	1879	1875	1884	1885	1840	1824	1831	1847	1856	1891	1666	1600	1482	1393	1340	1347	1374	1378	1365	1378	1373	1383	1393	1389	1380	1380	1382	1387	1387	1390	1383	1372	1351	1350	1357	1372	1377	1389	1400	1404	1401	1388	1379	1381	1398	1400	1400	1403	1407	1408	1403	1396	1392	1389	1376	1376	1384	1391	1395	1388	1396	1398	1381	1413	1418	1403	1425	1430	1443	1445	1437	1427	1413	1402	1392	1406	1405	1420	1406	1403	1404	1424	1428	1407	1395	1394	1387	1393	1417	1426	1423	1421	1418	1410	1423	1448	1424	1420	1427	1431	1528	1666	1774	1856	1889	1898	1899	1895	1878	1876	1875	1886	1887	1899	1902	1894	1877	1854	1842	1833	1837	1874	1902	1912	1905	1877	1860	1865	1880	1886	1886	1884	1895	1907	1913	1913	1877	1851	1839	1837	1840	1834	1853	1858	1865	1869	1870	1870	1874	1879	1883	1890	1887	1884	1866	1865	1895	1906	1907	1885	1887	1901	1896	1900	1887	1878	1863	1862	1863	1873	1914	1930	1937	1925	1902	1892	1910	1907	1832	1711	1661	1635	1615	1601	1590	1601	1595	1578	1574	1550	1471	1442	1448	1452	1461	1465	1476	1484	1479	1431	1448	1455	1455	1451	1445	1444	1447	1461	1475	1470	1469	1474	1488	1500	1512	1514	1510	1510	1491	1476	1470	1479	1499	1522	1527	1522	1518	1510	1506	1510	1512	1515	1513	1509	1510	1514	1526	1540	1710	1783	1876	1961	1956	1965	1967	1968	1964	1962	1960	1957	1950	1925	1923	1969	1891	1882	1881	1882	1881	1885	1885	1889	1892	1903	1892	1881	1889	1897	1914	1931	1928	1922	1918	1910	1893	1888	1876	1864	1904	1913	1887	1879	1871	1876	1894	1920	1926	1918	1890	1902	1923	1925	1928	1941	1950	1951	1946	1935	1915	1889	1862	1855	1871	1875	1873	1859	1859	1857	1825	1820	1829	1827	1832	1833	1829	1822	1811	1805	1812	1835	1855	1875	1883	1872	1850	1850	1849	1853	1858	1845	1842	1822	1826	1822	1825	1845	1837	1847	1865	1871	1867	1861	1854	1853	1845	1835	1831	1828	1818	1797	1770	1765	1779	1802	1826	1832	1816	1790	1749	1739	1743	1736	1745	1721	1696	1707	1661	1559	1522	1546	1567	1576	1577	1581	1598	1627	1636	1622	1609	1594	1586	1642	1658	1669	1618	1606	1604	1603	1585	1580	1580	1573	1567	1562	1554	1551	1559	1567	1563	1551	1543	1542	1523	1511	1515	1547	1558	1562	1579	1571	1566	1564	1561	1553	1546	1553	1567	1581	1580	1560	1568	1573	1575	1580	1585	1579	1570	1561	1552	1539	1543	1550	1543	1529	1523	1521	1524	1534	1540	1540	1518	1536	1540	1548	1529	1510	1511	1517	1513	1522	1527	1517	1522	1514	1501	1488	1490	1509	1508	1508	1507	1506	1513	1507	1500	1502	1509	0	0	0	0	0	0	0	0
1908	1889	1889	1871	1813	1746	1628	1628	1525	1409	1267	1252	1261	1261	1271	1272	1279	1283	1282	1282	1287	1294	1296	1300	1300	1300	1300	1306	1312	1314	1305	1290	1290	1280	1290	1300	1312	1319	1319	1321	1321	1316	1310	1312	1318	1322	1315	1310	1302	1309	1306	1309	1306	1302	1299	1303	1312	1319	1326	1331	1330	1319	1319	1305	1312	1320	1330	1329	1332	1338	1338	1337	1319	1321	1351	1358	1356	1357	1371	1381	1387	1387	1383	1379	1378	1382	1387	1395	1397	1400	1417	1445	1451	1449	1455	1498	1574	1597	1644	1703	1728	1745	1758	1775	1778	1772	1766	1770	1765	1751	1734	1727	1736	1777	1787	1781	1775	1752	1696	1711	1745	1744	1738	1708	1707	1732	1772	1808	1832	1835	1860	1849	1837	1844	1852	1871	1888	1903	1904	1873	1866	1874	1881	1894	1884	1882	1867	1860	1873	1893	1904	1896	1878	1854	1820	1816	1829	1824	1833	1832	1851	1876	1894	1889	1862	1841	1852	1864	1868	1835	1801	1796	1803	1798	1791	1618	1555	1456	1389	1345	1333	1360	1348	1340	1370	1381	1401	1405	1398	1387	1373	1374	1376	1382	1397	1397	1381	1366	1364	1368	1373	1367	1389	1401	1403	1389	1376	1377	1378	1382	1403	1401	1403	1403	1403	1396	1382	1373	1374	1381	1389	1394	1400	1387	1385	1404	1402	1373	1387	1411	1404	1419	1431	1433	1430	1433	1431	1448	1398	1383	1387	1403	1404	1402	1417	1447	1441	1439	1405	1398	1385	1378	1386	1413	1421	1418	1420	1421	1422	1440	1476	1441	1432	1431	1439	1499	1650	1750	1834	1886	1897	1882	1864	1856	1849	1840	1845	1858	1870	1868	1848	1835	1823	1816	1814	1824	1856	1874	1883	1871	1847	1821	1821	1839	1845	1844	1841	1846	1836	1844	1844	1830	1823	1814	1808	1794	1777	1784	1820	1844	1834	1831	1831	1835	1841	1845	1832	1831	1826	1820	1798	1812	1824	1837	1833	1824	1807	1814	1843	1837	1832	1827	1832	1840	1848	1854	1869	1880	1887	1875	1866	1868	1834	1770	1694	1647	1605	1585	1566	1578	1587	1596	1588	1579	1558	1468	1430	1449	1455	1457	1467	1471	1472	1471	1422	1437	1449	1453	1452	1448	1444	1443	1446	1451	1456	1463	1474	1488	1496	1499	1505	1507	1507	1502	1485	1476	1481	1483	1495	1509	1511	1512	1508	1504	1507	1513	1516	1517	1511	1504	1508	1524	1542	1685	1729	1872	1916	1900	1916	1930	1941	1940	1928	1922	1907	1892	1873	1858	1854	1855	1852	1853	1855	1856	1869	1874	1864	1854	1850	1838	1829	1838	1858	1869	1887	1899	1881	1854	1844	1850	1858	1842	1835	1837	1839	1840	1856	1853	1846	1850	1866	1866	1854	1862	1876	1889	1883	1874	1867	1900	1911	1888	1879	1852	1816	1810	1836	1845	1846	1840	1825	1769	1772	1783	1792	1797	1801	1820	1827	1821	1803	1790	1774	1772	1791	1826	1857	1876	1875	1853	1822	1802	1793	1793	1786	1792	1801	1809	1805	1800	1782	1801	1841	1857	1841	1826	1809	1808	1819	1810	1800	1802	1803	1806	1801	1780	1760	1767	1777	1808	1828	1806	1745	1742	1747	1743	1734	1719	1701	1676	1705	1680	1614	1580	1556	1582	1601	1589	1576	1601	1616	1628	1602	1610	1605	1598	1584	1572	1569	1578	1578	1579	1580	1579	1580	1576	1571	1562	1541	1543	1545	1554	1561	1557	1548	1537	1536	1524	1513	1510	1511	1511	1513	1530	1535	1526	1522	1524	1525	1532	1518	1509	1504	1499	1500	1494	1489	1484	1481	1482	1492	1491	1483	1484	1495	1500	1501	1499	1482	1447	1427	1424	1439	1462	1462	1485	1491	1485	1480	1463	1456	1491	1504	1493	1467	1462	1471	1497	1491	1477	1462	1458	1498	1489	1489	1486	1488	1489	1481	1473	1474	1482	0	0	0	0	0	0	0	0
1849	1830	1830	1821	1774	1698	1605	1605	1513	1448	1286	1251	1249	1249	1265	1262	1270	1277	1287	1287	1287	1290	1301	1310	1311	1311	1309	1299	1299	1309	1302	1300	1297	1297	1300	1301	1307	1315	1320	1317	1311	1311	1306	1306	1315	1310	1296	1301	1303	1306	1308	1305	1298	1301	1304	1310	1320	1321	1321	1326	1328	1325	1325	1315	1323	1325	1322	1328	1337	1342	1341	1333	1316	1323	1341	1349	1357	1383	1392	1394	1390	1390	1381	1365	1364	1374	1383	1396	1409	1403	1408	1437	1451	1451	1467	1498	1583	1612	1665	1700	1726	1746	1763	1780	1786	1782	1775	1776	1765	1759	1744	1756	1776	1787	1772	1766	1776	1765	1711	1713	1726	1734	1748	1745	1732	1739	1797	1828	1863	1881	1876	1855	1844	1847	1854	1855	1863	1851	1838	1826	1820	1840	1856	1864	1867	1852	1853	1851	1854	1854	1839	1819	1808	1808	1789	1775	1771	1797	1803	1808	1805	1819	1834	1833	1808	1796	1800	1830	1831	1801	1755	1755	1751	1754	1742	1622	1564	1459	1381	1340	1337	1361	1345	1326	1367	1393	1408	1408	1397	1378	1370	1373	1375	1376	1386	1383	1379	1376	1374	1378	1388	1381	1391	1401	1399	1393	1385	1384	1386	1390	1386	1391	1398	1397	1396	1394	1382	1376	1368	1380	1387	1401	1414	1429	1440	1422	1393	1384	1373	1397	1399	1418	1424	1418	1423	1426	1425	1425	1444	1381	1380	1392	1397	1401	1439	1444	1400	1396	1390	1373	1381	1390	1392	1412	1416	1417	1418	1436	1418	1413	1411	1413	1428	1451	1465	1520	1573	1716	1787	1809	1847	1854	1846	1824	1815	1814	1817	1828	1835	1820	1792	1769	1770	1790	1780	1775	1782	1796	1810	1800	1772	1783	1775	1769	1769	1776	1783	1793	1790	1788	1788	1795	1774	1773	1771	1765	1750	1740	1738	1753	1762	1779	1785	1791	1802	1797	1791	1798	1799	1780	1743	1726	1727	1750	1769	1786	1787	1787	1762	1750	1757	1768	1787	1800	1801	1802	1830	1853	1862	1848	1838	1841	1800	1756	1703	1614	1572	1557	1551	1576	1598	1593	1588	1582	1574	1476	1418	1442	1458	1454	1472	1463	1459	1458	1428	1439	1450	1452	1454	1443	1440	1441	1442	1461	1461	1465	1476	1484	1485	1491	1487	1489	1506	1508	1503	1491	1487	1496	1504	1511	1512	1511	1505	1504	1530	1531	1533	1524	1513	1501	1502	1520	1566	1671	1700	1851	1882	1844	1850	1894	1916	1925	1913	1894	1873	1838	1834	1842	1826	1814	1801	1803	1809	1835	1848	1845	1831	1820	1812	1821	1826	1823	1822	1826	1830	1849	1840	1827	1824	1826	1824	1824	1821	1823	1804	1804	1817	1823	1826	1824	1834	1831	1811	1807	1812	1841	1855	1848	1842	1849	1829	1811	1806	1790	1766	1780	1809	1822	1774	1757	1749	1749	1753	1754	1754	1740	1730	1738	1749	1761	1762	1761	1748	1746	1753	1754	1750	1765	1777	1780	1777	1753	1718	1726	1721	1733	1758	1778	1781	1773	1757	1757	1764	1771	1756	1746	1744	1764	1802	1813	1811	1795	1778	1766	1766	1755	1731	1721	1728	1731	1730	1713	1707	1727	1741	1745	1731	1712	1698	1678	1693	1703	1682	1619	1614	1626	1639	1616	1604	1601	1592	1578	1607	1610	1607	1593	1584	1578	1576	1575	1575	1576	1575	1581	1579	1570	1567	1561	1540	1543	1544	1553	1555	1550	1540	1535	1533	1522	1518	1519	1517	1517	1517	1520	1527	1520	1514	1514	1513	1516	1501	1480	1472	1457	1452	1473	1474	1471	1466	1466	1480	1474	1468	1460	1464	1489	1491	1493	1481	1444	1421	1417	1423	1423	1429	1451	1459	1452	1444	1431	1419	1422	1423	1426	1423	1419	1421	1431	1443	1442	1435	1431	1425	1423	1423	1417	1421	1427	1430	1425	1428	1445	0	0	0	0	0	0	0	0
1812	1799	1799	1762	1706	1637	1576	1512	1512	1449	1308	1256	1244	1244	1255	1248	1259	1268	1279	1279	1282	1286	1301	1312	1311	1303	1303	1300	1296	1303	1304	1311	1309	1309	1306	1299	1301	1310	1316	1316	1309	1309	1303	1303	1305	1303	1301	1304	1304	1311	1304	1304	1303	1308	1326	1330	1331	1318	1321	1318	1319	1319	1320	1320	1331	1329	1327	1329	1351	1351	1345	1328	1316	1326	1334	1335	1362	1397	1407	1405	1397	1383	1383	1371	1376	1376	1401	1415	1409	1401	1408	1438	1460	1470	1496	1567	1600	1638	1673	1691	1714	1744	1758	1769	1782	1781	1776	1763	1760	1752	1756	1773	1780	1771	1761	1766	1787	1786	1751	1708	1722	1744	1723	1708	1701	1716	1758	1785	1846	1830	1841	1855	1859	1849	1834	1826	1818	1815	1801	1784	1779	1790	1805	1802	1788	1799	1808	1828	1839	1814	1795	1782	1765	1752	1731	1712	1710	1735	1772	1781	1772	1757	1751	1752	1760	1766	1746	1763	1790	1768	1720	1722	1718	1733	1721	1603	1548	1457	1382	1350	1353	1371	1342	1328	1343	1390	1401	1397	1388	1367	1369	1375	1376	1372	1377	1383	1379	1379	1382	1385	1400	1392	1381	1386	1394	1390	1387	1387	1393	1396	1398	1401	1395	1399	1397	1405	1396	1384	1377	1375	1390	1407	1420	1437	1446	1441	1415	1389	1386	1423	1426	1398	1408	1390	1408	1409	1422	1417	1412	1396	1387	1393	1402	1411	1418	1402	1395	1412	1400	1388	1377	1391	1400	1417	1430	1422	1435	1423	1420	1401	1404	1413	1424	1446	1466	1535	1591	1641	1708	1753	1762	1777	1783	1770	1747	1733	1735	1750	1739	1720	1714	1716	1711	1734	1757	1762	1757	1747	1734	1690	1670	1694	1696	1700	1710	1724	1715	1719	1725	1728	1746	1748	1732	1715	1727	1731	1728	1722	1721	1722	1717	1720	1733	1753	1751	1743	1761	1773	1760	1733	1702	1678	1672	1688	1710	1727	1740	1737	1740	1723	1709	1710	1721	1743	1750	1744	1779	1804	1814	1772	1775	1785	1768	1728	1723	1661	1609	1564	1566	1580	1586	1577	1579	1576	1553	1475	1419	1443	1451	1468	1479	1453	1446	1431	1436	1439	1450	1452	1452	1452	1445	1442	1446	1460	1465	1469	1477	1482	1477	1482	1490	1508	1524	1521	1512	1503	1500	1501	1514	1520	1516	1504	1499	1507	1541	1546	1542	1529	1517	1507	1499	1524	1583	1659	1682	1833	1837	1815	1800	1802	1877	1907	1891	1809	1811	1815	1803	1796	1785	1766	1752	1739	1738	1767	1803	1797	1782	1782	1780	1788	1792	1780	1800	1796	1802	1797	1800	1805	1800	1791	1786	1788	1803	1803	1787	1764	1768	1778	1789	1794	1802	1808	1790	1778	1776	1801	1828	1828	1811	1792	1766	1757	1750	1739	1735	1759	1722	1714	1708	1699	1699	1696	1701	1717	1730	1735	1703	1704	1709	1705	1699	1712	1719	1737	1732	1703	1697	1706	1726	1735	1730	1709	1698	1696	1691	1694	1711	1723	1723	1721	1720	1724	1729	1717	1695	1672	1674	1698	1743	1764	1767	1758	1749	1732	1707	1689	1674	1660	1665	1664	1670	1677	1675	1685	1681	1679	1669	1668	1667	1662	1660	1660	1642	1627	1620	1624	1632	1637	1636	1634	1584	1578	1586	1602	1605	1595	1586	1582	1578	1580	1573	1571	1569	1573	1569	1562	1553	1548	1540	1542	1542	1546	1544	1545	1536	1525	1521	1519	1518	1524	1524	1520	1518	1513	1515	1519	1513	1514	1513	1508	1498	1480	1462	1447	1443	1443	1443	1442	1431	1432	1424	1423	1430	1428	1419	1411	1409	1414	1418	1410	1405	1398	1395	1395	1399	1408	1410	1401	1392	1374	1372	1366	1361	1350	1343	1345	1350	1356	1368	1368	1367	1363	1359	1359	1357	1347	1342	1347	1341	1330	1324	1316	0	0	0	0	0	0	0	0
1735	1740	1725	1725	1679	1616	1555	1500	1500	1448	1328	1260	1243	1243	1242	1248	1260	1262	1264	1264	1273	1277	1292	1307	1307	1297	1297	1296	1300	1298	1300	1303	1306	1306	1306	1298	1299	1307	1317	1321	1314	1314	1306	1297	1299	1296	1299	1304	1306	1309	1303	1303	1304	1319	1336	1347	1343	1326	1321	1318	1315	1315	1321	1321	1334	1332	1335	1347	1348	1353	1348	1329	1323	1324	1328	1321	1348	1378	1395	1406	1400	1393	1393	1389	1376	1393	1407	1424	1414	1398	1410	1430	1465	1504	1551	1573	1605	1645	1664	1685	1711	1731	1742	1746	1745	1734	1730	1734	1733	1743	1748	1758	1752	1728	1716	1729	1733	1731	1705	1687	1668	1655	1648	1659	1682	1685	1678	1694	1704	1712	1724	1732	1750	1736	1707	1681	1673	1680	1762	1733	1731	1738	1737	1732	1741	1760	1781	1799	1801	1771	1757	1754	1752	1744	1720	1695	1675	1677	1701	1721	1721	1721	1728	1739	1735	1723	1709	1722	1722	1736	1691	1689	1695	1702	1692	1533	1489	1439	1376	1360	1367	1371	1336	1321	1337	1378	1393	1389	1368	1365	1368	1371	1374	1375	1374	1376	1372	1372	1376	1388	1408	1396	1386	1370	1380	1387	1383	1390	1395	1396	1395	1399	1405	1411	1411	1412	1400	1388	1376	1377	1391	1410	1416	1427	1431	1445	1413	1396	1399	1419	1428	1412	1407	1387	1392	1380	1379	1383	1387	1403	1400	1406	1404	1405	1396	1404	1410	1424	1426	1405	1392	1399	1410	1419	1425	1433	1432	1426	1421	1390	1401	1415	1427	1437	1468	1532	1581	1630	1665	1671	1688	1688	1676	1678	1687	1712	1721	1715	1692	1663	1649	1648	1673	1696	1717	1751	1747	1722	1682	1654	1654	1655	1653	1650	1645	1646	1665	1681	1691	1692	1685	1691	1684	1690	1695	1700	1701	1679	1690	1696	1704	1699	1686	1669	1674	1701	1716	1727	1717	1694	1665	1641	1647	1674	1690	1704	1705	1700	1693	1686	1666	1666	1672	1670	1665	1663	1675	1685	1710	1707	1704	1695	1719	1710	1684	1672	1657	1645	1588	1564	1557	1561	1565	1550	1535	1461	1425	1449	1462	1468	1487	1446	1440	1429	1438	1442	1449	1455	1456	1460	1459	1453	1457	1463	1460	1460	1470	1474	1482	1486	1502	1516	1524	1524	1513	1506	1507	1511	1519	1521	1520	1512	1498	1511	1541	1555	1552	1543	1533	1518	1512	1543	1592	1626	1654	1786	1795	1786	1782	1778	1725	1718	1720	1716	1737	1752	1770	1763	1753	1739	1726	1719	1717	1714	1725	1738	1736	1747	1748	1749	1750	1731	1718	1736	1749	1768	1758	1755	1733	1727	1733	1743	1756	1758	1747	1727	1728	1735	1730	1730	1740	1734	1737	1730	1731	1724	1753	1761	1753	1755	1749	1728	1715	1715	1697	1685	1693	1688	1692	1689	1680	1675	1681	1694	1711	1715	1690	1673	1670	1675	1670	1671	1687	1709	1708	1688	1684	1687	1699	1714	1712	1707	1700	1679	1660	1670	1683	1693	1675	1674	1686	1690	1681	1650	1648	1636	1635	1649	1678	1698	1711	1705	1684	1664	1641	1637	1639	1639	1634	1631	1634	1631	1622	1621	1622	1588	1584	1590	1589	1586	1596	1611	1622	1611	1598	1583	1580	1598	1616	1612	1559	1553	1545	1541	1555	1564	1572	1582	1584	1576	1553	1552	1558	1561	1560	1550	1542	1535	1528	1519	1515	1529	1533	1534	1528	1507	1502	1507	1504	1513	1508	1512	1511	1503	1496	1497	1499	1500	1494	1481	1470	1457	1439	1435	1436	1438	1439	1438	1432	1434	1453	1458	1459	1429	1424	1414	1375	1372	1371	1372	1374	1369	1369	1376	1389	1400	1407	1401	1391	1378	1370	1366	1361	1351	1345	1342	1338	1332	1331	1343	1354	1346	1338	1338	1329	1320	1309	1301	1303	1301	1305	1304	0	0	0	0	0	0	0	0
1685	1700	1691	1691	1650	1587	1532	1480	1480	1397	1330	1294	1248	1248	1246	1259	1262	1275	1275	1275	1274	1287	1303	1304	1301	1288	1288	1287	1297	1295	1295	1296	1299	1299	1300	1301	1298	1317	1339	1343	1326	1326	1310	1299	1287	1289	1295	1303	1309	1301	1297	1297	1304	1315	1333	1344	1344	1341	1330	1327	1322	1317	1324	1324	1335	1336	1340	1349	1343	1343	1342	1336	1333	1330	1320	1313	1314	1350	1372	1388	1392	1405	1405	1399	1385	1383	1404	1415	1414	1401	1406	1425	1462	1502	1536	1569	1612	1648	1656	1657	1668	1678	1677	1679	1690	1696	1696	1669	1662	1662	1675	1679	1673	1685	1694	1688	1680	1669	1667	1665	1663	1663	1666	1662	1653	1648	1648	1659	1681	1685	1693	1699	1697	1663	1656	1645	1639	1640	1650	1656	1646	1654	1674	1670	1669	1653	1713	1731	1712	1689	1691	1705	1726	1714	1700	1682	1668	1667	1681	1674	1671	1671	1678	1667	1665	1655	1650	1679	1684	1685	1665	1674	1676	1675	1660	1526	1451	1408	1373	1368	1371	1366	1342	1331	1360	1382	1410	1385	1370	1362	1360	1362	1367	1370	1371	1370	1371	1378	1384	1411	1409	1396	1384	1370	1378	1382	1387	1387	1393	1395	1394	1391	1403	1406	1408	1406	1400	1381	1376	1377	1391	1400	1411	1414	1414	1422	1417	1406	1401	1415	1416	1405	1387	1398	1391	1391	1390	1387	1387	1390	1405	1414	1424	1423	1409	1408	1410	1415	1425	1419	1404	1398	1419	1433	1436	1433	1427	1430	1386	1399	1409	1419	1417	1421	1454	1524	1560	1602	1627	1642	1649	1646	1654	1646	1666	1681	1689	1696	1674	1646	1624	1638	1655	1665	1670	1674	1672	1662	1652	1643	1639	1640	1638	1635	1629	1630	1644	1668	1680	1669	1633	1620	1620	1627	1623	1622	1626	1634	1642	1640	1643	1650	1649	1638	1636	1639	1648	1660	1672	1667	1633	1609	1623	1647	1665	1672	1669	1660	1659	1654	1661	1661	1648	1638	1624	1618	1618	1632	1648	1651	1647	1622	1630	1650	1669	1654	1611	1611	1602	1574	1561	1539	1512	1512	1466	1440	1428	1451	1454	1462	1482	1438	1441	1438	1454	1454	1460	1459	1462	1467	1471	1463	1464	1466	1464	1459	1466	1487	1497	1504	1500	1503	1512	1513	1510	1507	1506	1515	1522	1527	1517	1514	1513	1523	1537	1541	1541	1539	1535	1532	1526	1551	1576	1599	1637	1743	1751	1760	1652	1670	1690	1695	1692	1679	1690	1710	1733	1723	1707	1695	1689	1694	1704	1703	1705	1701	1702	1714	1710	1715	1713	1692	1678	1682	1695	1735	1712	1696	1704	1712	1708	1716	1719	1710	1704	1706	1704	1698	1677	1675	1681	1685	1692	1686	1676	1670	1677	1686	1705	1725	1719	1706	1686	1681	1668	1661	1672	1680	1680	1676	1669	1662	1658	1667	1680	1680	1671	1658	1650	1637	1632	1630	1644	1666	1673	1670	1648	1644	1651	1659	1680	1697	1689	1669	1644	1634	1633	1649	1653	1629	1607	1617	1621	1620	1624	1623	1630	1637	1639	1639	1633	1629	1620	1606	1600	1596	1603	1606	1609	1608	1606	1550	1572	1568	1560	1548	1531	1516	1517	1522	1518	1527	1537	1548	1551	1540	1533	1528	1528	1531	1534	1536	1531	1516	1523	1526	1527	1529	1526	1526	1510	1514	1527	1539	1544	1540	1529	1517	1511	1508	1506	1507	1518	1519	1518	1497	1489	1494	1502	1500	1495	1497	1496	1487	1475	1474	1478	1481	1477	1464	1459	1453	1445	1439	1432	1434	1438	1442	1432	1430	1432	1436	1440	1436	1418	1418	1382	1375	1373	1377	1377	1374	1374	1372	1385	1400	1410	1407	1392	1379	1370	1369	1372	1354	1336	1328	1320	1309	1338	1349	1346	1337	1330	1330	1325	1319	1312	1302	1294	1295	1299	1302	0	0	0	0	0	0	0	0
1653	1651	1652	1652	1625	1573	1511	1458	1458	1393	1325	1298	1262	1260	1260	1284	1291	1293	1295	1296	1296	1303	1309	1301	1296	1288	1288	1288	1297	1297	1295	1293	1295	1295	1303	1303	1307	1320	1337	1346	1333	1317	1317	1301	1284	1278	1287	1305	1308	1304	1307	1307	1310	1319	1330	1334	1340	1340	1335	1329	1327	1318	1328	1334	1334	1332	1339	1338	1327	1324	1336	1345	1351	1340	1317	1297	1307	1331	1350	1368	1379	1386	1390	1390	1383	1376	1379	1394	1408	1413	1406	1422	1456	1495	1522	1565	1615	1621	1618	1614	1630	1636	1620	1615	1609	1618	1638	1638	1639	1639	1639	1651	1666	1672	1675	1660	1638	1637	1644	1648	1652	1644	1637	1617	1579	1567	1579	1604	1636	1643	1662	1661	1641	1628	1628	1631	1624	1624	1621	1620	1609	1612	1633	1644	1635	1620	1591	1592	1604	1622	1621	1624	1664	1688	1666	1659	1655	1648	1643	1637	1646	1639	1645	1626	1609	1595	1590	1610	1630	1643	1672	1661	1649	1641	1639	1521	1424	1397	1372	1360	1362	1356	1351	1357	1372	1391	1401	1382	1368	1356	1352	1352	1358	1364	1365	1367	1375	1383	1398	1396	1379	1375	1374	1381	1392	1395	1388	1387	1391	1385	1381	1390	1398	1393	1398	1403	1398	1389	1381	1379	1380	1398	1400	1396	1389	1395	1399	1394	1393	1401	1408	1390	1389	1398	1407	1410	1405	1397	1391	1390	1398	1401	1412	1413	1405	1396	1395	1404	1417	1431	1425	1410	1420	1419	1420	1404	1411	1414	1407	1397	1401	1410	1411	1397	1395	1490	1530	1562	1595	1624	1634	1632	1618	1609	1644	1651	1658	1661	1651	1626	1618	1630	1634	1638	1635	1632	1625	1625	1625	1617	1614	1624	1625	1623	1615	1616	1626	1647	1647	1631	1610	1589	1580	1572	1578	1583	1594	1598	1602	1596	1603	1610	1622	1625	1613	1603	1608	1614	1605	1582	1592	1582	1598	1622	1639	1647	1643	1638	1640	1636	1643	1644	1637	1615	1594	1590	1596	1611	1606	1599	1598	1601	1604	1622	1636	1635	1632	1637	1615	1596	1546	1518	1505	1488	1440	1433	1443	1445	1442	1458	1460	1442	1443	1445	1466	1462	1464	1467	1465	1469	1471	1469	1475	1479	1473	1465	1464	1484	1486	1492	1491	1492	1493	1500	1508	1507	1508	1516	1529	1530	1525	1524	1527	1541	1541	1541	1537	1539	1537	1541	1543	1562	1575	1582	1658	1688	1620	1637	1641	1648	1665	1672	1673	1657	1666	1691	1696	1689	1690	1690	1699	1697	1692	1694	1697	1695	1676	1669	1660	1669	1677	1664	1658	1664	1673	1683	1671	1667	1683	1686	1688	1689	1689	1684	1680	1672	1665	1653	1636	1640	1648	1648	1662	1663	1650	1644	1637	1632	1670	1697	1636	1631	1619	1606	1603	1626	1648	1654	1661	1665	1663	1644	1633	1625	1634	1656	1656	1638	1624	1608	1608	1615	1633	1641	1639	1630	1623	1619	1622	1630	1634	1610	1615	1623	1623	1611	1610	1612	1608	1592	1579	1574	1580	1588	1596	1602	1614	1625	1620	1607	1605	1590	1586	1579	1565	1551	1553	1538	1539	1531	1515	1530	1550	1538	1532	1524	1520	1510	1503	1507	1514	1521	1518	1515	1521	1522	1509	1488	1475	1503	1504	1495	1500	1504	1506	1514	1517	1507	1492	1467	1459	1466	1472	1478	1487	1508	1514	1507	1499	1490	1484	1481	1477	1459	1454	1464	1473	1479	1487	1483	1480	1480	1474	1468	1454	1450	1451	1463	1469	1464	1461	1456	1450	1441	1424	1425	1432	1441	1438	1426	1424	1427	1422	1417	1402	1391	1389	1389	1389	1392	1389	1389	1382	1376	1373	1387	1403	1400	1365	1354	1348	1370	1372	1351	1331	1326	1315	1311	1339	1344	1346	1339	1339	1333	1329	1323	1315	1303	1299	1282	1290	1300	0	0	0	0	0	0	0	0
1621	1609	1602	1602	1591	1557	1495	1445	1445	1396	1308	1280	1286	1279	1279	1288	1301	1305	1306	1309	1309	1307	1300	1295	1289	1284	1284	1291	1299	1301	1302	1297	1298	1288	1288	1286	1294	1314	1329	1337	1325	1312	1312	1300	1291	1285	1295	1309	1310	1314	1318	1323	1323	1325	1324	1327	1334	1335	1340	1331	1320	1327	1332	1329	1329	1331	1334	1324	1305	1306	1332	1357	1364	1349	1325	1300	1306	1327	1345	1361	1373	1382	1389	1389	1380	1377	1377	1382	1404	1419	1418	1430	1453	1482	1499	1541	1584	1588	1561	1585	1601	1604	1601	1596	1600	1596	1604	1611	1619	1609	1606	1621	1646	1658	1648	1626	1609	1607	1620	1627	1626	1599	1582	1564	1542	1544	1559	1579	1602	1603	1600	1592	1596	1603	1607	1607	1610	1606	1592	1578	1565	1566	1587	1607	1605	1583	1573	1578	1585	1597	1599	1599	1618	1622	1617	1598	1576	1573	1591	1596	1599	1603	1606	1607	1596	1581	1567	1587	1598	1610	1595	1601	1587	1593	1604	1508	1427	1402	1364	1345	1335	1347	1353	1363	1369	1387	1395	1363	1357	1343	1343	1345	1351	1353	1355	1365	1379	1379	1377	1371	1365	1361	1362	1369	1402	1403	1391	1379	1375	1377	1377	1390	1386	1385	1392	1398	1404	1400	1391	1394	1397	1400	1399	1392	1383	1381	1385	1381	1377	1383	1392	1392	1393	1405	1411	1407	1406	1404	1398	1391	1384	1407	1412	1407	1405	1385	1384	1395	1409	1419	1423	1418	1417	1415	1414	1409	1407	1402	1404	1402	1389	1379	1393	1389	1389	1472	1495	1542	1574	1607	1610	1594	1584	1553	1519	1514	1522	1577	1580	1571	1571	1589	1609	1605	1598	1586	1597	1611	1618	1607	1596	1595	1594	1588	1578	1597	1615	1594	1579	1580	1581	1575	1568	1557	1573	1578	1582	1577	1572	1557	1553	1562	1577	1584	1580	1573	1583	1578	1564	1549	1546	1546	1528	1526	1543	1553	1567	1575	1581	1581	1576	1577	1575	1575	1578	1573	1564	1555	1542	1531	1541	1553	1556	1560	1565	1566	1584	1583	1564	1553	1537	1527	1556	1538	1466	1455	1452	1435	1448	1449	1452	1433	1440	1447	1456	1464	1467	1473	1470	1465	1456	1468	1481	1487	1484	1471	1448	1458	1467	1479	1481	1485	1497	1498	1515	1523	1507	1511	1526	1539	1542	1543	1548	1542	1550	1552	1553	1547	1547	1553	1562	1577	1598	1601	1591	1590	1604	1617	1630	1637	1650	1664	1646	1644	1639	1657	1663	1666	1669	1684	1687	1689	1687	1676	1679	1663	1635	1612	1603	1612	1614	1626	1633	1629	1634	1637	1610	1609	1629	1638	1645	1663	1654	1665	1654	1637	1622	1614	1616	1621	1627	1631	1627	1638	1627	1627	1598	1573	1575	1581	1578	1571	1571	1572	1571	1592	1600	1601	1608	1624	1634	1623	1614	1603	1596	1588	1589	1586	1572	1566	1573	1580	1588	1598	1606	1603	1596	1594	1599	1604	1569	1559	1573	1592	1599	1593	1593	1576	1565	1556	1550	1550	1553	1561	1561	1569	1573	1571	1570	1574	1578	1579	1568	1527	1526	1520	1525	1517	1517	1507	1502	1525	1532	1524	1517	1512	1505	1497	1498	1510	1516	1508	1498	1488	1481	1486	1484	1475	1463	1466	1456	1462	1478	1492	1494	1495	1490	1476	1461	1430	1425	1437	1449	1456	1464	1465	1459	1455	1463	1465	1463	1454	1419	1408	1413	1438	1443	1441	1442	1439	1444	1451	1442	1422	1410	1402	1409	1417	1428	1439	1452	1452	1432	1412	1402	1402	1410	1411	1409	1390	1378	1371	1372	1380	1378	1371	1380	1386	1397	1394	1382	1382	1373	1365	1363	1362	1354	1344	1336	1338	1341	1353	1356	1340	1325	1308	1301	1314	1319	1324	1337	1345	1345	1345	1337	1332	1318	1308	1287	1270	1279	1288	0	0	0	0	0	0	0	0
1590	1583	1571	1571	1563	1544	1489	1432	1379	1379	1299	1279	1304	1293	1293	1281	1293	1303	1308	1309	1309	1302	1284	1278	1291	1312	1312	1312	1310	1310	1306	1296	1282	1276	1276	1279	1291	1306	1317	1318	1310	1304	1304	1299	1301	1301	1318	1319	1317	1310	1326	1335	1335	1331	1322	1320	1324	1332	1332	1326	1313	1329	1332	1328	1328	1324	1325	1316	1296	1300	1331	1358	1362	1349	1338	1311	1324	1337	1346	1362	1373	1379	1386	1384	1384	1382	1377	1382	1411	1430	1435	1443	1464	1481	1496	1517	1527	1525	1538	1561	1577	1583	1595	1594	1589	1573	1567	1557	1565	1578	1589	1596	1601	1609	1563	1547	1543	1556	1566	1579	1566	1558	1547	1539	1532	1534	1544	1544	1567	1571	1570	1569	1580	1585	1586	1597	1596	1585	1573	1559	1552	1553	1558	1573	1581	1572	1564	1568	1569	1575	1579	1575	1579	1596	1590	1570	1551	1547	1552	1552	1550	1509	1568	1544	1552	1547	1556	1550	1536	1542	1559	1558	1548	1546	1547	1475	1418	1397	1354	1334	1325	1336	1349	1356	1358	1374	1376	1356	1345	1344	1345	1349	1346	1349	1354	1362	1374	1376	1366	1360	1355	1354	1360	1368	1401	1399	1385	1367	1358	1369	1380	1385	1382	1379	1385	1391	1397	1399	1404	1407	1408	1419	1403	1393	1388	1389	1388	1385	1379	1378	1382	1385	1395	1405	1399	1398	1407	1412	1397	1384	1388	1416	1411	1403	1383	1384	1391	1415	1433	1426	1394	1388	1415	1411	1411	1408	1408	1400	1406	1402	1385	1377	1385	1378	1383	1410	1483	1540	1548	1553	1538	1517	1510	1507	1489	1481	1475	1486	1509	1516	1547	1567	1577	1567	1543	1540	1546	1568	1589	1577	1560	1532	1530	1535	1543	1533	1531	1528	1537	1547	1564	1550	1547	1539	1535	1521	1512	1523	1521	1518	1511	1519	1530	1546	1553	1561	1555	1551	1544	1541	1537	1520	1506	1487	1474	1466	1472	1488	1506	1514	1510	1503	1502	1515	1531	1538	1532	1512	1510	1499	1510	1519	1523	1518	1515	1533	1538	1522	1520	1526	1543	1550	1539	1498	1441	1444	1449	1458	1455	1468	1455	1449	1441	1446	1453	1466	1477	1487	1485	1459	1457	1465	1483	1499	1496	1473	1445	1454	1461	1468	1473	1486	1496	1511	1532	1523	1515	1519	1537	1550	1559	1564	1560	1542	1549	1552	1560	1553	1556	1573	1598	1602	1601	1593	1589	1585	1588	1606	1627	1638	1638	1637	1632	1613	1615	1621	1629	1635	1643	1660	1680	1671	1651	1655	1643	1633	1615	1603	1589	1583	1583	1584	1571	1561	1564	1570	1573	1573	1584	1588	1587	1604	1623	1627	1624	1623	1610	1602	1603	1610	1613	1615	1615	1607	1600	1529	1535	1540	1523	1516	1528	1535	1540	1537	1537	1544	1538	1535	1540	1558	1573	1572	1555	1531	1508	1514	1529	1537	1542	1523	1514	1517	1527	1533	1552	1565	1571	1571	1577	1576	1531	1522	1531	1552	1557	1552	1548	1521	1521	1529	1525	1521	1528	1533	1532	1552	1543	1543	1530	1520	1497	1497	1485	1466	1464	1459	1475	1477	1468	1467	1466	1484	1483	1478	1497	1484	1478	1477	1482	1488	1477	1460	1452	1455	1461	1463	1457	1455	1453	1452	1441	1446	1452	1454	1460	1446	1436	1424	1416	1408	1404	1414	1425	1432	1442	1437	1407	1412	1428	1435	1428	1412	1395	1381	1373	1377	1389	1397	1405	1422	1428	1432	1406	1378	1381	1408	1416	1413	1409	1407	1411	1407	1395	1375	1365	1379	1392	1397	1391	1376	1367	1359	1349	1340	1334	1348	1362	1369	1364	1367	1367	1362	1367	1365	1360	1351	1340	1333	1332	1332	1333	1346	1341	1334	1324	1317	1317	1320	1309	1308	1316	1306	1306	1298	1300	1307	1303	1285	1277	1277	1269	1255	0	0	0	0	0	0	0	0
1562	1553	1542	1537	1537	1529	1493	1432	1376	1376	1307	1278	1302	1290	1290	1281	1279	1283	1294	1298	1298	1292	1282	1283	1298	1305	1314	1314	1305	1304	1303	1302	1298	1288	1288	1277	1284	1295	1307	1307	1299	1298	1298	1304	1308	1314	1329	1326	1307	1308	1319	1329	1329	1326	1321	1318	1320	1322	1322	1314	1322	1337	1336	1324	1317	1317	1318	1309	1294	1296	1334	1352	1357	1345	1344	1322	1325	1340	1351	1363	1363	1368	1370	1373	1373	1382	1385	1394	1415	1434	1439	1458	1476	1482	1489	1492	1499	1498	1509	1524	1542	1550	1565	1571	1565	1549	1529	1529	1549	1559	1562	1562	1558	1558	1537	1518	1519	1525	1535	1539	1536	1530	1523	1517	1522	1529	1517	1520	1527	1528	1537	1542	1550	1558	1559	1547	1544	1535	1543	1540	1541	1545	1553	1557	1559	1552	1548	1549	1546	1558	1561	1547	1547	1563	1562	1544	1527	1517	1522	1521	1516	1485	1478	1474	1476	1474	1508	1502	1505	1514	1529	1548	1539	1519	1498	1442	1405	1386	1353	1336	1337	1336	1343	1343	1346	1361	1365	1361	1354	1361	1360	1360	1352	1345	1351	1357	1367	1373	1365	1361	1361	1354	1352	1366	1393	1387	1377	1363	1361	1369	1375	1380	1379	1371	1375	1384	1392	1394	1409	1418	1412	1403	1405	1408	1407	1392	1393	1393	1386	1383	1375	1369	1378	1394	1398	1401	1403	1409	1398	1380	1431	1448	1406	1378	1372	1375	1386	1393	1425	1421	1416	1397	1392	1395	1401	1404	1403	1408	1420	1402	1407	1402	1393	1390	1381	1396	1479	1453	1455	1478	1495	1494	1496	1487	1471	1451	1440	1441	1466	1486	1504	1515	1530	1526	1504	1495	1508	1524	1517	1506	1493	1475	1480	1487	1483	1475	1474	1481	1486	1500	1519	1505	1516	1513	1520	1495	1485	1482	1484	1484	1486	1487	1500	1520	1531	1529	1515	1496	1497	1505	1494	1481	1471	1462	1453	1451	1460	1476	1479	1482	1477	1474	1478	1497	1513	1516	1503	1490	1485	1502	1531	1529	1518	1511	1504	1509	1511	1506	1501	1515	1538	1538	1518	1495	1470	1469	1472	1470	1472	1469	1459	1456	1453	1451	1459	1473	1481	1489	1479	1450	1448	1464	1481	1490	1494	1495	1477	1464	1448	1453	1456	1465	1504	1526	1533	1529	1523	1524	1535	1548	1556	1553	1550	1546	1539	1537	1546	1555	1547	1571	1577	1590	1595	1601	1594	1590	1580	1584	1589	1601	1598	1585	1582	1586	1589	1577	1573	1575	1582	1582	1588	1584	1595	1601	1602	1604	1598	1590	1578	1569	1559	1549	1539	1531	1537	1547	1542	1544	1527	1511	1517	1530	1546	1566	1575	1582	1574	1568	1573	1561	1550	1536	1528	1494	1499	1506	1526	1514	1494	1480	1481	1490	1496	1476	1474	1480	1469	1460	1461	1470	1484	1495	1496	1489	1495	1496	1492	1501	1504	1507	1496	1488	1505	1504	1500	1491	1496	1507	1516	1521	1510	1495	1483	1482	1487	1505	1501	1487	1488	1493	1492	1485	1478	1478	1482	1480	1492	1456	1447	1463	1467	1463	1454	1443	1434	1412	1427	1438	1447	1446	1444	1419	1412	1413	1453	1460	1461	1458	1451	1433	1433	1438	1437	1440	1439	1424	1422	1422	1423	1414	1412	1416	1424	1426	1400	1368	1366	1372	1382	1381	1389	1399	1405	1397	1393	1396	1394	1393	1399	1405	1412	1410	1398	1377	1363	1346	1360	1375	1385	1393	1390	1380	1371	1366	1361	1360	1400	1400	1390	1389	1390	1389	1372	1351	1342	1355	1368	1377	1371	1363	1344	1337	1334	1330	1334	1344	1353	1347	1336	1331	1331	1332	1336	1338	1352	1341	1325	1323	1327	1332	1340	1351	1342	1339	1324	1320	1318	1318	1313	1305	1309	1309	1305	1295	1296	1299	1299	1281	1269	1263	1258	1256	0	0	0	0	0	0	0	0
1538	1528	1512	1506	1506	1501	1473	1428	1368	1368	1317	1275	1283	1281	1275	1275	1262	1269	1278	1295	1294	1294	1286	1278	1287	1298	1305	1305	1309	1302	1308	1312	1307	1296	1296	1290	1284	1294	1300	1305	1303	1308	1314	1314	1317	1328	1325	1319	1311	1311	1315	1322	1322	1319	1314	1314	1318	1316	1315	1320	1334	1346	1338	1322	1312	1312	1308	1311	1308	1345	1352	1357	1352	1350	1355	1351	1339	1346	1355	1356	1353	1354	1354	1358	1367	1367	1371	1389	1415	1428	1406	1401	1420	1452	1462	1472	1478	1486	1482	1485	1498	1510	1523	1524	1519	1508	1496	1493	1511	1517	1508	1513	1517	1517	1519	1509	1507	1512	1516	1519	1515	1507	1500	1500	1499	1509	1506	1500	1489	1496	1500	1507	1517	1515	1506	1492	1490	1481	1485	1518	1529	1540	1546	1537	1518	1501	1502	1512	1509	1510	1484	1478	1481	1498	1498	1477	1462	1462	1476	1494	1495	1475	1470	1457	1464	1461	1474	1482	1460	1454	1508	1536	1533	1513	1487	1448	1392	1370	1356	1346	1339	1345	1345	1340	1343	1352	1358	1362	1366	1370	1371	1369	1359	1347	1344	1350	1360	1368	1371	1371	1369	1363	1364	1370	1376	1380	1376	1362	1360	1364	1371	1375	1384	1380	1382	1380	1386	1390	1393	1387	1395	1401	1416	1421	1411	1402	1401	1405	1400	1384	1380	1381	1389	1398	1401	1405	1402	1392	1405	1397	1405	1418	1405	1403	1401	1398	1391	1383	1363	1378	1407	1405	1400	1396	1410	1417	1427	1435	1412	1419	1414	1414	1408	1401	1391	1393	1402	1434	1435	1442	1443	1440	1441	1434	1429	1412	1413	1413	1419	1442	1465	1473	1477	1473	1468	1489	1491	1501	1497	1483	1462	1459	1462	1457	1454	1463	1463	1465	1455	1459	1471	1484	1487	1486	1475	1478	1451	1463	1467	1472	1467	1467	1479	1493	1508	1507	1496	1480	1468	1455	1444	1448	1441	1437	1445	1453	1456	1462	1459	1466	1471	1478	1481	1480	1481	1480	1462	1443	1412	1430	1475	1523	1517	1515	1499	1489	1482	1475	1481	1496	1504	1502	1501	1490	1494	1505	1510	1492	1480	1471	1476	1481	1479	1472	1471	1480	1477	1443	1415	1413	1432	1460	1481	1498	1514	1523	1484	1463	1458	1473	1497	1508	1504	1487	1484	1484	1494	1506	1513	1520	1523	1529	1529	1526	1518	1549	1526	1502	1508	1505	1509	1514	1525	1539	1533	1515	1513	1525	1530	1545	1546	1536	1542	1541	1540	1543	1547	1549	1538	1520	1512	1508	1515	1547	1560	1561	1558	1556	1553	1538	1531	1524	1517	1511	1515	1528	1527	1515	1496	1490	1490	1493	1498	1508	1515	1519	1515	1505	1509	1508	1510	1479	1477	1472	1477	1466	1454	1448	1454	1455	1452	1453	1453	1445	1443	1445	1444	1441	1443	1444	1447	1453	1451	1454	1475	1474	1476	1474	1467	1447	1426	1423	1457	1460	1439	1444	1445	1451	1452	1508	1497	1474	1463	1451	1447	1451	1463	1459	1459	1458	1457	1444	1448	1419	1420	1434	1439	1418	1419	1429	1429	1425	1429	1423	1415	1406	1402	1404	1418	1421	1409	1370	1366	1386	1407	1435	1434	1430	1413	1409	1412	1417	1420	1423	1406	1385	1386	1393	1396	1393	1388	1391	1384	1364	1344	1331	1331	1354	1372	1381	1378	1376	1380	1385	1384	1380	1381	1384	1392	1401	1401	1393	1389	1372	1357	1340	1338	1341	1347	1362	1367	1367	1359	1351	1348	1349	1360	1375	1370	1359	1362	1362	1358	1348	1337	1328	1325	1332	1345	1339	1317	1318	1319	1321	1327	1341	1348	1345	1335	1335	1320	1312	1316	1322	1323	1318	1337	1335	1326	1336	1337	1340	1341	1345	1334	1325	1314	1297	1288	1283	1297	1297	1301	1275	1271	1276	1282	1274	1267	1260	1257	1255	0	0	0	0	0	0	0	0
1512	1494	1479	1477	1477	1464	1444	1400	1361	1361	1323	1271	1271	1272	1270	1270	1270	1270	1277	1296	1297	1297	1290	1276	1278	1297	1308	1308	1309	1304	1309	1314	1317	1309	1294	1294	1290	1295	1302	1306	1308	1310	1318	1318	1324	1322	1324	1321	1316	1316	1320	1317	1312	1312	1308	1314	1316	1319	1315	1331	1343	1343	1339	1324	1310	1310	1305	1311	1335	1367	1372	1363	1357	1366	1371	1354	1340	1354	1359	1361	1355	1353	1352	1362	1363	1363	1374	1385	1402	1386	1377	1377	1420	1435	1435	1454	1467	1476	1474	1464	1453	1462	1470	1475	1476	1472	1462	1458	1465	1485	1487	1492	1495	1499	1501	1495	1493	1488	1488	1489	1486	1483	1477	1477	1488	1493	1490	1483	1464	1460	1465	1476	1483	1481	1474	1470	1470	1471	1471	1473	1497	1525	1506	1492	1476	1454	1452	1443	1431	1433	1442	1461	1461	1439	1438	1427	1418	1419	1434	1466	1478	1460	1452	1458	1451	1463	1472	1469	1457	1446	1440	1469	1474	1446	1455	1446	1399	1373	1359	1347	1337	1344	1349	1342	1345	1349	1353	1359	1375	1368	1368	1364	1361	1352	1342	1345	1352	1362	1369	1378	1380	1377	1373	1361	1366	1383	1386	1367	1364	1362	1371	1380	1388	1392	1392	1393	1393	1388	1374	1369	1382	1396	1419	1423	1416	1408	1407	1411	1422	1415	1395	1395	1397	1404	1405	1398	1391	1378	1366	1379	1392	1397	1396	1397	1401	1405	1398	1395	1393	1388	1397	1384	1368	1375	1384	1393	1398	1413	1419	1419	1412	1414	1411	1404	1415	1413	1415	1421	1425	1424	1418	1406	1403	1402	1406	1406	1410	1418	1427	1430	1429	1433	1423	1418	1443	1439	1429	1405	1437	1433	1439	1457	1465	1466	1458	1460	1457	1445	1442	1441	1440	1446	1454	1457	1449	1430	1421	1436	1450	1459	1460	1450	1453	1462	1462	1470	1462	1454	1442	1428	1424	1414	1411	1406	1424	1436	1445	1448	1454	1465	1474	1465	1436	1436	1440	1437	1409	1396	1401	1402	1425	1453	1469	1478	1473	1466	1460	1463	1473	1480	1481	1477	1464	1454	1447	1459	1463	1454	1451	1458	1457	1462	1457	1449	1439	1450	1448	1434	1426	1442	1461	1468	1471	1475	1490	1481	1468	1447	1464	1486	1492	1498	1503	1496	1489	1479	1476	1482	1497	1507	1510	1509	1463	1467	1476	1498	1485	1468	1461	1480	1476	1479	1475	1473	1466	1460	1462	1481	1494	1501	1510	1513	1516	1478	1509	1525	1532	1536	1523	1502	1484	1468	1460	1483	1530	1537	1540	1535	1514	1495	1491	1501	1500	1491	1474	1478	1488	1488	1481	1477	1478	1483	1486	1495	1501	1505	1501	1504	1501	1490	1474	1458	1454	1443	1446	1434	1422	1419	1426	1433	1429	1426	1416	1409	1406	1412	1417	1415	1420	1425	1430	1428	1425	1422	1426	1428	1428	1429	1418	1404	1392	1386	1386	1394	1411	1427	1432	1434	1424	1424	1423	1419	1423	1416	1417	1421	1425	1428	1429	1425	1405	1402	1401	1401	1403	1407	1404	1399	1395	1396	1386	1391	1396	1398	1394	1389	1380	1383	1386	1379	1367	1339	1340	1359	1368	1396	1397	1397	1398	1398	1396	1396	1402	1391	1377	1369	1368	1368	1378	1379	1363	1365	1359	1351	1325	1309	1312	1326	1342	1343	1342	1344	1354	1357	1363	1373	1363	1346	1339	1338	1343	1343	1345	1341	1334	1333	1332	1328	1329	1329	1352	1350	1342	1337	1334	1331	1334	1340	1341	1338	1337	1341	1334	1327	1322	1320	1316	1312	1297	1289	1288	1296	1301	1305	1313	1328	1343	1338	1338	1326	1299	1285	1290	1309	1314	1310	1298	1288	1309	1308	1297	1281	1280	1291	1301	1302	1287	1270	1264	1268	1274	1274	1273	1253	1252	1259	1268	1269	1264	1257	1252	1247	0	0	0	0	0	0	0	0
1483	1488	1460	1451	1451	1434	1420	1390	1361	1361	1335	1293	1273	1275	1276	1276	1281	1284	1297	1314	1297	1297	1289	1279	1277	1290	1306	1302	1302	1307	1311	1319	1314	1307	1299	1299	1295	1300	1306	1309	1310	1312	1313	1313	1304	1307	1309	1307	1311	1315	1315	1310	1304	1304	1305	1313	1320	1320	1320	1322	1325	1323	1333	1326	1313	1307	1307	1314	1340	1369	1375	1364	1364	1377	1377	1352	1343	1347	1353	1361	1357	1352	1346	1368	1375	1386	1440	1422	1426	1429	1428	1416	1416	1417	1420	1437	1458	1472	1468	1462	1455	1454	1458	1461	1465	1458	1455	1452	1459	1471	1466	1458	1461	1478	1490	1486	1479	1469	1460	1460	1459	1452	1454	1450	1450	1447	1468	1482	1451	1444	1443	1451	1465	1459	1462	1467	1467	1465	1459	1449	1455	1466	1474	1469	1459	1449	1439	1425	1417	1418	1431	1454	1459	1437	1424	1415	1414	1413	1420	1442	1451	1447	1444	1440	1440	1430	1447	1458	1448	1432	1415	1415	1438	1430	1421	1400	1368	1363	1345	1328	1342	1347	1349	1349	1357	1352	1341	1338	1345	1362	1359	1362	1365	1364	1353	1346	1348	1362	1371	1375	1379	1386	1383	1372	1372	1399	1392	1375	1363	1369	1368	1378	1387	1396	1405	1407	1402	1392	1381	1379	1389	1401	1413	1433	1439	1451	1450	1440	1429	1418	1399	1391	1390	1401	1399	1385	1371	1355	1366	1377	1392	1393	1386	1395	1402	1405	1405	1397	1404	1400	1392	1383	1374	1376	1386	1388	1395	1401	1408	1406	1399	1410	1407	1407	1397	1389	1369	1379	1406	1411	1406	1400	1392	1382	1379	1377	1383	1389	1395	1384	1375	1373	1371	1388	1392	1391	1396	1398	1398	1399	1404	1437	1446	1439	1437	1429	1414	1389	1383	1385	1394	1408	1417	1416	1412	1403	1392	1392	1405	1432	1441	1432	1415	1410	1406	1398	1387	1399	1412	1400	1382	1376	1383	1392	1406	1416	1414	1405	1404	1425	1432	1427	1425	1417	1418	1406	1394	1388	1389	1398	1416	1429	1442	1434	1424	1427	1439	1444	1443	1445	1442	1443	1444	1429	1418	1417	1415	1414	1409	1423	1438	1439	1432	1423	1415	1423	1435	1439	1437	1436	1435	1423	1414	1413	1441	1444	1455	1450	1443	1443	1433	1444	1466	1472	1462	1429	1419	1419	1431	1429	1444	1451	1451	1447	1451	1441	1425	1419	1423	1427	1457	1455	1450	1439	1431	1425	1429	1436	1439	1437	1444	1457	1453	1450	1448	1491	1521	1517	1501	1483	1458	1438	1434	1432	1467	1478	1486	1481	1464	1450	1450	1453	1447	1443	1444	1439	1454	1467	1458	1445	1441	1457	1459	1466	1451	1451	1417	1418	1435	1450	1445	1439	1431	1428	1422	1408	1401	1401	1407	1407	1408	1387	1391	1386	1379	1377	1392	1392	1401	1408	1410	1406	1402	1405	1402	1405	1400	1396	1397	1386	1377	1369	1380	1387	1392	1403	1409	1412	1411	1373	1375	1393	1394	1390	1390	1394	1400	1394	1403	1396	1391	1386	1383	1387	1371	1368	1367	1372	1371	1367	1353	1357	1364	1362	1355	1347	1356	1356	1348	1339	1328	1323	1329	1340	1352	1359	1354	1357	1361	1365	1375	1381	1380	1378	1365	1360	1354	1354	1364	1368	1357	1353	1332	1316	1301	1283	1288	1303	1319	1322	1330	1331	1325	1327	1325	1327	1334	1334	1328	1331	1324	1322	1319	1318	1318	1320	1320	1309	1304	1302	1304	1322	1321	1315	1314	1309	1315	1314	1312	1303	1309	1317	1311	1308	1309	1312	1309	1294	1278	1275	1284	1285	1282	1285	1285	1293	1316	1316	1316	1300	1275	1271	1272	1299	1304	1292	1260	1257	1253	1275	1267	1261	1263	1263	1264	1268	1264	1253	1252	1254	1254	1249	1242	1232	1229	1238	1247	1252	1241	1234	1230	1223	0	0	0	0	0	0	0	0
1468	1461	1453	1434	1434	1414	1395	1379	1363	1344	1344	1312	1279	1282	1284	1284	1283	1293	1305	1321	1304	1304	1291	1285	1295	1304	1314	1312	1312	1304	1314	1319	1315	1308	1299	1299	1296	1299	1305	1313	1314	1306	1299	1304	1310	1312	1308	1313	1314	1313	1307	1301	1295	1295	1292	1305	1316	1308	1316	1315	1308	1312	1325	1333	1318	1313	1313	1319	1330	1355	1363	1353	1355	1369	1377	1353	1337	1334	1340	1345	1358	1366	1383	1417	1401	1408	1408	1420	1434	1427	1413	1412	1436	1438	1431	1426	1435	1456	1467	1463	1460	1455	1449	1448	1448	1444	1435	1437	1441	1446	1437	1435	1434	1456	1466	1471	1468	1456	1438	1422	1399	1403	1430	1435	1437	1431	1449	1462	1442	1430	1420	1418	1417	1411	1425	1438	1453	1451	1428	1416	1412	1421	1443	1454	1450	1435	1429	1421	1412	1413	1410	1414	1447	1420	1411	1408	1405	1407	1409	1404	1383	1391	1405	1407	1406	1392	1385	1408	1406	1397	1376	1371	1398	1413	1415	1400	1385	1370	1364	1345	1327	1348	1357	1364	1360	1346	1340	1338	1338	1357	1361	1368	1372	1375	1373	1366	1362	1368	1376	1382	1392	1398	1400	1403	1405	1408	1397	1378	1371	1362	1364	1370	1378	1390	1400	1404	1398	1383	1370	1366	1374	1380	1356	1370	1391	1411	1425	1421	1409	1401	1391	1382	1378	1376	1362	1366	1346	1345	1353	1371	1387	1378	1363	1386	1387	1385	1384	1392	1398	1402	1374	1362	1375	1378	1376	1377	1383	1389	1395	1385	1375	1363	1352	1353	1368	1369	1363	1360	1388	1397	1392	1383	1368	1353	1346	1355	1359	1367	1362	1365	1364	1356	1353	1354	1359	1363	1386	1390	1387	1372	1366	1364	1369	1392	1422	1419	1400	1376	1362	1369	1380	1388	1398	1404	1400	1384	1375	1372	1373	1381	1410	1408	1400	1388	1367	1361	1371	1387	1389	1382	1370	1363	1365	1380	1382	1366	1366	1355	1357	1368	1376	1387	1398	1406	1401	1397	1388	1382	1380	1385	1399	1414	1419	1416	1417	1425	1434	1438	1428	1420	1419	1415	1406	1405	1390	1393	1386	1381	1389	1389	1383	1377	1383	1385	1384	1398	1421	1425	1421	1412	1405	1395	1382	1394	1408	1407	1407	1412	1404	1391	1389	1407	1418	1425	1415	1409	1402	1403	1398	1400	1404	1435	1442	1435	1428	1408	1391	1383	1392	1394	1414	1406	1405	1391	1391	1386	1393	1413	1418	1419	1424	1408	1406	1413	1413	1404	1399	1388	1385	1423	1429	1420	1414	1413	1427	1434	1438	1436	1431	1420	1416	1415	1373	1379	1386	1393	1417	1432	1405	1396	1393	1402	1417	1417	1364	1350	1354	1363	1360	1360	1366	1374	1399	1391	1381	1360	1358	1363	1364	1362	1368	1373	1374	1364	1357	1359	1359	1371	1380	1383	1383	1380	1381	1385	1388	1386	1380	1378	1377	1365	1347	1361	1365	1365	1375	1380	1393	1390	1388	1365	1362	1370	1381	1384	1381	1360	1361	1370	1375	1356	1345	1341	1348	1353	1354	1350	1342	1339	1342	1340	1337	1339	1339	1337	1329	1335	1342	1344	1338	1324	1305	1311	1321	1332	1340	1345	1349	1353	1347	1343	1342	1344	1347	1341	1335	1330	1320	1312	1316	1331	1317	1304	1298	1297	1287	1287	1292	1297	1303	1311	1311	1306	1300	1299	1294	1295	1299	1312	1326	1324	1317	1304	1298	1296	1298	1299	1278	1280	1282	1282	1280	1282	1282	1279	1280	1279	1270	1266	1260	1260	1272	1282	1289	1270	1281	1293	1290	1283	1273	1275	1278	1276	1273	1257	1260	1266	1264	1264	1262	1257	1236	1236	1259	1263	1264	1244	1237	1235	1235	1239	1239	1249	1252	1253	1260	1263	1257	1246	1243	1246	1246	1244	1236	1227	1221	1219	1226	1229	1218	1209	1202	1197	0	0	0	0	0	0	0	0
1442	1442	1432	1422	1398	1398	1378	1356	1340	1336	1336	1315	1309	1290	1288	1288	1285	1296	1316	1312	1297	1286	1286	1290	1307	1315	1321	1314	1314	1310	1317	1319	1316	1307	1293	1293	1291	1292	1304	1316	1318	1308	1311	1327	1327	1319	1315	1314	1315	1311	1301	1293	1283	1283	1283	1292	1306	1310	1306	1298	1297	1308	1333	1321	1319	1324	1324	1326	1328	1348	1347	1329	1339	1348	1361	1365	1334	1321	1321	1334	1354	1365	1360	1362	1404	1433	1452	1452	1448	1429	1422	1439	1444	1441	1428	1416	1413	1417	1418	1423	1432	1422	1414	1405	1412	1419	1428	1429	1420	1415	1411	1415	1424	1430	1438	1443	1447	1438	1413	1394	1385	1390	1399	1413	1424	1435	1441	1449	1428	1405	1401	1397	1403	1407	1406	1402	1399	1410	1414	1410	1399	1395	1407	1427	1431	1423	1420	1413	1408	1404	1394	1390	1396	1399	1379	1375	1371	1376	1385	1379	1358	1342	1346	1366	1367	1364	1363	1365	1367	1361	1367	1371	1389	1399	1396	1391	1385	1366	1359	1342	1329	1332	1348	1358	1358	1347	1347	1347	1347	1358	1364	1371	1378	1378	1369	1364	1368	1379	1392	1390	1391	1390	1389	1393	1397	1402	1396	1365	1349	1347	1354	1364	1376	1384	1394	1394	1378	1362	1350	1341	1348	1345	1338	1352	1352	1353	1361	1364	1374	1385	1382	1375	1365	1362	1351	1331	1320	1330	1345	1360	1369	1348	1346	1364	1336	1362	1358	1358	1351	1352	1349	1353	1357	1360	1356	1362	1363	1375	1383	1374	1369	1357	1344	1340	1347	1349	1346	1345	1354	1373	1372	1360	1358	1342	1334	1337	1344	1341	1342	1350	1341	1338	1331	1326	1330	1334	1349	1365	1364	1364	1356	1356	1358	1354	1343	1340	1334	1337	1349	1349	1356	1356	1364	1371	1379	1378	1370	1359	1351	1352	1371	1379	1371	1352	1356	1367	1384	1385	1381	1372	1363	1357	1353	1355	1329	1327	1327	1333	1341	1350	1356	1370	1377	1377	1388	1390	1385	1373	1370	1374	1380	1392	1395	1410	1415	1422	1402	1396	1393	1389	1388	1382	1376	1374	1370	1367	1366	1364	1361	1359	1365	1378	1383	1380	1368	1377	1387	1384	1375	1361	1349	1347	1355	1371	1376	1383	1390	1383	1374	1376	1385	1381	1342	1347	1364	1374	1387	1380	1372	1369	1374	1394	1425	1427	1408	1378	1366	1375	1370	1367	1368	1360	1348	1345	1357	1367	1373	1376	1380	1387	1389	1367	1354	1348	1337	1344	1352	1355	1357	1361	1363	1364	1363	1365	1371	1396	1406	1408	1386	1364	1344	1341	1351	1361	1372	1378	1376	1354	1340	1331	1322	1334	1319	1320	1320	1329	1336	1336	1346	1343	1340	1359	1358	1348	1337	1331	1339	1330	1334	1333	1332	1339	1344	1347	1351	1346	1343	1361	1355	1333	1335	1336	1333	1347	1349	1346	1341	1342	1339	1336	1337	1338	1344	1343	1344	1351	1368	1372	1352	1350	1340	1342	1322	1331	1320	1310	1305	1298	1296	1308	1319	1324	1322	1328	1340	1338	1330	1328	1326	1312	1302	1306	1310	1317	1319	1324	1329	1322	1298	1282	1276	1297	1314	1307	1300	1310	1315	1319	1312	1297	1291	1307	1318	1320	1316	1310	1296	1285	1285	1297	1297	1284	1280	1281	1283	1287	1288	1293	1295	1279	1267	1268	1268	1275	1273	1264	1259	1267	1281	1312	1302	1285	1267	1267	1274	1258	1245	1258	1260	1263	1267	1270	1263	1270	1266	1263	1256	1249	1247	1246	1243	1241	1240	1230	1243	1258	1259	1257	1254	1253	1270	1266	1247	1239	1236	1242	1242	1241	1237	1237	1233	1237	1238	1238	1232	1220	1215	1215	1215	1220	1224	1220	1233	1246	1253	1255	1240	1229	1226	1233	1233	1231	1220	1212	1214	1209	1209	1210	1204	1199	1192	1188	0	0	0	0	0	0	0	0
1416	1422	1418	1408	1383	1383	1352	1337	1327	1319	1319	1306	1308	1295	1290	1285	1293	1304	1310	1288	1274	1287	1287	1296	1304	1314	1320	1313	1313	1312	1317	1319	1312	1291	1287	1281	1281	1283	1298	1312	1321	1320	1321	1318	1318	1311	1312	1319	1316	1309	1297	1287	1280	1278	1278	1287	1300	1303	1298	1291	1292	1317	1338	1329	1325	1329	1322	1322	1342	1346	1336	1317	1317	1326	1348	1350	1359	1357	1356	1357	1362	1378	1379	1394	1417	1433	1442	1442	1438	1435	1430	1433	1431	1442	1438	1429	1415	1409	1393	1388	1397	1403	1400	1402	1400	1404	1411	1420	1420	1413	1408	1401	1390	1398	1402	1402	1395	1395	1392	1374	1385	1398	1404	1411	1415	1421	1424	1416	1392	1391	1391	1398	1403	1403	1393	1390	1385	1399	1406	1406	1394	1390	1393	1400	1411	1407	1405	1395	1386	1380	1375	1371	1363	1375	1391	1390	1383	1378	1371	1361	1351	1338	1328	1335	1336	1353	1362	1367	1365	1358	1360	1367	1378	1373	1376	1358	1355	1363	1354	1330	1326	1336	1349	1355	1352	1346	1349	1352	1352	1349	1354	1356	1361	1352	1346	1348	1359	1374	1378	1375	1375	1375	1369	1360	1375	1384	1375	1343	1332	1340	1348	1361	1374	1380	1384	1378	1370	1352	1334	1336	1337	1332	1323	1323	1346	1344	1337	1340	1352	1368	1365	1355	1348	1345	1340	1321	1308	1303	1315	1344	1343	1327	1326	1335	1328	1337	1339	1334	1335	1339	1344	1337	1339	1336	1334	1336	1345	1355	1368	1359	1354	1345	1335	1327	1330	1330	1330	1331	1342	1345	1350	1343	1342	1318	1321	1317	1316	1319	1318	1307	1309	1299	1305	1301	1305	1309	1309	1324	1336	1343	1343	1341	1344	1336	1327	1317	1311	1311	1318	1324	1325	1342	1352	1355	1347	1342	1355	1346	1338	1337	1337	1340	1337	1331	1338	1352	1355	1366	1364	1363	1355	1346	1329	1328	1322	1315	1303	1319	1339	1341	1350	1352	1354	1350	1353	1372	1373	1364	1357	1353	1361	1374	1381	1373	1368	1366	1364	1372	1368	1375	1369	1363	1361	1356	1349	1348	1345	1343	1341	1345	1355	1368	1375	1372	1367	1358	1352	1353	1352	1344	1338	1337	1348	1358	1362	1368	1371	1363	1344	1340	1336	1335	1334	1335	1338	1342	1342	1339	1343	1349	1360	1365	1368	1372	1356	1344	1349	1349	1340	1330	1336	1350	1357	1349	1340	1335	1329	1335	1331	1319	1316	1340	1334	1322	1327	1335	1349	1346	1344	1339	1336	1323	1308	1310	1318	1353	1371	1373	1330	1307	1303	1303	1312	1338	1357	1362	1348	1339	1328	1313	1294	1292	1303	1317	1326	1333	1338	1335	1333	1336	1346	1350	1348	1338	1328	1325	1328	1330	1332	1320	1312	1313	1320	1333	1313	1304	1305	1322	1320	1312	1305	1324	1330	1330	1334	1335	1329	1327	1327	1328	1323	1328	1326	1321	1326	1332	1343	1349	1321	1283	1274	1275	1283	1271	1266	1273	1284	1291	1289	1292	1303	1302	1292	1282	1272	1269	1279	1296	1308	1293	1286	1279	1279	1286	1291	1293	1287	1269	1252	1250	1243	1257	1265	1258	1250	1267	1277	1283	1274	1256	1262	1275	1289	1303	1300	1292	1279	1261	1265	1274	1273	1269	1266	1267	1273	1281	1286	1282	1264	1251	1255	1262	1267	1261	1248	1239	1239	1245	1253	1261	1262	1252	1242	1240	1239	1234	1232	1221	1234	1246	1240	1229	1241	1256	1257	1248	1245	1240	1235	1233	1216	1208	1206	1212	1222	1234	1242	1238	1228	1228	1232	1240	1232	1228	1227	1232	1232	1230	1230	1231	1235	1235	1228	1222	1206	1205	1196	1185	1179	1186	1196	1211	1218	1225	1244	1237	1208	1199	1205	1205	1203	1196	1197	1205	1207	1205	1200	1198	1194	1191	1186	1181	1181	0	0	0	0	0	0	0
1383	1402	1396	1394	1371	1371	1341	1317	1311	1303	1303	1298	1288	1303	1298	1293	1298	1293	1268	1273	1283	1289	1289	1294	1294	1302	1296	1289	1299	1299	1310	1317	1311	1298	1289	1286	1286	1285	1296	1311	1319	1315	1319	1307	1307	1311	1314	1317	1318	1308	1296	1285	1279	1278	1278	1286	1297	1298	1297	1292	1301	1336	1342	1339	1336	1325	1311	1311	1328	1343	1335	1314	1309	1317	1332	1342	1358	1373	1396	1400	1365	1357	1367	1362	1360	1367	1382	1402	1402	1408	1409	1409	1415	1426	1433	1432	1417	1389	1379	1376	1377	1381	1388	1392	1392	1387	1377	1381	1390	1398	1404	1396	1379	1361	1352	1343	1347	1358	1379	1385	1394	1399	1399	1393	1384	1380	1382	1378	1370	1356	1354	1357	1368	1376	1373	1359	1362	1376	1384	1379	1368	1358	1354	1372	1379	1380	1383	1380	1377	1370	1361	1356	1353	1348	1351	1347	1340	1340	1341	1338	1332	1325	1319	1310	1321	1336	1347	1346	1336	1330	1328	1333	1337	1336	1330	1327	1325	1332	1338	1331	1330	1336	1345	1349	1342	1334	1335	1331	1328	1328	1341	1340	1337	1335	1331	1333	1345	1355	1355	1351	1345	1345	1342	1338	1340	1349	1346	1333	1326	1327	1335	1347	1357	1365	1369	1366	1358	1340	1329	1323	1322	1315	1301	1297	1322	1325	1319	1329	1334	1345	1339	1333	1329	1328	1324	1306	1293	1290	1297	1313	1324	1306	1307	1318	1316	1319	1316	1314	1322	1333	1336	1329	1324	1313	1304	1315	1327	1342	1350	1341	1335	1328	1316	1311	1312	1312	1311	1306	1308	1315	1313	1317	1309	1308	1287	1283	1284	1286	1290	1288	1281	1280	1277	1274	1277	1276	1285	1302	1313	1317	1322	1321	1327	1322	1307	1291	1286	1290	1296	1308	1313	1313	1315	1312	1302	1305	1323	1325	1332	1334	1317	1299	1292	1294	1288	1290	1299	1311	1332	1325	1319	1322	1320	1322	1319	1302	1294	1301	1329	1343	1342	1339	1333	1333	1327	1329	1350	1350	1345	1343	1341	1358	1363	1363	1355	1344	1327	1332	1305	1311	1328	1331	1335	1332	1332	1330	1326	1323	1326	1330	1337	1347	1359	1360	1354	1340	1324	1328	1329	1337	1331	1328	1328	1341	1320	1328	1335	1338	1325	1323	1319	1323	1314	1313	1311	1308	1316	1320	1318	1326	1336	1343	1340	1332	1326	1332	1330	1327	1301	1295	1301	1308	1319	1323	1330	1324	1320	1328	1320	1300	1307	1310	1303	1301	1304	1312	1298	1300	1325	1321	1299	1289	1288	1291	1301	1312	1313	1306	1294	1291	1292	1294	1301	1315	1330	1339	1331	1300	1289	1278	1276	1284	1290	1304	1318	1325	1297	1292	1306	1317	1320	1325	1330	1331	1320	1308	1305	1296	1294	1294	1291	1290	1300	1295	1293	1289	1283	1280	1291	1291	1294	1299	1305	1312	1323	1335	1329	1322	1319	1314	1315	1313	1305	1303	1297	1293	1279	1284	1277	1270	1261	1261	1259	1256	1257	1264	1271	1275	1277	1279	1279	1272	1266	1246	1245	1250	1264	1276	1274	1267	1261	1270	1273	1277	1276	1272	1262	1255	1248	1245	1225	1228	1228	1231	1238	1250	1256	1249	1251	1250	1252	1263	1268	1258	1251	1252	1244	1234	1236	1240	1251	1259	1264	1261	1258	1254	1252	1248	1237	1231	1230	1229	1224	1220	1219	1221	1225	1228	1230	1231	1228	1216	1208	1213	1219	1222	1222	1209	1201	1199	1206	1217	1228	1235	1236	1232	1225	1221	1220	1211	1203	1190	1190	1196	1206	1214	1220	1210	1201	1199	1205	1210	1215	1215	1210	1210	1210	1209	1213	1219	1223	1220	1209	1199	1195	1193	1185	1172	1164	1166	1182	1200	1212	1211	1219	1212	1193	1184	1182	1182	1182	1179	1176	1177	1195	1200	1192	1192	1191	1187	1183	1174	1174	0	0	0	0	0	0	0
1352	1371	1372	1376	1364	1364	1334	1305	1291	1288	1276	1276	1285	1319	1308	1298	1284	1267	1266	1278	1285	1293	1293	1296	1288	1286	1275	1274	1281	1281	1293	1306	1305	1306	1306	1300	1300	1295	1303	1309	1314	1310	1298	1302	1308	1308	1316	1317	1313	1307	1294	1285	1280	1278	1286	1286	1296	1299	1299	1302	1320	1339	1332	1324	1318	1293	1298	1298	1311	1338	1336	1319	1315	1325	1337	1349	1360	1359	1360	1342	1333	1335	1340	1341	1339	1339	1360	1376	1386	1386	1383	1384	1385	1394	1404	1408	1398	1383	1371	1363	1357	1360	1363	1369	1374	1374	1365	1354	1346	1344	1343	1350	1354	1358	1360	1353	1344	1350	1364	1373	1378	1373	1363	1342	1324	1315	1307	1333	1344	1350	1340	1329	1320	1320	1323	1327	1337	1336	1350	1355	1357	1351	1325	1310	1321	1329	1339	1345	1363	1360	1347	1334	1328	1326	1332	1330	1322	1314	1310	1305	1305	1310	1310	1307	1309	1313	1313	1314	1309	1314	1316	1318	1324	1324	1322	1321	1320	1335	1334	1330	1326	1331	1336	1335	1321	1309	1310	1293	1285	1292	1312	1310	1302	1317	1315	1314	1323	1327	1327	1322	1323	1318	1316	1313	1312	1319	1331	1325	1320	1315	1314	1316	1327	1337	1342	1336	1337	1325	1317	1314	1313	1300	1292	1290	1291	1298	1309	1315	1319	1322	1319	1315	1304	1301	1293	1276	1271	1272	1277	1285	1302	1304	1301	1297	1304	1297	1296	1297	1307	1318	1309	1292	1280	1277	1279	1282	1305	1325	1332	1326	1315	1299	1294	1297	1301	1303	1290	1283	1282	1295	1315	1305	1302	1292	1282	1264	1260	1262	1264	1263	1272	1275	1273	1258	1255	1259	1271	1286	1300	1296	1296	1299	1304	1292	1286	1282	1271	1260	1276	1286	1297	1296	1287	1271	1261	1252	1246	1273	1286	1276	1264	1276	1278	1274	1277	1277	1274	1283	1286	1278	1292	1305	1320	1316	1311	1293	1287	1299	1317	1337	1340	1324	1313	1308	1285	1293	1305	1308	1312	1315	1320	1333	1335	1330	1318	1306	1285	1275	1280	1290	1301	1306	1308	1311	1315	1314	1312	1310	1309	1312	1307	1317	1329	1305	1309	1304	1294	1301	1309	1295	1291	1276	1284	1287	1280	1287	1289	1287	1298	1306	1307	1300	1288	1289	1287	1288	1293	1292	1293	1294	1307	1311	1301	1298	1295	1310	1316	1296	1280	1281	1283	1292	1299	1303	1304	1296	1298	1298	1292	1284	1296	1298	1296	1289	1281	1276	1277	1278	1279	1279	1274	1265	1270	1277	1282	1292	1277	1272	1276	1279	1281	1285	1291	1305	1322	1308	1303	1286	1277	1270	1271	1276	1275	1285	1288	1289	1276	1266	1270	1276	1288	1300	1303	1297	1277	1278	1283	1282	1277	1276	1278	1287	1276	1274	1280	1277	1276	1269	1265	1266	1273	1280	1292	1295	1304	1311	1306	1296	1291	1294	1285	1287	1283	1278	1240	1251	1261	1265	1263	1258	1256	1253	1251	1248	1249	1253	1256	1257	1259	1260	1256	1249	1255	1227	1229	1237	1247	1254	1253	1247	1238	1246	1255	1260	1253	1246	1247	1249	1249	1222	1211	1209	1210	1219	1223	1236	1242	1230	1228	1234	1240	1240	1240	1228	1221	1226	1230	1224	1216	1217	1236	1239	1245	1243	1240	1232	1229	1221	1221	1224	1223	1220	1213	1209	1211	1216	1218	1219	1222	1222	1221	1209	1199	1196	1201	1212	1215	1202	1189	1191	1200	1208	1214	1208	1206	1203	1206	1193	1191	1190	1189	1191	1191	1189	1183	1182	1185	1184	1184	1187	1194	1202	1205	1193	1193	1188	1189	1199	1201	1203	1196	1190	1180	1176	1180	1181	1171	1156	1150	1153	1164	1179	1187	1198	1167	1193	1170	1168	1168	1159	1156	1159	1159	1159	1157	1157	1154	1150	1162	1179	1180	1168	1168	0	0	0	0	0	0	0
1335	1340	1340	1333	1315	1315	1297	1279	1261	1272	1280	1280	1315	1325	1310	1284	1284	1272	1278	1283	1286	1295	1299	1299	1288	1276	1272	1274	1282	1282	1297	1311	1310	1306	1308	1304	1299	1299	1302	1306	1308	1304	1294	1299	1303	1303	1306	1308	1313	1318	1309	1297	1294	1300	1293	1293	1286	1294	1301	1310	1331	1330	1320	1311	1302	1293	1293	1307	1307	1322	1344	1336	1329	1319	1317	1330	1344	1346	1343	1329	1322	1318	1325	1330	1328	1321	1334	1354	1367	1367	1368	1362	1356	1361	1371	1380	1383	1374	1363	1347	1336	1332	1333	1348	1358	1368	1366	1355	1344	1340	1336	1332	1336	1342	1349	1349	1338	1331	1346	1353	1336	1312	1321	1332	1326	1313	1305	1314	1329	1326	1330	1321	1315	1313	1316	1322	1320	1316	1314	1311	1316	1312	1303	1302	1309	1317	1321	1325	1322	1326	1324	1319	1321	1319	1322	1317	1304	1294	1287	1288	1301	1302	1307	1299	1297	1290	1283	1279	1289	1301	1307	1309	1309	1312	1312	1323	1326	1326	1325	1320	1313	1314	1309	1312	1302	1301	1300	1290	1281	1276	1285	1290	1296	1295	1278	1297	1296	1303	1307	1304	1301	1302	1296	1291	1290	1298	1308	1309	1304	1299	1289	1291	1297	1299	1314	1313	1311	1310	1301	1300	1288	1270	1264	1269	1267	1282	1299	1302	1303	1304	1303	1300	1292	1269	1264	1262	1257	1255	1253	1251	1241	1240	1244	1250	1244	1240	1273	1279	1286	1294	1291	1273	1267	1268	1268	1266	1260	1260	1256	1260	1250	1256	1260	1253	1261	1271	1268	1271	1278	1293	1312	1312	1299	1285	1270	1252	1250	1251	1254	1262	1268	1273	1271	1270	1244	1246	1260	1281	1288	1273	1266	1262	1265	1276	1281	1285	1283	1283	1258	1268	1287	1284	1275	1262	1258	1250	1242	1245	1260	1255	1255	1247	1247	1247	1250	1246	1248	1263	1273	1277	1290	1301	1302	1297	1287	1282	1289	1299	1302	1303	1302	1281	1273	1266	1259	1270	1276	1277	1275	1275	1290	1299	1306	1294	1283	1271	1265	1265	1266	1268	1277	1281	1284	1291	1299	1302	1297	1298	1295	1287	1282	1278	1281	1278	1277	1269	1264	1257	1256	1242	1236	1258	1260	1261	1268	1270	1268	1255	1270	1276	1271	1250	1248	1251	1259	1258	1265	1266	1265	1260	1259	1259	1252	1253	1261	1276	1270	1268	1260	1266	1268	1271	1265	1264	1246	1254	1261	1273	1270	1271	1287	1292	1288	1283	1277	1268	1273	1272	1274	1275	1272	1266	1260	1255	1254	1263	1260	1269	1281	1277	1266	1263	1268	1254	1280	1278	1273	1280	1272	1267	1269	1263	1256	1256	1253	1246	1234	1225	1229	1244	1258	1269	1272	1273	1260	1255	1255	1254	1249	1250	1262	1265	1260	1259	1262	1267	1263	1264	1255	1258	1265	1273	1271	1270	1276	1283	1273	1265	1267	1277	1264	1236	1233	1233	1235	1241	1250	1255	1253	1251	1245	1243	1241	1239	1237	1232	1232	1237	1243	1243	1237	1228	1215	1205	1211	1224	1238	1239	1237	1228	1210	1201	1194	1200	1202	1197	1192	1190	1201	1205	1199	1193	1187	1199	1207	1217	1225	1220	1225	1229	1223	1216	1209	1210	1206	1208	1210	1217	1204	1204	1208	1216	1219	1220	1218	1223	1226	1222	1218	1216	1214	1207	1201	1194	1200	1210	1209	1208	1208	1210	1208	1198	1188	1184	1188	1194	1196	1184	1180	1187	1199	1205	1202	1198	1195	1192	1185	1180	1181	1182	1179	1182	1181	1167	1162	1160	1173	1176	1177	1178	1177	1175	1174	1174	1183	1190	1184	1186	1185	1185	1183	1174	1167	1168	1164	1168	1155	1138	1129	1132	1142	1143	1150	1145	1147	1143	1151	1145	1145	1140	1147	1155	1157	1155	1148	1145	1139	1142	1146	1158	1167	1167	1157	0	0	0	0	0	0	0
1333	1333	1335	1332	1323	1308	1308	1287	1284	1294	1301	1301	1308	1310	1303	1284	1275	1275	1279	1284	1290	1302	1299	1299	1291	1293	1282	1283	1296	1296	1311	1318	1317	1315	1313	1309	1304	1304	1298	1294	1293	1292	1303	1306	1300	1300	1297	1302	1301	1312	1312	1312	1319	1323	1312	1312	1298	1293	1296	1316	1321	1316	1307	1297	1297	1302	1301	1317	1317	1322	1329	1336	1335	1326	1317	1320	1312	1321	1316	1308	1297	1302	1313	1320	1318	1308	1319	1341	1355	1351	1351	1343	1332	1335	1336	1345	1352	1356	1345	1328	1323	1319	1324	1324	1328	1330	1332	1323	1316	1319	1317	1314	1307	1315	1326	1336	1320	1305	1288	1282	1290	1313	1322	1319	1309	1304	1303	1297	1300	1319	1321	1317	1312	1308	1309	1311	1312	1308	1308	1303	1302	1303	1296	1290	1290	1291	1300	1300	1293	1291	1299	1310	1316	1314	1313	1308	1294	1280	1277	1290	1295	1298	1297	1292	1285	1276	1261	1258	1273	1292	1294	1288	1283	1292	1302	1310	1311	1304	1302	1300	1291	1293	1272	1275	1285	1291	1293	1285	1276	1276	1268	1262	1266	1280	1275	1260	1252	1256	1283	1289	1291	1290	1282	1273	1272	1269	1269	1269	1283	1282	1276	1260	1251	1252	1270	1293	1288	1284	1289	1282	1264	1249	1252	1251	1247	1244	1243	1258	1284	1280	1267	1256	1255	1249	1243	1240	1241	1237	1232	1204	1206	1216	1224	1228	1240	1249	1252	1248	1248	1274	1268	1255	1248	1257	1255	1251	1249	1247	1242	1237	1233	1235	1243	1246	1252	1255	1257	1259	1266	1279	1285	1283	1287	1267	1250	1241	1237	1237	1245	1250	1259	1265	1265	1264	1253	1221	1221	1231	1241	1238	1233	1230	1223	1223	1237	1246	1239	1243	1230	1219	1226	1233	1236	1237	1243	1244	1238	1235	1234	1241	1251	1255	1247	1239	1210	1209	1206	1228	1240	1252	1252	1226	1230	1241	1251	1264	1262	1263	1256	1254	1248	1253	1250	1242	1236	1235	1242	1250	1253	1257	1249	1252	1262	1270	1264	1254	1251	1254	1259	1255	1242	1227	1226	1216	1214	1218	1197	1210	1242	1247	1245	1242	1246	1240	1230	1223	1237	1240	1240	1232	1209	1220	1238	1250	1253	1246	1243	1241	1242	1251	1245	1231	1227	1223	1230	1240	1249	1249	1250	1251	1251	1255	1250	1241	1242	1253	1250	1249	1247	1243	1232	1232	1228	1218	1224	1227	1237	1244	1246	1253	1260	1261	1260	1269	1278	1271	1278	1272	1269	1266	1264	1262	1253	1245	1242	1244	1255	1268	1272	1258	1225	1218	1212	1226	1248	1239	1231	1228	1229	1248	1251	1227	1220	1223	1237	1228	1220	1211	1210	1215	1221	1232	1240	1247	1213	1216	1229	1229	1221	1211	1205	1208	1211	1238	1254	1260	1260	1254	1245	1244	1253	1262	1260	1255	1255	1253	1244	1253	1261	1245	1237	1230	1225	1219	1218	1224	1230	1234	1233	1238	1232	1230	1227	1223	1223	1215	1215	1214	1218	1227	1227	1217	1206	1194	1199	1209	1214	1226	1220	1208	1195	1186	1182	1181	1174	1180	1190	1188	1195	1192	1189	1173	1171	1177	1183	1187	1187	1198	1206	1210	1205	1191	1181	1180	1175	1175	1189	1203	1188	1186	1185	1198	1199	1194	1201	1210	1216	1217	1216	1212	1203	1195	1190	1187	1194	1199	1196	1193	1191	1192	1195	1184	1173	1170	1171	1166	1175	1174	1167	1174	1189	1187	1186	1185	1184	1171	1170	1173	1176	1173	1170	1162	1150	1141	1140	1145	1159	1168	1170	1165	1163	1163	1163	1162	1173	1176	1172	1172	1172	1165	1163	1152	1151	1151	1156	1157	1141	1129	1125	1126	1127	1129	1123	1122	1118	1123	1129	1132	1132	1126	1132	1144	1154	1149	1145	1139	1131	1129	1130	1139	1133	1133	1128	0	0	0	0	0	0	0
1311	1311	1303	1303	1305	1295	1295	1277	1259	1267	1282	1282	1296	1302	1297	1289	1267	1267	1270	1276	1281	1290	1288	1288	1286	1287	1296	1299	1304	1307	1307	1317	1324	1328	1326	1316	1303	1303	1279	1266	1271	1289	1302	1301	1298	1286	1286	1293	1296	1295	1289	1290	1299	1319	1323	1312	1312	1310	1318	1311	1299	1284	1276	1285	1295	1305	1312	1317	1315	1315	1312	1311	1311	1306	1302	1300	1299	1295	1276	1277	1278	1289	1304	1310	1303	1293	1303	1322	1330	1330	1330	1310	1293	1292	1297	1298	1309	1301	1293	1289	1287	1278	1277	1281	1279	1299	1306	1305	1308	1300	1294	1290	1299	1293	1302	1310	1308	1280	1278	1287	1301	1312	1312	1302	1292	1294	1299	1292	1291	1302	1306	1304	1297	1296	1296	1297	1294	1296	1296	1301	1299	1294	1289	1283	1277	1275	1278	1276	1268	1267	1282	1301	1311	1305	1286	1273	1257	1251	1261	1268	1283	1291	1293	1285	1280	1266	1247	1232	1243	1260	1255	1250	1241	1242	1257	1272	1273	1262	1258	1268	1283	1283	1261	1258	1270	1282	1288	1281	1276	1267	1258	1245	1240	1255	1255	1251	1235	1217	1202	1245	1276	1282	1273	1262	1255	1255	1252	1248	1243	1246	1247	1241	1232	1233	1240	1246	1254	1262	1274	1267	1252	1236	1239	1248	1246	1239	1218	1213	1218	1241	1249	1235	1221	1223	1220	1219	1227	1219	1204	1202	1214	1227	1233	1227	1222	1228	1242	1238	1233	1236	1233	1237	1238	1239	1244	1241	1237	1236	1231	1228	1222	1225	1231	1238	1245	1242	1241	1243	1238	1215	1224	1237	1257	1250	1237	1224	1222	1223	1228	1237	1243	1249	1247	1238	1219	1200	1188	1187	1193	1204	1212	1212	1205	1192	1190	1189	1177	1179	1184	1193	1199	1201	1207	1223	1228	1223	1211	1199	1206	1220	1228	1211	1207	1200	1201	1207	1202	1194	1201	1213	1213	1222	1222	1232	1236	1230	1226	1229	1228	1247	1249	1245	1240	1234	1234	1224	1224	1227	1226	1227	1230	1230	1228	1222	1212	1206	1209	1214	1212	1207	1202	1199	1200	1198	1195	1183	1181	1179	1191	1202	1196	1191	1197	1206	1210	1201	1211	1222	1228	1227	1218	1220	1220	1232	1234	1230	1234	1234	1232	1233	1234	1230	1225	1215	1212	1216	1219	1219	1221	1226	1241	1249	1241	1228	1228	1226	1234	1246	1242	1223	1196	1182	1186	1195	1204	1206	1213	1222	1222	1216	1213	1216	1224	1234	1243	1250	1244	1229	1224	1225	1238	1240	1238	1236	1233	1238	1247	1253	1223	1220	1217	1218	1208	1213	1226	1220	1213	1212	1209	1218	1203	1206	1204	1196	1190	1206	1207	1204	1200	1199	1202	1214	1224	1204	1192	1190	1200	1197	1189	1186	1187	1188	1195	1199	1216	1217	1219	1219	1225	1232	1233	1225	1231	1234	1229	1223	1193	1192	1199	1212	1224	1224	1207	1190	1183	1194	1201	1198	1194	1193	1208	1219	1218	1214	1208	1203	1201	1194	1200	1205	1208	1206	1183	1178	1188	1196	1207	1207	1202	1194	1178	1171	1171	1173	1175	1178	1192	1190	1190	1191	1184	1172	1163	1161	1160	1164	1162	1170	1163	1141	1141	1157	1172	1169	1157	1153	1156	1181	1165	1149	1147	1157	1175	1180	1184	1195	1202	1209	1198	1196	1187	1185	1177	1181	1179	1172	1170	1170	1172	1174	1173	1168	1164	1156	1150	1146	1148	1149	1156	1162	1169	1165	1165	1166	1144	1150	1155	1160	1162	1159	1154	1144	1138	1136	1136	1142	1147	1160	1162	1159	1154	1155	1155	1151	1159	1156	1155	1152	1151	1150	1140	1126	1132	1140	1149	1143	1134	1126	1123	1118	1116	1113	1111	1113	1113	1117	1118	1118	1125	1115	1112	1113	1118	1112	1115	1117	1117	1115	1119	1126	1125	1125	1121	0	0	0	0	0	0	0
