0	0	0	0	0	0	0	0	0	0	0	0	0	0	0	0	0	0	0	0	0	0	0	0	0	0	0	0	0	0	0	0	0	0	0	0	0	0	0	0	0	0	0	0	0	0	0	0	0	0	0	0	0	0	0	0	0	0	0	0	0	0	0	0	0	0	0	0	0	0	0	0	0	0	0	0	0	0	0	0	0	0	0	0	0	0	0	0	0	0	0	0	0	0	0	0	0	0	0	0	0	0	0	0	0	0	0	0	0	0	0	0	0	0	0	0	0	0	0	0	0	0	0	0	0	0	0	0	0	0	0	0	0	0	0	0	0	0	0	0	0	0	0	0	0	0	0	0	0	0	0	0	0	0	0	0	0	0	0	0	0	0	0	0	0	0	0	0	0	0	0	0	0	0	0	0	0	0	0	0	0	0	0	0	0	0	0	0	0	0	0	0	0	0	0	0	0	0	0	0	0	0	0	0	0	0	0	0	0	0	0	0	0	0	0	0	0	0	0	0	0	0	0	0	0	0	0	0	0	0	0	0	0	0	1664	1722	1734	1785	1796	1791	1715	1593	1490	1433	0	0	1525	1578	1564	1556	1573	1603	1594	1610	1616	1611	1613	1623	1625	1631	1638	1636	1637	1644	1643	1646	1647	1647	1636	1634	1627	1633	1634	1636	1631	1623	1629	1652	1664	1661	1658	1647	1641	1638	1637	1635	1638	1666	1675	1666	1667	1678	1674	1676	1668	1667	1675	1680	1683	1683	1689	1695	1693	1692	1690	1685	1688	1699	1705	1708	1705	1702	1693	1694	1695	1701	1701	1707	1711	1720	1733	1732	1711	1699	1690	1716	1735	1730	1733	1739	1739	1750	1742	1740	1742	1743	1749	1763	1784	1798	1803	1791	1808	1816	1801	1752	0	0	0	0	0	0	0	0	0	0	0	0	0	0	0	0	0	0	0	0	3320	3384	3454	3492	3531	3534	3458	0	0	0	0	0	0	0	0	0	0	0	3186	3263	3313	3317	3284	3253	3225	3242	3270	3300	3315	3310	3260	3222	3185	3187	3179	3341	3394	3363	3307	3292	3267	3217	3172	3123	3104	3100	3134	3162	3159	3132	3058	3033	3062	3106	3136	3166	3185	3157	3111	3071	3035	3012	3008	2982	2958	2946	2982	2982	2940	2908	2885	2887	3002	3063	3033	3007	3036	2955	2695	2536	2438	2417	2407	2380	2368	2382	2427	2432	2424	2359	2361	2355	2358	2309	2289	2279	2288	2302	2311	2306	2286	2255	2247	2250	2246	2243	2231	2212	2195	2176	2161	2155	2157	2151	2134	2115	2105	2104	2100	2096	2099	2082	2074	2072	2072	2071	2075	2079	2083	2077	2062	2042	2024	2014	2009	2000	1995	1992	1977	1966	1958	1960	1952	1934	1925	1919	1908	1912	1916	1885	1880	1879	1868	1869	1877	1888	1888	1881	1867	1855	1845	1839	1827	1789	1781	1772	1756	1740	1745	1763	1779	1785	1781	1774	1767	1741	1724	1698	1692	1684	1674	1675	1696	1710	1719	1702	1675	1649	1633	1638	1652	1648	1640	1621	1624	1626	1615	1602	1593	1583	1599	1587	1572	1556	1550	1552	1555	1559	1556	1553	1548	1548	1546	1544	1540	1530	1523	1514	1511	1512	1509	1498	1483	1478	1474	1476	1470	1463	1455	1459	1471	1481	1491	1506	1503	1490	1479	1456	1448	1443	1438	1429	1407	1395	1402	1396	1381	1367	1359	1359	1355	1358	1359	1358	1362	1353	1345	1345	1345	1347	1352	1347	1347	1350	1356	0	0	0	0	0	0	0	0	0
0	0	0	0	0	0	0	0	0	0	0	0	0	0	0	0	0	0	0	0	0	0	0	0	0	0	0	0	0	0	0	0	0	0	0	0	0	0	0	0	0	0	0	0	0	0	0	0	0	0	0	0	0	0	0	0	0	0	0	0	0	0	0	0	0	0	0	0	0	0	0	0	0	0	0	0	0	0	0	0	0	0	0	0	0	0	0	0	0	0	0	0	0	0	0	0	0	0	0	0	0	0	0	0	0	0	0	0	0	0	0	0	0	0	0	0	0	0	0	0	0	0	0	0	0	0	0	0	0	0	0	0	0	0	0	0	0	0	0	0	0	0	0	0	0	0	0	0	0	0	0	0	0	0	0	0	0	0	0	0	0	0	0	0	0	0	0	0	0	0	0	0	0	0	0	0	0	0	0	0	0	0	0	0	0	0	0	0	0	0	0	0	0	0	0	0	0	0	0	0	0	0	0	0	0	0	0	0	0	0	0	0	0	0	0	0	0	0	0	0	0	0	0	0	0	0	0	0	0	0	0	0	0	0	1668	1674	1722	1753	1779	1756	1576	1470	0	0	0	0	0	1414	1430	1422	1532	1565	1602	1598	1608	1606	1611	1615	1619	1618	1627	1631	1630	1635	1643	1646	1645	1643	1639	1637	1632	1635	1633	1635	1629	1624	1629	1639	1654	1663	1662	1646	1630	1635	1641	1640	1659	1665	1672	1673	1677	1675	1676	1671	1675	1682	1687	1683	1681	1682	1687	1699	1708	1710	1692	1685	1699	1700	1700	1695	1704	1698	1697	1696	1708	1713	1710	1716	1719	1737	1739	1729	1712	1705	1701	1712	1704	1709	1715	1726	1731	1744	1737	1732	1747	1755	1757	1753	1763	1779	1784	1796	1808	1827	1849	1805	0	0	0	0	0	0	0	0	0	0	0	0	0	0	0	0	0	0	3331	3336	3354	3391	3426	3493	3523	3522	3472	3341	0	0	0	0	0	0	0	0	0	0	0	0	0	0	3295	3302	3307	3318	3323	3327	3299	3280	3254	3205	3187	3178	3202	3369	3419	3384	3345	3305	3259	3173	3124	3090	3085	3103	3143	3148	3155	3111	3056	3045	3031	3074	3100	3125	3142	3139	3113	3079	3028	2997	2960	2968	3029	3010	2980	2968	2960	2921	2907	2903	3022	3099	3080	3082	3073	3027	2719	2559	2441	2423	2424	2413	2382	2370	2382	2415	2386	2352	2341	2347	2353	2308	2274	2274	2281	2303	2322	2313	2286	2258	2252	2254	2244	2239	2228	2218	2200	2177	2158	2147	2144	2143	2129	2101	2082	2081	2080	2090	2104	2098	2086	2078	2074	2075	2077	2084	2089	2076	2061	2035	2011	1999	1999	2005	2002	1997	1985	1968	1964	1955	1947	1936	1928	1921	1911	1912	1917	1905	1891	1871	1869	1865	1868	1877	1875	1872	1862	1856	1842	1836	1824	1791	1784	1780	1769	1746	1752	1770	1778	1791	1779	1773	1742	1734	1724	1711	1705	1704	1714	1714	1713	1706	1700	1664	1654	1648	1640	1639	1640	1636	1625	1619	1624	1627	1616	1607	1596	1587	1597	1581	1574	1561	1554	1556	1558	1553	1551	1552	1548	1547	1542	1539	1533	1531	1525	1519	1517	1515	1512	1504	1494	1490	1487	1485	1483	1465	1456	1462	1467	1463	1471	1481	1481	1474	1482	1470	1465	1456	1443	1435	1425	1417	1412	1408	1398	1388	1385	1385	1379	1379	1371	1353	1347	1340	1340	1335	1336	1347	1363	1368	1353	1342	1331	0	0	0	0	0	0	0	0	0
0	0	0	0	0	0	0	0	0	0	0	0	0	0	0	0	0	0	0	0	0	0	0	0	0	0	0	0	0	0	0	0	0	0	0	0	0	0	0	0	0	0	0	0	0	0	0	0	0	0	0	0	0	0	0	0	0	0	0	0	0	0	0	0	0	0	0	0	0	0	0	0	0	0	0	0	0	0	0	0	0	0	0	0	0	0	0	0	0	0	0	0	0	0	0	0	0	0	0	0	0	0	0	0	0	0	0	0	0	0	0	0	0	0	0	0	0	0	0	0	0	0	0	0	0	0	0	0	0	0	0	0	0	0	0	0	0	0	0	0	0	0	0	0	0	0	0	0	0	0	0	0	0	0	0	0	0	0	0	0	0	0	0	0	0	0	0	0	0	0	0	0	0	0	0	0	0	0	0	0	0	0	0	0	0	0	0	0	0	0	0	0	0	0	0	0	0	0	0	0	0	0	0	0	0	0	0	0	0	0	0	0	0	0	0	0	0	0	0	0	0	0	0	0	0	0	0	0	0	0	0	0	0	0	0	1624	1598	1551	1530	1485	0	0	0	0	0	0	0	0	1411	1428	1400	1464	1576	1592	1596	1608	1610	1612	1601	1611	1612	1618	1616	1626	1635	1638	1642	1643	1639	1640	1633	1634	1638	1634	1628	1626	1632	1639	1655	1663	1665	1665	1609	1630	1642	1650	1655	1669	1674	1679	1683	1682	1666	1666	1674	1687	1694	1689	1681	1671	1675	1706	1711	1714	1713	1708	1693	1685	1692	1689	1696	1703	1708	1708	1706	1714	1715	1720	1737	1745	1744	1742	1723	1728	1724	1711	1706	1706	1714	1728	1735	1739	1731	1736	1756	1760	1760	1754	1770	1779	1784	1792	1807	1822	1841	1777	0	0	0	0	0	0	0	0	0	0	0	0	0	0	0	3362	3405	3396	3386	3370	3362	3372	3407	3469	3506	3496	3449	3337	3164	0	0	0	0	0	0	0	0	0	0	0	0	0	0	0	0	3340	3344	3327	3284	3262	3252	3250	3231	3226	3254	3339	3381	3373	3337	3306	3247	3176	3121	3092	3110	3165	3184	3166	3109	3084	3058	3046	3043	3057	3082	3097	3105	3107	3106	3083	3041	3009	3047	3054	3054	3019	2975	2954	2966	2957	2935	2916	3027	3104	3094	3082	3106	2978	2662	2553	2456	2416	2436	2430	2414	2397	2365	2353	2350	2348	2336	2327	2333	2297	2292	2266	2263	2292	2304	2286	2274	2276	2266	2260	2241	2242	2229	2219	2207	2182	2165	2139	2127	2135	2117	2093	2068	2059	2066	2076	2114	2109	2104	2091	2079	2072	2063	2053	2042	2032	2014	1995	1993	1997	1990	2001	1999	1992	1979	1959	1943	1941	1944	1943	1928	1911	1907	1900	1912	1914	1893	1882	1879	1870	1865	1877	1871	1863	1851	1844	1833	1823	1818	1795	1793	1791	1780	1760	1757	1746	1741	1726	1719	1713	1719	1726	1716	1709	1707	1715	1711	1707	1699	1696	1686	1658	1651	1649	1646	1646	1640	1633	1624	1617	1619	1629	1633	1633	1621	1613	1599	1574	1569	1570	1565	1563	1562	1547	1549	1549	1557	1547	1542	1541	1533	1529	1525	1523	1526	1524	1519	1509	1506	1504	1497	1489	1481	1473	1466	1465	1466	1466	1461	1453	1449	1450	1458	1457	1454	1447	1439	1428	1425	1415	1411	1406	1397	1394	1398	1398	1397	1390	1380	1367	1353	1345	1337	1333	1337	1344	1359	1360	1357	1346	1334	0	0	0	0	0	0	0	0	0
0	0	0	0	0	0	0	0	0	0	0	0	0	0	0	0	0	0	0	0	0	0	0	0	0	0	0	0	0	0	0	0	0	0	0	0	0	0	0	0	0	0	0	0	0	0	0	0	0	0	0	0	0	0	0	0	0	0	0	0	0	0	0	0	0	0	0	0	0	0	0	0	0	0	0	0	0	0	0	0	0	0	0	0	0	0	0	0	0	0	0	0	0	0	0	0	0	0	0	0	0	0	0	0	0	0	0	0	0	0	0	0	0	0	0	0	0	0	0	0	0	0	0	0	0	0	0	0	0	0	0	0	0	0	0	0	0	0	0	0	0	0	0	0	0	0	0	0	0	0	0	0	0	0	0	0	0	0	0	0	0	0	0	0	0	0	0	0	0	0	0	0	0	0	0	0	0	0	0	0	0	0	0	0	0	0	0	0	0	0	0	0	0	0	0	0	0	0	0	0	0	0	0	0	0	0	0	0	0	0	0	0	0	0	0	0	0	0	0	0	0	0	0	0	0	0	0	0	0	0	0	0	0	0	0	0	0	0	0	0	0	0	0	0	0	0	0	0	0	1466	1471	1457	1495	1596	1597	1610	1613	1610	1601	1603	1607	1609	1616	1620	1629	1636	1639	1642	1645	1646	1635	1632	1634	1628	1625	1630	1640	1653	1651	1655	1650	1643	1642	1655	1654	1664	1660	1675	1681	1682	1683	1677	1669	1652	1655	1659	1660	1657	1666	1677	1687	1704	1708	1706	1702	1697	1671	1663	1663	1699	1713	1723	1717	1705	1693	1690	1700	1724	1739	1743	1742	1741	1737	1746	1744	1737	1712	1705	1712	1729	1744	1738	1729	1749	1750	1749	1758	1769	1784	1783	1781	1786	1764	1781	1787	1702	0	0	0	0	0	0	0	0	0	0	0	0	3024	3222	3330	3397	3414	3416	3429	3394	3378	3377	3409	3471	3464	3443	3406	3350	3251	3182	0	0	0	0	0	0	0	0	0	0	0	0	0	0	0	0	3344	3312	3274	3257	3260	3283	3298	3286	3307	3333	3346	3343	3334	3300	3248	3184	3150	3142	3168	3200	3194	3148	3096	3075	3067	3080	3071	3057	3068	3091	3106	3101	3115	3104	3091	3078	3075	3078	3072	3045	2994	2936	2980	2981	2972	2950	3015	3090	3092	3098	3105	2950	2671	2544	2456	2411	2417	2429	2425	2411	2393	2364	2354	2353	2342	2330	2311	2293	2290	2269	2263	2276	2303	2294	2285	2276	2269	2259	2238	2244	2236	2223	2191	2180	2154	2146	2147	2154	2154	2131	2100	2077	2081	2094	2113	2120	2105	2069	2035	2022	2022	2042	2037	2027	2007	1993	1988	1995	2006	2005	1995	1987	1969	1954	1942	1942	1946	1956	1966	1953	1942	1920	1890	1876	1867	1866	1862	1854	1832	1833	1841	1837	1833	1809	1771	1758	1744	1787	1792	1781	1776	1773	1762	1743	1733	1725	1723	1723	1719	1720	1710	1708	1706	1715	1706	1695	1684	1680	1679	1674	1664	1665	1666	1666	1657	1649	1650	1640	1620	1605	1602	1613	1623	1618	1601	1559	1565	1571	1574	1568	1565	1552	1547	1547	1555	1551	1545	1542	1532	1523	1520	1522	1527	1524	1513	1507	1508	1505	1501	1492	1482	1472	1471	1469	1466	1468	1466	1456	1446	1442	1445	1445	1442	1438	1430	1420	1415	1412	1408	1402	1397	1400	1402	1402	1399	1395	1386	1373	1372	1369	1364	1361	1360	1354	1334	1329	1325	1321	1318	0	0	0	0	0	0	0	0	0
0	0	0	0	0	0	0	0	0	0	0	0	0	0	0	0	0	0	0	0	0	0	0	0	0	0	0	0	0	0	0	0	0	0	0	0	0	0	0	0	0	0	0	0	0	0	0	0	0	0	0	0	0	0	0	0	0	0	0	0	0	0	0	0	0	0	0	0	0	0	0	0	0	0	0	0	0	0	0	0	0	0	0	0	0	0	0	0	0	0	0	0	0	0	0	0	0	0	0	0	0	0	0	0	0	0	0	0	0	0	0	0	0	0	0	0	0	0	0	0	0	0	0	0	0	0	0	0	0	0	0	0	0	0	0	0	0	0	0	0	0	0	0	0	0	0	0	0	0	0	0	0	0	0	0	0	0	0	0	0	0	0	0	0	0	0	0	0	0	0	0	0	0	0	0	0	0	0	0	0	0	0	0	0	0	0	0	0	0	0	0	0	0	0	0	0	0	0	0	0	0	0	0	0	0	0	0	0	0	0	0	0	0	0	0	0	0	0	0	0	0	0	0	0	0	0	0	0	0	0	0	0	0	0	0	0	0	0	0	0	0	0	0	0	0	0	0	0	0	1500	1505	1501	1473	1531	1551	1566	1610	1612	1608	1604	1602	1604	1612	1623	1642	1642	1647	1647	1651	1656	1657	1647	1632	1647	1653	1656	1660	1635	1628	1634	1630	1627	1633	1643	1652	1656	1646	1678	1681	1678	1669	1656	1651	1645	1672	1683	1691	1694	1694	1691	1691	1692	1693	1681	1687	1691	1675	1659	1650	1694	1711	1723	1710	1700	1692	1690	1692	1693	1701	1705	1704	1712	1723	1733	1744	1748	1732	1718	1711	1721	1733	1726	1718	1727	1732	1743	1755	1773	1790	1780	1776	1763	1758	1806	1794	1661	0	0	0	0	0	0	0	0	0	0	0	2845	3172	3318	3348	3390	3397	3420	3410	3385	3377	3391	3413	3450	3429	3416	3387	3357	3310	3234	3239	3256	0	0	0	0	0	0	0	0	0	0	0	0	0	3317	3330	3297	3254	3257	3292	3311	3341	3322	3324	3333	3325	3319	3319	3310	3286	3244	3203	3181	3192	3199	3181	3134	3102	3092	3102	3113	3116	3083	3079	3089	3116	3122	3104	3090	3069	3052	3046	3057	3079	3063	3014	2937	2955	2985	2995	3012	3016	3074	3069	3049	3082	2895	2660	2542	2449	2404	2379	2383	2402	2402	2394	2382	2355	2344	2338	2329	2316	2309	2302	2283	2272	2276	2303	2328	2307	2286	2258	2234	2224	2246	2240	2231	2215	2186	2163	2154	2160	2163	2156	2125	2111	2093	2089	2092	2113	2108	2095	2064	2031	2021	2019	2038	2034	2019	2011	2013	2014	2028	2022	1996	1989	1977	1951	1932	1926	1938	1953	1957	1963	1967	1950	1938	1890	1872	1864	1863	1856	1845	1835	1839	1844	1847	1831	1804	1777	1743	1741	1782	1787	1780	1780	1774	1766	1745	1741	1739	1742	1738	1728	1718	1697	1709	1710	1713	1699	1680	1674	1671	1668	1666	1658	1661	1673	1666	1659	1650	1649	1639	1616	1600	1594	1605	1614	1608	1595	1572	1572	1575	1575	1568	1565	1562	1559	1557	1552	1551	1548	1540	1531	1520	1512	1517	1524	1519	1512	1506	1503	1503	1501	1493	1481	1477	1468	1461	1461	1454	1455	1457	1460	1456	1450	1439	1429	1420	1413	1417	1415	1413	1399	1387	1377	1369	1369	1369	1383	1382	1375	1380	1384	1378	1370	1363	1358	1350	1341	1324	1321	1321	1318	0	0	0	0	0	0	0	0	0
0	0	0	0	0	0	0	0	0	0	0	0	0	0	0	0	0	0	0	0	0	0	0	0	0	0	0	0	0	0	0	0	0	0	0	0	0	0	0	0	0	0	0	0	0	0	0	0	0	0	0	0	0	0	0	0	0	0	0	0	0	0	0	0	0	0	0	0	0	0	0	0	0	0	0	0	0	0	0	0	0	0	0	0	0	0	0	0	0	0	0	0	0	0	0	0	0	0	0	0	0	0	0	0	0	0	0	0	0	0	0	0	0	0	0	0	0	0	0	0	0	0	0	0	0	0	0	0	0	0	0	0	0	0	0	0	0	0	0	0	0	0	0	0	0	0	0	0	0	0	0	0	0	0	0	0	0	0	0	0	0	0	0	0	0	0	0	0	0	0	0	0	0	0	0	0	0	0	0	0	0	0	0	0	0	0	0	0	0	0	0	0	0	0	0	0	0	0	0	0	0	0	0	0	0	0	0	0	0	0	0	0	0	0	0	0	0	0	0	0	0	0	0	0	0	0	0	0	0	0	0	0	0	0	0	0	0	0	0	0	0	0	0	0	0	0	0	0	1491	1511	1522	1502	1460	1443	1530	1558	1565	1577	1610	1613	1618	1626	1637	1636	1639	1627	1608	1602	1614	1662	1674	1677	1666	1647	1640	1639	1643	1649	1643	1652	1650	1642	1634	1628	1629	1637	1647	1658	1671	1666	1653	1636	1625	1635	1663	1696	1699	1703	1697	1701	1711	1699	1690	1681	1690	1691	1684	1681	1679	1676	1680	1684	1688	1687	1687	1687	1690	1694	1697	1697	1701	1705	1712	1714	1717	1736	1740	1734	1727	1705	1718	1726	1728	1716	1713	1714	1726	1739	1757	1775	1781	1751	1800	1798	1758	0	0	0	0	0	0	0	0	0	0	0	0	2979	3242	3332	3366	3382	3391	3393	3379	3374	3364	3371	3388	3409	3405	3399	3384	3407	3355	3254	3248	3243	3257	3278	3288	0	0	0	0	3311	3317	3266	3239	3244	3271	3277	3266	3243	3233	3257	3310	3333	3333	3320	3338	3341	3336	3318	3316	3316	3301	3280	3253	3230	3207	3184	3149	3133	3120	3121	3145	3144	3136	3101	3082	3085	3063	3075	3079	3067	3023	3005	3001	3031	3065	3066	2978	2927	2947	2987	3035	3040	3018	3036	3006	2996	3020	3002	2711	2521	2444	2401	2374	2369	2371	2385	2397	2389	2352	2341	2331	2321	2301	2307	2319	2311	2296	2253	2233	2274	2265	2255	2228	2199	2215	2243	2246	2234	2214	2192	2161	2161	2173	2180	2172	2154	2131	2122	2114	2105	2107	2114	2117	2099	2073	2054	2044	2035	2046	2027	2025	2022	2028	2026	2019	2004	1983	1962	1943	1926	1915	1928	1951	1961	1965	1960	1941	1932	1883	1875	1863	1858	1851	1854	1848	1853	1859	1854	1842	1820	1793	1762	1753	1776	1773	1774	1780	1779	1768	1757	1751	1751	1753	1746	1730	1717	1699	1712	1720	1706	1691	1671	1665	1665	1665	1659	1651	1669	1667	1667	1658	1649	1648	1635	1614	1600	1593	1605	1604	1594	1585	1584	1579	1575	1570	1565	1563	1560	1559	1558	1555	1553	1549	1540	1529	1517	1508	1512	1518	1515	1509	1503	1497	1499	1499	1496	1487	1478	1471	1456	1452	1446	1449	1454	1454	1454	1449	1443	1434	1421	1411	1413	1417	1414	1399	1384	1376	1366	1366	1365	1368	1368	1367	1373	1376	1378	1367	1361	1356	1345	1335	1325	1324	1328	1322	0	0	0	0	0	0	0	0	0
0	0	0	0	0	0	0	0	0	0	0	0	0	0	0	0	0	0	0	0	0	0	0	0	0	0	0	0	0	0	0	0	0	0	0	0	0	0	0	0	0	0	0	0	0	0	0	0	0	0	0	0	0	0	0	0	0	0	0	0	0	0	0	0	0	0	0	0	0	0	0	0	0	0	0	0	0	0	0	0	0	0	0	0	0	0	0	0	0	0	0	0	0	0	0	0	0	0	0	0	0	0	0	0	0	0	0	0	0	0	0	0	0	0	0	0	0	0	0	0	0	0	0	0	0	0	0	0	0	0	0	0	0	0	0	0	0	0	0	0	0	0	0	0	0	0	0	0	0	0	0	0	0	0	0	0	0	0	0	0	0	0	0	0	0	0	0	0	0	0	0	0	0	0	0	0	0	0	0	0	0	0	0	0	0	0	0	0	0	0	0	0	0	0	0	0	0	0	0	0	0	0	0	0	0	0	0	0	0	0	0	0	0	0	0	0	0	0	0	0	0	0	0	0	0	0	0	0	0	0	0	0	0	0	0	0	0	0	0	0	0	0	0	0	0	0	1315	1386	1477	1490	1494	1474	1437	1418	1452	1548	1570	1589	1589	1610	1620	1619	1619	1613	1626	1626	1626	1612	1633	1638	1645	1653	1660	1660	1652	1644	1657	1665	1659	1645	1636	1635	1642	1651	1659	1657	1649	1643	1655	1657	1652	1637	1635	1662	1686	1696	1696	1693	1693	1702	1708	1705	1698	1686	1683	1687	1684	1681	1682	1682	1678	1679	1682	1690	1681	1680	1688	1693	1714	1687	1691	1702	1709	1708	1708	1729	1739	1734	1708	1708	1712	1715	1721	1721	1720	1721	1713	1711	1720	1757	1820	1810	1773	1747	0	0	0	0	0	0	0	0	0	0	0	0	2551	3066	3197	3260	3283	3362	3367	3358	3346	3327	3332	3334	3349	3387	3393	3412	3425	3442	3398	3335	3251	3247	3243	0	3263	0	0	0	0	3370	3339	3291	3238	3208	3196	3206	3241	3240	3233	3256	3294	3329	3325	3270	3298	3302	3330	3313	3298	3300	3306	3284	3276	3281	3251	3222	3190	3161	3161	3146	3160	3155	3139	3094	3058	3046	3045	3068	3063	3050	3001	2968	2974	2991	3025	3017	2939	2906	2936	3003	3049	3074	3013	3003	2953	2962	2986	2982	2704	2497	2432	2384	2355	2331	2342	2354	2379	2381	2343	2324	2315	2291	2291	2307	2319	2336	2291	2249	2217	2202	2222	2210	2202	2192	2222	2252	2230	2219	2205	2181	2169	2167	2183	2188	2181	2165	2148	2141	2127	2107	2095	2115	2118	2106	2090	2081	2044	2040	2056	2048	2033	2017	2014	2023	2023	1997	1973	1959	1950	1930	1919	1924	1947	1958	1947	1936	1936	1919	1902	1892	1882	1866	1855	1852	1849	1854	1859	1855	1841	1829	1811	1786	1779	1769	1767	1770	1776	1775	1768	1760	1756	1756	1755	1744	1731	1710	1715	1723	1726	1700	1674	1661	1654	1661	1668	1658	1664	1670	1665	1663	1644	1643	1638	1632	1616	1603	1597	1606	1599	1586	1582	1586	1588	1585	1573	1563	1558	1565	1568	1569	1549	1541	1540	1537	1523	1502	1484	1492	1507	1519	1521	1513	1489	1482	1483	1491	1494	1492	1482	1467	1454	1449	1447	1449	1450	1448	1449	1447	1444	1432	1422	1415	1419	1424	1407	1395	1394	1393	1393	1389	1386	1380	1369	1359	1367	1366	1358	1352	1348	1339	1332	1327	1327	1332	1334	0	0	0	0	0	0	0	0	0
0	0	0	0	0	0	0	0	0	0	0	0	0	0	0	0	0	0	0	0	0	0	0	0	0	0	0	0	0	0	0	0	0	0	0	0	0	0	0	0	0	0	0	0	0	0	0	0	0	0	0	0	0	0	0	0	0	0	0	0	0	0	0	0	0	0	0	0	0	0	0	0	0	0	0	0	0	0	0	0	0	0	0	0	0	0	0	0	0	0	0	0	0	0	0	0	0	0	0	0	0	0	0	0	0	0	0	0	0	0	0	0	0	0	0	0	0	0	0	0	0	0	0	0	0	0	0	0	0	0	0	0	0	0	0	0	0	0	0	0	0	0	0	0	0	0	0	0	0	0	0	0	0	0	0	0	0	0	0	0	0	0	0	0	0	0	0	0	0	0	0	0	0	0	0	0	0	0	0	0	0	0	0	0	0	0	0	0	0	0	0	0	0	0	0	0	0	0	0	0	0	0	0	0	0	0	0	0	0	0	0	0	0	0	0	0	0	0	0	0	0	0	0	0	0	0	0	0	0	0	0	1676	1716	1694	1600	0	0	0	0	0	0	0	0	0	0	1316	1354	1402	1450	1456	1453	1438	1428	1401	1405	1469	1563	1600	1587	1570	1562	1579	1633	1633	1655	1653	1641	1638	1640	1648	1647	1653	1660	1663	1655	1647	1662	1665	1655	1638	1625	1624	1635	1647	1657	1653	1642	1629	1629	1637	1646	1649	1653	1672	1689	1694	1696	1691	1692	1702	1709	1709	1701	1700	1693	1682	1683	1684	1686	1687	1677	1675	1682	1689	1695	1705	1719	1728	1685	1709	1725	1736	1735	1732	1731	1729	1730	1728	1720	1710	1714	1738	1748	1735	1706	1718	1716	1712	1720	1738	1699	1772	1700	1621	1587	0	0	0	0	0	0	0	0	0	0	2237	2684	2929	3051	3105	3162	3292	3335	3304	3272	3273	3259	3268	3299	3292	3291	3359	3392	3457	3408	3298	3094	3237	3222	0	0	0	0	0	0	3405	3359	3295	3212	3151	3131	3167	3211	3219	3202	3216	3262	3298	3272	3163	3119	3106	3150	3216	3271	3295	3298	3289	3284	3291	3274	3252	3231	3197	3185	3185	3176	3151	3120	3065	3048	3044	3056	3077	3083	3032	3009	2983	2968	2978	2966	2955	2902	2903	2946	2999	2999	3036	2976	2990	2995	2989	3014	2925	2631	2463	2381	2351	2325	2313	2313	2326	2352	2364	2351	2333	2305	2289	2287	2317	2344	2345	2324	2255	2226	2201	2182	2190	2190	2212	2254	2238	2225	2218	2197	2184	2179	2191	2197	2197	2182	2157	2149	2142	2137	2119	2084	2101	2094	2093	2095	2086	2068	2051	2046	2035	2023	2009	2010	2021	2018	1997	1976	1968	1963	1945	1929	1931	1942	1956	1915	1908	1910	1911	1900	1890	1880	1869	1858	1855	1850	1850	1854	1849	1838	1831	1821	1809	1783	1771	1767	1768	1764	1758	1745	1737	1745	1751	1745	1743	1737	1720	1724	1719	1720	1711	1700	1690	1686	1693	1702	1713	1713	1705	1683	1653	1640	1635	1628	1617	1606	1599	1596	1602	1600	1598	1589	1588	1585	1582	1577	1569	1570	1575	1581	1580	1569	1564	1558	1539	1522	1506	1502	1507	1520	1534	1536	1506	1482	1482	1487	1493	1484	1469	1456	1452	1447	1444	1448	1450	1449	1447	1446	1445	1446	1435	1413	1407	1403	1405	1406	1402	1397	1392	1392	1389	1389	1387	1382	1377	1353	1350	1352	1357	1360	1344	1329	1325	1327	1331	1336	0	0	0	0	0	0	0	0	0
0	0	0	0	0	0	0	0	0	0	0	0	0	0	0	0	0	0	0	0	0	0	0	0	0	0	0	0	0	0	0	0	0	0	0	0	0	0	0	0	0	0	0	0	0	0	0	0	0	0	0	0	0	0	0	0	0	0	0	0	0	0	0	0	0	0	0	0	0	0	0	0	0	0	0	0	0	0	0	0	0	0	0	0	0	0	0	0	0	0	0	0	0	0	0	0	0	0	0	0	0	0	0	0	0	0	0	0	0	0	0	0	0	0	0	0	0	0	0	0	0	0	0	0	0	0	0	0	0	0	0	0	0	0	0	0	0	0	0	0	0	0	0	0	0	0	0	0	0	0	0	0	0	0	0	0	0	0	0	0	0	0	0	0	0	0	0	0	0	0	0	0	0	0	0	0	0	0	0	0	0	0	0	0	0	0	0	0	0	0	0	0	0	0	0	0	0	0	0	0	0	0	0	0	0	0	0	0	0	0	0	0	0	0	0	0	0	0	0	0	0	0	0	0	0	0	0	0	0	0	1662	1695	1679	1632	1632	1610	1529	1479	0	0	0	0	0	0	1396	1382	1392	1409	1428	1423	1430	1439	1418	1403	1414	1509	1455	1548	1595	1569	1535	1551	1589	1622	1650	1650	1645	1633	1642	1648	1650	1653	1660	1661	1651	1640	1658	1660	1648	1630	1618	1620	1635	1641	1648	1647	1630	1616	1599	1600	1618	1639	1652	1663	1655	1657	1691	1693	1682	1673	1686	1709	1732	1729	1715	1705	1702	1698	1690	1687	1691	1688	1678	1668	1677	1696	1703	1675	1692	1717	1733	1734	1726	1707	1696	1684	1676	1669	1658	1639	1640	1651	1698	1674	1637	1617	1613	1615	1614	1636	1642	1767	1679	1598	1566	1504	1461	1460	1511	1584	1628	1637	1628	1681	1885	2250	2567	2778	2882	2938	2979	2968	2927	2846	2799	2767	2755	2756	2794	2882	2914	2871	2824	2782	2761	2744	2733	2643	2445	2361	2334	2352	2380	2423	2488	2525	2535	2531	2538	2546	2527	2537	2542	2520	2462	2374	2292	2347	2318	2255	2231	2219	2265	2551	3206	3266	3286	3280	3272	3243	3236	3243	3226	3209	3186	3189	3186	3121	3088	3071	3057	3075	3085	3110	3100	3068	3037	3026	2998	2975	2937	2895	2883	2900	2930	2936	2947	2903	2932	3003	3010	3007	3012	2914	2582	2442	2384	2335	2307	2301	2304	2318	2334	2349	2359	2350	2337	2318	2321	2335	2344	2339	2300	2276	2242	2212	2188	2190	2217	2249	2264	2237	2221	2211	2202	2195	2187	2194	2195	2188	2172	2151	2151	2147	2138	2100	2111	2105	2095	2079	2080	2076	2055	2054	2044	2033	2024	2020	2009	2010	2004	1991	1983	1983	1979	1981	1961	1945	1930	1912	1909	1911	1910	1909	1902	1895	1892	1881	1871	1855	1856	1866	1859	1843	1834	1828	1825	1818	1799	1785	1768	1756	1739	1732	1729	1730	1731	1729	1725	1719	1717	1714	1710	1700	1697	1699	1704	1710	1706	1696	1674	1668	1671	1664	1649	1626	1616	1621	1618	1613	1605	1595	1589	1600	1603	1600	1592	1590	1585	1576	1568	1561	1555	1566	1574	1573	1567	1564	1560	1542	1526	1511	1505	1508	1522	1531	1534	1498	1477	1481	1487	1489	1485	1476	1464	1456	1449	1451	1446	1444	1445	1446	1444	1446	1446	1442	1413	1398	1394	1399	1399	1397	1390	1386	1386	1382	1388	1389	1389	1383	1353	1349	1354	1359	1368	1349	1335	1327	1325	1330	1338	0	0	0	0	0	0	0	0	0
0	0	0	0	0	0	0	0	0	0	0	0	0	0	0	0	0	0	0	0	0	0	0	0	0	0	0	0	0	0	0	0	0	0	0	0	0	0	0	0	0	0	0	0	0	0	0	0	0	0	0	0	0	0	0	0	0	0	0	0	0	0	0	0	0	0	0	0	0	0	0	0	0	0	0	0	0	0	0	0	0	0	0	0	0	0	0	0	0	0	0	0	0	0	0	0	0	0	0	0	0	0	0	0	0	0	0	0	0	0	0	0	0	0	0	0	0	0	0	0	0	0	0	0	0	0	0	0	0	0	0	0	0	0	0	0	0	0	0	0	0	0	0	0	0	0	0	0	0	0	0	0	0	0	0	0	0	0	0	0	0	0	0	0	0	0	0	0	0	0	0	0	0	0	0	0	0	0	0	0	0	0	0	0	0	0	0	0	0	0	0	0	0	0	0	0	0	0	0	0	0	0	0	0	0	0	0	0	0	0	0	0	0	0	0	0	0	0	0	0	0	0	0	0	0	0	0	0	0	1627	1661	1644	1628	1639	1639	1641	1600	1551	1464	1445	1455	1472	1472	1474	1498	1515	1494	1460	1408	1408	1413	1428	1453	1481	1487	1491	1530	1443	1587	1564	1515	1543	1586	1614	1611	1590	1578	1588	1588	1586	1599	1612	1660	1653	1645	1644	1627	1612	1591	1597	1602	1614	1621	1618	1619	1618	1613	1606	1560	1571	1595	1597	1595	1589	1582	1615	1628	1604	1583	1558	1563	1578	1608	1627	1628	1623	1605	1614	1625	1626	1609	1590	1578	1566	1574	1579	1588	1575	1570	1571	1604	1636	1635	1648	1651	1638	1624	1608	1606	1605	1604	1603	1663	1647	1606	1598	1591	1580	1590	1600	1599	1581	1561	1542	1518	1495	1480	1467	1461	1474	1499	1525	1550	1596	1706	1759	1829	1897	1969	2020	2046	2041	2018	1980	1964	1950	1957	1973	1999	2017	2025	2006	1979	1939	1883	1853	1848	1835	1788	1770	1746	1716	1709	1729	1810	1804	1782	1774	1785	1801	1805	1809	1819	1823	1810	1783	1756	1741	1732	1736	1722	1719	1983	2307	2565	3211	3234	3240	3220	3202	3180	3186	3181	3174	3142	3124	3100	3101	3095	3100	3109	3109	3124	3116	3097	3055	3051	3057	3040	2988	2919	2862	2877	2899	2914	2916	2918	2860	2922	3002	2999	2991	2980	2895	2567	2448	2382	2339	2309	2297	2323	2319	2319	2320	2341	2359	2354	2340	2333	2340	2342	2315	2254	2241	2246	2223	2199	2230	2271	2297	2260	2233	2217	2205	2197	2194	2188	2183	2182	2175	2164	2164	2164	2161	2147	2106	2101	2094	2075	2046	2049	2051	2059	2050	2044	2037	2034	2029	2022	2016	1992	1986	1967	1961	1959	1960	1946	1937	1924	1916	1917	1919	1920	1913	1904	1900	1895	1882	1873	1866	1861	1873	1868	1850	1838	1828	1827	1821	1795	1783	1755	1747	1733	1728	1734	1737	1737	1733	1728	1721	1714	1710	1700	1692	1689	1691	1699	1707	1704	1695	1674	1670	1669	1661	1648	1627	1617	1617	1617	1613	1603	1587	1585	1593	1600	1597	1590	1581	1580	1572	1565	1557	1553	1556	1563	1556	1547	1551	1552	1541	1523	1506	1497	1501	1507	1505	1496	1483	1478	1481	1487	1489	1507	1500	1491	1477	1462	1456	1453	1453	1452	1447	1448	1459	1458	1435	1418	1414	1413	1413	1407	1398	1392	1389	1389	1390	1392	1397	1393	1381	1370	1367	1372	1383	1387	1382	1364	1345	1335	1336	1336	1336	0	0	0	0	0	0	0	0
0	0	0	0	0	0	0	0	0	0	0	0	0	0	0	0	0	0	0	0	0	0	0	0	0	0	0	0	0	0	0	0	0	0	0	0	0	0	0	0	0	0	0	0	0	0	0	0	0	0	0	0	0	0	0	0	0	0	0	0	0	0	0	0	0	0	0	0	0	0	0	0	0	0	0	0	0	0	0	0	0	0	0	0	0	0	0	0	0	0	0	0	0	0	0	0	0	0	0	0	0	0	0	0	0	0	0	0	0	0	0	0	0	0	0	0	0	0	0	0	0	0	0	0	0	0	0	0	0	0	0	0	0	0	0	0	0	0	0	0	0	0	0	0	0	0	0	0	0	0	0	0	0	0	0	0	0	0	0	0	0	0	0	0	0	0	0	0	0	0	0	0	0	0	0	0	0	1148	1084	0	0	0	0	0	0	0	0	0	0	0	0	0	0	0	0	0	0	0	0	0	0	0	0	0	0	0	0	0	0	0	0	0	0	0	0	1332	1289	1234	1214	1237	1282	1296	1290	1277	1284	1312	1405	1413	1419	1504	1520	1517	1495	1464	1437	1487	1476	1464	1447	1435	1446	1478	1467	1470	1473	1466	1440	1414	1407	1421	1421	1422	1414	1412	1439	1452	1446	1470	1497	1498	1490	1489	1497	1490	1500	1504	1502	1511	1562	1572	1586	1606	1649	1656	1646	1632	1620	1604	1579	1592	1599	1605	1608	1612	1609	1614	1611	1605	1558	1562	1584	1586	1578	1573	1564	1601	1610	1583	1560	1542	1547	1560	1582	1601	1605	1592	1592	1598	1603	1607	1595	1579	1567	1568	1565	1570	1577	1559	1555	1544	1558	1585	1592	1605	1614	1607	1590	1571	1568	1580	1577	1564	1537	1506	1471	1466	1477	1506	1537	1547	1553	1562	1564	1556	1509	1474	1474	1482	1482	1493	1500	1515	1538	1560	1575	1590	1621	1632	1628	1633	1647	1658	1659	1653	1643	1644	1654	1657	1657	1640	1622	1617	1598	1633	1784	1811	1803	1791	1702	1588	1579	1578	1576	1583	1604	1607	1616	1616	1608	1598	1590	1599	1619	1627	1625	1620	1610	1606	1618	1624	1640	1728	1722	1979	2514	3145	3198	3204	3203	3165	3157	3169	3162	3191	3179	3153	3131	3103	3120	3119	3114	3111	3114	3094	3071	3047	3043	3052	3039	2976	2909	2865	2877	2895	2890	2905	2896	2879	2948	3013	2991	2967	2949	2911	2643	2450	2376	2336	2323	2319	2310	2308	2286	2295	2323	2348	2348	2337	2328	2326	2315	2299	2226	2218	2227	2218	2228	2252	2275	2303	2274	2215	2201	2193	2191	2190	2173	2166	2158	2146	2163	2166	2164	2164	2148	2112	2098	2091	2068	2039	2028	2034	2052	2038	2033	2031	2041	2043	2035	1984	1980	1968	1955	1943	1947	1947	1943	1934	1923	1921	1917	1917	1914	1908	1905	1895	1878	1873	1862	1861	1857	1875	1866	1841	1842	1837	1837	1833	1801	1780	1749	1733	1726	1728	1738	1759	1763	1755	1739	1728	1719	1701	1686	1677	1680	1680	1679	1672	1666	1667	1681	1675	1668	1664	1655	1644	1633	1632	1631	1630	1623	1598	1596	1600	1611	1613	1595	1591	1589	1587	1581	1569	1559	1562	1555	1537	1519	1510	1510	1507	1502	1500	1490	1486	1481	1476	1479	1495	1501	1509	1506	1503	1493	1488	1482	1466	1452	1437	1423	1432	1448	1451	1446	1442	1440	1422	1420	1412	1411	1411	1419	1433	1428	1413	1413	1396	1387	1378	1365	1360	1366	1371	1380	1384	1391	1381	1365	1348	1336	1336	1334	1334	0	0	0	0	0	0	0	0
0	0	0	0	0	0	0	0	0	0	0	0	0	0	0	0	0	0	0	0	0	0	0	0	0	0	0	0	0	0	0	0	0	0	0	0	0	0	0	0	0	0	0	0	0	0	0	0	0	0	0	0	0	0	0	0	0	0	0	0	0	0	0	0	1366	1339	1304	1291	0	0	0	0	0	0	0	0	0	0	0	0	0	0	0	0	0	0	0	0	0	1143	1170	1210	1248	1271	1278	1288	1274	0	0	0	0	0	0	0	0	0	0	0	0	0	0	0	0	0	0	0	0	0	0	0	0	0	0	0	0	0	0	0	0	0	0	0	0	0	0	0	0	0	0	1308	1300	1295	1290	1309	1318	1332	1292	1256	1227	1218	1269	1313	1318	1324	1314	1293	1271	1272	1292	1299	1283	1259	1249	1248	1256	1277	1290	1284	1272	1256	1272	1292	1313	1333	1336	1338	1323	1295	1271	1289	1304	1326	1349	1324	1326	1302	1284	1273	1290	1326	1357	1337	1331	1327	1369	1377	1356	1336	1339	1344	1359	1380	1425	1438	1433	1389	1385	1379	1351	1318	1328	1347	1379	1444	1507	1491	1464	1431	1397	1408	1418	1401	1376	1361	1361	1386	1482	1396	1390	1398	1427	1440	1436	1429	1392	1414	1451	1453	1443	1447	1455	1461	1458	1459	1460	1426	1426	1425	1425	1436	1435	1427	1413	1418	1415	1429	1444	1460	1467	1489	1447	1447	1459	1465	1471	1475	1464	1457	1412	1442	1465	1473	1505	1473	1470	1479	1473	1461	1457	1480	1484	1482	1467	1489	1544	1545	1521	1505	1478	1470	1475	1485	1490	1490	1499	1502	1494	1483	1467	1455	1441	1436	1466	1534	1528	1526	1495	1485	1490	1494	1499	1507	1518	1510	1488	1485	1495	1494	1494	1494	1499	1507	1512	1510	1510	1511	1500	1499	1509	1517	1515	1495	1480	1476	1472	1475	1498	1536	1547	1548	1524	1516	1507	1501	1501	1504	1523	1519	1523	1523	1527	1526	1534	1533	1534	1538	1540	1548	1554	1551	1560	1570	1582	1575	1560	1548	1547	1550	1560	1565	1588	1581	1575	1537	1524	1754	1539	1739	1562	1566	1568	1547	1557	1567	1569	1560	1560	1558	1550	1542	1533	1552	1569	1580	1575	1584	1596	1583	1584	1620	1621	1652	1735	1960	2480	3121	3155	3180	3181	3176	3172	3204	3215	3243	3229	3200	3179	3171	3166	3142	3109	3071	3042	3054	3059	3050	3061	3059	3024	2962	2909	2884	2879	2880	2872	2886	2908	2908	2971	3017	3006	2982	2942	2879	2667	2462	2389	2346	2324	2309	2304	2280	2275	2284	2309	2321	2327	2328	2317	2315	2308	2286	2244	2230	2226	2224	2231	2250	2260	2265	2278	2214	2191	2184	2181	2170	2157	2145	2144	2146	2160	2169	2160	2146	2143	2116	2116	2109	2078	2038	2018	2018	2039	2034	2022	2001	2024	2034	1999	1963	1949	1933	1930	1930	1947	1975	1984	1971	1945	1921	1910	1906	1896	1884	1887	1890	1873	1858	1837	1841	1844	1847	1850	1846	1845	1845	1852	1845	1819	1798	1790	1774	1768	1760	1748	1747	1736	1739	1734	1721	1699	1681	1674	1681	1680	1682	1680	1675	1673	1671	1673	1666	1660	1659	1662	1659	1647	1640	1637	1633	1622	1605	1599	1604	1611	1614	1595	1587	1588	1584	1577	1565	1556	1561	1556	1540	1521	1506	1505	1501	1495	1496	1487	1481	1476	1477	1480	1496	1505	1507	1508	1504	1491	1480	1475	1464	1452	1436	1423	1429	1445	1447	1442	1437	1433	1417	1412	1405	1411	1415	1420	1437	1425	1412	1412	1396	1386	1376	1361	1357	1370	1378	1390	1397	1397	1385	1367	1346	1336	1333	1335	1335	0	0	0	0	0	0	0	0
0	0	0	0	0	0	0	0	0	0	0	0	0	0	0	0	0	0	0	0	0	0	0	0	0	0	0	0	1330	1310	1270	1253	1262	1264	1272	1272	1281	1317	1357	1357	1324	1299	1306	1334	1334	1348	1336	1323	1304	1279	1268	1283	1295	1295	1303	1303	1325	1351	1352	1331	1298	1288	1291	1315	1325	1318	1315	1317	1319	1283	1264	1277	1277	1293	1316	1327	1343	1350	1320	1305	1308	1308	1300	1276	1265	1281	1293	1290	1274	1255	1281	1316	1337	1340	1335	1325	1316	1304	1280	1262	1264	1270	1297	1323	1343	1351	1366	1390	1405	1395	1359	1337	1343	1346	1338	1317	1298	1289	1312	1338	1343	1314	1271	1257	1273	1341	1366	1364	1361	1352	1347	1344	1339	1341	1351	1370	1385	1395	1397	1378	1355	1334	1332	1344	1357	1360	1378	1388	1388	1375	1329	1318	1315	1327	1338	1346	1335	1325	1325	1318	1312	1323	1346	1393	1390	1369	1390	1396	1387	1369	1365	1361	1363	1360	1368	1353	1347	1339	1337	1349	1356	1372	1390	1409	1397	1407	1379	1380	1373	1362	1337	1329	1345	1381	1388	1401	1416	1434	1441	1441	1424	1396	1386	1409	1418	1423	1428	1435	1410	1377	1372	1434	1454	1467	1448	1430	1421	1445	1406	1382	1411	1413	1411	1410	1400	1424	1423	1398	1393	1398	1395	1429	1454	1444	1443	1421	1419	1422	1422	1429	1433	1433	1444	1430	1427	1407	1430	1422	1425	1435	1431	1425	1431	1414	1420	1423	1436	1437	1456	1447	1441	1445	1433	1434	1439	1442	1443	1454	1439	1447	1447	1462	1477	1458	1449	1443	1419	1420	1427	1445	1450	1452	1445	1439	1443	1449	1471	1472	1457	1449	1457	1478	1487	1493	1487	1481	1474	1466	1451	1441	1439	1437	1440	1459	1475	1492	1494	1482	1478	1478	1489	1487	1495	1482	1467	1457	1480	1487	1485	1483	1484	1496	1513	1521	1521	1521	1521	1514	1513	1516	1514	1501	1484	1480	1479	1480	1500	1529	1541	1537	1511	1501	1495	1488	1493	1509	1531	1521	1518	1516	1520	1531	1532	1532	1537	1544	1537	1531	1531	1535	1546	1561	1567	1571	1554	1547	1538	1544	1542	1564	1588	1597	1571	1496	1438	1461	1490	1520	1551	1555	1534	1538	1543	1556	1568	1567	1552	1549	1545	1535	1533	1554	1561	1556	1558	1587	1602	1563	1563	1583	1613	1664	1749	1973	2456	3099	3156	3178	3185	3178	3196	3198	3247	3257	3239	3211	3208	3194	3189	3162	3099	3037	3023	3031	3049	3067	3080	3064	3019	2975	2925	2886	2878	2861	2856	2874	2890	2899	2973	3020	3027	3011	2967	2908	2725	2495	2414	2368	2322	2285	2276	2280	2297	2305	2320	2321	2323	2324	2318	2317	2305	2297	2261	2243	2238	2235	2234	2243	2247	2247	2249	2219	2199	2195	2174	2142	2138	2132	2134	2142	2164	2165	2147	2130	2114	2127	2132	2106	2077	2049	2017	1988	1980	1987	1994	2006	2028	2034	2009	1968	1954	1939	1931	1936	1965	1983	2000	1997	1955	1926	1909	1895	1881	1868	1879	1888	1885	1865	1847	1836	1833	1833	1835	1838	1847	1855	1855	1845	1819	1802	1789	1776	1767	1758	1750	1742	1736	1727	1733	1726	1698	1685	1674	1681	1689	1684	1679	1676	1670	1667	1663	1654	1646	1657	1661	1656	1652	1650	1643	1631	1621	1601	1589	1595	1605	1603	1595	1580	1565	1554	1557	1559	1553	1546	1539	1531	1520	1520	1524	1521	1512	1505	1501	1491	1493	1482	1486	1495	1504	1514	1504	1490	1471	1468	1471	1468	1459	1442	1429	1431	1432	1428	1416	1408	1402	1398	1393	1384	1395	1401	1406	1414	1423	1416	1416	1399	1380	1366	1357	1350	1357	1364	1371	1375	1382	1384	1375	1355	1339	1335	1330	1330	0	0	0	0	0	0	0	0
0	0	0	0	0	0	0	0	0	0	0	0	1270	1190	1190	1172	1192	1240	1262	1261	1261	1252	1253	1258	1272	1300	1325	1317	1331	1320	1290	1258	1257	1260	1268	1268	1288	1311	1335	1338	1327	1313	1319	1333	1333	1350	1358	1362	1343	1325	1310	1328	1345	1350	1346	1346	1345	1349	1351	1351	1342	1328	1305	1279	1274	1288	1320	1337	1334	1320	1309	1309	1309	1321	1333	1336	1334	1328	1312	1303	1290	1292	1298	1292	1293	1295	1291	1285	1290	1295	1303	1313	1328	1331	1319	1313	1305	1288	1246	1223	1215	1243	1269	1293	1317	1327	1328	1337	1346	1352	1336	1344	1360	1365	1364	1345	1332	1315	1324	1328	1320	1300	1286	1311	1342	1362	1360	1358	1358	1348	1345	1340	1338	1330	1337	1356	1374	1377	1371	1362	1358	1363	1381	1391	1389	1382	1374	1380	1379	1379	1364	1339	1331	1335	1328	1318	1315	1309	1302	1305	1312	1332	1354	1384	1362	1367	1380	1397	1403	1385	1371	1366	1371	1375	1372	1351	1346	1352	1364	1387	1385	1386	1387	1394	1406	1402	1413	1370	1363	1340	1368	1361	1361	1370	1386	1389	1384	1387	1390	1394	1397	1397	1387	1389	1402	1418	1423	1399	1398	1387	1364	1365	1404	1407	1385	1377	1384	1407	1417	1400	1413	1419	1428	1424	1418	1417	1409	1406	1424	1420	1417	1423	1454	1440	1433	1423	1416	1411	1414	1415	1431	1435	1425	1420	1405	1402	1411	1418	1421	1426	1418	1431	1422	1431	1441	1454	1489	1486	1454	1447	1435	1440	1430	1425	1436	1439	1442	1451	1437	1447	1443	1448	1456	1461	1464	1459	1423	1439	1455	1462	1460	1454	1448	1439	1429	1445	1454	1466	1452	1448	1454	1462	1471	1490	1488	1476	1468	1467	1458	1446	1446	1449	1458	1463	1475	1487	1491	1484	1479	1478	1488	1484	1485	1476	1463	1460	1475	1481	1479	1483	1487	1495	1512	1528	1537	1534	1529	1526	1514	1512	1509	1493	1485	1481	1486	1491	1500	1493	1503	1509	1504	1484	1479	1474	1483	1504	1518	1519	1512	1504	1500	1500	1519	1535	1542	1534	1523	1521	1525	1530	1546	1533	1523	1537	1534	1524	1507	1504	1522	1552	1583	1601	1563	1470	1389	1414	1447	1485	1546	1551	1534	1526	1530	1547	1565	1570	1557	1543	1535	1533	1541	1558	1551	1549	1554	1569	1568	1551	1550	1562	1604	1662	1768	2003	2460	3059	3142	3166	3175	3187	3206	3193	3227	3234	3198	3185	3167	3180	3183	3137	3066	3022	3006	3020	3043	3069	3092	3081	3040	2985	2930	2880	2845	2835	2838	2841	2855	2861	2952	3027	3053	3053	3019	3013	2757	2533	2441	2379	2314	2282	2286	2311	2335	2341	2345	2344	2341	2333	2329	2313	2297	2286	2276	2243	2238	2240	2232	2228	2224	2230	2240	2226	2232	2218	2190	2155	2142	2138	2134	2154	2157	2160	2144	2117	2111	2132	2123	2109	2079	2096	2071	2056	2021	2013	2015	2019	2030	2044	2030	1989	1972	1957	1944	1945	1953	1954	1955	1956	1957	1944	1930	1891	1871	1900	1910	1908	1914	1915	1888	1867	1850	1822	1795	1781	1773	1780	1794	1795	1780	1769	1764	1769	1768	1767	1764	1773	1769	1758	1748	1737	1726	1719	1714	1714	1727	1727	1710	1688	1670	1661	1655	1645	1625	1633	1648	1660	1661	1656	1637	1631	1623	1620	1628	1639	1641	1622	1600	1601	1598	1577	1565	1551	1535	1518	1509	1514	1518	1522	1525	1530	1533	1531	1530	1526	1516	1506	1497	1485	1483	1491	1500	1492	1479	1459	1455	1456	1463	1470	1476	1474	1467	1459	1447	1431	1417	1414	1413	1414	1410	1398	1401	1399	1398	1398	1400	1392	1380	1369	1355	1350	1355	1362	1374	1380	1380	1370	1358	1343	1339	1339	1328	1328	0	0	0	0	0	0	0	0
0	0	0	0	0	0	0	0	0	0	0	1301	1235	1249	1249	1252	1235	1248	1286	1311	1311	1316	1311	1301	1300	1310	1310	1310	1335	1359	1359	1304	1285	1301	1318	1318	1318	1304	1300	1302	1310	1322	1335	1345	1345	1337	1333	1330	1305	1296	1308	1308	1312	1317	1324	1335	1335	1343	1348	1354	1356	1348	1335	1315	1304	1333	1344	1339	1342	1341	1344	1357	1357	1363	1356	1344	1330	1316	1308	1307	1301	1304	1313	1308	1313	1324	1314	1292	1272	1263	1274	1291	1312	1319	1312	1303	1312	1294	1287	1283	1288	1288	1290	1301	1311	1317	1321	1344	1352	1357	1352	1360	1364	1364	1354	1349	1342	1334	1329	1331	1325	1326	1328	1332	1336	1367	1373	1365	1357	1359	1349	1348	1351	1353	1349	1352	1355	1349	1361	1368	1367	1366	1360	1356	1359	1364	1374	1366	1349	1335	1353	1366	1371	1373	1368	1359	1346	1336	1328	1336	1345	1345	1342	1347	1342	1356	1371	1391	1407	1389	1361	1356	1362	1366	1362	1353	1352	1349	1363	1371	1366	1363	1367	1373	1390	1400	1401	1362	1357	1385	1373	1375	1358	1356	1367	1362	1359	1365	1372	1385	1396	1398	1399	1395	1396	1395	1391	1376	1341	1370	1392	1354	1376	1378	1381	1376	1391	1407	1442	1424	1427	1429	1424	1427	1423	1401	1402	1434	1425	1426	1410	1411	1430	1448	1429	1426	1410	1409	1411	1417	1431	1416	1418	1415	1404	1408	1413	1431	1431	1421	1421	1444	1434	1424	1432	1472	1516	1508	1431	1400	1447	1441	1442	1409	1396	1407	1427	1463	1470	1459	1446	1440	1452	1479	1464	1468	1454	1452	1460	1488	1453	1457	1444	1441	1433	1441	1450	1448	1449	1458	1453	1455	1468	1486	1494	1478	1469	1466	1459	1453	1454	1466	1471	1474	1455	1441	1450	1470	1478	1480	1485	1476	1477	1478	1478	1472	1477	1484	1487	1496	1497	1500	1506	1516	1520	1516	1511	1498	1497	1494	1501	1491	1477	1474	1474	1476	1479	1481	1465	1465	1443	1433	1436	1456	1479	1497	1506	1501	1502	1476	1467	1469	1476	1488	1494	1485	1496	1526	1521	1548	1545	1485	1504	1497	1507	1510	1506	1505	1521	1550	1588	1577	1558	1484	1409	1390	1416	1452	1534	1548	1524	1520	1539	1544	1550	1545	1543	1544	1531	1531	1534	1549	1550	1547	1544	1553	1548	1538	1539	1560	1595	1657	1783	2018	2424	2976	3088	3143	3153	3172	3183	3176	3150	3167	3167	3143	3136	3142	3116	3088	3009	2994	3000	3012	3046	3071	3087	3080	3060	3004	2915	2877	2856	2841	2828	2813	2805	2826	2926	3044	3101	3084	3056	3031	2790	2546	2447	2384	2319	2316	2333	2354	2371	2365	2353	2351	2347	2342	2325	2300	2278	2266	2268	2238	2232	2230	2226	2221	2214	2216	2225	2227	2236	2250	2227	2191	2167	2141	2140	2140	2150	2152	2135	2119	2122	2123	2109	2107	2096	2081	2062	2046	2031	2021	2023	2015	2021	2016	2012	1986	1965	1955	1956	1955	1957	1948	1940	1937	1940	1935	1918	1896	1882	1906	1907	1901	1895	1890	1860	1849	1839	1819	1803	1783	1776	1784	1800	1798	1779	1768	1766	1770	1768	1766	1765	1769	1770	1767	1756	1744	1734	1727	1724	1724	1728	1725	1708	1683	1668	1658	1653	1645	1637	1635	1651	1658	1655	1650	1637	1629	1615	1621	1626	1640	1642	1629	1602	1607	1605	1582	1566	1553	1534	1519	1511	1513	1521	1525	1530	1535	1541	1535	1529	1528	1518	1503	1495	1483	1478	1486	1497	1497	1487	1459	1450	1457	1462	1467	1472	1468	1462	1456	1451	1434	1422	1415	1414	1412	1410	1395	1399	1397	1399	1399	1397	1398	1382	1370	1358	1354	1356	1364	1373	1381	1379	1369	1351	1342	1338	1339	1335	1335	0	0	0	0	0	0	0	0
0	0	0	0	0	0	0	0	0	0	1294	1250	1260	1288	1288	1305	1276	1265	1284	1315	1315	1324	1323	1312	1297	1298	1295	1295	1300	1303	1308	1313	1307	1325	1337	1337	1338	1335	1329	1321	1319	1314	1315	1332	1332	1321	1314	1306	1294	1294	1304	1302	1304	1327	1334	1319	1319	1313	1316	1321	1337	1343	1343	1344	1340	1331	1330	1316	1307	1309	1319	1332	1332	1340	1347	1347	1359	1360	1355	1353	1346	1333	1325	1304	1303	1311	1315	1309	1303	1303	1307	1323	1335	1340	1331	1326	1316	1308	1313	1329	1347	1340	1335	1341	1351	1351	1352	1359	1370	1368	1367	1357	1356	1353	1348	1348	1339	1324	1323	1330	1344	1355	1356	1348	1347	1355	1347	1340	1336	1343	1336	1337	1344	1351	1361	1368	1378	1377	1381	1376	1371	1366	1361	1358	1360	1365	1371	1355	1344	1350	1361	1375	1381	1379	1377	1362	1355	1344	1339	1341	1346	1351	1345	1336	1349	1359	1372	1388	1404	1377	1357	1357	1359	1364	1358	1353	1348	1352	1360	1368	1355	1342	1349	1376	1384	1400	1390	1358	1357	1388	1374	1368	1370	1375	1349	1351	1346	1360	1371	1390	1404	1410	1408	1402	1384	1377	1343	1337	1380	1368	1399	1403	1387	1384	1383	1372	1391	1432	1439	1421	1423	1425	1407	1425	1433	1419	1417	1428	1401	1416	1428	1411	1413	1431	1431	1428	1415	1409	1432	1419	1410	1410	1412	1412	1401	1407	1419	1422	1427	1435	1444	1447	1438	1425	1424	1463	1567	1563	1426	1391	1416	1417	1416	1394	1399	1406	1461	1496	1471	1475	1449	1454	1474	1493	1477	1471	1459	1442	1459	1450	1447	1441	1444	1441	1432	1451	1458	1430	1445	1442	1452	1443	1456	1459	1458	1484	1470	1466	1465	1470	1473	1489	1488	1475	1451	1431	1434	1442	1448	1446	1447	1461	1482	1488	1484	1486	1491	1499	1499	1498	1503	1490	1487	1489	1480	1475	1467	1479	1488	1494	1503	1507	1504	1504	1497	1489	1484	1464	1468	1487	1505	1523	1517	1489	1483	1487	1480	1489	1493	1487	1476	1486	1487	1504	1493	1504	1497	1546	1547	1556	1527	1514	1502	1503	1509	1511	1512	1516	1528	1554	1555	1546	1549	1497	1450	1400	1422	1428	1458	1520	1507	1503	1529	1541	1548	1543	1544	1544	1541	1536	1535	1542	1549	1548	1537	1538	1538	1534	1548	1566	1588	1650	1783	1998	2329	2974	3047	3083	3105	3111	3112	3103	3072	3098	3107	3107	3081	3078	3045	3015	2995	2988	2986	3007	3017	3063	3061	3059	3049	3028	2918	2891	2875	2849	2841	2813	2819	2866	2877	3006	3044	3038	3030	2997	2771	2541	2441	2392	2350	2348	2369	2379	2375	2361	2352	2348	2344	2328	2306	2287	2274	2264	2246	2241	2241	2244	2239	2218	2206	2193	2201	2216	2217	2216	2199	2176	2162	2162	2162	2164	2157	2142	2124	2113	2136	2136	2120	2104	2088	2070	2064	2045	2029	2024	2019	2018	2011	2008	2007	1992	1961	1948	1949	1957	1959	1951	1942	1932	1939	1935	1919	1903	1899	1915	1911	1890	1873	1860	1845	1836	1836	1841	1822	1811	1811	1821	1824	1798	1791	1783	1784	1779	1773	1761	1759	1765	1765	1773	1768	1755	1740	1737	1731	1724	1708	1690	1678	1666	1654	1650	1657	1656	1651	1650	1656	1656	1648	1642	1626	1607	1602	1606	1619	1625	1624	1620	1615	1614	1613	1610	1597	1585	1567	1553	1544	1537	1535	1537	1546	1550	1548	1536	1528	1516	1503	1492	1482	1481	1483	1483	1488	1494	1495	1486	1471	1454	1445	1441	1441	1438	1434	1436	1434	1426	1414	1395	1388	1394	1395	1389	1385	1384	1386	1386	1394	1391	1386	1384	1380	1372	1356	1352	1352	1356	1355	1347	1348	1352	1358	1360	1353	1353	0	0	0	0	0	0	0	0
0	0	0	0	0	0	0	0	0	0	1266	1222	1276	1294	1294	1274	1267	1287	1298	1326	1326	1346	1352	1326	1328	1315	1304	1304	1293	1286	1284	1287	1296	1304	1297	1297	1291	1306	1312	1323	1324	1320	1313	1310	1310	1313	1304	1300	1291	1289	1300	1305	1324	1319	1327	1321	1321	1318	1328	1332	1324	1326	1337	1326	1329	1329	1330	1319	1308	1305	1305	1317	1337	1337	1343	1348	1361	1366	1371	1375	1357	1343	1330	1313	1309	1310	1323	1322	1310	1317	1318	1328	1340	1338	1331	1330	1322	1320	1333	1347	1350	1340	1340	1351	1360	1355	1348	1346	1349	1349	1350	1347	1352	1353	1358	1356	1344	1328	1323	1334	1345	1356	1356	1348	1346	1354	1339	1326	1321	1333	1329	1330	1336	1345	1358	1371	1381	1383	1387	1385	1377	1375	1364	1362	1362	1364	1366	1355	1347	1353	1373	1387	1392	1382	1379	1376	1362	1353	1349	1346	1352	1353	1342	1348	1363	1363	1363	1368	1369	1369	1374	1366	1366	1356	1347	1348	1346	1345	1349	1362	1366	1363	1369	1376	1389	1402	1387	1360	1361	1379	1378	1384	1379	1378	1388	1398	1396	1393	1381	1392	1410	1419	1421	1409	1392	1370	1340	1337	1364	1372	1405	1408	1395	1396	1388	1375	1385	1398	1433	1430	1420	1415	1415	1407	1415	1414	1433	1423	1407	1413	1422	1420	1422	1424	1428	1424	1428	1424	1421	1411	1410	1411	1422	1415	1392	1397	1403	1420	1431	1422	1431	1435	1423	1419	1429	1525	1664	1656	1425	1419	1406	1422	1452	1456	1416	1424	1407	1453	1491	1468	1453	1471	1496	1486	1468	1463	1449	1445	1469	1472	1457	1442	1434	1447	1474	1488	1428	1418	1426	1433	1441	1445	1451	1454	1459	1462	1467	1469	1472	1480	1497	1503	1503	1481	1456	1448	1440	1441	1445	1450	1457	1473	1485	1486	1483	1492	1501	1504	1503	1496	1495	1488	1500	1502	1491	1481	1468	1465	1475	1485	1496	1511	1519	1519	1505	1492	1480	1454	1467	1473	1501	1524	1514	1497	1487	1487	1486	1482	1494	1495	1491	1491	1494	1500	1499	1474	1474	1514	1561	1569	1537	1536	1526	1510	1517	1523	1523	1526	1531	1536	1528	1526	1535	1513	1488	1425	1430	1430	1443	1501	1494	1493	1508	1531	1542	1550	1550	1543	1544	1546	1541	1534	1540	1537	1537	1534	1534	1543	1565	1579	1599	1646	1715	1833	2295	2998	3020	3018	3017	3018	3017	3016	3023	3053	3083	3079	3043	3019	3005	2993	3008	2991	2978	2997	3013	3035	3052	3064	3047	3027	2922	2903	2890	2877	2873	2862	2863	2880	2827	2914	2940	2933	2954	2966	2722	2539	2475	2425	2380	2355	2370	2361	2352	2350	2341	2337	2334	2318	2303	2284	2264	2248	2239	2245	2254	2265	2251	2225	2200	2179	2183	2203	2204	2191	2173	2161	2162	2162	2158	2152	2144	2114	2097	2110	2133	2117	2106	2096	2082	2072	2061	2048	2028	2024	2013	2006	2005	2012	2017	1981	1958	1936	1943	1952	1961	1956	1943	1938	1939	1933	1918	1905	1896	1909	1903	1879	1863	1860	1855	1847	1840	1846	1840	1827	1824	1827	1827	1817	1804	1798	1786	1779	1773	1768	1759	1762	1757	1742	1745	1747	1746	1740	1727	1710	1688	1688	1684	1678	1667	1663	1661	1656	1653	1649	1658	1644	1647	1634	1622	1609	1601	1601	1609	1619	1628	1626	1624	1621	1621	1619	1605	1589	1569	1554	1549	1541	1534	1534	1537	1542	1537	1543	1540	1534	1524	1513	1504	1500	1498	1497	1499	1486	1470	1463	1454	1446	1434	1436	1443	1447	1447	1446	1438	1430	1430	1422	1421	1409	1402	1403	1396	1390	1379	1379	1376	1381	1385	1384	1377	1377	1376	1374	1367	1355	1344	1339	1341	1346	1371	1370	1358	1358	0	0	0	0	0	0	0	0
0	0	0	0	0	0	0	0	0	0	1232	1232	1259	1265	1265	1277	1293	1306	1314	1326	1342	1342	1358	1350	1321	1323	1315	1297	1297	1285	1283	1283	1295	1301	1294	1294	1288	1294	1314	1327	1326	1329	1325	1315	1310	1310	1306	1305	1297	1290	1307	1314	1317	1316	1322	1319	1319	1320	1329	1330	1320	1314	1309	1318	1323	1329	1337	1324	1310	1286	1286	1296	1335	1335	1342	1346	1356	1369	1381	1382	1368	1347	1325	1320	1314	1317	1328	1335	1329	1328	1328	1334	1338	1340	1331	1328	1320	1308	1322	1341	1342	1338	1344	1362	1368	1361	1346	1335	1329	1330	1339	1338	1345	1355	1365	1367	1353	1331	1332	1341	1355	1355	1349	1343	1340	1346	1324	1313	1319	1332	1328	1327	1331	1336	1341	1354	1370	1377	1391	1392	1392	1405	1406	1388	1369	1363	1372	1382	1383	1385	1397	1401	1391	1375	1368	1378	1380	1379	1382	1381	1377	1371	1360	1348	1361	1359	1358	1364	1379	1390	1391	1377	1363	1343	1339	1339	1343	1344	1329	1328	1347	1353	1365	1371	1372	1398	1401	1375	1372	1360	1388	1391	1388	1388	1399	1417	1420	1417	1423	1426	1421	1426	1424	1415	1399	1378	1358	1393	1402	1396	1399	1404	1394	1399	1381	1384	1393	1402	1409	1414	1400	1404	1399	1397	1394	1420	1425	1420	1409	1417	1418	1419	1427	1440	1450	1424	1428	1444	1431	1415	1407	1410	1425	1422	1436	1427	1416	1410	1410	1429	1441	1415	1414	1416	1425	1520	1543	1505	1466	1440	1431	1441	1456	1448	1417	1407	1426	1445	1452	1454	1469	1457	1477	1473	1472	1449	1448	1447	1449	1474	1446	1457	1444	1458	1484	1469	1439	1431	1438	1456	1453	1452	1453	1451	1455	1465	1477	1471	1470	1484	1505	1513	1506	1480	1473	1473	1456	1445	1452	1458	1469	1482	1493	1490	1480	1490	1499	1504	1502	1497	1488	1505	1510	1513	1507	1487	1467	1459	1463	1472	1490	1510	1521	1518	1504	1488	1476	1458	1471	1476	1500	1521	1511	1497	1489	1487	1485	1487	1490	1499	1501	1495	1494	1489	1485	1469	1468	1493	1549	1546	1532	1524	1525	1503	1516	1520	1523	1523	1525	1524	1515	1515	1527	1528	1503	1505	1448	1432	1489	1503	1510	1503	1512	1516	1522	1519	1510	1525	1540	1549	1543	1526	1526	1534	1542	1543	1546	1562	1575	1583	1600	1642	1693	1809	2255	2934	2979	2955	2932	2919	2918	2941	2977	3033	3067	3054	3018	2993	2987	3011	3029	3031	3012	3006	3026	3045	3053	3069	3037	2956	2929	2906	2899	2882	2894	2895	2896	2892	2787	2817	2862	2869	2872	2938	2671	2540	2472	2422	2405	2369	2354	2313	2329	2325	2319	2320	2326	2312	2301	2278	2252	2231	2233	2240	2249	2264	2243	2210	2180	2180	2182	2195	2194	2184	2160	2149	2157	2160	2159	2091	2087	2086	2087	2093	2094	2081	2063	2053	2037	2036	2047	2059	2055	2033	2005	1996	2005	2020	2051	2022	1993	1976	1963	1955	1973	1968	1947	1932	1924	1925	1932	1933	1890	1876	1877	1875	1867	1855	1864	1857	1841	1837	1844	1847	1845	1843	1839	1825	1818	1804	1800	1790	1777	1771	1765	1756	1747	1732	1732	1734	1745	1740	1721	1694	1688	1695	1692	1685	1677	1664	1662	1655	1650	1648	1649	1644	1642	1638	1629	1619	1608	1601	1605	1619	1631	1635	1631	1627	1623	1623	1605	1590	1565	1543	1537	1543	1534	1531	1533	1535	1535	1541	1542	1535	1523	1511	1507	1509	1509	1509	1504	1482	1467	1458	1452	1445	1435	1438	1443	1450	1451	1445	1439	1430	1422	1423	1409	1404	1402	1398	1398	1394	1384	1384	1374	1378	1386	1388	1374	1378	1379	1374	1369	1355	1341	1341	1342	1346	1371	1368	1368	1359	0	0	0	0	0	0	0	0
0	0	0	0	0	0	0	0	0	0	1215	1236	1284	1281	1281	1279	1302	1310	1306	1306	1322	1322	1333	1307	1311	1319	1320	1307	1307	1298	1288	1289	1300	1303	1309	1309	1310	1316	1323	1328	1334	1338	1337	1318	1310	1310	1311	1312	1309	1305	1324	1312	1308	1309	1317	1320	1320	1319	1328	1329	1319	1309	1302	1299	1312	1322	1332	1323	1307	1282	1277	1318	1333	1333	1337	1337	1345	1362	1369	1364	1345	1329	1324	1326	1338	1357	1365	1360	1342	1331	1332	1340	1349	1352	1348	1323	1312	1309	1316	1329	1330	1337	1351	1363	1364	1356	1346	1337	1333	1335	1340	1344	1347	1354	1365	1378	1377	1364	1365	1366	1363	1359	1349	1338	1335	1340	1330	1318	1332	1341	1342	1346	1351	1347	1336	1334	1352	1365	1381	1396	1398	1402	1401	1394	1380	1375	1382	1405	1402	1393	1387	1384	1384	1372	1367	1363	1369	1369	1373	1380	1380	1368	1351	1345	1356	1362	1360	1366	1378	1382	1382	1379	1363	1349	1350	1349	1354	1351	1341	1331	1325	1350	1363	1368	1367	1405	1423	1397	1391	1371	1421	1410	1404	1406	1417	1427	1424	1423	1420	1414	1420	1418	1412	1412	1401	1395	1424	1410	1399	1398	1404	1395	1387	1389	1385	1388	1397	1412	1415	1413	1407	1393	1403	1396	1395	1411	1430	1412	1406	1411	1417	1410	1425	1439	1438	1425	1440	1439	1434	1436	1414	1408	1423	1427	1444	1433	1416	1438	1433	1446	1444	1443	1422	1432	1454	1465	1530	1545	1436	1447	1447	1439	1451	1456	1432	1423	1447	1473	1451	1445	1468	1455	1481	1469	1479	1470	1475	1478	1455	1460	1453	1436	1463	1484	1474	1448	1440	1443	1460	1480	1464	1454	1454	1460	1467	1481	1473	1467	1465	1480	1514	1513	1501	1473	1480	1485	1471	1461	1460	1464	1477	1488	1496	1487	1473	1479	1495	1502	1507	1497	1490	1515	1518	1518	1505	1486	1473	1467	1466	1475	1493	1512	1515	1513	1502	1486	1484	1472	1476	1484	1505	1524	1510	1500	1490	1486	1486	1485	1489	1503	1508	1498	1496	1479	1496	1480	1469	1478	1499	1529	1528	1496	1494	1502	1502	1507	1507	1515	1517	1519	1519	1522	1518	1534	1526	1501	1493	1495	1511	1526	1521	1519	1523	1523	1514	1504	1501	1515	1533	1545	1544	1520	1523	1535	1564	1557	1570	1576	1589	1595	1610	1645	1678	1804	2247	2912	2913	2905	2851	2823	2823	2848	2916	2986	3030	3017	2983	2965	2969	3035	3087	3093	3050	3043	3049	3080	3061	3049	3040	2973	2932	2912	2910	2912	2905	2915	2902	2892	2769	2780	2821	2809	2874	2933	2815	2529	2473	2419	2391	2383	2348	2302	2317	2320	2321	2318	2326	2311	2285	2259	2227	2210	2225	2240	2246	2236	2214	2192	2181	2204	2216	2217	2211	2194	2170	2154	2141	2110	2088	2084	2084	2078	2077	2090	2090	2084	2064	2053	2037	2031	2046	2068	2061	2046	2032	2021	2019	2022	2037	2008	1990	1982	1963	1955	1957	1963	1956	1940	1933	1936	1945	1943	1902	1868	1874	1873	1866	1872	1868	1857	1841	1840	1856	1856	1850	1845	1840	1831	1819	1803	1790	1784	1774	1769	1763	1757	1741	1725	1724	1723	1738	1742	1726	1691	1692	1702	1705	1694	1681	1668	1658	1651	1645	1638	1640	1652	1654	1658	1647	1637	1622	1610	1604	1604	1617	1629	1622	1612	1602	1606	1590	1571	1556	1536	1537	1553	1556	1556	1547	1540	1532	1524	1526	1527	1523	1511	1495	1493	1493	1495	1502	1497	1467	1453	1454	1448	1445	1453	1457	1459	1449	1445	1442	1439	1435	1419	1410	1407	1407	1401	1397	1391	1385	1385	1378	1383	1395	1396	1380	1367	1365	1367	1372	1374	1368	1355	1349	1342	1340	1345	1345	1344	0	0	0	0	0	0	0	0
0	0	0	0	0	0	0	0	0	0	1207	1248	1305	1313	1313	1278	1293	1309	1298	1290	1299	1299	1291	1289	1296	1303	1305	1304	1304	1296	1288	1292	1305	1319	1326	1346	1346	1347	1342	1334	1339	1343	1343	1319	1312	1312	1318	1320	1326	1328	1337	1312	1309	1302	1316	1321	1321	1317	1323	1333	1333	1305	1293	1305	1322	1340	1331	1320	1300	1290	1280	1308	1333	1333	1334	1330	1333	1348	1348	1345	1335	1322	1313	1324	1345	1363	1370	1359	1342	1329	1329	1343	1353	1356	1349	1326	1308	1304	1306	1313	1327	1341	1347	1350	1343	1335	1337	1340	1344	1348	1348	1345	1335	1333	1338	1367	1384	1380	1374	1374	1374	1371	1357	1335	1338	1357	1337	1326	1337	1345	1351	1360	1371	1362	1346	1345	1351	1366	1370	1385	1386	1382	1374	1373	1374	1378	1388	1405	1404	1399	1389	1384	1379	1374	1371	1368	1362	1361	1369	1381	1383	1376	1361	1354	1360	1362	1356	1360	1374	1379	1371	1364	1372	1361	1359	1363	1364	1366	1361	1351	1340	1338	1365	1367	1367	1381	1408	1433	1420	1389	1424	1421	1417	1418	1419	1417	1410	1404	1407	1412	1418	1415	1410	1405	1397	1399	1425	1423	1409	1419	1411	1390	1387	1392	1397	1399	1406	1412	1412	1411	1406	1400	1394	1404	1401	1410	1399	1396	1397	1416	1418	1411	1426	1437	1415	1429	1403	1420	1413	1418	1411	1424	1409	1420	1433	1436	1424	1435	1435	1431	1445	1413	1427	1443	1410	1437	1465	1469	1469	1450	1449	1440	1449	1460	1447	1439	1443	1469	1447	1450	1470	1494	1457	1481	1478	1477	1474	1471	1457	1457	1440	1479	1465	1455	1467	1450	1432	1446	1465	1490	1480	1460	1462	1468	1473	1489	1478	1469	1465	1477	1517	1510	1497	1473	1485	1497	1483	1480	1468	1468	1472	1476	1488	1483	1470	1465	1486	1496	1493	1487	1497	1516	1519	1515	1504	1488	1475	1468	1472	1496	1509	1517	1511	1505	1496	1491	1493	1484	1481	1486	1503	1519	1508	1500	1491	1487	1477	1479	1490	1507	1513	1509	1490	1487	1510	1493	1485	1471	1482	1508	1509	1495	1495	1501	1482	1489	1496	1509	1518	1523	1521	1525	1532	1532	1519	1511	1504	1510	1523	1527	1527	1528	1528	1528	1524	1510	1504	1510	1521	1537	1535	1518	1519	1536	1575	1571	1579	1580	1581	1588	1609	1652	1681	1835	2317	2882	2903	2885	2830	2783	2781	2808	2869	2954	3005	2996	2958	2945	3001	3066	3118	3135	3118	3097	3092	3061	3039	3032	3037	3002	2970	2936	2920	2950	2958	2952	2924	2911	2896	2906	2851	2868	2904	2938	2876	2596	2455	2400	2380	2357	2337	2294	2305	2328	2340	2338	2330	2308	2277	2245	2216	2213	2220	2253	2208	2192	2215	2198	2190	2213	2228	2227	2217	2196	2194	2175	2159	2141	2125	2122	2119	2108	2105	2110	2112	2117	2101	2093	2074	2060	2061	2075	2080	2081	2066	2045	2019	2008	1989	1986	1986	1988	1987	1962	1963	1963	1954	1943	1945	1947	1958	1954	1902	1879	1876	1882	1885	1879	1863	1840	1825	1831	1857	1844	1851	1839	1839	1832	1818	1804	1787	1774	1768	1763	1758	1754	1743	1727	1724	1725	1733	1732	1720	1712	1703	1704	1707	1693	1675	1667	1664	1658	1649	1644	1646	1653	1660	1661	1656	1642	1629	1615	1605	1601	1603	1619	1612	1598	1592	1586	1581	1568	1557	1547	1547	1547	1548	1545	1542	1534	1524	1513	1522	1527	1525	1510	1490	1477	1482	1494	1504	1499	1461	1453	1446	1444	1446	1454	1459	1453	1444	1436	1437	1438	1441	1437	1429	1421	1411	1403	1398	1390	1390	1384	1379	1386	1395	1390	1379	1365	1362	1368	1378	1379	1365	1353	1347	1341	1336	1344	1344	1353	0	0	0	0	0	0	0	0
0	0	0	0	0	0	0	0	0	0	1207	1260	1324	1335	1298	1298	1292	1299	1296	1293	1292	1292	1289	1283	1283	1289	1291	1289	1289	1283	1288	1292	1302	1326	1342	1345	1345	1337	1328	1325	1334	1346	1349	1322	1310	1310	1319	1325	1326	1321	1328	1324	1310	1304	1308	1315	1315	1322	1324	1331	1329	1324	1290	1310	1336	1350	1349	1345	1315	1294	1277	1305	1328	1328	1343	1345	1335	1332	1335	1337	1328	1316	1315	1328	1348	1361	1365	1352	1330	1326	1336	1347	1356	1355	1345	1324	1322	1319	1315	1325	1332	1332	1330	1328	1320	1317	1323	1338	1349	1357	1354	1340	1328	1325	1338	1354	1382	1381	1382	1384	1385	1379	1368	1353	1358	1370	1356	1341	1336	1348	1360	1367	1379	1360	1355	1362	1365	1361	1367	1367	1366	1360	1357	1357	1370	1380	1388	1397	1403	1401	1398	1390	1382	1369	1373	1383	1371	1366	1369	1378	1384	1382	1375	1365	1361	1357	1359	1358	1360	1362	1365	1367	1388	1369	1363	1365	1372	1374	1364	1361	1347	1339	1364	1369	1365	1377	1397	1400	1387	1417	1417	1419	1428	1423	1416	1398	1386	1378	1388	1399	1409	1413	1412	1402	1395	1410	1411	1411	1407	1411	1418	1387	1396	1404	1408	1426	1422	1416	1404	1406	1407	1402	1401	1412	1410	1408	1399	1385	1398	1419	1411	1413	1418	1421	1408	1404	1419	1424	1423	1424	1432	1428	1420	1415	1428	1435	1441	1423	1434	1429	1433	1418	1423	1434	1425	1410	1406	1405	1412	1469	1443	1439	1441	1462	1460	1454	1414	1443	1474	1464	1454	1478	1496	1498	1459	1437	1447	1440	1455	1493	1501	1484	1447	1446	1454	1454	1436	1456	1476	1462	1494	1479	1480	1467	1476	1488	1479	1470	1483	1519	1518	1504	1480	1474	1477	1494	1501	1486	1475	1468	1466	1468	1482	1477	1461	1468	1479	1473	1472	1474	1509	1517	1522	1522	1501	1492	1477	1485	1499	1521	1526	1512	1498	1506	1503	1505	1493	1484	1461	1466	1504	1517	1511	1497	1482	1468	1465	1469	1480	1508	1510	1506	1504	1533	1519	1510	1498	1489	1483	1496	1494	1495	1494	1497	1467	1467	1493	1514	1524	1524	1525	1525	1525	1528	1515	1501	1500	1504	1516	1526	1530	1533	1537	1539	1534	1529	1528	1526	1515	1521	1523	1507	1513	1555	1556	1566	1570	1572	1574	1571	1576	1617	1687	1914	2426	2816	2907	2887	2840	2798	2801	2827	2906	2962	2981	2982	2967	2980	3010	3081	3159	3168	3173	3141	3121	3086	3048	3040	3052	3040	3014	2978	2958	2963	2963	2955	2935	2928	2955	2954	2886	2905	2931	2953	2911	2633	2459	2410	2381	2361	2294	2309	2324	2353	2355	2343	2326	2297	2266	2229	2209	2203	2219	2197	2179	2167	2194	2212	2206	2238	2232	2227	2216	2198	2193	2190	2179	2165	2155	2145	2138	2123	2110	2103	2106	2109	2109	2103	2081	2073	2069	2067	2072	2049	2027	2005	1992	1982	1979	1984	1992	1995	1994	1985	1974	1962	1954	1945	1928	1907	1893	1896	1875	1871	1872	1874	1875	1875	1861	1843	1826	1819	1812	1802	1805	1821	1818	1789	1795	1804	1780	1766	1751	1746	1743	1745	1738	1732	1728	1725	1726	1716	1705	1700	1696	1687	1677	1675	1670	1689	1697	1694	1674	1658	1656	1657	1656	1648	1638	1637	1639	1638	1628	1613	1599	1576	1565	1555	1553	1562	1559	1548	1535	1523	1513	1512	1504	1500	1504	1506	1509	1516	1517	1522	1522	1507	1490	1474	1486	1513	1522	1503	1474	1450	1434	1433	1440	1451	1450	1449	1438	1430	1431	1435	1447	1443	1439	1428	1421	1407	1400	1391	1391	1383	1377	1380	1392	1389	1371	1362	1362	1367	1376	1380	1364	1352	1346	1340	1338	1345	1345	1359	0	0	0	0	0	0	0	0
0	0	0	0	0	0	0	0	0	0	1204	1277	1330	1339	1320	1320	1311	1304	1299	1296	1301	1302	1293	1283	1275	1279	1283	1280	1280	1277	1287	1290	1305	1321	1335	1330	1330	1318	1309	1306	1316	1335	1342	1324	1317	1317	1318	1319	1318	1308	1332	1339	1327	1308	1307	1312	1323	1323	1325	1322	1321	1298	1291	1314	1339	1344	1365	1355	1354	1327	1293	1298	1332	1332	1354	1354	1347	1331	1331	1333	1329	1319	1316	1330	1347	1359	1357	1343	1327	1333	1340	1356	1356	1349	1341	1323	1335	1334	1336	1337	1335	1331	1326	1319	1316	1313	1320	1335	1353	1357	1352	1346	1342	1336	1338	1362	1375	1377	1379	1382	1388	1383	1369	1362	1368	1376	1375	1364	1353	1349	1360	1370	1380	1366	1367	1381	1380	1369	1354	1346	1350	1350	1352	1361	1377	1382	1386	1391	1400	1404	1403	1400	1390	1377	1371	1369	1381	1377	1372	1372	1376	1376	1374	1368	1366	1363	1360	1351	1343	1349	1360	1368	1403	1372	1370	1363	1365	1372	1366	1366	1354	1344	1365	1382	1381	1382	1392	1387	1396	1406	1406	1397	1408	1407	1408	1394	1371	1369	1376	1385	1405	1417	1414	1406	1407	1412	1421	1419	1398	1417	1408	1425	1403	1407	1419	1434	1420	1418	1411	1398	1398	1393	1405	1405	1407	1412	1413	1406	1406	1409	1401	1414	1416	1398	1401	1399	1423	1421	1423	1432	1431	1424	1417	1416	1424	1420	1433	1422	1426	1425	1424	1432	1423	1429	1430	1424	1406	1409	1405	1411	1435	1436	1444	1468	1480	1475	1469	1412	1447	1454	1476	1483	1493	1499	1449	1403	1396	1404	1457	1491	1484	1491	1482	1459	1501	1549	1522	1501	1463	1470	1443	1426	1442	1457	1492	1504	1507	1502	1507	1497	1487	1503	1497	1480	1483	1480	1502	1509	1508	1484	1455	1442	1443	1459	1468	1434	1448	1456	1454	1456	1440	1465	1470	1489	1503	1520	1518	1523	1552	1566	1592	1606	1646	1679	1687	1673	1665	1634	1605	1563	1533	1523	1516	1472	1450	1460	1489	1519	1534	1540	1533	1528	1510	1493	1469	1490	1482	1489	1505	1501	1487	1486	1488	1503	1477	1472	1499	1505	1525	1527	1523	1515	1513	1513	1511	1501	1497	1505	1518	1528	1531	1535	1541	1542	1538	1537	1533	1523	1515	1514	1494	1508	1522	1531	1536	1542	1551	1562	1565	1564	1572	1613	1690	1941	2813	2803	3155	3181	3146	3095	3067	3066	3090	3128	3145	3121	3102	3119	3129	3202	3249	3245	3207	3185	3159	3119	3086	3061	3077	3085	3072	3038	2986	2923	2906	2907	2940	2970	3073	3014	3027	2936	3001	3014	2935	2642	2490	2417	2384	2359	2299	2321	2344	2363	2351	2330	2312	2285	2256	2236	2250	2224	2219	2199	2147	2138	2176	2239	2259	2272	2250	2223	2198	2182	2187	2195	2195	2191	2181	2181	2164	2137	2114	2096	2091	2096	2101	2096	2074	2067	2052	2054	2053	2032	2003	1987	1972	1967	1971	1976	1989	1994	1987	1981	1967	1960	1954	1939	1911	1891	1886	1880	1880	1866	1866	1869	1871	1870	1864	1848	1835	1831	1831	1826	1814	1809	1814	1782	1760	1775	1766	1758	1742	1739	1744	1748	1739	1730	1725	1730	1723	1716	1711	1705	1702	1689	1681	1687	1689	1695	1699	1685	1665	1650	1645	1661	1659	1648	1637	1634	1633	1633	1623	1602	1590	1586	1585	1587	1573	1567	1563	1562	1557	1549	1541	1537	1537	1534	1531	1529	1534	1531	1526	1521	1523	1528	1532	1531	1528	1522	1511	1501	1477	1446	1432	1431	1436	1441	1449	1453	1449	1435	1422	1415	1415	1432	1443	1439	1417	1400	1394	1394	1394	1372	1374	1379	1380	1375	1367	1364	1365	1369	1370	1351	1348	1343	1333	1329	1335	1350	1350	1360	0	0	0	0	0	0	0	0
0	0	0	0	0	0	0	0	0	0	1210	1279	1316	1340	1330	1330	1330	1315	1300	1293	1302	1285	1285	1277	1270	1269	1272	1269	1269	1273	1279	1290	1294	1308	1309	1312	1312	1301	1293	1293	1303	1316	1329	1333	1315	1315	1320	1320	1299	1321	1339	1345	1336	1315	1314	1317	1325	1325	1321	1316	1305	1294	1297	1320	1318	1358	1352	1377	1369	1340	1310	1309	1336	1358	1358	1361	1355	1338	1337	1336	1330	1322	1319	1334	1348	1350	1348	1341	1330	1336	1347	1354	1354	1340	1331	1326	1345	1344	1346	1347	1344	1339	1339	1337	1337	1330	1332	1340	1355	1355	1350	1349	1353	1358	1363	1362	1365	1370	1373	1379	1377	1374	1361	1362	1370	1378	1384	1375	1365	1357	1360	1370	1368	1361	1362	1378	1383	1373	1349	1338	1335	1340	1363	1390	1394	1387	1379	1373	1395	1397	1399	1396	1390	1368	1359	1355	1383	1381	1372	1363	1367	1371	1368	1370	1379	1369	1359	1337	1328	1332	1356	1379	1412	1409	1372	1367	1356	1365	1360	1373	1345	1339	1361	1394	1387	1385	1369	1388	1391	1377	1356	1358	1384	1388	1392	1384	1369	1368	1374	1375	1401	1415	1415	1418	1414	1413	1415	1424	1415	1411	1415	1407	1400	1405	1421	1420	1420	1439	1418	1404	1396	1390	1392	1396	1393	1403	1412	1410	1434	1418	1404	1407	1415	1400	1404	1404	1425	1421	1415	1439	1431	1419	1415	1421	1415	1419	1433	1409	1422	1423	1426	1421	1419	1423	1426	1412	1415	1393	1396	1403	1434	1430	1440	1475	1489	1501	1454	1451	1437	1446	1459	1462	1446	1433	1417	1411	1416	1428	1438	1432	1401	1414	1450	1474	1482	1456	1431	1411	1370	1347	1416	1401	1406	1423	1439	1454	1490	1517	1500	1456	1411	1445	1459	1464	1456	1460	1476	1490	1499	1510	1514	1513	1515	1549	1687	1766	1660	1640	1531	1457	1437	1448	1471	1484	1503	1538	1575	1596	1633	1655	1717	1811	1652	1714	1723	1714	1741	1828	1824	1815	1797	1754	1762	1528	1495	1507	1537	1546	1525	1507	1496	1494	1481	1460	1450	1439	1461	1483	1509	1508	1482	1492	1492	1508	1497	1489	1504	1517	1520	1523	1508	1507	1504	1510	1510	1506	1500	1509	1523	1534	1536	1539	1542	1542	1540	1537	1539	1532	1524	1517	1527	1529	1525	1533	1539	1543	1548	1551	1559	1570	1590	1611	1675	1940	2571	3180	3419	3502	3500	3488	3494	3505	3499	3495	3483	3484	3486	3497	3337	3268	3229	3182	3139	3137	3145	3130	3100	3072	3080	3084	3100	3111	3108	3090	3075	3077	3075	3091	3085	3077	3102	3098	3094	3080	2919	2611	2523	2447	2393	2362	2331	2332	2345	2341	2323	2313	2307	2294	2274	2256	2263	2258	2232	2215	2156	2145	2151	2275	2282	2269	2244	2217	2193	2177	2176	2193	2211	2213	2209	2192	2165	2140	2115	2092	2090	2087	2088	2089	2067	2061	2045	2042	2036	2018	2002	1977	1959	1964	1962	1963	1972	1974	1977	1968	1970	1962	1952	1938	1931	1923	1926	1931	1867	1853	1851	1862	1871	1877	1877	1875	1856	1849	1845	1840	1827	1812	1799	1782	1756	1757	1758	1756	1734	1728	1731	1737	1739	1742	1741	1730	1716	1704	1709	1713	1708	1704	1684	1692	1697	1698	1691	1679	1660	1645	1641	1644	1641	1638	1620	1616	1606	1599	1586	1588	1585	1584	1582	1587	1580	1568	1563	1564	1563	1559	1552	1542	1527	1512	1506	1515	1525	1533	1529	1520	1503	1501	1504	1512	1514	1516	1501	1489	1474	1450	1438	1436	1438	1444	1452	1453	1445	1429	1415	1408	1415	1425	1440	1435	1415	1403	1384	1374	1374	1367	1369	1383	1384	1381	1375	1366	1376	1385	1384	1368	1355	1334	1325	1324	1332	1343	1343	1346	0	0	0	0	0	0	0	0
0	0	0	0	0	0	0	0	0	0	1213	1275	1299	1323	1332	1332	1331	1313	1290	1279	1276	1276	1271	1271	1267	1263	1263	1267	1267	1279	1285	1287	1291	1289	1297	1299	1299	1292	1291	1294	1302	1312	1318	1320	1315	1315	1306	1304	1310	1329	1343	1340	1332	1332	1331	1330	1327	1327	1319	1318	1311	1308	1318	1354	1332	1323	1333	1362	1369	1350	1332	1321	1330	1345	1345	1346	1346	1344	1344	1341	1334	1327	1325	1340	1347	1348	1340	1335	1332	1344	1352	1352	1337	1329	1328	1341	1346	1347	1351	1360	1355	1360	1363	1362	1358	1352	1345	1351	1356	1356	1354	1356	1358	1364	1361	1363	1371	1372	1372	1375	1368	1357	1348	1356	1370	1378	1388	1383	1374	1365	1366	1368	1361	1352	1358	1374	1379	1374	1345	1338	1349	1343	1361	1386	1391	1380	1375	1377	1386	1392	1389	1382	1374	1345	1341	1344	1371	1381	1369	1354	1353	1358	1364	1373	1383	1367	1325	1311	1313	1334	1360	1381	1402	1399	1368	1355	1354	1358	1379	1382	1369	1341	1367	1382	1374	1362	1379	1373	1397	1398	1376	1363	1360	1371	1379	1374	1366	1371	1374	1396	1406	1412	1417	1418	1407	1407	1401	1416	1439	1415	1410	1405	1394	1392	1381	1405	1416	1432	1420	1409	1402	1400	1403	1404	1409	1404	1406	1420	1435	1415	1397	1407	1411	1399	1409	1410	1428	1411	1408	1411	1420	1412	1408	1404	1421	1429	1424	1417	1406	1400	1421	1425	1430	1423	1423	1401	1406	1403	1395	1410	1440	1439	1450	1485	1492	1464	1468	1471	1385	1366	1377	1382	1364	1330	1288	1314	1352	1383	1407	1416	1385	1363	1355	1356	1367	0	0	0	0	0	0	0	0	1336	1344	1356	1388	1431	1435	1371	1252	1219	1274	1376	1459	1509	1563	1591	1624	1708	1824	1987	2183	2145	2033	1968	1975	2112	2070	1947	1743	1740	1731	1725	1707	1694	1707	1712	1768	1731	1732	1753	1846	1750	1922	1780	1902	1900	1849	1837	1798	1806	1673	1645	1484	1469	1460	1469	1464	1472	1480	1502	1504	1468	1450	1456	1464	1475	1505	1524	1522	1504	1502	1511	1506	1500	1511	1518	1518	1515	1500	1496	1502	1517	1518	1516	1513	1515	1522	1536	1539	1536	1537	1539	1540	1543	1542	1539	1541	1531	1531	1530	1527	1533	1544	1546	1539	1540	1545	1566	1598	1604	1638	1940	2664	3302	3432	3498	3544	3542	3558	3588	3602	3590	3574	3573	3567	3511	3465	3282	3150	3082	3043	3029	3025	3048	3047	3030	3052	3060	3087	3129	3146	3176	3150	3125	3121	3119	3118	3118	3140	3137	3133	3114	2960	2652	2569	2483	2422	2373	2358	2360	2349	2335	2326	2317	2310	2305	2306	2286	2272	2249	2274	2253	2199	2150	2193	2260	2261	2242	2210	2202	2198	2175	2168	2147	2106	2142	2169	2165	2147	2140	2133	2130	2123	2106	2077	2060	2068	2070	2047	2046	2042	2035	2029	2004	1982	1962	1960	1967	1972	1973	1978	1973	1963	1965	1952	1948	1956	1965	1964	1958	1918	1902	1881	1870	1867	1861	1864	1890	1886	1870	1861	1859	1854	1827	1794	1778	1752	1761	1752	1752	1738	1734	1733	1738	1738	1744	1744	1744	1736	1713	1711	1686	1665	1662	1683	1690	1681	1675	1660	1671	1611	1615	1624	1631	1629	1618	1609	1600	1594	1587	1585	1588	1597	1588	1584	1583	1585	1571	1570	1571	1570	1569	1567	1552	1540	1523	1515	1509	1506	1513	1512	1510	1506	1513	1522	1523	1515	1516	1516	1499	1492	1495	1488	1467	1460	1453	1458	1452	1442	1424	1414	1407	1415	1440	1445	1437	1412	1397	1386	1386	1373	1372	1379	1383	1385	1386	1383	1377	1376	1378	1380	1368	1355	1336	1328	1327	1328	1343	1343	1343	0	0	0	0	0	0	0	0
0	0	0	0	0	0	0	0	0	0	1215	1275	1290	1311	1327	1327	1332	1317	1284	1274	1276	1276	1275	1280	1272	1261	1262	1266	1266	1276	1278	1286	1294	1293	1300	1302	1302	1300	1296	1298	1303	1309	1309	1311	1315	1314	1314	1307	1314	1326	1337	1336	1332	1332	1333	1330	1323	1323	1319	1315	1316	1318	1341	1352	1334	1328	1332	1354	1367	1369	1354	1329	1316	1328	1328	1328	1329	1338	1340	1342	1333	1330	1336	1348	1351	1341	1329	1319	1326	1345	1353	1342	1323	1318	1330	1345	1362	1350	1360	1369	1399	1395	1387	1381	1372	1360	1357	1360	1363	1362	1360	1359	1360	1362	1362	1367	1374	1375	1366	1363	1354	1340	1347	1365	1377	1377	1383	1380	1373	1368	1363	1356	1344	1345	1349	1363	1376	1366	1362	1361	1365	1360	1351	1339	1334	1343	1354	1369	1367	1373	1380	1366	1349	1348	1364	1385	1405	1412	1402	1349	1347	1356	1378	1389	1392	1375	1363	1358	1359	1373	1376	1383	1387	1383	1355	1346	1350	1370	1390	1401	1375	1354	1383	1391	1369	1365	1368	1392	1401	1409	1398	1377	1376	1376	1375	1373	1368	1366	1377	1392	1403	1415	1413	1411	1399	1380	1377	1394	1426	1413	1409	1411	1399	1397	1396	1376	1380	1407	1420	1414	1423	1416	1409	1414	1413	1404	1410	1429	1421	1398	1401	1404	1406	1397	1384	1389	1424	1405	1414	1424	1419	1412	1406	1404	1409	1428	1418	1421	1423	1405	1401	1424	1427	1431	1402	1404	1406	1408	1411	1425	1450	1448	1464	1499	1493	1475	1484	1457	1435	0	0	0	0	0	0	0	0	0	0	0	0	0	0	0	0	0	0	0	0	0	0	0	0	0	0	0	0	0	0	0	0	0	0	0	0	0	0	0	0	0	1933	2004	2154	2265	2231	2228	2189	2223	2122	1862	1840	1853	1828	1800	1780	1779	1782	1757	1754	1800	1791	1780	1857	1938	1939	1979	1963	1938	1920	1902	1864	1860	1780	1570	1512	1470	1462	1468	1476	1494	1511	1531	1515	1498	1462	1484	1487	1459	1480	1510	1512	1502	1502	1503	1508	1502	1502	1513	1514	1509	1501	1495	1511	1531	1539	1534	1527	1523	1521	1532	1535	1536	1538	1542	1545	1549	1560	1551	1533	1529	1525	1522	1526	1529	1535	1533	1527	1526	1538	1574	1602	1602	1621	1926	2720	3365	3482	3542	3562	3557	3561	3583	3588	3580	3579	3586	3586	3576	3523	3315	3094	3021	2968	2973	3028	3069	3054	3010	3024	3046	3072	3146	3172	3154	3132	3122	3118	3118	3121	3131	3147	3160	3157	3139	3008	2712	2627	2559	2505	2476	2480	2480	2461	2488	2465	2443	2428	2401	2352	2339	2341	2351	2662	2503	2244	2412	2300	2251	2215	2192	2188	2188	2200	2190	2148	2082	2104	2051	2058	2074	2114	2155	2165	2155	2147	2138	2118	2123	2142	2159	2136	2125	2130	2145	2143	2129	2111	2070	2057	2064	2069	2060	2064	2058	2062	2057	2049	2041	2001	2007	2002	2017	2019	2014	2006	2002	2013	2021	2008	1906	1879	1869	1859	1845	1836	1823	1794	1782	1778	1767	1772	1764	1750	1743	1745	1745	1744	1741	1743	1742	1736	1711	1711	1705	1692	1685	1699	1700	1680	1663	1647	1626	1615	1612	1622	1625	1619	1604	1595	1586	1580	1579	1580	1588	1593	1588	1584	1576	1569	1570	1571	1574	1571	1573	1572	1563	1543	1528	1520	1510	1508	1508	1512	1514	1515	1519	1517	1526	1522	1513	1509	1519	1515	1495	1476	1466	1460	1460	1466	1462	1445	1442	1444	1422	1424	1425	1423	1430	1421	1402	1388	1388	1371	1365	1373	1380	1387	1390	1389	1386	1374	1362	1354	1347	1344	1339	1338	1333	1344	1344	1339	1330	0	0	0	0	0	0	0	0
0	0	0	0	0	0	0	0	1213	1213	1249	1282	1284	1304	1312	1312	1322	1317	1288	1288	1287	1288	1288	1288	1274	1264	1266	1265	1267	1267	1282	1289	1298	1298	1305	1312	1312	1311	1308	1301	1298	1296	1304	1311	1313	1311	1311	1307	1306	1325	1330	1328	1323	1323	1330	1330	1320	1320	1312	1309	1310	1319	1336	1340	1334	1328	1332	1339	1320	1333	1344	1331	1317	1310	1310	1313	1316	1324	1323	1320	1324	1334	1342	1353	1351	1340	1325	1327	1346	1361	1356	1337	1314	1332	1352	1356	1425	1439	1443	1461	1449	1441	1429	1418	1407	1422	1440	1458	1477	1467	1451	1482	1496	1496	1474	1460	1445	1510	1561	1507	1463	1436	1444	1449	1447	1444	1428	1409	1404	1414	1426	1372	1366	1360	1361	1365	1359	1364	1366	1367	1358	1346	1329	1320	1329	1350	1376	1395	1395	1417	1452	1458	1430	1395	1410	1435	1447	1442	1413	1384	1345	1300	1287	1284	1301	1309	1292	1296	1310	1287	1272	1285	1307	1320	1298	1295	1316	1341	1405	1410	1408	1374	1402	1404	1387	1388	1380	1398	1403	1408	1395	1375	1376	1378	1387	1381	1371	1362	1376	1386	1394	1398	1397	1396	1393	1378	1373	1378	1395	1411	1420	1416	1407	1401	1403	1420	1417	1400	1390	1402	1401	1409	1422	1422	1420	1408	1425	1428	1418	1400	1391	1402	1402	1391	1408	1407	1421	1441	1417	1423	1422	1416	1412	1385	1378	1409	1418	1422	1433	1415	1400	1426	1430	1437	1431	1411	1412	1409	1423	1434	1441	1448	1464	1499	1510	1492	1496	1524	0	0	0	0	0	0	0	0	0	0	0	0	0	0	0	0	0	0	0	0	0	0	0	0	0	0	0	0	0	0	0	0	0	0	0	0	0	0	0	0	0	0	0	2105	2288	2373	2422	2424	2389	2341	2235	1974	1910	1887	1859	1826	1804	1810	1804	1806	1806	1815	1790	1788	1862	1931	1945	1976	1998	1941	1931	1919	1904	1912	1873	1626	1520	1482	1452	1452	1480	1526	1549	1542	1516	1485	1459	1507	1506	1454	1467	1498	1503	1500	1493	1497	1504	1494	1494	1509	1511	1508	1503	1508	1524	1538	1546	1545	1535	1525	1522	1527	1525	1532	1543	1557	1563	1568	1562	1542	1528	1518	1522	1521	1521	1522	1519	1524	1526	1530	1550	1584	1601	1598	1616	1919	2739	3388	3507	3583	3601	3580	3579	3592	3591	3571	3571	3579	3586	3593	3541	3314	3097	2991	2967	2983	3047	3073	3059	3014	3018	3029	3055	3119	3141	3125	3116	3121	3121	3124	3131	3147	3157	3165	3160	3122	3072	3029	2747	2686	2677	2631	2649	2670	2653	2607	2607	2607	2612	2626	2684	2667	2746	2797	2815	2782	2679	2521	2360	2230	2185	2188	2180	2187	2201	2205	2156	2105	2064	2070	2054	2055	2054	2098	2164	2182	2160	2152	2144	2140	2145	2184	2202	2206	2207	2202	2193	2184	2174	2174	2163	2149	2154	2176	2187	2178	2122	2122	2096	2087	2060	2054	2076	2069	2071	2080	2089	2111	2099	2074	2050	2037	1999	1969	1949	1933	1924	1925	1881	1871	1861	1851	1825	1800	1776	1767	1759	1810	1810	1822	1838	1841	1836	1854	1847	1864	1865	1860	1843	1700	1654	1658	1646	1634	1619	1619	1617	1618	1612	1595	1586	1584	1588	1585	1581	1570	1580	1580	1576	1557	1571	1583	1587	1593	1592	1588	1579	1562	1538	1514	1526	1519	1515	1514	1519	1524	1526	1527	1524	1523	1518	1516	1513	1517	1520	1515	1495	1471	1463	1466	1470	1470	1455	1444	1438	1435	1431	1420	1407	1411	1411	1403	1390	1390	1361	1355	1362	1367	1374	1380	1385	1385	1378	1368	1350	1352	1358	1366	1352	1350	1346	1346	1331	1314	0	0	0	0	0	0	0	0
0	0	0	0	0	0	0	0	1271	1271	1317	1290	1283	1289	1299	1299	1315	1316	1298	1297	1294	1299	1299	1297	1288	1276	1270	1270	1270	1270	1280	1286	1293	1306	1312	1323	1323	1323	1313	1299	1292	1298	1309	1315	1309	1307	1307	1303	1303	1315	1322	1323	1315	1315	1320	1317	1310	1310	1305	1302	1307	1319	1331	1339	1342	1346	1342	1345	1320	1323	1341	1349	1323	1301	1302	1302	1309	1309	1312	1312	1316	1328	1343	1362	1373	1371	1368	1385	1401	1407	1402	1390	1377	1367	1385	1425	1468	1544	1566	1577	1608	1615	1603	1591	1612	1631	1650	1644	1630	1610	1614	1632	1574	1560	1543	1595	1581	1622	1608	1572	1569	1593	1602	1602	1611	1625	1641	1649	1665	1676	1673	1683	1706	1717	1737	1744	1766	1770	1770	1824	1574	1599	1642	1650	1684	1733	1781	1869	1962	1911	1835	1798	1816	1803	1796	1795	1819	1822	1817	1802	1593	0	0	0	0	0	0	0	0	0	0	0	0	0	0	0	1287	1298	1343	1408	1410	1371	1394	1410	1398	1399	1386	1392	1394	1405	1388	1376	1371	1382	1397	1397	1387	1364	1367	1372	1378	1381	1385	1378	1385	1389	1390	1387	1387	1403	1406	1409	1401	1397	1410	1420	1420	1403	1396	1382	1394	1399	1409	1401	1397	1413	1410	1405	1385	1383	1392	1405	1395	1388	1410	1412	1426	1444	1432	1419	1415	1417	1414	1402	1412	1381	1427	1426	1438	1426	1426	1426	1428	1432	1433	1429	1433	1428	1453	1434	1426	1451	1467	1501	1519	1502	1516	1617	0	0	0	0	0	0	0	0	0	0	0	0	0	0	0	0	0	0	0	0	0	0	0	0	0	0	0	0	0	0	0	0	0	0	0	0	0	0	0	0	0	0	0	2193	2395	2472	2452	2444	2430	2400	2303	2059	1970	1918	1879	1844	1829	1813	1820	1825	1843	1840	1797	1791	1848	1927	1948	1965	1979	1932	1925	1926	1923	1934	1904	1660	1541	1486	1447	1436	1475	1530	1541	1530	1508	1474	1475	1509	1508	1454	1464	1490	1494	1498	1492	1489	1499	1484	1483	1506	1510	1505	1506	1509	1520	1535	1542	1539	1535	1523	1521	1528	1530	1552	1554	1554	1555	1557	1556	1539	1527	1520	1519	1519	1504	1500	1497	1508	1527	1539	1550	1575	1587	1589	1615	1901	2758	3228	3556	3611	3625	3616	3603	3605	3606	3586	3559	3571	3579	3593	3555	3488	3181	3034	3004	3022	3090	3110	3079	3035	3021	3030	3061	3122	3109	3090	3102	3122	3135	3145	3156	3185	3184	3155	3153	3143	3129	3121	3097	2894	2885	2888	2863	2841	2829	2820	2786	2754	2760	2760	3062	3034	3056	3068	3090	3091	3012	2696	2448	2235	2207	2195	2194	2195	2203	2200	2160	2117	2094	2088	2075	2065	2056	2098	2161	2183	2178	2161	2152	2150	2178	2202	2201	2206	2203	2196	2187	2181	2176	2185	2174	2171	2173	2181	2190	2180	2161	2162	2142	2128	2134	2159	2177	2190	2213	2203	2202	2176	2140	2117	2090	2062	2080	2094	2087	2093	2113	2121	2083	2050	1995	1929	2622	2613	2554	2553	2577	2585	2597	2702	2698	2722	2759	2711	2679	2633	2589	2444	2323	1772	1650	1603	1636	1641	1631	1626	1623	1617	1614	1605	1598	1591	1588	1584	1578	1564	1563	1567	1577	1574	1587	1597	1604	1599	1588	1586	1577	1563	1543	1532	1534	1534	1530	1532	1544	1549	1548	1543	1535	1528	1521	1520	1521	1522	1522	1526	1523	1508	1497	1482	1485	1493	1499	1489	1488	1483	1479	1467	1439	1416	1400	1374	1365	1376	1364	1360	1361	1367	1372	1381	1387	1391	1386	1377	1360	1351	1357	1365	1370	1362	1344	1344	1342	1313	0	0	0	0	0	0	0	0
0	0	0	0	0	0	0	0	1276	1298	1298	1278	1276	1285	1302	1302	1325	1320	1313	1309	1308	1305	1305	1303	1300	1293	1279	1271	1276	1276	1284	1288	1290	1317	1332	1337	1330	1330	1303	1296	1301	1308	1311	1310	1301	1300	1300	1297	1302	1315	1320	1320	1315	1316	1308	1304	1297	1296	1296	1300	1315	1327	1326	1336	1349	1346	1345	1343	1325	1330	1351	1357	1324	1304	1306	1306	1312	1324	1345	1361	1368	1358	1367	1386	1398	1397	1402	1407	1399	1401	1405	1399	1388	1384	1403	1446	1517	1577	1626	1653	1668	1662	1659	1652	1657	1666	1674	1669	1663	1647	1661	1666	1658	1623	1695	1748	1763	1715	1704	1669	1651	1632	1624	1623	1633	1649	1667	1683	1699	1710	1720	1748	1765	1772	1786	1809	1831	1859	1909	1946	1973	1996	2008	2021	2038	2041	1936	1945	2068	1993	1964	1996	2030	2007	1981	2039	2078	2104	2041	1935	0	0	0	0	0	0	0	0	0	0	0	0	0	0	0	0	0	1279	1344	1407	1408	1362	1381	1393	1415	1412	1380	1380	1382	1383	1395	1380	1374	1385	1397	1397	1388	1368	1367	1368	1370	1372	1374	1376	1382	1390	1396	1403	1388	1400	1402	1401	1382	1394	1411	1420	1407	1380	1394	1401	1400	1399	1398	1397	1393	1404	1404	1391	1391	1398	1407	1419	1393	1395	1417	1417	1417	1419	1422	1413	1415	1413	1401	1406	1405	1408	1424	1440	1434	1423	1428	1424	1423	1424	1424	1422	1424	1414	1424	1421	1432	1461	1485	1511	1536	1523	1556	1735	0	0	0	0	0	0	0	0	0	0	0	0	0	0	0	0	0	0	0	0	0	0	0	0	0	0	0	0	0	0	0	0	0	0	0	0	0	0	0	0	0	0	2116	2227	2427	2493	2447	2441	2441	2430	2342	2116	2013	1958	1902	1874	1856	1837	1843	1863	1873	1869	1821	1805	1859	1907	1934	1931	1929	1914	1922	1930	1935	1941	1892	1662	1566	1504	1446	1426	1445	1499	1517	1501	1480	1473	1495	1506	1484	1453	1455	1487	1489	1499	1496	1488	1482	1487	1500	1503	1513	1507	1504	1503	1511	1520	1527	1530	1536	1537	1553	1560	1562	1555	1550	1549	1551	1553	1550	1536	1522	1517	1517	1518	1513	1497	1492	1500	1527	1540	1547	1564	1576	1582	1626	1887	2756	3148	3542	3596	3614	3613	3610	3617	3600	3583	3566	3559	3576	3557	3510	3476	3266	3066	3026	3064	3140	3154	3104	3041	3035	3037	3098	3112	3075	3067	3086	3119	3134	3150	3163	3174	3174	3169	3163	3162	3164	3181	3183	3164	3130	3134	3134	3140	3137	3130	3111	3078	3151	3163	3168	3163	3152	3145	3139	3132	3009	2846	2465	2240	2218	2209	2203	2203	2194	2180	2143	2148	2137	2115	2114	2103	2109	2152	2194	2191	2170	2157	2157	2172	2194	2209	2206	2194	2185	2180	2173	2173	2180	2178	2174	2170	2168	2179	2202	2207	2266	2389	2378	2365	2319	2200	2155	2187	2227	2284	2363	2387	2409	2426	2422	2430	2429	2459	2568	2643	2632	2618	2745	2768	2794	2778	2779	2775	2709	2717	2740	2734	2736	2830	2834	2866	2887	2839	2771	2730	2683	2501	2369	2243	1662	1581	1614	1644	1635	1626	1617	1614	1615	1614	1607	1594	1587	1583	1579	1574	1560	1567	1556	1553	1552	1560	1566	1575	1587	1582	1573	1559	1537	1537	1539	1542	1544	1550	1555	1559	1560	1563	1558	1546	1535	1525	1527	1528	1528	1531	1534	1535	1534	1526	1516	1522	1528	1529	1530	1542	1544	1528	1503	1473	1466	1466	1466	1481	1486	1469	1384	1390	1392	1406	1415	1418	1419	1401	1384	1364	1359	1358	1351	1344	1337	1337	1322	1311	0	0	0	0	0	0	0	0
0	0	0	0	0	0	0	0	1252	1271	1271	1267	1268	1282	1312	1327	1327	1320	1319	1320	1319	1317	1317	1320	1323	1311	1300	1285	1286	1286	1293	1302	1309	1330	1341	1341	1326	1326	1298	1293	1294	1311	1315	1305	1298	1294	1294	1293	1299	1308	1320	1328	1327	1313	1305	1299	1291	1294	1294	1304	1321	1327	1325	1334	1352	1345	1345	1345	1334	1344	1360	1355	1322	1320	1320	1320	1321	1337	1359	1385	1404	1412	1415	1412	1394	1393	1398	1405	1402	1406	1412	1420	1413	1407	1422	1461	1536	1609	1655	1680	1693	1689	1686	1691	1698	1694	1694	1688	1685	1690	1700	1701	1686	1691	1733	1760	1762	1760	1770	1761	1696	1644	1645	1650	1649	1659	1672	1716	1725	1736	1758	1792	1806	1817	1826	1848	1880	1930	1987	2025	2049	2066	2088	2105	2100	2116	2133	2179	2254	2225	2190	2154	2110	2087	2105	2112	2137	2141	2121	0	0	0	0	0	0	0	0	0	0	0	0	0	0	0	0	0	0	1281	1350	1405	1399	1376	1367	1390	1422	1414	1383	1376	1375	1375	1379	1388	1391	1386	1394	1397	1382	1376	1370	1361	1360	1374	1371	1374	1382	1396	1410	1399	1390	1390	1395	1389	1385	1392	1397	1392	1388	1395	1404	1411	1409	1404	1399	1412	1420	1406	1399	1385	1395	1409	1404	1417	1405	1426	1430	1417	1417	1422	1417	1404	1399	1403	1406	1401	1397	1424	1418	1436	1420	1415	1425	1426	1410	1428	1427	1425	1409	1425	1427	1422	1435	1467	1499	1520	1547	1547	1598	1897	2517	0	0	0	0	0	0	0	0	0	0	0	2867	0	0	2811	2841	2912	0	0	0	2880	2842	2856	2824	2760	2727	2728	0	0	0	0	2816	2943	2959	2912	0	0	0	0	0	0	2134	2260	2424	2501	2439	2433	2420	2441	2363	2117	2050	1986	1929	1900	1891	1874	1868	1887	1890	1885	1858	1836	1884	1935	1930	1933	1914	1914	1923	1931	1942	1945	1871	1664	1586	1539	1472	1448	1441	1464	1473	1475	1479	1487	1520	1505	1464	1435	1454	1484	1489	1498	1492	1488	1486	1491	1497	1509	1519	1510	1503	1500	1501	1508	1524	1532	1539	1545	1550	1558	1555	1553	1548	1551	1545	1547	1547	1536	1523	1520	1524	1525	1519	1520	1524	1525	1528	1535	1545	1558	1574	1582	1630	1855	2757	3219	3472	3563	3585	3578	3584	3595	3612	3583	3564	3564	3563	3562	3525	3406	3226	3072	3032	3041	3171	3177	3148	3058	3040	3064	3115	3115	3074	3075	3081	3121	3134	3135	3139	3139	3140	3142	3151	3151	3162	3161	3158	3159	3139	3142	3142	3148	3154	3149	3160	3156	3143	3162	3174	3167	3147	3127	3133	3126	3108	2886	2513	2250	2223	2208	2195	2196	2189	2184	2146	2171	2154	2137	2134	2139	2157	2206	2208	2193	2167	2156	2166	2181	2201	2212	2207	2198	2185	2179	2174	2169	2169	2175	2175	2172	2173	2205	2223	2286	2447	2427	2793	2849	2707	2503	2227	2098	2195	2335	2535	2710	2880	2903	2888	2872	2868	2984	2989	2964	2941	2929	2878	2891	2901	2921	2929	2936	2932	2894	2903	2933	2948	2951	2947	2976	2994	2999	2914	2887	2840	2657	2427	2296	1714	1627	1623	1646	1634	1621	1610	1599	1602	1609	1598	1590	1583	1582	1580	1577	1554	1552	1560	1553	1546	1551	1560	1568	1583	1581	1572	1546	1532	1538	1541	1548	1555	1561	1563	1564	1563	1566	1567	1566	1554	1542	1535	1539	1544	1539	1541	1544	1540	1533	1513	1522	1561	1569	1568	1569	1547	1570	1561	1544	1538	1535	1535	1547	1544	1489	1469	1462	1474	1427	1436	1440	1443	1440	1426	1396	1377	1367	1367	1374	1395	1395	1365	1357	0	0	0	0	0	0	0	0
0	0	0	0	0	0	0	0	1202	1248	1248	1261	1265	1289	1319	1328	1328	1321	1324	1329	1329	1327	1327	1329	1332	1330	1312	1303	1304	1304	1314	1322	1330	1335	1338	1330	1315	1315	1298	1289	1295	1307	1311	1311	1307	1307	1307	1299	1299	1303	1316	1327	1330	1324	1314	1297	1288	1291	1291	1305	1324	1332	1321	1338	1353	1339	1340	1343	1340	1353	1371	1343	1311	1327	1319	1319	1321	1366	1391	1402	1404	1404	1407	1406	1398	1388	1394	1405	1425	1432	1441	1442	1426	1429	1439	1467	1541	1614	1655	1685	1696	1709	1702	1719	1718	1717	1710	1704	1705	1726	1742	1743	1729	1715	1745	1747	1752	1755	1785	1792	1735	1651	1657	1660	1660	1668	1671	1732	1759	1759	1772	1801	1829	1848	1850	1870	1908	1962	2008	2057	2085	2107	2135	2151	2142	2160	2165	2201	2252	2253	2207	2170	2160	2149	2157	2177	2170	2186	2192	2193	0	0	0	0	0	0	0	0	0	0	0	0	0	0	0	0	0	1289	1354	1384	1378	1371	1370	1386	1416	1404	1370	1371	1374	1372	1369	1372	1382	1394	1392	1393	1394	1380	1372	1360	1359	1370	1372	1372	1387	1402	1407	1401	1397	1400	1393	1388	1389	1392	1402	1399	1395	1404	1412	1414	1408	1403	1405	1421	1435	1412	1390	1402	1395	1404	1412	1414	1422	1434	1433	1421	1424	1429	1417	1409	1405	1405	1411	1406	1418	1431	1425	1434	1432	1417	1412	1402	1405	1415	1430	1427	1427	1443	1419	1421	1437	1468	1493	1522	1555	1556	1658	2054	2660	2725	2809	2889	0	0	0	0	2990	2965	2952	2952	2968	2997	3014	3014	3020	3061	3088	3065	2960	2940	2950	2976	2974	2926	2894	2864	2869	2885	2948	2980	2991	2992	2996	2987	2842	0	0	0	0	0	2164	2288	2410	2492	2422	2416	2409	2432	2356	2134	2066	2013	1964	1913	1898	1882	1865	1872	1887	1911	1890	1867	1906	1947	1946	1949	1925	1927	1932	1937	1947	1942	1846	1672	1615	1577	1527	1504	1477	1466	1463	1465	1480	1494	1529	1495	1446	1432	1456	1483	1495	1480	1477	1480	1497	1497	1510	1507	1518	1513	1501	1497	1490	1492	1504	1514	1526	1531	1541	1544	1545	1549	1547	1546	1544	1544	1538	1528	1530	1527	1528	1526	1528	1536	1537	1538	1533	1538	1547	1562	1571	1587	1625	1829	2634	2999	3321	3397	3441	3438	3446	3475	3500	3506	3484	3467	3464	3461	3435	3310	3127	3001	2991	3000	3173	3214	3171	3113	3101	3112	3119	3133	3090	3086	3100	3116	3117	3114	3114	3127	3132	3130	3143	3160	3165	3151	3147	3142	3143	3143	3137	3147	3170	3185	3179	3153	3138	3157	3167	3172	3132	3121	3121	3124	3091	2715	2565	2258	2209	2198	2190	2186	2204	2193	2164	2188	2158	2158	2159	2165	2182	2211	2200	2180	2164	2161	2168	2181	2198	2204	2210	2205	2189	2184	2169	2169	2180	2184	2187	2184	2204	2212	2211	2307	2487	2840	2938	2884	2765	2586	2029	2039	2181	2348	2552	2781	2916	2950	2967	2963	2981	2984	2977	2954	2960	2956	2937	2943	2974	3003	3026	3038	3019	3002	2998	3005	3003	2988	2987	3008	3021	3026	2988	2958	2914	2817	2468	2338	1746	1659	1646	1645	1636	1621	1605	1595	1592	1597	1572	1567	1568	1578	1579	1577	1567	1543	1542	1550	1542	1540	1547	1569	1582	1575	1565	1554	1538	1536	1540	1558	1563	1568	1570	1566	1565	1565	1569	1569	1571	1566	1566	1574	1575	1565	1565	1570	1581	1587	1586	1578	1582	1594	1592	1588	1594	1583	1596	1582	1575	1562	1562	1544	1531	1516	1515	1525	1535	1533	1524	1521	1489	1486	1484	1467	1452	1430	1416	1427	1427	1433	1429	1412	0	0	0	0	0	0	0	0
0	0	0	0	0	0	0	0	1180	1254	1254	1268	1274	1290	1322	1329	1329	1326	1324	1334	1330	1325	1325	1324	1332	1322	1320	1315	1317	1317	1324	1333	1335	1330	1327	1318	1309	1309	1302	1296	1297	1299	1307	1317	1322	1324	1310	1310	1306	1306	1316	1324	1325	1322	1309	1294	1291	1301	1301	1317	1327	1327	1331	1339	1349	1329	1329	1335	1330	1344	1375	1323	1282	1282	1284	1334	1334	1371	1393	1407	1402	1399	1401	1401	1397	1386	1387	1404	1424	1440	1448	1444	1440	1444	1449	1480	1548	1597	1630	1666	1694	1705	1702	1713	1723	1733	1722	1719	1723	1744	1760	1766	1756	1727	1763	1754	1748	1760	1797	1804	1746	1660	1657	1657	1656	1657	1671	1747	1780	1789	1785	1801	1835	1850	1840	1844	1882	1923	1979	2030	2079	2115	2151	2170	2177	2179	2178	2227	2275	2264	2216	2183	2186	2183	2185	2201	2227	2244	2267	2283	0	0	0	0	0	0	0	0	0	0	0	0	0	0	0	0	0	1312	1353	1359	1364	1376	1388	1397	1390	1388	1365	1385	1382	1372	1365	1370	1378	1387	1391	1394	1397	1394	1375	1362	1368	1372	1378	1380	1387	1391	1391	1389	1395	1407	1407	1401	1398	1395	1410	1411	1414	1414	1415	1412	1404	1408	1415	1425	1435	1406	1388	1393	1391	1378	1406	1409	1424	1430	1427	1420	1424	1423	1428	1412	1401	1415	1418	1425	1426	1431	1429	1427	1429	1408	1426	1408	1400	1393	1420	1420	1442	1444	1434	1420	1427	1444	1474	1514	1540	1557	1687	2117	2743	2843	2902	2945	2953	2975	3024	3061	3047	2998	2964	2966	3001	3039	3048	3064	3089	3090	3096	3022	3001	2989	2983	2997	3028	2976	2947	2927	2951	2957	2994	3003	3006	3012	3024	3040	2921	2671	0	0	0	0	2249	2336	2391	2435	2421	2406	2410	2408	2346	2183	2062	0	0	1903	1875	1859	1839	1833	1839	1905	1907	1893	1926	1950	1963	1964	1943	1933	1937	1940	1954	1920	1829	1665	1615	1597	1574	1547	1519	1501	1482	1472	1482	1499	1519	1483	1444	1440	1459	1480	1493	1494	1490	1477	1498	1507	1515	1518	1516	1506	1505	1496	1490	1488	1490	1496	1505	1515	1524	1533	1533	1534	1535	1537	1537	1532	1523	1530	1540	1530	1524	1522	1528	1537	1543	1545	1539	1545	1554	1566	1573	1585	1615	1791	2364	3134	2988	3136	3128	3090	3060	3084	3109	3103	3060	3049	3062	3070	3064	3021	2939	2926	2921	2952	3118	3160	3145	3138	3138	3138	3141	3142	3135	3112	3122	3122	3113	3103	3111	3116	3124	3124	3135	3146	3159	3160	3140	3170	3171	3151	3155	3157	3179	3187	3188	3159	3128	3121	3130	3167	3166	3135	3125	3118	3071	2724	2587	2273	2205	2188	2193	2201	2210	2208	2179	2204	2173	2167	2173	2189	2208	2207	2187	2166	2158	2151	2156	2162	2180	2198	2208	2208	2198	2186	2179	2172	2196	2204	2209	2217	2211	2206	2211	2310	2510	2871	2959	2935	2814	2650	2190	1963	2141	2330	2391	2576	2723	2800	2821	2873	2906	2906	2909	2905	2866	2799	2858	2891	2924	2956	3014	3058	3044	2987	2951	2924	2913	2956	2976	2996	3006	3016	2974	2929	2890	2677	2415	2310	1753	1680	1655	1645	1635	1620	1606	1599	1599	1591	1566	1548	1546	1564	1574	1578	1569	1531	1532	1531	1539	1545	1552	1567	1586	1581	1570	1560	1543	1538	1540	1563	1568	1570	1567	1565	1561	1561	1558	1558	1564	1569	1573	1576	1580	1577	1579	1582	1588	1592	1590	1593	1595	1599	1595	1588	1588	1598	1740	1752	1735	1741	1741	1764	1768	1747	1738	1783	1790	1780	1735	1726	1730	1761	1539	1549	1570	1578	1567	1520	1520	1513	1516	1515	0	0	0	0	0	0	0	0
0	0	0	0	0	0	0	0	1189	1277	1277	1294	1280	1298	1321	1325	1325	1302	1308	1323	1326	1319	1319	1315	1312	1308	1312	1313	1320	1320	1321	1326	1326	1317	1317	1314	1308	1308	1307	1305	1299	1297	1302	1310	1318	1317	1311	1311	1315	1322	1323	1322	1315	1306	1298	1299	1300	1308	1308	1321	1327	1322	1317	1287	1314	1318	1320	1318	1323	1335	1364	1289	1266	1267	1274	1331	1331	1368	1400	1412	1401	1394	1395	1399	1397	1393	1397	1405	1419	1439	1446	1451	1447	1450	1465	1495	1549	1575	1603	1640	1681	1700	1711	1728	1740	1739	1732	1724	1730	1749	1771	1779	1774	1730	1753	1758	1759	1795	1802	1789	1746	1673	1655	1651	1650	1651	1665	1757	1795	1811	1807	1801	1826	1830	1823	1839	1868	1907	1946	2004	2068	2115	2153	2190	2198	2197	2187	2244	2307	2291	2227	2192	2209	2220	2214	2232	2242	2250	2271	2287	2368	0	0	0	0	0	0	0	0	0	0	0	0	0	0	0	0	1332	1354	1363	1364	1382	1389	1388	1379	1360	1372	1380	1393	1383	1368	1368	1378	1387	1387	1377	1395	1395	1379	1369	1373	1372	1387	1383	1379	1380	1374	1379	1398	1409	1411	1406	1401	1399	1402	1413	1416	1414	1404	1375	1367	1391	1403	1422	1408	1374	1380	1386	1409	1402	1404	1398	1398	1430	1426	1408	1408	1428	1418	1429	1405	1404	1407	1427	1425	1423	1412	1401	1417	1416	1429	1428	1404	1409	1421	1420	1435	1412	1413	1402	1411	1432	1453	1498	1525	1556	1692	2147	2720	2870	2933	2942	2947	2972	2982	3001	2986	2955	2924	2885	2905	2965	3003	3031	3031	3040	3003	2997	3009	3011	2973	2986	3012	2952	2938	2940	2947	2933	2934	2962	2989	3007	3017	3018	2945	2730	2481	0	0	0	2269	2381	2400	2418	2437	2417	2421	2399	2311	2162	2082	2044	1982	1928	1860	1835	1806	1802	1801	1873	1906	1915	1947	1943	1954	1953	1949	1930	1934	1934	1941	1906	1816	1664	1629	1616	1610	1575	1552	1533	1513	1484	1479	1500	1497	1470	1461	1446	1457	1478	1500	1495	1494	1473	1501	1513	1517	1513	1513	1504	1501	1497	1491	1488	1486	1486	1493	1504	1511	1517	1518	1522	1530	1535	1523	1516	1516	1540	1538	1523	1516	1515	1517	1523	1530	1536	1543	1549	1554	1562	1572	1582	1601	1757	2191	2800	3018	3063	3059	3017	2995	3005	3017	3028	2993	2967	2990	2990	2990	2942	2895	2865	2874	2907	3059	3107	3075	3101	3124	3124	3113	3093	3111	3124	3123	3120	3116	3107	3116	3128	3127	3122	3132	3158	3165	3165	3148	3195	3050	3059	3078	3074	3070	3085	3081	3064	3044	3043	3043	3041	3066	3088	3080	3069	2994	2752	2593	2288	2191	2186	2181	2190	2202	2208	2190	2208	2188	2168	2175	2190	2205	2200	2176	2146	2147	2144	2150	2159	2176	2186	2201	2201	2199	2187	2182	2188	2211	2229	2231	2228	2223	2215	2212	2291	2489	2817	2945	2916	2806	2634	2351	2098	1944	2098	2200	2320	2479	2628	2692	2732	2777	2809	2807	2796	2771	2743	2727	2722	2771	2831	2884	2899	2857	2831	2766	2694	2710	2746	2754	2776	2801	2807	2714	2696	2640	2520	2373	2271	1758	1700	1658	1639	1631	1616	1614	1608	1603	1594	1578	1561	1556	1562	1582	1583	1576	1547	1541	1533	1539	1549	1559	1568	1578	1585	1576	1567	1561	1553	1550	1558	1570	1568	1566	1560	1558	1559	1555	1555	1560	1566	1570	1573	1573	1573	1579	1591	1591	1592	1591	1588	1591	1580	1569	1597	1596	1744	1806	2147	2159	2159	2155	2147	2136	2130	2143	2148	2153	2183	2176	2155	2157	2143	2083	1995	1930	1949	1962	1911	1911	1853	1834	1822	0	0	0	0	0	0	0	0
0	0	0	0	0	0	0	0	1213	1306	1306	1310	1280	1286	1299	1305	1305	1284	1288	1304	1307	1306	1302	1302	1297	1308	1310	1310	1312	1318	1318	1315	1309	1308	1307	1309	1310	1309	1309	1312	1306	1296	1293	1296	1300	1304	1304	1304	1312	1324	1324	1316	1310	1306	1310	1312	1317	1322	1333	1333	1337	1331	1314	1282	1310	1320	1321	1324	1332	1338	1330	1289	1297	1275	1272	1333	1333	1374	1395	1409	1400	1395	1395	1402	1401	1387	1398	1401	1420	1439	1446	1443	1443	1447	1470	1510	1552	1574	1594	1637	1677	1701	1716	1730	1741	1742	1741	1739	1742	1759	1775	1784	1784	1732	1742	1753	1757	1779	1785	1751	1726	1676	1643	1645	1650	1659	1680	1780	1820	1816	1811	1800	1814	1823	1821	1844	1866	1893	1951	2022	2079	2126	2166	2194	2220	2218	2204	2270	2338	2306	2241	2200	2222	2233	2240	2243	2248	2247	2257	2303	2396	2514	2604	2640	2667	2687	0	0	0	0	0	0	0	0	0	0	0	1373	1372	1382	1365	1389	1401	1379	1374	1367	1371	1375	1374	1371	1358	1353	1366	1372	1381	1367	1372	1385	1381	1384	1380	1381	1395	1396	1383	1375	1369	1372	1394	1404	1405	1403	1398	1397	1389	1392	1406	1403	1391	1374	1360	1376	1398	1424	1417	1392	1379	1391	1395	1418	1410	1410	1409	1425	1417	1413	1399	1402	1402	1424	1412	1415	1419	1425	1415	1420	1414	1402	1406	1432	1419	1420	1406	1410	1420	1418	1420	1434	1411	1409	1410	1429	1444	1459	1505	1543	1703	2171	2681	2796	2897	2931	2942	2969	2976	2981	2968	2935	2903	2873	2903	2942	2976	2978	2974	2960	2958	2986	3000	3004	2978	2929	2877	2865	2913	2926	2909	2884	2873	2880	2884	2866	2873	2885	2838	2701	2488	2321	0	2253	2301	2406	2439	2435	2433	2429	2415	2361	2278	2128	2084	2051	2004	1932	1862	1827	1810	1796	1785	1835	1887	1914	1951	1940	1928	1923	1925	1918	1919	1928	1925	1882	1820	1695	1652	1644	1636	1598	1573	1545	1525	1501	1507	1521	1473	1437	1462	1465	1465	1488	1515	1497	1495	1478	1484	1509	1512	1509	1514	1507	1506	1510	1503	1501	1494	1491	1494	1501	1507	1499	1503	1510	1526	1534	1523	1507	1505	1525	1520	1517	1513	1513	1509	1505	1509	1518	1529	1534	1543	1552	1566	1575	1595	1737	2121	2694	2819	2913	2937	2931	2932	2930	2936	2942	2899	2894	2909	2920	2925	2910	2867	2827	2828	2864	2953	2989	3010	3049	3076	3071	3065	3003	2982	3043	2992	2916	2885	2895	2965	3099	3133	3122	3061	2954	2971	2999	2862	2878	2899	2910	2897	2891	2867	2888	2894	2920	2941	2938	2938	2925	2920	2894	2878	2860	2840	2732	2564	2305	2184	2178	2167	2168	2188	2201	2192	2197	2195	2173	2179	2195	2205	2191	2170	2142	2133	2149	2153	2160	2178	2183	2193	2187	2180	2182	2180	2196	2216	2232	2234	2233	2236	2224	2218	2253	2400	2648	2798	2694	2720	2643	2321	2157	1993	1957	2033	2140	2308	2521	2608	2654	2702	2718	2739	2752	2750	2680	2646	2663	2687	2717	2738	2759	2725	2682	2622	2568	2580	2622	2664	2704	2727	2717	2616	2574	2544	2482	2380	2231	1764	1678	1648	1620	1619	1619	1620	1620	1610	1599	1582	1571	1572	1583	1587	1585	1579	1558	1552	1534	1539	1548	1560	1569	1571	1574	1576	1578	1578	1574	1571	1573	1575	1570	1567	1564	1564	1559	1555	1557	1558	1564	1568	1569	1570	1572	1580	1591	1589	1583	1582	1569	1563	1558	1563	1614	1703	1901	2208	2169	2179	2179	2174	2170	2161	2160	2171	2168	2172	2198	2190	2179	2182	2192	2152	2119	2144	2153	2051	2021	2021	1962	1916	1876	0	0	0	0	0	0	0	0
