2152	2152	2133	2071	1958	1806	1642	1642	1492	1316	1324	1322	1322	1324	1316	1302	1280	1284	1284	1289	1297	1300	1302	1300	1295	1295	1302	1305	1314	1315	1311	1303	1303	1302	1308	1316	1319	1313	1308	1303	1303	1303	1310	1319	1319	1319	1317	1312	1308	1308	1307	1314	1330	1343	1353	1338	1317	1301	1302	1306	1312	1312	1315	1313	1318	1322	1325	1330	1339	1340	1349	1343	1313	1317	1322	1324	1346	1397	1418	1411	1411	1392	1378	1380	1391	1405	1409	1409	1410	1405	1417	1441	1482	1523	1526	1541	1570	1617	1682	1694	1701	1712	1730	1749	1776	1781	1769	1747	1737	1736	1748	1754	1763	1776	1796	1802	1781	1760	1750	1714	1657	1623	1651	1647	1657	1728	1766	1776	1781	1795	1814	1827	1832	1847	1857	1861	1877	1919	1968	1984	2012	2022	2022	2011	2005	2017	2032	2049	2075	2071	2030	1992	2003	2028	2028	2031	2041	2047	2032	2016	2014	2000	2001	2005	2013	2014	2027	2041	2063	2059	2019	1997	1994	1994	1936	1718	1654	1435	1397	1399	1389	1386	1394	1382	1385	1364	1353	1355	1365	1362	1360	1360	1372	1396	1400	1398	1392	1390	1387	1385	1382	1374	1387	1400	1407	1394	1402	1393	1387	1369	1368	1371	1379	1384	1389	1388	1387	1377	1356	1369	1382	1394	1404	1395	1394	1409	1417	1417	1415	1400	1397	1412	1416	1419	1406	1411	1420	1408	1409	1416	1413	1444	1411	1395	1387	1417	1420	1395	1387	1401	1422	1432	1439	1424	1429	1434	1407	1432	1424	1420	1434	1430	1457	1475	1490	1540	1670	1767	1846	1919	1950	1968	1979	1981	1951	1955	1967	1955	1929	1925	1939	1974	1973	1956	1942	1928	1907	1909	1918	1939	1944	1961	1967	1963	1965	1959	1953	1947	1952	1940	1930	1940	1958	1960	1964	1947	1936	1948	1966	1971	1958	1929	1916	1925	1939	1948	1967	1978	1963	1964	1965	1967	1962	1958	1959	1957	1950	1970	1978	1952	1924	1919	1913	1909	1913	1921	1928	1937	1938	1935	1934	1923	1892	1737	1690	1662	1622	1588	1560	1549	1556	1556	1564	1563	1556	1524	1505	1500	1478	1460	1483	1505	1502	1509	1491	1475	1473	1474	1465	1458	1465	1469	1475	1483	1492	1499	1507	1513	1513	1513	1508	1523	1527	1536	1540	1544	1539	1533	1522	1528	1530	1521	1519	1515	1521	1534	1536	1530	1528	1526	1533	1567	1604	1736	1800	1876	1971	2036	2045	2040	2026	2018	2026	2055	2069	2065	2037	2033	2048	2087	2087	2076	2047	2026	1970	1989	1974	1951	1940	1955	1971	1987	2001	2011	2013	2003	2010	2011	2008	2005	2007	2003	2005	2014	2045	2047	2045	2018	1984	1966	1961	1963	1966	1960	1953	1953	1962	1979	1990	1995	1977	1976	1986	1998	1999	1993	1992	2012	2039	2041	2035	2035	2029	2019	1974	1948	1953	1978	1965	1949	1942	1939	1960	1976	1990	1988	1984	1980	1968	1960	1950	1938	1924	1918	1921	1934	1930	1906	1887	1872	1866	1869	1869	1866	1882	1903	1896	1873	1839	1847	1855	1866	1878	1872	1858	1831	1816	1811	1813	1813	1810	1796	1777	1766	1763	1756	1739	1720	1709	1683	1639	1619	1621	1592	1586	1592	1588	1629	1692	1786	1692	1691	1717	1714	1732	1735	1732	1727	1673	1636	1629	1631	1616	1599	1593	1587	1592	1596	1602	1593	1590	1589	1589	1576	1563	1539	1542	1544	1554	1554	1550	1544	1544	1550	1556	1559	1552	1549	1550	1553	1553	1550	1561	1573	1590	1601	1611	1617	1618	1602	1586	1575	1562	1561	1568	1579	1570	1548	1548	1552	1565	1566	1568	1569	1571	1571	1564	1569	1569	1561	1553	1550	1556	1570	1577	1572	1561	1560	1558	1567	1562	1549	1532	1534	1537	1537	1541	1542	1542	1555	1582	1602	0	0	0	0	0	0	0	0
2038	2037	2037	1979	1894	1751	1637	1637	1538	1319	1316	1315	1315	1303	1300	1289	1273	1278	1278	1290	1300	1308	1307	1297	1289	1289	1291	1306	1315	1318	1315	1310	1310	1305	1309	1316	1316	1316	1315	1318	1318	1325	1330	1335	1329	1322	1316	1315	1308	1308	1308	1313	1327	1336	1340	1330	1308	1299	1298	1311	1319	1319	1328	1331	1330	1330	1331	1336	1343	1325	1328	1337	1319	1313	1319	1320	1333	1385	1408	1411	1411	1400	1386	1390	1403	1414	1417	1407	1404	1400	1404	1432	1503	1527	1540	1554	1588	1621	1668	1677	1690	1708	1726	1745	1770	1793	1782	1759	1735	1724	1729	1740	1755	1783	1807	1813	1779	1755	1729	1694	1653	1630	1651	1649	1651	1726	1762	1775	1776	1798	1821	1836	1841	1835	1826	1856	1871	1891	1916	1933	1942	1963	1976	1979	1979	1987	1999	2010	2007	1995	1976	1947	1945	1951	1977	1998	1996	1983	1971	1956	1960	1955	1964	1960	1980	2002	2026	2037	2049	2019	1973	1952	1950	1954	1904	1695	1644	1447	1379	1374	1377	1388	1383	1379	1392	1369	1352	1352	1353	1352	1352	1362	1371	1379	1398	1401	1395	1388	1380	1386	1373	1382	1395	1404	1408	1412	1407	1394	1394	1386	1376	1375	1382	1389	1398	1399	1400	1395	1369	1371	1387	1403	1410	1410	1394	1399	1418	1417	1416	1403	1397	1412	1418	1422	1406	1418	1431	1422	1415	1416	1407	1397	1382	1394	1400	1402	1406	1393	1403	1426	1436	1438	1425	1426	1428	1442	1433	1419	1419	1438	1437	1425	1447	1456	1483	1515	1644	1738	1809	1847	1886	1934	1932	1909	1878	1883	1877	1875	1873	1874	1879	1898	1906	1892	1870	1845	1830	1824	1845	1858	1865	1888	1907	1910	1898	1885	1889	1909	1919	1918	1909	1912	1920	1931	1927	1906	1895	1904	1924	1930	1917	1901	1895	1891	1889	1895	1908	1921	1914	1932	1938	1937	1937	1938	1938	1929	1925	1909	1902	1905	1912	1929	1931	1916	1909	1914	1918	1925	1937	1939	1942	1937	1850	1769	1702	1667	1622	1583	1553	1531	1534	1540	1548	1553	1551	1540	1518	1505	1483	1461	1491	1503	1508	1500	1496	1482	1471	1470	1475	1477	1482	1494	1499	1500	1500	1507	1515	1518	1522	1514	1509	1518	1526	1531	1533	1530	1529	1526	1516	1527	1530	1527	1516	1506	1506	1514	1523	1533	1543	1553	1549	1572	1597	1719	1771	1858	1978	2003	1998	1984	1979	1975	1983	1979	1962	1938	1920	1927	1941	1979	1978	1912	1918	1923	1922	1913	1927	1917	1917	1921	1937	1953	1943	1951	1957	1965	1950	1951	1970	1978	1982	1970	1980	1982	1992	1985	1998	1968	1950	1935	1942	1947	1944	1937	1910	1904	1930	1946	1961	1969	1964	1952	1950	1961	1971	1966	1955	1932	1932	1927	1936	1953	1934	1933	1923	1883	1886	1914	1930	1923	1912	1928	1938	1953	1973	1977	1977	1971	1962	1940	1919	1903	1893	1892	1894	1882	1868	1849	1836	1832	1847	1863	1873	1866	1878	1885	1888	1847	1830	1830	1831	1834	1827	1830	1822	1804	1793	1785	1801	1798	1789	1771	1759	1766	1758	1750	1734	1737	1733	1724	1687	1663	1624	1597	1583	1595	1595	1590	1636	1703	1648	1657	1665	1668	1660	1654	1650	1646	1635	1662	1633	1623	1616	1599	1586	1582	1593	1606	1606	1595	1584	1587	1589	1580	1568	1542	1541	1550	1550	1559	1558	1551	1554	1560	1564	1584	1577	1561	1551	1554	1556	1562	1574	1585	1591	1601	1609	1616	1615	1599	1586	1564	1540	1531	1535	1541	1543	1546	1554	1566	1570	1570	1566	1554	1551	1551	1546	1555	1556	1549	1544	1540	1547	1560	1569	1561	1556	1558	1563	1568	1563	1546	1531	1529	1534	1534	1539	1540	1540	1545	1577	1598	0	0	0	0	0	0	0	0
1921	1891	1891	1851	1793	1716	1634	1634	1561	1346	1300	1294	1294	1285	1286	1268	1268	1275	1275	1287	1303	1309	1304	1294	1284	1284	1293	1305	1310	1315	1315	1313	1313	1313	1318	1320	1325	1325	1326	1331	1331	1335	1337	1337	1329	1317	1316	1320	1321	1321	1321	1323	1317	1323	1328	1322	1314	1306	1304	1314	1324	1329	1329	1338	1342	1333	1332	1342	1341	1314	1308	1324	1328	1323	1320	1325	1331	1368	1400	1408	1408	1404	1392	1397	1405	1411	1405	1401	1393	1391	1399	1419	1482	1508	1531	1560	1596	1621	1647	1666	1682	1703	1722	1739	1758	1776	1774	1751	1719	1703	1709	1727	1752	1792	1816	1817	1802	1749	1701	1679	1660	1646	1646	1642	1648	1718	1741	1759	1781	1805	1842	1853	1856	1865	1875	1879	1880	1887	1894	1885	1888	1900	1923	1938	1936	1948	1959	1940	1936	1954	1938	1909	1912	1916	1925	1931	1926	1901	1885	1886	1899	1917	1929	1932	1925	1926	1959	1968	1988	1952	1924	1910	1923	1913	1866	1699	1632	1484	1388	1356	1361	1368	1373	1384	1399	1380	1365	1354	1354	1355	1363	1372	1373	1375	1393	1407	1406	1389	1385	1376	1379	1383	1396	1401	1402	1406	1395	1387	1391	1397	1389	1388	1397	1407	1412	1409	1408	1406	1393	1378	1401	1409	1410	1407	1386	1394	1413	1423	1417	1407	1411	1415	1420	1427	1416	1415	1417	1434	1418	1412	1389	1379	1373	1399	1408	1411	1426	1403	1412	1433	1434	1437	1430	1427	1437	1428	1421	1418	1417	1447	1446	1429	1439	1438	1452	1506	1634	1715	1772	1813	1838	1863	1859	1856	1856	1843	1842	1835	1833	1831	1845	1870	1887	1878	1856	1821	1810	1801	1802	1817	1835	1853	1863	1862	1854	1852	1864	1878	1878	1883	1878	1879	1887	1893	1891	1881	1876	1895	1903	1905	1893	1881	1876	1867	1855	1847	1848	1848	1869	1884	1896	1904	1895	1893	1881	1893	1880	1861	1862	1861	1884	1920	1932	1930	1909	1893	1890	1893	1885	1888	1879	1904	1830	1794	1694	1655	1619	1586	1552	1521	1519	1524	1541	1554	1556	1538	1518	1512	1497	1475	1490	1490	1495	1468	1500	1483	1470	1464	1468	1475	1491	1505	1511	1509	1505	1506	1515	1522	1524	1523	1511	1516	1522	1529	1523	1513	1514	1510	1515	1531	1528	1510	1492	1493	1501	1504	1518	1534	1548	1556	1559	1559	1587	1694	1745	1876	1937	1943	1943	1934	1912	1913	1926	1934	1930	1921	1897	1891	1892	1882	1877	1883	1893	1898	1901	1901	1902	1905	1898	1887	1890	1902	1901	1897	1898	1900	1898	1912	1937	1948	1953	1946	1934	1962	1955	1945	1935	1901	1900	1903	1915	1910	1914	1898	1877	1863	1876	1886	1903	1933	1948	1941	1929	1930	1942	1935	1922	1913	1902	1898	1897	1902	1900	1885	1877	1864	1859	1871	1881	1885	1890	1888	1879	1903	1941	1937	1927	1914	1902	1896	1899	1890	1880	1880	1880	1862	1847	1848	1841	1836	1851	1863	1863	1872	1873	1875	1870	1816	1812	1809	1813	1815	1811	1816	1817	1801	1790	1779	1774	1773	1768	1767	1763	1736	1739	1736	1732	1737	1736	1725	1702	1689	1643	1605	1587	1584	1582	1576	1609	1653	1650	1680	1677	1664	1651	1650	1660	1658	1662	1648	1631	1622	1614	1597	1582	1580	1585	1596	1600	1590	1576	1571	1576	1580	1586	1558	1543	1520	1508	1508	1548	1541	1530	1526	1520	1531	1536	1522	1518	1544	1549	1547	1550	1552	1558	1566	1568	1560	1552	1540	1523	1517	1511	1516	1518	1521	1529	1552	1562	1570	1561	1542	1524	1490	1490	1487	1497	1504	1521	1529	1523	1512	1512	1507	1507	1506	1518	1515	1511	1501	1489	1480	1485	1493	1493	1497	1488	1488	1481	1480	1488	1509	0	0	0	0	0	0	0	0
1900	1882	1882	1830	1762	1698	1636	1636	1541	1383	1296	1283	1282	1282	1277	1268	1266	1275	1289	1289	1303	1308	1301	1299	1301	1301	1296	1301	1305	1307	1308	1315	1315	1323	1333	1337	1340	1342	1337	1337	1337	1333	1329	1323	1313	1304	1305	1320	1331	1333	1338	1322	1308	1308	1314	1323	1317	1308	1309	1312	1314	1322	1322	1338	1351	1331	1332	1340	1339	1308	1305	1317	1326	1321	1327	1333	1339	1363	1393	1403	1404	1404	1396	1400	1405	1409	1397	1385	1385	1395	1400	1418	1469	1484	1520	1563	1627	1629	1635	1659	1687	1712	1726	1735	1753	1761	1754	1735	1706	1693	1702	1725	1755	1786	1813	1803	1787	1738	1685	1682	1682	1668	1662	1663	1683	1710	1729	1738	1840	1860	1869	1869	1898	1896	1887	1875	1869	1872	1873	1859	1860	1867	1881	1898	1895	1898	1899	1904	1911	1907	1894	1873	1888	1901	1900	1894	1882	1865	1860	1860	1866	1876	1891	1889	1886	1882	1886	1856	1844	1875	1874	1877	1885	1883	1836	1682	1614	1501	1399	1362	1329	1352	1358	1375	1396	1403	1380	1360	1358	1364	1374	1379	1374	1373	1397	1405	1402	1387	1382	1383	1381	1374	1390	1396	1394	1380	1370	1371	1385	1396	1397	1398	1401	1402	1408	1410	1410	1414	1406	1402	1416	1427	1404	1394	1383	1393	1400	1408	1410	1401	1407	1412	1416	1430	1410	1405	1411	1416	1414	1397	1408	1393	1393	1401	1413	1427	1444	1449	1416	1420	1424	1411	1418	1424	1421	1410	1413	1407	1418	1422	1444	1431	1406	1436	1450	1545	1616	1671	1744	1793	1815	1817	1816	1826	1826	1806	1798	1795	1796	1797	1813	1831	1855	1858	1841	1814	1796	1783	1784	1800	1816	1828	1833	1830	1825	1823	1831	1830	1831	1837	1838	1826	1823	1825	1853	1853	1826	1802	1820	1860	1852	1857	1856	1844	1827	1810	1801	1814	1827	1835	1835	1824	1805	1805	1811	1827	1839	1831	1817	1831	1875	1902	1907	1873	1836	1837	1841	1843	1827	1817	1818	1828	1811	1786	1718	1644	1604	1579	1538	1515	1504	1533	1551	1559	1558	1525	1506	1502	1503	1488	1484	1494	1484	1475	1501	1486	1469	1458	1454	1466	1484	1505	1509	1498	1493	1500	1511	1520	1516	1505	1503	1511	1515	1517	1515	1510	1513	1513	1522	1527	1517	1501	1486	1483	1502	1519	1522	1524	1533	1546	1552	1554	1581	1678	1711	1827	1887	1880	1886	1892	1892	1897	1903	1915	1916	1909	1893	1840	1859	1864	1855	1853	1873	1881	1887	1882	1877	1874	1871	1872	1876	1881	1876	1877	1873	1876	1879	1892	1899	1915	1917	1889	1885	1892	1900	1885	1878	1859	1849	1858	1865	1865	1861	1871	1854	1836	1829	1840	1856	1890	1934	1920	1901	1901	1908	1913	1908	1892	1868	1868	1870	1863	1861	1852	1835	1820	1822	1844	1855	1862	1858	1857	1821	1803	1796	1778	1791	1817	1830	1849	1854	1849	1830	1837	1828	1825	1827	1830	1820	1814	1795	1824	1835	1855	1863	1854	1828	1754	1750	1747	1744	1755	1776	1795	1805	1798	1790	1776	1757	1755	1767	1768	1740	1721	1716	1715	1715	1729	1736	1725	1713	1704	1667	1626	1590	1575	1562	1576	1583	1611	1640	1667	1619	1641	1652	1657	1641	1621	1605	1609	1600	1597	1598	1590	1581	1576	1583	1593	1586	1587	1577	1571	1571	1576	1579	1558	1550	1540	1523	1510	1494	1485	1483	1489	1499	1506	1506	1499	1487	1487	1476	1478	1486	1495	1511	1514	1509	1501	1478	1461	1456	1457	1465	1475	1482	1487	1498	1507	1491	1478	1478	1462	1458	1463	1463	1474	1472	1474	1496	1513	1507	1494	1504	1497	1465	1467	1489	1501	1493	1460	1447	1434	1457	1472	1472	1467	1460	1469	1461	1461	1458	1454	0	0	0	0	0	0	0	0
1884	1874	1874	1822	1750	1675	1605	1605	1493	1412	1282	1273	1285	1285	1278	1267	1267	1271	1282	1282	1291	1297	1297	1300	1300	1300	1297	1286	1283	1291	1297	1313	1327	1327	1344	1352	1350	1347	1344	1339	1328	1328	1320	1306	1297	1290	1291	1319	1338	1338	1330	1312	1296	1293	1298	1313	1311	1309	1306	1307	1311	1317	1317	1331	1336	1328	1322	1336	1336	1312	1307	1322	1323	1325	1334	1342	1341	1358	1381	1400	1405	1405	1404	1403	1408	1408	1398	1389	1387	1390	1394	1415	1469	1493	1529	1584	1631	1640	1636	1664	1698	1727	1745	1751	1744	1743	1734	1715	1692	1687	1697	1728	1756	1778	1774	1766	1757	1730	1698	1693	1702	1712	1706	1717	1736	1758	1752	1751	1823	1844	1859	1865	1874	1878	1861	1850	1832	1824	1829	1845	1846	1859	1866	1869	1864	1856	1858	1863	1857	1827	1800	1823	1854	1859	1866	1880	1840	1827	1819	1811	1819	1818	1829	1844	1841	1833	1811	1801	1804	1814	1836	1847	1840	1834	1800	1646	1583	1489	1390	1361	1334	1345	1348	1357	1386	1403	1382	1367	1362	1367	1378	1378	1370	1368	1376	1376	1373	1380	1383	1388	1391	1384	1382	1384	1383	1378	1370	1368	1373	1384	1400	1401	1396	1393	1393	1400	1406	1408	1408	1411	1414	1430	1404	1395	1391	1391	1400	1395	1401	1396	1399	1407	1422	1420	1408	1404	1400	1410	1416	1395	1399	1394	1395	1401	1417	1414	1436	1436	1431	1405	1406	1413	1416	1420	1403	1397	1397	1394	1398	1424	1439	1435	1407	1435	1466	1552	1599	1651	1703	1731	1759	1774	1782	1771	1769	1759	1748	1756	1754	1754	1769	1766	1749	1753	1745	1747	1752	1758	1764	1784	1793	1804	1789	1787	1778	1764	1766	1775	1771	1777	1796	1810	1793	1770	1745	1718	1720	1723	1737	1781	1810	1820	1822	1819	1807	1784	1773	1771	1778	1762	1720	1711	1716	1722	1720	1723	1726	1736	1751	1795	1815	1822	1833	1821	1797	1787	1793	1795	1794	1785	1775	1785	1780	1733	1723	1631	1583	1565	1528	1502	1502	1532	1557	1561	1557	1507	1489	1479	1489	1488	1476	1497	1493	1496	1499	1484	1471	1455	1448	1445	1461	1483	1489	1490	1487	1493	1509	1511	1504	1495	1487	1490	1504	1508	1515	1513	1510	1520	1519	1514	1499	1489	1482	1487	1516	1525	1517	1515	1520	1526	1532	1547	1587	1666	1694	1785	1840	1835	1857	1866	1873	1882	1894	1903	1902	1864	1829	1824	1830	1837	1830	1815	1816	1853	1854	1848	1833	1835	1840	1855	1862	1833	1832	1841	1845	1840	1820	1818	1825	1830	1839	1849	1838	1835	1835	1832	1816	1807	1808	1805	1834	1835	1827	1826	1823	1811	1797	1793	1813	1834	1856	1868	1863	1836	1837	1872	1864	1852	1801	1818	1841	1856	1861	1838	1807	1786	1788	1789	1796	1793	1775	1773	1749	1770	1766	1752	1750	1755	1768	1787	1794	1799	1751	1748	1754	1764	1776	1775	1770	1748	1733	1732	1738	1760	1784	1792	1772	1701	1701	1713	1723	1710	1703	1714	1749	1763	1768	1761	1738	1725	1730	1726	1715	1705	1694	1693	1703	1717	1729	1724	1721	1711	1696	1671	1623	1596	1620	1594	1568	1559	1598	1588	1606	1619	1638	1637	1624	1609	1601	1590	1584	1579	1579	1584	1579	1576	1584	1590	1584	1585	1571	1565	1561	1566	1569	1551	1544	1537	1533	1512	1495	1485	1484	1492	1497	1507	1508	1493	1475	1456	1444	1451	1469	1474	1479	1500	1499	1489	1465	1446	1435	1432	1447	1466	1476	1484	1490	1493	1476	1458	1447	1448	1441	1441	1433	1428	1447	1439	1424	1403	1384	1385	1381	1380	1382	1416	1413	1405	1400	1410	1404	1387	1377	1401	1401	1419	1412	1408	1423	1432	1435	1434	0	0	0	0	0	0	0	0
1802	1782	1782	1740	1692	1637	1565	1492	1492	1429	1287	1252	1281	1281	1276	1259	1260	1258	1267	1267	1273	1278	1287	1293	1297	1282	1282	1277	1275	1284	1290	1304	1323	1323	1341	1347	1348	1345	1339	1335	1325	1325	1316	1301	1289	1287	1299	1321	1331	1321	1302	1302	1287	1277	1284	1290	1299	1292	1303	1307	1315	1333	1325	1325	1321	1322	1323	1336	1319	1320	1326	1334	1328	1337	1343	1343	1342	1356	1377	1394	1403	1401	1401	1398	1409	1406	1408	1405	1396	1379	1399	1429	1470	1494	1528	1581	1617	1633	1639	1671	1709	1740	1752	1746	1736	1721	1708	1697	1692	1692	1707	1735	1755	1732	1732	1740	1753	1739	1730	1703	1706	1729	1752	1774	1799	1811	1811	1800	1790	1800	1810	1825	1844	1849	1832	1815	1787	1776	1771	1787	1800	1805	1812	1808	1794	1815	1815	1817	1794	1775	1767	1757	1755	1750	1768	1797	1788	1776	1753	1745	1750	1768	1787	1798	1795	1774	1750	1751	1765	1772	1785	1784	1792	1805	1750	1582	1541	1462	1387	1380	1379	1360	1346	1349	1381	1390	1378	1367	1361	1365	1372	1377	1372	1365	1366	1364	1361	1377	1393	1402	1405	1385	1360	1376	1385	1384	1373	1367	1371	1377	1387	1398	1390	1385	1383	1391	1394	1394	1402	1411	1416	1421	1412	1398	1391	1384	1410	1409	1391	1395	1400	1398	1412	1414	1407	1404	1403	1406	1413	1408	1413	1412	1412	1412	1418	1427	1418	1415	1423	1428	1409	1407	1413	1424	1399	1399	1399	1418	1421	1424	1429	1432	1421	1441	1458	1538	1584	1641	1672	1695	1700	1714	1723	1724	1705	1684	1676	1677	1670	1658	1675	1686	1682	1672	1677	1682	1687	1694	1724	1753	1754	1735	1717	1712	1705	1715	1717	1734	1728	1738	1761	1779	1762	1721	1687	1683	1684	1690	1689	1696	1730	1768	1790	1799	1786	1758	1739	1732	1721	1702	1690	1693	1703	1707	1704	1707	1713	1720	1727	1734	1737	1735	1736	1741	1740	1744	1767	1776	1767	1760	1749	1735	1743	1731	1657	1603	1601	1538	1511	1495	1496	1522	1540	1542	1509	1474	1468	1453	1455	1472	1464	1481	1494	1494	1490	1481	1472	1457	1445	1445	1456	1475	1479	1482	1485	1494	1502	1508	1496	1487	1493	1497	1502	1510	1516	1517	1512	1501	1503	1502	1493	1476	1475	1490	1508	1512	1514	1510	1514	1518	1517	1535	1586	1647	1681	1750	1797	1810	1822	1835	1851	1856	1870	1825	1838	1829	1813	1805	1804	1798	1789	1769	1779	1786	1804	1801	1809	1813	1808	1808	1797	1788	1782	1801	1809	1788	1777	1780	1790	1801	1796	1808	1808	1807	1808	1795	1787	1773	1768	1771	1780	1787	1782	1779	1777	1782	1773	1767	1768	1769	1770	1775	1776	1783	1775	1781	1743	1726	1717	1723	1750	1795	1810	1782	1765	1766	1755	1738	1726	1720	1707	1701	1719	1736	1739	1737	1714	1704	1706	1714	1737	1729	1710	1701	1703	1703	1712	1709	1697	1697	1699	1696	1691	1684	1684	1694	1705	1680	1679	1686	1695	1686	1677	1689	1705	1717	1726	1735	1730	1709	1699	1696	1685	1694	1697	1699	1682	1672	1661	1651	1587	1602	1595	1590	1592	1604	1612	1604	1580	1558	1592	1604	1609	1612	1624	1621	1610	1597	1587	1582	1577	1575	1571	1568	1559	1561	1569	1581	1584	1581	1568	1556	1550	1555	1549	1518	1511	1519	1518	1513	1492	1482	1478	1482	1492	1505	1506	1493	1471	1450	1443	1449	1457	1465	1469	1470	1447	1437	1436	1436	1421	1422	1434	1450	1463	1464	1451	1447	1436	1423	1424	1420	1411	1411	1398	1392	1392	1394	1387	1365	1361	1355	1346	1335	1330	1360	1343	1333	1327	1325	1327	1319	1312	1312	1312	1318	1317	1316	1330	1327	1325	1327	0	0	0	0	0	0	0	0
1746	1730	1693	1693	1652	1602	1550	1490	1490	1441	1302	1248	1279	1279	1275	1262	1263	1256	1252	1252	1260	1262	1274	1285	1290	1280	1280	1275	1282	1288	1297	1307	1318	1318	1331	1333	1328	1330	1324	1326	1320	1320	1312	1300	1294	1297	1307	1319	1319	1316	1302	1302	1291	1280	1280	1282	1286	1288	1297	1307	1319	1345	1327	1327	1318	1318	1331	1351	1322	1322	1342	1350	1336	1343	1356	1337	1340	1358	1370	1391	1392	1388	1388	1387	1393	1411	1419	1416	1387	1373	1398	1422	1462	1482	1493	1534	1586	1615	1635	1673	1711	1724	1721	1701	1699	1694	1689	1686	1696	1712	1734	1738	1713	1682	1666	1671	1679	1690	1711	1698	1690	1694	1699	1705	1713	1704	1698	1707	1713	1715	1707	1696	1680	1674	1677	1685	1705	1710	1739	1747	1756	1766	1781	1761	1741	1720	1716	1727	1743	1739	1736	1724	1686	1693	1708	1730	1735	1722	1713	1700	1702	1707	1704	1708	1706	1702	1695	1705	1719	1714	1699	1714	1705	1710	1699	1533	1493	1424	1389	1397	1403	1377	1348	1337	1363	1373	1362	1361	1355	1360	1370	1378	1377	1376	1366	1362	1360	1371	1392	1408	1391	1378	1368	1371	1387	1388	1375	1372	1374	1384	1393	1405	1415	1413	1402	1377	1383	1391	1403	1410	1408	1410	1404	1396	1390	1390	1416	1420	1414	1405	1408	1407	1418	1414	1406	1392	1388	1390	1393	1404	1419	1427	1429	1434	1429	1418	1411	1408	1420	1425	1425	1432	1415	1432	1429	1403	1404	1405	1418	1420	1419	1424	1440	1452	1460	1506	1551	1606	1654	1666	1681	1688	1687	1675	1656	1658	1662	1661	1646	1621	1630	1639	1649	1649	1656	1651	1643	1634	1640	1681	1702	1707	1695	1676	1653	1639	1647	1665	1665	1692	1720	1742	1730	1681	1671	1666	1664	1656	1623	1616	1620	1635	1652	1662	1693	1703	1702	1699	1675	1668	1664	1672	1681	1687	1691	1694	1701	1708	1713	1720	1721	1715	1709	1702	1710	1723	1740	1744	1755	1736	1716	1695	1676	1678	1685	1701	1646	1565	1470	1458	1475	1500	1515	1497	1470	1460	1457	1444	1452	1458	1469	1482	1491	1492	1491	1482	1478	1476	1462	1447	1446	1454	1475	1481	1485	1488	1496	1501	1499	1497	1504	1508	1511	1518	1525	1523	1514	1501	1499	1497	1489	1486	1480	1498	1507	1508	1503	1506	1517	1526	1529	1528	1556	1610	1658	1724	1757	1776	1796	1804	1739	1735	1731	1745	1771	1786	1768	1756	1735	1719	1723	1739	1750	1752	1759	1766	1775	1800	1795	1770	1750	1741	1747	1759	1761	1735	1730	1741	1755	1766	1770	1767	1767	1770	1765	1746	1727	1719	1726	1744	1759	1767	1758	1743	1723	1712	1748	1756	1747	1750	1748	1746	1746	1751	1725	1723	1716	1689	1681	1683	1677	1687	1725	1733	1737	1735	1723	1699	1688	1692	1691	1692	1698	1707	1707	1693	1669	1671	1676	1691	1706	1707	1689	1667	1659	1667	1666	1666	1653	1648	1669	1672	1674	1672	1670	1673	1670	1654	1648	1653	1659	1659	1652	1649	1635	1619	1606	1607	1621	1633	1649	1657	1665	1673	1675	1606	1597	1580	1573	1566	1567	1569	1564	1560	1564	1568	1574	1573	1546	1547	1585	1613	1610	1588	1574	1573	1593	1591	1582	1579	1579	1576	1572	1560	1551	1545	1557	1568	1573	1565	1552	1547	1537	1536	1527	1496	1494	1498	1492	1491	1479	1467	1469	1477	1485	1490	1478	1478	1475	1463	1446	1439	1441	1436	1442	1446	1437	1434	1443	1449	1444	1422	1404	1438	1431	1431	1416	1406	1400	1398	1398	1395	1395	1399	1393	1390	1387	1378	1365	1350	1342	1339	1334	1333	1339	1347	1329	1322	1317	1313	1309	1294	1293	1293	1297	1303	1305	1308	1311	1308	1307	1309	0	0	0	0	0	0	0	0
1688	1683	1657	1657	1622	1577	1525	1480	1480	1436	1330	1274	1292	1292	1279	1265	1270	1270	1254	1254	1250	1258	1273	1286	1293	1286	1286	1282	1292	1300	1310	1314	1315	1315	1313	1312	1309	1311	1311	1318	1316	1316	1308	1301	1293	1308	1318	1323	1328	1313	1307	1307	1302	1294	1285	1285	1289	1294	1297	1311	1325	1345	1335	1335	1305	1323	1336	1351	1329	1317	1350	1356	1333	1351	1368	1342	1329	1347	1358	1375	1378	1388	1388	1393	1397	1411	1419	1414	1384	1371	1398	1416	1441	1456	1469	1504	1579	1585	1608	1655	1678	1678	1665	1653	1659	1660	1670	1656	1664	1661	1658	1649	1642	1650	1658	1654	1650	1656	1660	1627	1634	1671	1677	1664	1670	1676	1670	1631	1613	1631	1649	1639	1623	1629	1638	1650	1653	1649	1648	1656	1647	1644	1641	1633	1632	1631	1681	1688	1696	1681	1677	1699	1669	1667	1672	1689	1693	1692	1677	1663	1670	1675	1659	1654	1646	1647	1643	1664	1664	1655	1631	1648	1655	1669	1650	1488	1440	1409	1392	1398	1407	1378	1357	1339	1362	1375	1378	1359	1364	1366	1369	1376	1383	1380	1368	1362	1359	1367	1385	1382	1383	1382	1378	1372	1379	1380	1375	1369	1377	1391	1402	1410	1420	1417	1414	1401	1398	1395	1407	1408	1400	1401	1401	1398	1395	1394	1401	1424	1425	1414	1421	1412	1413	1402	1395	1394	1393	1394	1395	1393	1397	1404	1410	1419	1420	1412	1410	1412	1423	1433	1429	1440	1448	1444	1410	1409	1412	1416	1418	1384	1389	1415	1430	1451	1461	1495	1531	1588	1627	1646	1644	1645	1662	1634	1627	1608	1631	1639	1620	1602	1599	1611	1611	1614	1617	1626	1606	1614	1623	1638	1658	1667	1665	1650	1634	1625	1623	1630	1636	1645	1651	1626	1630	1653	1660	1653	1625	1598	1591	1603	1620	1646	1674	1672	1655	1662	1670	1663	1650	1644	1643	1649	1660	1665	1672	1675	1677	1674	1687	1690	1704	1699	1684	1682	1687	1696	1695	1664	1647	1662	1650	1622	1619	1616	1663	1701	1685	1634	1571	1521	1527	1535	1499	1473	1460	1461	1455	1461	1475	1473	1486	1478	1492	1493	1504	1498	1490	1482	1473	1453	1445	1443	1455	1483	1488	1488	1494	1502	1500	1504	1507	1511	1516	1529	1536	1532	1517	1503	1500	1502	1499	1501	1506	1514	1511	1504	1505	1519	1535	1551	1545	1527	1534	1566	1628	1682	1705	1725	1706	1720	1722	1719	1710	1706	1714	1721	1719	1703	1688	1679	1678	1696	1707	1699	1698	1709	1730	1765	1759	1741	1728	1726	1724	1727	1716	1707	1678	1682	1731	1749	1748	1737	1735	1735	1733	1727	1716	1708	1708	1721	1730	1737	1737	1726	1709	1687	1680	1713	1730	1731	1730	1732	1692	1679	1682	1694	1685	1673	1662	1653	1644	1656	1680	1706	1708	1706	1698	1681	1677	1668	1675	1677	1688	1694	1670	1653	1642	1648	1652	1655	1660	1688	1677	1658	1640	1633	1631	1623	1600	1598	1602	1630	1631	1634	1620	1621	1634	1618	1615	1628	1630	1623	1609	1603	1605	1607	1601	1601	1603	1605	1610	1581	1583	1574	1547	1543	1553	1560	1562	1559	1556	1558	1562	1568	1570	1564	1547	1521	1508	1548	1564	1574	1547	1533	1535	1539	1540	1535	1533	1532	1535	1538	1545	1540	1533	1526	1528	1532	1555	1557	1547	1532	1524	1516	1505	1485	1474	1470	1470	1465	1456	1451	1458	1470	1479	1479	1471	1471	1470	1464	1458	1439	1427	1422	1430	1438	1442	1452	1441	1445	1441	1425	1397	1395	1397	1426	1413	1398	1396	1393	1392	1390	1390	1392	1387	1390	1389	1382	1367	1351	1345	1345	1332	1327	1324	1328	1338	1339	1337	1330	1306	1286	1285	1285	1294	1303	1310	1308	1303	1301	1297	1292	0	0	0	0	0	0	0	0
1642	1639	1611	1611	1569	1546	1504	1464	1464	1418	1331	1312	1316	1287	1287	1284	1292	1280	1261	1248	1248	1258	1281	1294	1293	1293	1293	1293	1301	1307	1311	1307	1302	1302	1300	1306	1314	1314	1308	1313	1315	1310	1310	1299	1292	1302	1318	1329	1326	1319	1316	1316	1317	1312	1303	1292	1297	1296	1302	1311	1321	1328	1331	1306	1306	1323	1335	1342	1323	1314	1345	1350	1338	1370	1386	1350	1333	1334	1338	1342	1348	1357	1370	1370	1387	1397	1404	1406	1377	1381	1398	1418	1442	1462	1467	1492	1542	1568	1598	1642	1653	1645	1603	1588	1589	1603	1624	1628	1631	1635	1636	1632	1634	1637	1643	1634	1612	1597	1588	1578	1582	1604	1606	1590	1575	1570	1580	1573	1583	1584	1583	1589	1599	1614	1631	1646	1645	1639	1625	1624	1619	1605	1616	1611	1604	1597	1600	1607	1605	1598	1580	1572	1562	1617	1623	1631	1629	1636	1627	1616	1630	1632	1637	1623	1619	1613	1612	1622	1629	1607	1629	1636	1650	1653	1645	1523	1430	1409	1388	1377	1389	1367	1352	1352	1372	1380	1378	1371	1371	1370	1371	1373	1377	1380	1370	1360	1357	1366	1377	1378	1374	1377	1378	1381	1377	1372	1368	1366	1377	1385	1392	1403	1410	1413	1416	1411	1408	1400	1388	1403	1397	1391	1399	1403	1401	1402	1402	1406	1413	1418	1410	1402	1390	1393	1404	1410	1405	1400	1398	1396	1408	1412	1404	1404	1415	1407	1409	1411	1423	1429	1440	1432	1449	1445	1437	1412	1415	1411	1408	1388	1395	1409	1412	1428	1449	1486	1505	1561	1589	1610	1615	1594	1576	1572	1593	1589	1604	1622	1608	1588	1582	1585	1581	1547	1555	1564	1584	1599	1615	1619	1626	1629	1612	1629	1616	1606	1608	1607	1601	1582	1562	1573	1593	1611	1638	1628	1594	1586	1597	1613	1629	1644	1656	1665	1662	1643	1627	1631	1630	1629	1625	1625	1617	1589	1605	1623	1646	1643	1660	1665	1657	1660	1655	1647	1651	1653	1640	1628	1607	1599	1606	1613	1614	1607	1607	1619	1641	1643	1622	1584	1534	1531	1517	1492	1475	1464	1480	1493	1498	1512	1499	1482	1491	1499	1511	1502	1495	1489	1476	1459	1447	1445	1474	1487	1488	1496	1494	1504	1504	1509	1512	1515	1517	1533	1538	1535	1518	1501	1501	1504	1510	1515	1519	1535	1537	1524	1523	1547	1556	1564	1561	1549	1538	1559	1605	1619	1642	1662	1683	1696	1704	1698	1694	1685	1685	1686	1686	1684	1678	1673	1680	1674	1662	1665	1681	1702	1716	1733	1707	1699	1709	1704	1706	1707	1690	1673	1647	1664	1681	1729	1723	1715	1714	1717	1720	1714	1711	1703	1705	1708	1704	1710	1716	1712	1690	1672	1661	1665	1711	1709	1646	1655	1648	1642	1640	1642	1646	1649	1641	1630	1633	1639	1660	1657	1654	1684	1684	1671	1662	1658	1651	1653	1647	1642	1634	1628	1628	1628	1633	1625	1629	1646	1643	1640	1611	1582	1581	1575	1571	1570	1572	1570	1573	1576	1577	1582	1594	1592	1598	1593	1590	1586	1585	1585	1600	1608	1612	1581	1575	1576	1562	1570	1550	1539	1526	1515	1520	1530	1536	1531	1534	1532	1533	1529	1538	1543	1540	1526	1506	1504	1504	1506	1501	1504	1508	1518	1523	1522	1512	1503	1502	1514	1524	1520	1518	1509	1497	1485	1476	1465	1479	1490	1486	1480	1484	1465	1456	1449	1451	1445	1433	1432	1440	1454	1469	1469	1457	1450	1462	1467	1461	1438	1421	1406	1410	1424	1445	1452	1442	1439	1431	1421	1392	1391	1393	1392	1387	1382	1375	1372	1379	1379	1382	1382	1376	1379	1383	1381	1374	1361	1350	1348	1329	1322	1316	1324	1335	1348	1350	1343	1329	1283	1283	1284	1292	1302	1309	1308	1310	1303	1300	1295	0	0	0	0	0	0	0	0
1624	1601	1580	1580	1563	1533	1483	1439	1439	1378	1334	1336	1338	1292	1292	1300	1307	1290	1262	1256	1256	1285	1301	1298	1288	1286	1286	1295	1300	1304	1307	1296	1292	1302	1302	1307	1314	1322	1312	1316	1316	1309	1309	1296	1292	1295	1320	1321	1320	1321	1323	1324	1324	1319	1305	1299	1300	1305	1315	1320	1314	1310	1322	1323	1323	1328	1332	1336	1307	1309	1337	1335	1335	1379	1410	1362	1336	1331	1323	1316	1320	1340	1359	1359	1372	1379	1378	1391	1373	1383	1395	1415	1446	1465	1471	1485	1524	1563	1598	1610	1609	1586	1565	1555	1571	1581	1582	1589	1594	1599	1612	1611	1611	1623	1625	1614	1600	1577	1560	1558	1565	1574	1569	1570	1556	1551	1539	1541	1562	1567	1564	1554	1569	1590	1608	1623	1624	1611	1591	1577	1565	1571	1579	1574	1572	1574	1581	1595	1597	1579	1552	1533	1540	1563	1582	1586	1585	1592	1590	1596	1608	1613	1603	1583	1573	1572	1579	1587	1576	1573	1585	1611	1616	1627	1626	1526	1435	1412	1375	1355	1364	1354	1338	1364	1375	1383	1390	1374	1378	1369	1365	1358	1366	1367	1366	1360	1360	1364	1370	1373	1371	1369	1368	1374	1384	1375	1364	1359	1354	1369	1372	1385	1389	1390	1402	1407	1412	1402	1379	1386	1396	1386	1392	1400	1404	1407	1408	1402	1396	1394	1397	1388	1382	1407	1417	1421	1420	1406	1404	1408	1411	1421	1417	1382	1390	1397	1398	1400	1410	1421	1414	1415	1420	1414	1409	1419	1429	1432	1430	1415	1404	1410	1398	1405	1439	1476	1481	1527	1558	1571	1554	1530	1526	1553	1576	1577	1576	1607	1605	1583	1571	1564	1553	1524	1534	1545	1564	1578	1590	1595	1583	1579	1570	1575	1563	1556	1543	1544	1544	1543	1543	1551	1563	1576	1601	1593	1585	1585	1590	1594	1601	1599	1582	1590	1606	1599	1586	1567	1552	1558	1555	1548	1538	1537	1543	1528	1524	1534	1578	1597	1573	1570	1583	1585	1594	1607	1599	1590	1585	1575	1593	1603	1596	1575	1561	1550	1549	1558	1544	1532	1530	1533	1519	1503	1486	1486	1502	1511	1517	1520	1503	1490	1486	1494	1500	1498	1502	1505	1494	1478	1476	1483	1485	1491	1499	1508	1522	1514	1509	1513	1514	1517	1522	1523	1530	1527	1511	1491	1495	1504	1508	1516	1526	1539	1558	1566	1559	1559	1566	1574	1576	1570	1566	1596	1617	1637	1646	1650	1659	1670	1682	1682	1673	1673	1672	1672	1670	1660	1660	1662	1662	1654	1644	1641	1655	1670	1686	1683	1664	1662	1667	1684	1682	1670	1654	1647	1636	1645	1645	1654	1658	1676	1674	1693	1686	1669	1659	1688	1675	1670	1673	1685	1683	1691	1673	1655	1642	1600	1587	1595	1606	1611	1613	1617	1618	1625	1633	1630	1623	1623	1624	1617	1597	1596	1605	1604	1606	1613	1622	1627	1621	1610	1596	1592	1586	1592	1594	1601	1604	1602	1572	1570	1567	1568	1550	1543	1553	1551	1545	1552	1556	1555	1560	1565	1563	1559	1549	1546	1545	1543	1535	1527	1534	1508	1512	1521	1518	1495	1485	1522	1522	1520	1514	1504	1504	1498	1495	1492	1487	1499	1492	1496	1503	1515	1511	1519	1525	1513	1498	1479	1467	1470	1472	1475	1475	1487	1505	1504	1485	1465	1461	1473	1487	1485	1484	1482	1470	1462	1454	1442	1447	1440	1436	1443	1460	1482	1488	1484	1474	1449	1430	1424	1429	1431	1437	1430	1424	1422	1431	1437	1434	1413	1393	1386	1394	1405	1415	1422	1422	1416	1398	1386	1379	1388	1387	1378	1380	1379	1387	1394	1382	1382	1383	1381	1376	1371	1359	1351	1348	1346	1338	1343	1337	1331	1334	1333	1325	1319	1316	1311	1313	1291	1291	1288	1311	1313	1307	1299	1299	1295	1292	1285	0	0	0	0	0	0	0	0
1579	1557	1557	1557	1554	1522	1470	1421	1367	1367	1331	1343	1339	1301	1301	1319	1319	1300	1280	1282	1282	1290	1293	1288	1286	1296	1307	1307	1309	1309	1304	1292	1298	1305	1305	1316	1325	1328	1323	1314	1310	1307	1307	1298	1293	1297	1307	1314	1317	1312	1324	1330	1330	1318	1303	1295	1294	1307	1319	1324	1313	1299	1318	1331	1331	1333	1334	1323	1311	1315	1328	1314	1324	1370	1403	1367	1340	1330	1316	1310	1316	1336	1353	1365	1365	1368	1369	1388	1378	1384	1393	1408	1440	1456	1464	1512	1519	1557	1582	1588	1579	1552	1546	1544	1555	1560	1564	1553	1545	1522	1536	1540	1548	1568	1597	1601	1584	1553	1539	1534	1527	1537	1550	1558	1552	1533	1524	1523	1547	1550	1540	1529	1533	1555	1575	1606	1592	1562	1543	1527	1521	1524	1532	1528	1540	1544	1559	1579	1577	1562	1542	1520	1516	1544	1555	1559	1556	1561	1558	1539	1540	1544	1578	1553	1542	1534	1550	1553	1547	1549	1559	1565	1549	1549	1586	1516	1439	1406	1359	1347	1343	1325	1339	1368	1375	1379	1387	1388	1380	1369	1362	1351	1350	1357	1358	1356	1358	1362	1363	1362	1357	1357	1360	1364	1379	1377	1365	1356	1344	1351	1367	1372	1377	1379	1388	1394	1404	1402	1401	1398	1405	1390	1385	1388	1400	1403	1408	1400	1389	1377	1379	1381	1383	1404	1413	1421	1425	1427	1407	1417	1415	1431	1422	1397	1349	1345	1377	1393	1409	1398	1406	1418	1425	1410	1397	1414	1429	1432	1435	1437	1435	1416	1402	1391	1426	1443	1489	1524	1519	1509	1497	1502	1519	1548	1554	1551	1538	1525	1513	1506	1536	1528	1501	1501	1503	1513	1515	1523	1545	1547	1538	1539	1532	1532	1532	1530	1543	1557	1570	1563	1543	1530	1522	1522	1526	1525	1513	1522	1553	1564	1556	1530	1506	1510	1523	1543	1550	1544	1528	1510	1498	1488	1493	1500	1506	1502	1499	1513	1531	1551	1558	1553	1543	1535	1544	1563	1565	1544	1526	1516	1537	1557	1558	1550	1538	1534	1528	1514	1500	1489	1492	1494	1501	1526	1503	1505	1518	1527	1522	1511	1509	1492	1484	1487	1484	1490	1499	1511	1512	1511	1503	1495	1490	1495	1505	1510	1524	1517	1516	1516	1516	1519	1519	1521	1528	1520	1509	1498	1503	1512	1517	1524	1538	1543	1565	1574	1568	1561	1569	1589	1563	1559	1564	1592	1609	1628	1631	1633	1637	1638	1634	1633	1640	1652	1662	1654	1648	1641	1639	1647	1658	1640	1621	1609	1604	1608	1602	1593	1574	1571	1600	1617	1621	1625	1618	1606	1610	1612	1612	1619	1621	1625	1646	1654	1640	1627	1611	1610	1603	1611	1616	1623	1650	1659	1651	1573	1568	1547	1539	1546	1558	1559	1554	1553	1557	1592	1595	1593	1597	1601	1590	1557	1545	1541	1548	1549	1543	1537	1535	1535	1544	1559	1571	1564	1555	1548	1539	1537	1543	1552	1549	1543	1541	1533	1529	1531	1538	1532	1521	1515	1515	1509	1524	1540	1535	1525	1522	1512	1508	1503	1463	1451	1450	1462	1473	1483	1477	1464	1444	1446	1466	1470	1463	1459	1463	1472	1475	1476	1472	1461	1459	1455	1465	1469	1468	1480	1495	1494	1486	1472	1455	1446	1436	1407	1419	1444	1452	1428	1439	1433	1434	1442	1455	1457	1430	1423	1416	1429	1428	1427	1420	1418	1412	1417	1421	1418	1415	1433	1450	1446	1429	1417	1415	1406	1390	1387	1383	1390	1397	1390	1385	1381	1382	1373	1368	1379	1381	1373	1364	1361	1362	1368	1376	1380	1375	1368	1369	1378	1382	1392	1392	1376	1387	1380	1375	1365	1346	1341	1337	1334	1332	1335	1334	1338	1348	1344	1337	1327	1312	1298	1309	1311	1311	1309	1310	1310	1295	1287	1289	1289	1287	1279	0	0	0	0	0	0	0	0
1562	1538	1523	1525	1525	1512	1464	1403	1372	1372	1351	1335	1329	1317	1317	1319	1324	1313	1302	1293	1293	1287	1292	1296	1298	1304	1315	1315	1307	1309	1299	1300	1314	1326	1326	1325	1330	1332	1326	1315	1307	1303	1303	1300	1297	1298	1304	1307	1300	1311	1325	1330	1330	1323	1305	1291	1289	1298	1313	1314	1303	1296	1309	1312	1330	1330	1330	1322	1317	1315	1316	1304	1320	1360	1386	1356	1336	1335	1321	1320	1321	1339	1364	1373	1373	1376	1398	1400	1379	1378	1383	1400	1417	1444	1501	1522	1531	1539	1532	1534	1532	1523	1527	1526	1530	1525	1514	1497	1492	1504	1518	1521	1519	1521	1533	1550	1551	1528	1516	1505	1498	1500	1510	1542	1542	1532	1516	1526	1537	1534	1520	1509	1511	1522	1534	1558	1556	1536	1519	1504	1494	1484	1494	1499	1505	1516	1533	1554	1557	1552	1542	1524	1526	1549	1550	1542	1528	1531	1527	1503	1505	1506	1521	1528	1526	1522	1523	1519	1517	1524	1527	1491	1487	1481	1511	1495	1424	1406	1370	1357	1347	1322	1336	1358	1369	1371	1381	1384	1385	1383	1368	1355	1352	1348	1347	1346	1350	1354	1358	1356	1349	1341	1341	1352	1375	1373	1366	1362	1364	1366	1370	1376	1378	1374	1377	1382	1383	1386	1390	1395	1395	1387	1382	1384	1384	1374	1400	1395	1375	1358	1363	1374	1386	1393	1402	1425	1432	1438	1416	1421	1425	1425	1396	1376	1364	1368	1390	1405	1428	1415	1394	1394	1394	1404	1410	1416	1426	1436	1422	1427	1440	1429	1411	1419	1406	1445	1502	1482	1464	1475	1482	1478	1492	1498	1503	1502	1504	1506	1500	1489	1481	1478	1484	1497	1493	1483	1482	1491	1498	1482	1474	1475	1479	1490	1495	1494	1476	1481	1485	1495	1505	1483	1474	1469	1489	1489	1473	1471	1480	1492	1497	1492	1484	1473	1463	1481	1503	1505	1500	1498	1479	1470	1471	1471	1469	1477	1488	1510	1520	1542	1547	1538	1509	1483	1474	1524	1525	1508	1473	1465	1485	1498	1510	1510	1505	1520	1520	1509	1499	1505	1507	1507	1507	1505	1497	1506	1521	1522	1522	1522	1517	1502	1489	1482	1480	1484	1495	1510	1515	1515	1510	1508	1500	1496	1508	1523	1510	1512	1509	1524	1532	1537	1545	1545	1528	1524	1526	1522	1515	1517	1524	1531	1541	1550	1556	1556	1554	1556	1529	1543	1532	1528	1532	1555	1566	1582	1587	1583	1579	1574	1561	1550	1554	1571	1620	1610	1591	1586	1588	1593	1604	1610	1612	1598	1586	1588	1581	1566	1551	1551	1568	1572	1572	1566	1565	1586	1566	1569	1582	1590	1600	1578	1568	1568	1567	1569	1566	1563	1562	1552	1550	1545	1571	1515	1527	1532	1532	1496	1483	1486	1500	1513	1513	1504	1493	1497	1495	1481	1487	1492	1501	1506	1503	1491	1462	1489	1502	1499	1488	1489	1488	1499	1528	1522	1521	1501	1499	1505	1512	1524	1521	1506	1489	1485	1487	1489	1491	1489	1486	1478	1470	1472	1484	1497	1476	1482	1493	1472	1461	1450	1436	1422	1412	1418	1441	1451	1453	1437	1430	1420	1418	1427	1408	1405	1428	1457	1463	1464	1462	1456	1443	1429	1422	1422	1430	1437	1448	1456	1461	1426	1433	1418	1399	1390	1397	1402	1408	1421	1429	1424	1430	1430	1431	1419	1407	1399	1392	1390	1402	1414	1412	1409	1402	1393	1380	1362	1364	1378	1392	1418	1411	1402	1391	1375	1360	1359	1361	1373	1381	1379	1371	1373	1373	1362	1350	1360	1359	1358	1342	1333	1333	1336	1345	1354	1354	1348	1338	1336	1334	1337	1337	1332	1323	1317	1353	1347	1326	1320	1324	1324	1326	1331	1331	1342	1343	1339	1336	1330	1321	1304	1308	1308	1316	1311	1306	1300	1290	1282	1281	1282	1282	1283	0	0	0	0	0	0	0	0
1547	1530	1503	1485	1485	1460	1432	1403	1379	1379	1363	1329	1306	1316	1323	1323	1328	1322	1308	1292	1282	1282	1286	1294	1296	1303	1308	1308	1311	1303	1299	1306	1315	1326	1326	1334	1327	1320	1316	1307	1301	1302	1305	1305	1302	1302	1301	1298	1299	1305	1315	1323	1323	1322	1307	1293	1281	1289	1298	1299	1292	1292	1297	1303	1322	1322	1323	1323	1319	1310	1302	1310	1331	1356	1374	1360	1337	1337	1336	1327	1336	1353	1383	1399	1407	1407	1399	1397	1390	1378	1379	1398	1450	1507	1547	1527	1499	1472	1467	1478	1491	1500	1510	1517	1521	1518	1491	1474	1474	1497	1521	1522	1506	1494	1497	1510	1512	1498	1490	1482	1479	1473	1480	1493	1499	1514	1518	1522	1518	1508	1497	1493	1500	1514	1513	1518	1521	1518	1507	1500	1486	1470	1456	1449	1469	1496	1519	1525	1521	1535	1542	1543	1532	1511	1493	1482	1479	1486	1483	1481	1498	1504	1524	1520	1513	1490	1475	1469	1457	1447	1450	1461	1451	1447	1458	1470	1416	1391	1374	1363	1341	1325	1336	1353	1359	1364	1375	1382	1387	1384	1377	1366	1356	1348	1341	1337	1339	1349	1353	1349	1343	1333	1343	1350	1361	1374	1374	1365	1365	1370	1376	1380	1380	1377	1378	1380	1383	1383	1382	1380	1379	1374	1379	1382	1384	1388	1398	1401	1367	1369	1365	1373	1377	1383	1391	1404	1427	1428	1440	1442	1426	1409	1393	1388	1384	1384	1386	1390	1396	1397	1396	1387	1384	1384	1398	1391	1395	1404	1425	1431	1426	1417	1412	1421	1436	1439	1431	1424	1422	1428	1430	1418	1429	1436	1445	1448	1457	1457	1452	1457	1464	1472	1474	1463	1440	1474	1459	1455	1451	1456	1462	1465	1465	1463	1448	1452	1456	1460	1466	1459	1459	1450	1451	1446	1444	1455	1462	1469	1458	1456	1457	1454	1445	1429	1440	1452	1477	1488	1483	1470	1463	1455	1444	1440	1448	1466	1477	1487	1494	1502	1501	1494	1478	1464	1453	1452	1467	1473	1460	1451	1461	1468	1481	1487	1486	1493	1501	1490	1475	1470	1480	1486	1496	1495	1491	1489	1494	1485	1486	1501	1505	1495	1484	1485	1496	1512	1512	1504	1504	1508	1510	1503	1504	1510	1511	1502	1496	1497	1510	1517	1514	1520	1528	1527	1525	1519	1523	1526	1516	1511	1516	1521	1519	1521	1524	1514	1514	1502	1503	1492	1491	1493	1496	1505	1519	1541	1558	1554	1542	1536	1529	1523	1528	1537	1538	1534	1533	1532	1522	1510	1513	1518	1522	1528	1521	1555	1552	1552	1548	1540	1541	1546	1540	1525	1519	1514	1507	1512	1534	1540	1543	1501	1514	1521	1527	1533	1524	1512	1517	1515	1495	1451	1452	1460	1468	1465	1468	1465	1469	1477	1484	1486	1486	1476	1467	1469	1461	1454	1456	1463	1458	1442	1435	1433	1427	1434	1455	1481	1474	1464	1463	1459	1452	1451	1445	1450	1459	1460	1459	1470	1452	1422	1432	1440	1449	1455	1464	1461	1461	1458	1449	1442	1432	1402	1417	1446	1456	1439	1426	1419	1413	1400	1390	1391	1400	1413	1429	1421	1414	1410	1399	1378	1370	1368	1380	1401	1418	1428	1437	1435	1425	1406	1390	1391	1396	1401	1404	1412	1396	1392	1385	1388	1373	1359	1362	1370	1384	1403	1407	1416	1410	1405	1409	1409	1400	1380	1374	1368	1377	1392	1398	1392	1392	1385	1377	1353	1352	1353	1347	1349	1349	1342	1329	1326	1328	1336	1344	1350	1356	1361	1356	1352	1347	1342	1323	1319	1318	1318	1310	1314	1319	1321	1322	1324	1321	1320	1313	1310	1307	1307	1303	1303	1304	1310	1320	1326	1327	1326	1321	1333	1326	1319	1313	1315	1306	1297	1299	1304	1313	1309	1317	1317	1316	1309	1299	1292	1281	1276	1276	1276	1278	1282	0	0	0	0	0	0	0	0
1521	1512	1482	1462	1462	1427	1405	1380	1377	1377	1354	1299	1292	1309	1321	1321	1323	1318	1297	1286	1278	1278	1290	1295	1297	1305	1306	1306	1306	1303	1299	1299	1312	1318	1314	1314	1304	1300	1302	1302	1301	1302	1307	1307	1307	1314	1306	1300	1299	1303	1309	1314	1314	1314	1304	1294	1283	1291	1293	1291	1295	1295	1313	1304	1315	1315	1319	1319	1314	1299	1293	1312	1346	1364	1364	1343	1326	1342	1347	1342	1348	1366	1395	1416	1413	1413	1409	1408	1421	1428	1451	1446	1481	1509	1525	1508	1475	1466	1462	1465	1470	1489	1496	1494	1499	1500	1478	1464	1455	1460	1467	1477	1485	1478	1465	1468	1473	1469	1464	1459	1453	1451	1453	1460	1480	1498	1515	1513	1484	1471	1464	1473	1483	1467	1483	1495	1503	1483	1483	1495	1494	1485	1467	1461	1461	1455	1484	1485	1486	1499	1510	1514	1497	1468	1467	1468	1473	1474	1469	1476	1489	1497	1506	1507	1482	1458	1441	1438	1446	1437	1415	1430	1432	1416	1434	1446	1413	1388	1378	1360	1321	1324	1349	1345	1351	1357	1372	1375	1382	1377	1374	1369	1360	1347	1337	1328	1330	1342	1349	1346	1339	1340	1348	1346	1362	1381	1381	1364	1367	1369	1380	1390	1388	1388	1389	1392	1388	1384	1372	1369	1376	1372	1375	1379	1383	1396	1406	1412	1415	1400	1383	1375	1373	1379	1386	1388	1396	1417	1422	1434	1427	1410	1393	1385	1383	1386	1384	1390	1401	1408	1417	1399	1378	1386	1402	1418	1418	1413	1416	1420	1415	1406	1400	1395	1396	1379	1375	1386	1391	1390	1380	1377	1382	1394	1406	1413	1415	1397	1394	1391	1392	1405	1413	1419	1411	1396	1399	1406	1432	1429	1431	1437	1436	1427	1416	1421	1418	1416	1423	1415	1392	1402	1419	1427	1431	1442	1454	1450	1440	1439	1436	1429	1418	1411	1422	1440	1455	1456	1452	1442	1441	1434	1426	1418	1431	1452	1469	1480	1487	1488	1482	1469	1463	1458	1448	1434	1409	1420	1446	1440	1428	1413	1407	1426	1455	1470	1471	1468	1461	1456	1460	1481	1491	1489	1470	1470	1474	1473	1474	1482	1479	1480	1473	1475	1480	1494	1493	1478	1467	1472	1478	1483	1496	1500	1498	1495	1496	1485	1494	1497	1497	1501	1497	1492	1495	1497	1501	1485	1479	1477	1490	1512	1462	1469	1477	1475	1469	1466	1462	1464	1463	1468	1469	1479	1485	1487	1486	1502	1515	1501	1495	1504	1514	1511	1488	1480	1497	1513	1512	1505	1491	1489	1486	1476	1467	1496	1539	1543	1537	1530	1525	1525	1518	1489	1477	1471	1469	1489	1493	1483	1477	1470	1477	1485	1503	1496	1470	1471	1471	1434	1424	1421	1422	1421	1428	1441	1450	1446	1454	1464	1467	1460	1452	1446	1441	1435	1427	1430	1434	1437	1435	1430	1423	1411	1397	1401	1399	1401	1412	1425	1428	1427	1430	1427	1433	1439	1440	1438	1423	1412	1407	1409	1416	1421	1422	1429	1430	1434	1441	1426	1378	1371	1369	1369	1381	1387	1389	1394	1394	1394	1376	1362	1356	1366	1380	1396	1405	1407	1402	1393	1377	1339	1336	1338	1333	1331	1363	1384	1420	1417	1401	1385	1370	1370	1367	1368	1367	1370	1375	1374	1360	1360	1332	1324	1329	1337	1341	1353	1359	1361	1356	1359	1372	1381	1372	1367	1348	1350	1355	1356	1351	1347	1348	1347	1335	1334	1341	1340	1335	1316	1304	1300	1305	1313	1314	1320	1328	1325	1321	1319	1328	1327	1321	1312	1310	1306	1297	1292	1287	1297	1301	1302	1309	1314	1310	1306	1305	1300	1300	1298	1295	1288	1291	1300	1310	1308	1288	1276	1313	1318	1315	1302	1297	1298	1293	1291	1287	1282	1286	1285	1284	1284	1282	1270	1263	1261	1261	1259	1251	1249	1254	1262	0	0	0	0	0	0	0	0
1489	1499	1486	1469	1469	1433	1392	1379	1370	1370	1335	1281	1281	1303	1318	1318	1315	1304	1293	1291	1283	1283	1291	1294	1294	1294	1296	1293	1293	1304	1303	1299	1294	1301	1304	1304	1297	1298	1302	1301	1303	1308	1314	1314	1314	1314	1311	1304	1306	1314	1313	1311	1309	1309	1303	1296	1295	1299	1299	1294	1313	1329	1334	1315	1316	1316	1316	1307	1306	1298	1294	1312	1346	1356	1343	1322	1316	1328	1351	1368	1362	1379	1398	1428	1430	1427	1442	1421	1412	1416	1448	1452	1450	1451	1459	1440	1443	1452	1455	1461	1469	1484	1484	1476	1471	1470	1464	1455	1447	1443	1447	1462	1465	1456	1448	1441	1444	1445	1443	1440	1430	1423	1422	1433	1457	1484	1499	1486	1437	1430	1432	1434	1433	1433	1445	1455	1452	1454	1455	1463	1465	1462	1452	1443	1429	1427	1438	1447	1456	1466	1482	1489	1482	1458	1453	1453	1455	1454	1441	1444	1433	1415	1417	1419	1430	1411	1416	1411	1399	1391	1392	1403	1391	1375	1396	1397	1398	1392	1376	1346	1346	1362	1365	1351	1362	1372	1384	1381	1375	1366	1359	1363	1368	1363	1332	1326	1333	1359	1356	1348	1342	1343	1357	1366	1379	1398	1382	1375	1373	1384	1383	1389	1393	1392	1397	1400	1405	1398	1379	1365	1367	1373	1382	1387	1389	1399	1413	1419	1409	1390	1375	1367	1369	1381	1391	1395	1391	1377	1382	1391	1398	1397	1392	1383	1384	1388	1389	1387	1407	1412	1413	1396	1378	1382	1399	1413	1417	1412	1409	1410	1410	1410	1403	1389	1366	1356	1345	1358	1380	1380	1373	1371	1375	1377	1384	1391	1390	1374	1368	1368	1374	1384	1396	1402	1402	1390	1361	1357	1361	1365	1367	1415	1421	1415	1408	1394	1384	1378	1384	1382	1377	1378	1386	1405	1420	1426	1420	1410	1415	1429	1424	1417	1391	1395	1403	1414	1415	1406	1406	1410	1399	1397	1397	1392	1384	1397	1420	1440	1447	1435	1420	1408	1424	1432	1436	1406	1394	1409	1423	1434	1423	1408	1401	1411	1419	1425	1427	1450	1455	1457	1470	1484	1487	1463	1431	1421	1420	1423	1424	1440	1456	1451	1454	1449	1448	1443	1445	1451	1449	1447	1443	1422	1427	1458	1474	1458	1446	1428	1432	1458	1476	1490	1483	1465	1459	1458	1459	1437	1432	1416	1426	1434	1437	1437	1447	1449	1448	1448	1445	1445	1449	1450	1453	1456	1462	1465	1463	1454	1467	1457	1447	1464	1495	1483	1469	1465	1460	1486	1483	1472	1463	1458	1454	1445	1447	1448	1459	1470	1476	1474	1474	1471	1444	1415	1411	1423	1442	1465	1459	1440	1430	1437	1439	1450	1451	1438	1412	1404	1395	1395	1395	1399	1400	1401	1414	1428	1432	1427	1439	1447	1449	1427	1419	1417	1413	1407	1409	1413	1420	1426	1418	1391	1387	1384	1385	1385	1381	1377	1392	1397	1404	1410	1406	1428	1426	1426	1408	1402	1392	1379	1384	1398	1403	1401	1396	1399	1404	1383	1374	1363	1355	1351	1339	1345	1368	1365	1365	1367	1376	1375	1363	1353	1357	1360	1369	1379	1390	1378	1359	1345	1323	1301	1301	1301	1291	1307	1317	1343	1376	1385	1376	1361	1352	1351	1345	1343	1347	1353	1363	1367	1359	1335	1325	1318	1325	1314	1306	1306	1311	1322	1331	1341	1339	1334	1332	1322	1321	1324	1329	1334	1327	1324	1318	1305	1306	1313	1331	1329	1320	1301	1293	1285	1283	1289	1298	1309	1316	1307	1295	1287	1286	1297	1297	1300	1299	1297	1289	1275	1273	1276	1280	1285	1292	1297	1297	1296	1297	1284	1284	1278	1277	1276	1276	1290	1294	1266	1255	1257	1248	1289	1289	1282	1281	1283	1284	1283	1265	1255	1257	1255	1255	1251	1245	1237	1227	1228	1234	1235	1229	1220	1218	1219	0	0	0	0	0	0	0	0
1456	1476	1478	1469	1469	1447	1412	1365	1348	1318	1318	1274	1275	1287	1317	1317	1331	1322	1298	1296	1285	1285	1293	1290	1292	1281	1279	1286	1286	1289	1298	1294	1291	1296	1303	1303	1308	1311	1309	1305	1305	1314	1317	1314	1307	1303	1305	1321	1328	1323	1318	1311	1304	1304	1295	1290	1294	1292	1308	1322	1327	1342	1344	1326	1318	1305	1305	1299	1303	1302	1298	1319	1346	1337	1318	1288	1287	1306	1341	1389	1424	1456	1486	1482	1420	1406	1406	1395	1386	1389	1409	1425	1434	1432	1419	1420	1423	1435	1433	1445	1470	1478	1471	1458	1450	1449	1448	1437	1437	1436	1431	1435	1434	1444	1433	1432	1429	1422	1417	1415	1408	1414	1420	1426	1430	1423	1428	1427	1426	1425	1425	1421	1417	1417	1422	1423	1427	1434	1439	1437	1437	1438	1423	1415	1417	1409	1417	1414	1435	1446	1459	1463	1461	1441	1437	1427	1422	1423	1429	1407	1395	1389	1386	1381	1378	1387	1401	1396	1390	1369	1371	1381	1354	1344	1350	1359	1374	1381	1377	1366	1361	1373	1365	1372	1379	1376	1377	1374	1368	1357	1355	1360	1362	1362	1358	1360	1366	1374	1370	1357	1356	1374	1388	1403	1411	1414	1405	1393	1393	1394	1384	1363	1349	1351	1363	1384	1393	1386	1350	1342	1351	1366	1380	1375	1373	1386	1398	1400	1391	1377	1357	1346	1347	1361	1383	1394	1377	1366	1362	1375	1385	1388	1383	1376	1376	1381	1380	1380	1379	1377	1366	1345	1339	1350	1382	1399	1403	1393	1393	1391	1393	1394	1395	1388	1370	1360	1354	1355	1362	1368	1365	1365	1364	1363	1348	1361	1356	1348	1355	1356	1357	1363	1376	1388	1373	1379	1363	1351	1351	1360	1369	1370	1370	1371	1393	1386	1371	1364	1371	1379	1379	1380	1385	1393	1392	1381	1370	1369	1393	1400	1392	1378	1370	1364	1367	1370	1371	1373	1378	1389	1391	1391	1381	1381	1362	1362	1384	1398	1407	1413	1406	1398	1397	1396	1397	1398	1393	1389	1404	1413	1417	1407	1395	1398	1402	1406	1407	1407	1395	1403	1415	1433	1436	1416	1360	1357	1350	1355	1361	1376	1373	1370	1375	1375	1390	1407	1418	1420	1417	1413	1405	1394	1393	1424	1436	1440	1421	1404	1400	1420	1445	1446	1446	1447	1437	1438	1405	1392	1385	1388	1407	1411	1416	1412	1416	1419	1422	1423	1426	1419	1418	1428	1422	1428	1444	1445	1439	1432	1409	1410	1421	1406	1413	1413	1407	1391	1391	1393	1403	1425	1438	1432	1426	1398	1402	1415	1431	1442	1429	1403	1380	1369	1356	1351	1352	1358	1387	1412	1406	1400	1393	1392	1405	1407	1340	1348	1356	1361	1354	1353	1352	1363	1377	1383	1390	1396	1396	1393	1387	1383	1380	1390	1388	1382	1388	1387	1366	1358	1352	1352	1355	1360	1355	1369	1378	1377	1370	1371	1372	1379	1389	1377	1363	1348	1349	1354	1362	1367	1369	1370	1371	1375	1378	1373	1375	1365	1367	1364	1358	1349	1335	1319	1312	1320	1345	1352	1357	1356	1354	1356	1347	1336	1338	1338	1342	1347	1339	1337	1331	1318	1290	1280	1276	1274	1280	1293	1308	1325	1330	1334	1330	1322	1323	1322	1318	1324	1328	1336	1339	1345	1333	1322	1319	1324	1322	1315	1308	1300	1298	1303	1306	1310	1312	1302	1298	1300	1304	1302	1308	1314	1310	1301	1284	1277	1281	1290	1314	1309	1305	1294	1285	1273	1262	1257	1265	1261	1253	1250	1244	1242	1242	1250	1262	1275	1285	1287	1278	1283	1272	1263	1263	1265	1271	1280	1278	1275	1273	1273	1266	1259	1254	1253	1273	1276	1246	1247	1247	1240	1228	1229	1228	1255	1268	1276	1280	1269	1249	1249	1251	1250	1250	1247	1240	1233	1223	1218	1219	1219	1219	1217	1215	1219	0	0	0	0	0	0	0	0
1433	1448	1453	1449	1428	1428	1404	1338	1312	1299	1299	1268	1270	1290	1331	1331	1346	1337	1322	1294	1289	1288	1288	1281	1282	1271	1264	1269	1269	1282	1288	1287	1288	1296	1307	1307	1320	1321	1317	1307	1299	1299	1305	1305	1305	1305	1307	1316	1326	1328	1324	1312	1298	1283	1283	1281	1288	1302	1315	1321	1332	1338	1333	1318	1314	1309	1309	1311	1320	1313	1312	1323	1337	1305	1299	1288	1267	1284	1363	1413	1448	1479	1481	1382	1379	1385	1398	1398	1401	1394	1390	1393	1400	1405	1400	1398	1403	1407	1409	1420	1436	1427	1415	1405	1401	1409	1412	1418	1424	1422	1420	1412	1411	1414	1428	1435	1427	1406	1388	1386	1393	1407	1417	1419	1416	1400	1384	1381	1421	1428	1426	1412	1407	1407	1408	1417	1425	1430	1428	1421	1413	1410	1402	1393	1393	1403	1405	1406	1414	1425	1434	1412	1404	1389	1386	1383	1388	1407	1409	1392	1358	1351	1361	1369	1363	1365	1374	1373	1366	1357	1369	1380	1337	1319	1316	1322	1335	1338	1354	1360	1371	1377	1379	1373	1378	1370	1366	1368	1367	1359	1354	1353	1352	1352	1348	1353	1360	1364	1363	1355	1352	1353	1362	1376	1392	1407	1406	1397	1390	1381	1365	1344	1336	1339	1353	1364	1370	1354	1334	1324	1337	1347	1350	1354	1345	1352	1354	1357	1355	1352	1339	1330	1324	1328	1338	1360	1350	1348	1353	1363	1373	1377	1375	1357	1358	1367	1370	1362	1354	1350	1342	1337	1332	1336	1356	1376	1373	1370	1368	1371	1379	1379	1381	1381	1373	1361	1356	1353	1352	1351	1352	1352	1359	1350	1332	1321	1322	1330	1339	1338	1338	1343	1351	1342	1341	1337	1330	1340	1335	1347	1356	1364	1364	1359	1352	1343	1342	1345	1359	1365	1369	1369	1375	1377	1374	1360	1350	1336	1358	1367	1365	1355	1350	1348	1351	1358	1365	1364	1371	1370	1372	1371	1363	1342	1325	1333	1357	1370	1388	1396	1392	1390	1385	1384	1385	1395	1387	1381	1386	1395	1391	1389	1384	1387	1393	1398	1379	1358	1352	1357	1371	1382	1386	1375	1362	1352	1344	1345	1344	1350	1356	1356	1361	1361	1361	1374	1382	1390	1397	1395	1381	1367	1364	1398	1414	1418	1400	1384	1381	1387	1392	1383	1338	1341	1347	1363	1374	1370	1349	1346	1355	1366	1383	1397	1393	1375	1373	1382	1395	1395	1386	1377	1358	1361	1397	1410	1403	1381	1375	1385	1390	1358	1364	1367	1367	1371	1368	1368	1370	1361	1340	1325	1323	1327	1344	1364	1379	1392	1396	1377	1363	1357	1353	1351	1356	1363	1379	1374	1358	1351	1346	1342	1316	1304	1304	1322	1336	1334	1332	1338	1344	1354	1358	1368	1368	1371	1354	1346	1356	1357	1349	1349	1344	1330	1322	1318	1320	1328	1322	1322	1327	1332	1334	1354	1346	1341	1332	1339	1353	1367	1365	1350	1336	1316	1309	1328	1344	1353	1353	1360	1357	1363	1328	1324	1317	1317	1321	1323	1322	1316	1305	1297	1303	1309	1328	1329	1319	1302	1290	1276	1272	1272	1273	1275	1278	1285	1293	1295	1301	1298	1282	1265	1266	1267	1269	1284	1302	1314	1317	1309	1297	1307	1306	1306	1304	1301	1285	1296	1313	1327	1324	1315	1315	1318	1316	1310	1302	1296	1293	1295	1288	1287	1285	1280	1259	1261	1270	1280	1286	1287	1282	1272	1263	1258	1259	1262	1278	1286	1285	1285	1284	1277	1260	1258	1253	1242	1232	1225	1232	1233	1233	1229	1219	1225	1249	1261	1269	1274	1257	1256	1252	1251	1257	1260	1246	1239	1239	1239	1238	1233	1223	1223	1234	1237	1241	1240	1234	1221	1214	1207	1202	1205	1252	1267	1269	1258	1235	1231	1235	1243	1243	1241	1228	1217	1214	1209	1208	1211	1213	1213	1210	1213	0	0	0	0	0	0	0	0
1418	1427	1434	1421	1398	1398	1369	1322	1301	1283	1283	1256	1267	1300	1344	1346	1358	1351	1325	1302	1287	1281	1281	1281	1276	1269	1265	1263	1263	1277	1289	1284	1284	1284	1304	1317	1317	1322	1316	1303	1297	1297	1305	1303	1303	1300	1302	1310	1314	1317	1319	1302	1284	1270	1270	1268	1281	1299	1313	1318	1322	1326	1325	1323	1320	1310	1322	1322	1330	1323	1318	1322	1313	1312	1285	1286	1305	1332	1367	1379	1398	1395	1395	1390	1385	1379	1381	1381	1382	1384	1378	1364	1354	1357	1378	1396	1398	1400	1402	1406	1404	1403	1395	1390	1379	1373	1367	1382	1392	1391	1373	1354	1348	1369	1389	1405	1408	1393	1374	1351	1349	1357	1359	1375	1399	1392	1381	1374	1395	1403	1398	1382	1375	1375	1383	1400	1411	1419	1417	1406	1395	1388	1373	1352	1350	1356	1373	1375	1385	1394	1405	1401	1391	1380	1373	1381	1392	1385	1377	1355	1332	1332	1338	1354	1348	1349	1345	1353	1359	1356	1361	1364	1340	1317	1301	1292	1305	1332	1348	1354	1355	1359	1360	1357	1350	1345	1346	1360	1363	1361	1352	1340	1344	1343	1340	1340	1344	1346	1346	1344	1345	1350	1354	1358	1375	1381	1384	1374	1363	1360	1353	1338	1326	1328	1337	1346	1353	1339	1320	1322	1323	1330	1339	1339	1343	1335	1337	1338	1334	1329	1322	1311	1306	1304	1313	1332	1342	1336	1333	1348	1359	1360	1353	1335	1332	1342	1341	1334	1330	1325	1323	1318	1319	1327	1338	1344	1349	1339	1346	1344	1349	1350	1354	1355	1365	1358	1346	1337	1337	1330	1337	1346	1353	1322	1296	1287	1296	1315	1322	1322	1325	1326	1324	1321	1316	1301	1299	1307	1314	1324	1335	1346	1348	1345	1337	1322	1317	1313	1308	1307	1327	1333	1355	1351	1347	1341	1333	1317	1338	1355	1353	1344	1331	1326	1330	1340	1344	1348	1345	1344	1347	1342	1330	1320	1319	1321	1316	1339	1365	1368	1371	1366	1369	1359	1353	1356	1356	1364	1368	1372	1380	1376	1373	1368	1372	1367	1357	1345	1338	1341	1346	1363	1372	1364	1352	1344	1339	1337	1337	1341	1346	1342	1342	1345	1353	1356	1356	1355	1355	1357	1346	1338	1360	1378	1389	1389	1375	1340	1312	1312	1322	1331	1335	1333	1330	1347	1359	1352	1339	1315	1305	1310	1337	1355	1357	1326	1333	1328	1333	1341	1342	1348	1352	1360	1368	1386	1371	1358	1359	1363	1360	1360	1356	1350	1352	1346	1348	1343	1347	1335	1324	1316	1313	1317	1327	1330	1329	1333	1334	1327	1331	1339	1334	1344	1345	1338	1330	1336	1349	1349	1331	1319	1305	1299	1307	1314	1324	1328	1323	1328	1339	1343	1346	1349	1347	1350	1339	1329	1324	1326	1316	1312	1304	1306	1303	1308	1313	1319	1318	1320	1323	1329	1326	1317	1317	1312	1302	1307	1313	1328	1333	1333	1322	1306	1302	1314	1332	1335	1320	1292	1285	1286	1266	1256	1255	1257	1258	1260	1261	1262	1270	1269	1267	1278	1296	1301	1292	1273	1259	1244	1248	1259	1269	1274	1271	1263	1251	1234	1230	1250	1280	1275	1266	1258	1249	1258	1266	1283	1280	1272	1274	1273	1289	1299	1288	1284	1274	1267	1280	1304	1316	1311	1308	1306	1307	1303	1295	1286	1284	1283	1270	1261	1245	1231	1232	1240	1254	1266	1269	1268	1262	1257	1256	1259	1257	1247	1248	1253	1263	1266	1276	1262	1257	1259	1248	1228	1222	1219	1222	1226	1223	1217	1221	1224	1236	1248	1259	1257	1243	1233	1232	1246	1251	1238	1229	1229	1229	1223	1219	1212	1204	1206	1217	1224	1229	1228	1218	1210	1202	1196	1187	1185	1186	1234	1246	1220	1211	1214	1224	1224	1226	1227	1209	1209	1206	1204	1205	1206	1204	1204	1202	1203	1203	0	0	0	0	0	0	0
1389	1401	1392	1389	1372	1372	1357	1322	1295	1277	1277	1263	1264	1306	1349	1358	1352	1346	1320	1315	1315	1295	1295	1281	1272	1270	1264	1266	1281	1281	1295	1298	1295	1289	1294	1310	1310	1324	1315	1303	1296	1297	1301	1301	1301	1299	1298	1301	1305	1303	1298	1290	1274	1263	1263	1263	1280	1299	1316	1316	1311	1312	1319	1322	1320	1326	1329	1329	1331	1329	1321	1324	1305	1305	1326	1347	1375	1393	1397	1395	1371	1367	1386	1398	1395	1389	1380	1375	1375	1369	1365	1361	1355	1352	1355	1379	1395	1396	1392	1390	1384	1381	1381	1377	1374	1372	1361	1348	1354	1354	1359	1362	1358	1357	1371	1378	1382	1386	1383	1362	1346	1344	1348	1355	1366	1365	1361	1352	1356	1362	1370	1369	1366	1364	1364	1368	1381	1380	1366	1359	1368	1380	1379	1367	1355	1329	1324	1330	1343	1359	1374	1374	1369	1355	1355	1358	1351	1347	1342	1322	1311	1310	1306	1309	1304	1313	1325	1338	1341	1342	1343	1350	1357	1327	1296	1291	1301	1320	1330	1334	1338	1343	1343	1341	1341	1332	1336	1333	1319	1317	1326	1329	1337	1337	1331	1321	1313	1318	1320	1325	1331	1335	1344	1353	1357	1356	1357	1353	1346	1343	1337	1322	1315	1318	1320	1324	1325	1324	1314	1304	1294	1291	1294	1318	1327	1324	1318	1313	1308	1312	1304	1295	1287	1288	1301	1318	1328	1332	1325	1316	1323	1323	1331	1310	1309	1315	1317	1314	1313	1310	1308	1306	1307	1307	1309	1318	1317	1317	1317	1304	1308	1320	1331	1340	1345	1340	1327	1319	1317	1317	1321	1324	1320	1309	1299	1287	1293	1304	1312	1317	1321	1313	1313	1313	1308	1295	1288	1294	1301	1304	1309	1322	1331	1331	1319	1314	1308	1291	1275	1276	1274	1279	1285	1300	1308	1317	1320	1314	1310	1346	1345	1327	1319	1308	1299	1295	1287	1282	1287	1310	1325	1321	1313	1312	1313	1302	1297	1299	1320	1332	1338	1339	1333	1312	1313	1328	1336	1341	1354	1362	1358	1360	1361	1363	1361	1354	1347	1336	1310	1315	1328	1345	1351	1347	1342	1333	1325	1321	1323	1327	1326	1324	1324	1325	1332	1334	1304	1308	1308	1312	1313	1313	1311	1352	1337	1320	1309	1303	1299	1301	1310	1322	1323	1309	1304	1308	1340	1348	1328	1297	1286	1290	1293	1306	1314	1315	1303	1308	1300	1294	1320	1324	1343	1354	1359	1347	1324	1324	1313	1308	1342	1348	1348	1344	1327	1320	1324	1325	1325	1322	1315	1305	1304	1303	1304	1304	1302	1298	1295	1306	1315	1322	1321	1316	1313	1313	1313	1291	1292	1294	1300	1294	1294	1296	1301	1308	1310	1304	1285	1285	1291	1301	1309	1310	1304	1309	1316	1312	1305	1297	1290	1290	1296	1295	1292	1295	1304	1313	1316	1317	1318	1320	1291	1287	1290	1295	1285	1283	1290	1304	1309	1303	1290	1287	1285	1294	1275	1282	1255	1250	1248	1244	1232	1235	1240	1247	1247	1246	1250	1252	1251	1257	1254	1266	1276	1276	1268	1259	1247	1241	1242	1253	1265	1272	1269	1257	1236	1227	1230	1241	1260	1257	1248	1240	1240	1242	1241	1248	1251	1242	1252	1254	1255	1252	1254	1250	1250	1247	1235	1237	1279	1279	1257	1258	1259	1256	1261	1269	1271	1256	1240	1233	1222	1214	1214	1222	1234	1245	1248	1244	1232	1218	1220	1240	1251	1242	1231	1229	1235	1245	1251	1253	1259	1250	1225	1217	1215	1216	1220	1221	1220	1219	1220	1221	1228	1236	1245	1231	1223	1215	1213	1210	1211	1221	1222	1222	1208	1198	1190	1189	1184	1187	1195	1200	1204	1205	1199	1195	1189	1182	1175	1166	1166	1171	1198	1195	1196	1189	1195	1195	1187	1176	1174	1175	1187	1193	1189	1202	1198	1194	1190	1192	1192	0	0	0	0	0	0	0
1351	1361	1358	1361	1362	1362	1349	1327	1298	1278	1263	1263	1275	1303	1342	1352	1327	1317	1312	1318	1316	1301	1301	1281	1265	1268	1266	1272	1281	1281	1292	1301	1286	1286	1296	1304	1304	1318	1314	1302	1298	1297	1304	1303	1297	1297	1301	1301	1296	1296	1292	1284	1271	1257	1260	1260	1282	1304	1316	1310	1302	1292	1289	1296	1313	1328	1328	1328	1331	1332	1323	1307	1297	1299	1316	1337	1360	1376	1382	1335	1333	1335	1349	1363	1374	1375	1371	1366	1364	1364	1364	1366	1356	1349	1345	1358	1383	1389	1381	1368	1360	1345	1344	1349	1359	1365	1360	1359	1363	1370	1369	1367	1359	1353	1350	1359	1376	1383	1381	1375	1365	1363	1361	1360	1353	1349	1336	1314	1322	1333	1342	1345	1342	1331	1315	1304	1304	1313	1327	1344	1349	1352	1351	1344	1325	1307	1305	1312	1324	1340	1346	1348	1348	1312	1323	1325	1319	1309	1304	1298	1290	1283	1276	1278	1290	1303	1318	1323	1324	1325	1327	1334	1343	1333	1324	1321	1317	1322	1315	1319	1321	1328	1335	1338	1333	1319	1307	1303	1300	1296	1298	1307	1322	1334	1325	1310	1297	1292	1295	1301	1312	1311	1321	1330	1331	1329	1329	1329	1324	1318	1314	1307	1301	1297	1299	1294	1304	1307	1301	1293	1292	1283	1285	1296	1307	1310	1306	1298	1296	1294	1287	1275	1264	1273	1281	1281	1285	1286	1280	1278	1281	1281	1276	1271	1289	1295	1299	1296	1299	1299	1299	1303	1302	1296	1287	1282	1284	1288	1279	1273	1268	1290	1310	1336	1329	1316	1304	1295	1290	1295	1301	1305	1304	1302	1287	1271	1267	1279	1302	1306	1301	1299	1299	1305	1299	1297	1295	1297	1293	1291	1290	1287	1315	1303	1306	1316	1305	1277	1269	1262	1265	1261	1253	1258	1277	1280	1273	1277	1275	1273	1288	1301	1297	1291	1294	1285	1269	1266	1268	1264	1272	1288	1299	1308	1303	1292	1276	1295	1307	1319	1327	1323	1307	1287	1279	1305	1316	1326	1341	1352	1350	1347	1347	1344	1332	1304	1291	1286	1287	1295	1309	1329	1335	1330	1327	1322	1313	1305	1298	1285	1287	1294	1291	1288	1293	1299	1296	1297	1294	1283	1289	1276	1272	1266	1258	1257	1243	1242	1255	1267	1274	1279	1284	1283	1271	1265	1296	1303	1293	1272	1267	1272	1260	1258	1265	1281	1289	1286	1284	1282	1279	1273	1312	1310	1288	1278	1285	1287	1282	1284	1313	1320	1315	1310	1292	1270	1273	1287	1302	1303	1296	1288	1287	1284	1282	1280	1275	1273	1284	1297	1303	1297	1281	1270	1270	1275	1278	1272	1264	1263	1263	1269	1282	1286	1281	1274	1267	1262	1249	1246	1245	1254	1270	1273	1269	1272	1275	1277	1272	1267	1264	1276	1281	1278	1275	1272	1280	1292	1303	1296	1285	1273	1266	1273	1283	1289	1275	1252	1249	1270	1278	1282	1275	1269	1250	1253	1257	1259	1238	1237	1231	1221	1216	1216	1223	1233	1239	1241	1241	1242	1249	1254	1252	1253	1258	1260	1251	1243	1232	1237	1238	1249	1258	1267	1264	1257	1247	1236	1236	1239	1239	1239	1232	1224	1217	1224	1226	1214	1222	1217	1217	1220	1227	1221	1221	1220	1226	1219	1227	1226	1222	1217	1219	1213	1206	1209	1215	1221	1226	1227	1223	1222	1216	1209	1208	1212	1216	1221	1225	1222	1218	1207	1205	1206	1207	1205	1202	1208	1215	1220	1219	1215	1225	1214	1206	1207	1206	1215	1218	1216	1214	1220	1218	1210	1195	1196	1201	1205	1205	1203	1196	1194	1191	1185	1185	1184	1183	1179	1171	1166	1170	1173	1176	1170	1174	1181	1183	1184	1178	1164	1149	1154	1160	1161	1145	1170	1170	1169	1169	1170	1167	1151	1150	1154	1166	1168	1170	1170	1168	1169	1176	1178	1178	0	0	0	0	0	0	0
1320	1318	1317	1320	1330	1330	1311	1283	1256	1271	1273	1273	1291	1314	1324	1327	1302	1311	1318	1319	1313	1297	1278	1278	1264	1259	1268	1276	1286	1286	1297	1300	1285	1284	1291	1302	1302	1302	1302	1301	1300	1303	1315	1318	1315	1315	1316	1308	1297	1292	1290	1291	1280	1264	1265	1265	1287	1312	1315	1308	1298	1292	1288	1295	1307	1322	1326	1331	1331	1334	1337	1329	1312	1305	1300	1305	1319	1322	1320	1322	1320	1324	1332	1344	1353	1353	1352	1346	1351	1351	1358	1360	1351	1340	1332	1341	1363	1370	1350	1336	1320	1318	1323	1336	1343	1349	1350	1360	1367	1370	1361	1351	1346	1341	1339	1345	1364	1377	1378	1375	1353	1328	1324	1325	1319	1317	1310	1306	1308	1315	1318	1316	1308	1303	1304	1303	1307	1318	1335	1325	1322	1323	1326	1317	1310	1299	1299	1306	1312	1320	1325	1326	1306	1298	1308	1310	1296	1286	1284	1282	1280	1272	1274	1273	1280	1287	1289	1299	1307	1313	1314	1317	1322	1318	1312	1320	1321	1315	1306	1303	1308	1321	1330	1322	1310	1297	1296	1289	1287	1281	1283	1292	1299	1295	1280	1299	1283	1281	1279	1277	1282	1287	1291	1305	1305	1303	1298	1305	1302	1299	1295	1293	1290	1282	1277	1279	1285	1293	1291	1284	1280	1273	1266	1278	1289	1303	1302	1292	1285	1278	1272	1261	1257	1251	1261	1273	1275	1274	1270	1271	1275	1278	1277	1266	1258	1251	1273	1274	1270	1282	1302	1299	1289	1282	1271	1260	1254	1240	1232	1241	1255	1259	1265	1265	1268	1262	1252	1255	1270	1282	1291	1294	1293	1279	1270	1263	1258	1265	1283	1290	1290	1289	1283	1278	1284	1280	1294	1297	1283	1260	1254	1256	1274	1290	1296	1302	1281	1274	1250	1252	1256	1244	1244	1258	1265	1267	1265	1260	1249	1242	1246	1256	1267	1269	1251	1245	1244	1256	1255	1257	1264	1273	1278	1280	1270	1254	1251	1267	1285	1296	1305	1305	1288	1273	1250	1257	1283	1306	1308	1307	1309	1298	1283	1270	1265	1264	1259	1266	1269	1282	1293	1305	1306	1310	1313	1307	1300	1290	1282	1271	1270	1274	1277	1262	1256	1259	1264	1270	1273	1262	1260	1259	1250	1258	1257	1252	1243	1245	1254	1261	1263	1268	1268	1262	1253	1247	1255	1253	1249	1244	1240	1240	1229	1232	1251	1288	1298	1301	1288	1274	1268	1259	1255	1261	1260	1262	1268	1269	1268	1275	1285	1300	1299	1283	1264	1253	1259	1268	1280	1285	1282	1273	1268	1266	1258	1253	1243	1241	1250	1255	1266	1258	1238	1224	1247	1254	1256	1257	1252	1248	1250	1260	1265	1258	1256	1250	1247	1249	1245	1237	1236	1234	1245	1255	1256	1249	1235	1229	1231	1250	1258	1261	1262	1263	1264	1260	1262	1279	1285	1276	1269	1261	1261	1266	1277	1282	1272	1257	1244	1256	1260	1255	1254	1249	1242	1246	1249	1235	1233	1229	1223	1215	1211	1209	1216	1222	1231	1237	1244	1247	1253	1256	1250	1240	1245	1246	1243	1234	1226	1211	1208	1213	1215	1219	1223	1224	1214	1216	1231	1235	1225	1220	1209	1201	1192	1195	1205	1205	1207	1207	1200	1205	1208	1209	1199	1195	1195	1207	1220	1221	1216	1208	1206	1200	1197	1200	1206	1211	1217	1219	1218	1212	1211	1205	1208	1206	1200	1198	1199	1200	1198	1192	1190	1191	1195	1196	1192	1188	1195	1194	1184	1180	1178	1174	1171	1180	1193	1196	1191	1195	1197	1199	1192	1178	1172	1173	1175	1170	1169	1174	1178	1184	1185	1185	1185	1165	1165	1165	1159	1154	1157	1160	1159	1157	1148	1159	1164	1151	1147	1142	1141	1143	1153	1148	1131	1127	1140	1140	1140	1144	1155	1152	1149	1146	1143	1146	1152	1153	1157	1163	1167	1167	1164	0	0	0	0	0	0	0
1286	1286	1282	1289	1287	1275	1275	1252	1257	1286	1298	1298	1294	1295	1300	1302	1311	1311	1326	1322	1305	1290	1269	1269	1267	1271	1276	1287	1305	1305	1302	1299	1295	1294	1294	1293	1290	1290	1291	1291	1300	1308	1327	1334	1329	1329	1321	1314	1300	1301	1297	1298	1289	1279	1279	1279	1299	1312	1311	1308	1307	1302	1295	1292	1304	1314	1321	1326	1326	1326	1317	1309	1305	1296	1297	1305	1310	1308	1304	1304	1310	1316	1320	1326	1329	1317	1312	1328	1339	1345	1345	1343	1326	1318	1318	1327	1339	1343	1324	1303	1289	1290	1307	1320	1327	1338	1354	1355	1351	1353	1339	1331	1325	1327	1330	1334	1332	1338	1344	1336	1324	1313	1307	1300	1293	1289	1283	1276	1284	1297	1301	1302	1300	1295	1295	1295	1299	1310	1323	1314	1306	1308	1311	1306	1300	1295	1297	1302	1304	1297	1298	1296	1282	1283	1302	1299	1287	1274	1267	1270	1269	1272	1274	1271	1268	1267	1266	1282	1292	1305	1307	1301	1299	1294	1299	1306	1300	1287	1268	1260	1259	1270	1276	1280	1278	1279	1279	1278	1272	1270	1244	1246	1247	1244	1241	1251	1259	1259	1264	1263	1258	1264	1267	1267	1281	1268	1270	1278	1282	1287	1287	1285	1280	1278	1275	1273	1263	1260	1269	1269	1256	1248	1247	1230	1244	1288	1290	1278	1260	1254	1252	1251	1255	1262	1262	1262	1270	1268	1266	1260	1269	1274	1272	1256	1240	1231	1237	1248	1258	1263	1279	1276	1262	1255	1255	1245	1226	1224	1233	1248	1250	1248	1249	1250	1249	1246	1248	1250	1266	1274	1283	1270	1254	1255	1263	1252	1250	1256	1266	1272	1274	1272	1269	1257	1247	1236	1248	1252	1253	1250	1254	1258	1255	1252	1270	1273	1252	1225	1221	1219	1228	1233	1236	1239	1243	1243	1238	1229	1222	1226	1230	1227	1226	1222	1215	1210	1218	1230	1235	1240	1242	1236	1244	1245	1247	1236	1241	1250	1258	1274	1287	1278	1247	1237	1236	1243	1257	1280	1282	1285	1262	1249	1246	1234	1231	1247	1259	1256	1263	1268	1265	1259	1263	1262	1266	1272	1252	1265	1277	1282	1276	1234	1226	1215	1210	1214	1239	1243	1245	1243	1222	1227	1232	1245	1251	1250	1238	1237	1242	1251	1253	1252	1255	1255	1249	1247	1244	1239	1238	1229	1227	1227	1222	1224	1237	1268	1288	1299	1290	1279	1231	1224	1217	1209	1219	1223	1232	1243	1250	1254	1276	1285	1279	1268	1258	1245	1249	1246	1246	1248	1254	1258	1238	1232	1226	1220	1216	1220	1221	1231	1212	1209	1196	1200	1224	1225	1240	1244	1235	1231	1233	1232	1233	1231	1221	1220	1223	1228	1229	1229	1230	1237	1243	1245	1237	1228	1213	1211	1211	1225	1234	1238	1241	1244	1250	1251	1253	1258	1249	1247	1254	1257	1255	1254	1260	1264	1261	1250	1243	1222	1234	1244	1242	1234	1225	1225	1224	1227	1226	1217	1212	1211	1210	1209	1211	1215	1228	1239	1248	1252	1256	1251	1239	1224	1227	1227	1217	1207	1195	1190	1199	1206	1207	1207	1200	1196	1191	1182	1188	1192	1200	1195	1189	1180	1176	1179	1192	1201	1206	1202	1192	1186	1189	1176	1177	1181	1183	1187	1211	1207	1192	1194	1194	1186	1183	1184	1182	1198	1210	1214	1209	1203	1200	1205	1207	1201	1193	1184	1182	1181	1175	1171	1170	1176	1182	1180	1181	1178	1168	1155	1152	1156	1161	1163	1162	1169	1176	1165	1170	1174	1177	1171	1166	1158	1147	1153	1157	1158	1158	1157	1163	1173	1173	1159	1158	1160	1153	1153	1152	1148	1152	1151	1146	1140	1134	1138	1130	1128	1130	1132	1132	1127	1116	1113	1108	1106	1115	1124	1124	1117	1128	1151	1147	1127	1131	1132	1134	1130	1130	1148	1147	1147	1152	0	0	0	0	0	0	0
1287	1287	1268	1262	1262	1268	1268	1283	1298	1307	1297	1297	1279	1268	1272	1294	1302	1302	1297	1284	1270	1268	1279	1279	1297	1311	1321	1315	1300	1292	1292	1288	1287	1288	1284	1283	1278	1278	1277	1281	1284	1309	1319	1327	1331	1315	1315	1307	1300	1292	1292	1298	1301	1305	1301	1295	1295	1295	1294	1287	1285	1291	1296	1297	1302	1310	1314	1313	1299	1299	1293	1296	1294	1290	1301	1294	1289	1283	1273	1283	1293	1300	1300	1290	1274	1266	1268	1283	1291	1291	1291	1280	1278	1289	1301	1316	1330	1317	1291	1268	1255	1253	1251	1255	1264	1299	1322	1333	1333	1331	1329	1322	1330	1325	1327	1331	1328	1320	1328	1323	1313	1303	1287	1274	1266	1263	1263	1258	1263	1273	1286	1292	1290	1283	1283	1284	1285	1288	1285	1293	1296	1297	1301	1298	1292	1289	1293	1294	1287	1279	1272	1269	1264	1271	1294	1296	1278	1258	1246	1248	1253	1266	1271	1265	1261	1253	1252	1258	1277	1292	1293	1279	1259	1248	1273	1285	1281	1271	1229	1215	1225	1234	1236	1237	1240	1238	1230	1221	1217	1217	1220	1237	1239	1234	1231	1235	1249	1254	1244	1242	1246	1251	1253	1252	1242	1249	1256	1259	1243	1225	1222	1233	1272	1277	1272	1264	1254	1247	1245	1236	1233	1227	1219	1224	1241	1248	1240	1239	1241	1260	1267	1267	1263	1250	1228	1229	1242	1251	1248	1225	1231	1242	1251	1234	1219	1205	1199	1206	1221	1252	1260	1257	1245	1232	1227	1222	1215	1219	1227	1241	1237	1234	1233	1234	1234	1234	1238	1240	1248	1254	1235	1212	1190	1234	1237	1236	1236	1243	1245	1250	1232	1223	1218	1214	1202	1201	1207	1216	1227	1236	1247	1244	1241	1237	1224	1215	1218	1218	1211	1208	1215	1219	1226	1223	1223	1222	1214	1203	1208	1211	1217	1215	1208	1188	1174	1176	1177	1177	1198	1208	1218	1232	1239	1240	1240	1237	1240	1240	1222	1197	1200	1224	1228	1223	1223	1222	1229	1233	1233	1223	1223	1225	1222	1216	1208	1207	1207	1211	1216	1230	1231	1227	1225	1216	1210	1226	1229	1231	1232	1236	1217	1202	1199	1198	1196	1190	1193	1229	1225	1219	1215	1218	1211	1227	1235	1219	1210	1209	1202	1208	1219	1234	1241	1247	1240	1224	1230	1236	1229	1218	1212	1217	1217	1215	1225	1225	1234	1239	1243	1231	1206	1205	1205	1205	1205	1204	1204	1212	1215	1219	1237	1239	1231	1222	1228	1234	1237	1223	1212	1201	1201	1204	1204	1208	1204	1200	1200	1203	1200	1201	1200	1207	1197	1194	1193	1197	1193	1196	1190	1191	1195	1208	1209	1209	1191	1195	1196	1210	1208	1216	1221	1224	1226	1226	1199	1188	1194	1193	1189	1202	1202	1198	1193	1193	1192	1198	1207	1210	1210	1213	1217	1224	1226	1218	1211	1213	1195	1188	1187	1189	1209	1216	1204	1190	1186	1190	1197	1198	1187	1184	1191	1208	1210	1210	1208	1212	1223	1230	1240	1248	1249	1240	1208	1206	1210	1210	1201	1180	1170	1177	1183	1184	1194	1205	1203	1188	1187	1177	1180	1193	1195	1187	1177	1171	1161	1163	1172	1180	1181	1174	1158	1155	1151	1157	1162	1166	1169	1165	1167	1155	1156	1156	1171	1171	1163	1156	1148	1156	1181	1196	1200	1193	1187	1194	1197	1194	1187	1174	1170	1165	1162	1157	1159	1162	1166	1165	1171	1171	1141	1131	1132	1134	1133	1142	1141	1140	1141	1146	1151	1154	1155	1157	1156	1151	1143	1142	1147	1144	1139	1141	1138	1139	1139	1135	1139	1140	1144	1145	1146	1147	1146	1138	1138	1131	1128	1120	1124	1124	1116	1112	1112	1111	1106	1104	1101	1098	1099	1099	1115	1105	1103	1103	1115	1111	1113	1116	1118	1115	1114	1116	1126	1126	1134	0	0	0	0	0	0	0
1268	1268	1265	1254	1256	1258	1258	1268	1285	1296	1287	1265	1265	1241	1254	1276	1302	1298	1296	1282	1268	1267	1278	1278	1289	1298	1303	1297	1285	1272	1272	1265	1272	1277	1279	1277	1274	1274	1268	1268	1279	1295	1306	1307	1307	1302	1302	1293	1284	1279	1270	1277	1282	1279	1273	1279	1279	1280	1274	1270	1276	1298	1313	1311	1303	1292	1277	1280	1274	1274	1277	1281	1283	1283	1271	1269	1264	1257	1252	1261	1276	1279	1283	1281	1263	1254	1261	1271	1271	1265	1260	1260	1257	1264	1276	1292	1303	1283	1269	1258	1248	1240	1240	1247	1254	1279	1299	1304	1309	1306	1302	1306	1310	1315	1320	1313	1291	1285	1280	1296	1299	1287	1268	1251	1243	1243	1248	1244	1248	1258	1272	1282	1284	1278	1271	1270	1266	1264	1262	1255	1273	1286	1292	1293	1288	1282	1284	1274	1271	1261	1254	1254	1257	1260	1275	1287	1265	1252	1242	1244	1253	1253	1251	1240	1240	1246	1246	1249	1253	1253	1241	1227	1218	1219	1250	1257	1246	1220	1207	1210	1218	1219	1215	1213	1210	1204	1202	1198	1202	1205	1213	1230	1233	1230	1227	1233	1213	1211	1216	1229	1230	1226	1210	1180	1202	1229	1246	1246	1197	1202	1200	1200	1202	1237	1249	1218	1205	1196	1204	1213	1221	1221	1209	1217	1224	1234	1204	1200	1198	1236	1242	1236	1229	1215	1208	1209	1207	1210	1207	1202	1194	1204	1216	1217	1205	1192	1183	1189	1198	1209	1214	1208	1191	1178	1191	1188	1196	1212	1219	1224	1223	1215	1217	1218	1219	1223	1225	1223	1214	1203	1202	1195	1173	1176	1187	1197	1218	1221	1216	1211	1204	1198	1205	1207	1195	1190	1189	1199	1203	1206	1213	1208	1200	1188	1179	1177	1184	1184	1165	1168	1181	1203	1213	1210	1204	1199	1192	1187	1190	1198	1203	1201	1193	1170	1163	1164	1168	1173	1168	1182	1202	1207	1220	1224	1214	1212	1214	1192	1178	1177	1172	1192	1212	1213	1209	1206	1181	1196	1194	1192	1206	1206	1206	1203	1197	1192	1195	1202	1194	1193	1212	1217	1211	1204	1197	1189	1187	1184	1179	1181	1186	1190	1191	1185	1176	1176	1183	1182	1205	1208	1187	1187	1183	1186	1184	1181	1186	1187	1188	1190	1201	1201	1220	1219	1215	1218	1226	1228	1219	1197	1193	1186	1176	1182	1198	1212	1216	1208	1204	1185	1175	1177	1179	1184	1193	1197	1198	1203	1210	1201	1188	1188	1198	1200	1204	1195	1203	1206	1198	1179	1167	1158	1162	1187	1197	1188	1188	1194	1190	1190	1198	1201	1189	1177	1172	1164	1159	1164	1174	1179	1178	1186	1188	1185	1178	1176	1185	1192	1194	1191	1198	1198	1190	1180	1170	1151	1148	1137	1136	1133	1137	1143	1156	1174	1180	1176	1167	1162	1160	1166	1181	1179	1172	1137	1164	1176	1182	1176	1169	1160	1167	1181	1179	1174	1170	1172	1167	1139	1132	1127	1129	1163	1173	1167	1160	1156	1172	1186	1189	1208	1218	1216	1197	1195	1200	1197	1180	1155	1152	1159	1164	1163	1161	1157	1161	1155	1167	1165	1172	1190	1180	1172	1165	1156	1155	1161	1167	1171	1172	1172	1165	1157	1147	1147	1147	1137	1125	1119	1127	1149	1145	1137	1139	1134	1125	1124	1126	1130	1139	1145	1145	1147	1151	1150	1153	1156	1159	1158	1158	1155	1150	1149	1150	1146	1143	1148	1148	1148	1136	1119	1117	1111	1105	1114	1114	1119	1125	1131	1135	1136	1141	1146	1146	1137	1139	1132	1126	1132	1126	1113	1114	1114	1113	1119	1121	1125	1129	1132	1143	1143	1135	1131	1118	1120	1120	1119	1116	1109	1098	1093	1092	1091	1093	1095	1093	1092	1095	1095	1096	1102	1096	1094	1094	1098	1099	1103	1107	1110	1107	1107	1107	1112	1120	0	0	0	0	0	0	0
1267	1267	1264	1260	1249	1249	1249	1254	1262	1270	1266	1256	1256	1259	1268	1288	1298	1294	1289	1279	1258	1239	1238	1244	1244	1253	1255	1243	1236	1251	1251	1259	1270	1278	1279	1265	1267	1273	1273	1278	1272	1261	1270	1277	1282	1270	1270	1259	1254	1250	1245	1250	1266	1265	1265	1264	1264	1265	1266	1268	1278	1296	1311	1310	1296	1284	1276	1273	1268	1268	1263	1264	1267	1258	1256	1253	1249	1238	1250	1248	1244	1245	1254	1261	1262	1252	1244	1241	1241	1243	1246	1243	1243	1237	1229	1236	1240	1243	1245	1238	1236	1230	1230	1235	1247	1261	1269	1275	1267	1269	1267	1268	1266	1273	1280	1276	1257	1248	1247	1249	1254	1262	1249	1238	1232	1235	1237	1231	1232	1242	1259	1277	1277	1267	1260	1252	1250	1245	1236	1238	1254	1264	1276	1286	1280	1279	1271	1245	1238	1239	1240	1249	1255	1259	1263	1268	1255	1234	1228	1236	1233	1229	1227	1226	1218	1220	1233	1236	1231	1233	1226	1220	1208	1206	1222	1225	1203	1194	1195	1202	1201	1206	1203	1193	1187	1180	1180	1179	1184	1189	1202	1220	1215	1189	1181	1175	1172	1176	1187	1189	1189	1191	1186	1170	1166	1173	1214	1213	1202	1205	1197	1196	1195	1198	1201	1179	1165	1167	1187	1204	1219	1217	1209	1206	1205	1189	1193	1186	1182	1185	1192	1193	1195	1195	1199	1189	1182	1190	1186	1185	1185	1188	1193	1191	1186	1175	1167	1176	1185	1195	1194	1188	1180	1175	1178	1181	1184	1187	1191	1188	1189	1190	1190	1202	1206	1210	1206	1201	1189	1187	1193	1178	1168	1155	1157	1162	1166	1163	1166	1163	1169	1171	1176	1176	1162	1164	1187	1189	1182	1172	1167	1155	1145	1138	1133	1141	1141	1143	1139	1157	1164	1185	1196	1199	1190	1189	1182	1177	1176	1174	1182	1198	1178	1165	1160	1159	1162	1166	1168	1170	1175	1157	1160	1166	1163	1142	1146	1147	1141	1143	1148	1143	1141	1145	1154	1160	1168	1176	1176	1169	1173	1182	1188	1185	1180	1169	1178	1180	1168	1162	1160	1192	1197	1186	1178	1170	1167	1165	1169	1173	1178	1180	1179	1179	1167	1136	1134	1127	1129	1145	1159	1169	1164	1163	1164	1162	1156	1165	1180	1189	1184	1182	1169	1153	1159	1174	1197	1193	1174	1164	1155	1146	1154	1158	1181	1172	1197	1187	1179	1153	1157	1157	1159	1167	1177	1183	1189	1196	1198	1187	1176	1171	1170	1180	1178	1182	1184	1186	1175	1157	1148	1154	1161	1156	1153	1152	1153	1153	1162	1170	1181	1178	1164	1159	1160	1158	1154	1157	1159	1166	1160	1154	1161	1163	1154	1146	1143	1147	1148	1160	1174	1170	1144	1143	1143	1143	1143	1128	1121	1116	1119	1131	1146	1158	1162	1155	1151	1149	1148	1153	1143	1115	1106	1097	1119	1143	1146	1154	1141	1128	1130	1133	1132	1133	1127	1128	1113	1089	1086	1093	1115	1125	1128	1126	1124	1124	1135	1122	1115	1125	1144	1160	1145	1135	1129	1132	1138	1132	1131	1131	1143	1142	1138	1139	1141	1138	1136	1155	1173	1168	1161	1155	1147	1142	1141	1146	1153	1157	1157	1162	1161	1155	1145	1140	1133	1116	1107	1094	1110	1125	1127	1140	1129	1114	1111	1112	1114	1123	1129	1128	1124	1115	1116	1114	1112	1111	1118	1128	1138	1140	1134	1134	1136	1125	1128	1136	1138	1138	1126	1097	1097	1093	1102	1109	1111	1110	1113	1119	1123	1125	1127	1134	1136	1133	1129	1120	1108	1094	1092	1095	1095	1101	1104	1109	1110	1113	1118	1117	1115	1107	1098	1099	1104	1108	1113	1111	1102	1081	1072	1067	1070	1076	1083	1090	1091	1087	1087	1087	1093	1095	1095	1091	1086	1086	1092	1095	1100	1099	1100	1092	1092	1084	1085	0	0	0	0	0	0	0
1249	1238	1238	1240	1245	1254	1256	1256	1255	1257	1255	1255	1255	1264	1271	1284	1294	1273	1273	1244	1240	1237	1234	1233	1233	1231	1216	1208	1209	1246	1262	1262	1269	1267	1265	1258	1256	1261	1261	1265	1266	1236	1230	1232	1239	1237	1233	1233	1225	1222	1219	1221	1226	1246	1256	1254	1258	1258	1263	1272	1285	1299	1305	1301	1286	1275	1262	1251	1253	1254	1254	1251	1232	1229	1231	1230	1235	1239	1238	1228	1220	1214	1217	1230	1236	1231	1224	1216	1212	1213	1214	1201	1201	1189	1187	1188	1204	1210	1216	1226	1221	1208	1201	1206	1222	1233	1229	1216	1208	1206	1213	1223	1236	1247	1256	1249	1229	1209	1201	1199	1205	1214	1218	1231	1239	1233	1231	1222	1224	1232	1246	1241	1227	1220	1231	1226	1223	1221	1214	1229	1230	1213	1208	1212	1213	1217	1211	1207	1204	1210	1218	1224	1220	1228	1243	1245	1231	1216	1205	1203	1195	1196	1215	1211	1201	1202	1204	1208	1212	1215	1217	1211	1205	1200	1186	1175	1171	1180	1189	1189	1182	1184	1187	1178	1172	1163	1158	1164	1167	1175	1190	1208	1173	1163	1158	1153	1152	1166	1177	1183	1177	1170	1162	1162	1162	1166	1167	1170	1172	1197	1196	1191	1189	1193	1185	1174	1169	1171	1180	1188	1195	1193	1185	1175	1170	1173	1182	1168	1161	1159	1160	1181	1183	1183	1165	1156	1157	1162	1167	1173	1175	1175	1177	1173	1167	1164	1162	1167	1176	1189	1180	1171	1170	1166	1167	1170	1169	1158	1148	1163	1168	1166	1164	1172	1183	1179	1170	1167	1150	1153	1153	1154	1143	1134	1136	1136	1136	1138	1156	1151	1152	1146	1143	1136	1115	1108	1131	1140	1131	1120	1118	1122	1124	1125	1122	1122	1131	1134	1132	1130	1137	1159	1168	1161	1150	1143	1134	1128	1138	1153	1184	1189	1169	1163	1154	1152	1151	1150	1145	1140	1140	1148	1143	1135	1132	1131	1137	1142	1135	1130	1124	1123	1122	1114	1123	1140	1146	1152	1146	1146	1148	1156	1155	1152	1153	1166	1127	1124	1126	1134	1134	1146	1152	1156	1156	1158	1158	1158	1157	1159	1158	1162	1155	1126	1127	1125	1124	1127	1126	1127	1132	1147	1156	1158	1160	1153	1145	1140	1144	1154	1137	1140	1129	1126	1128	1143	1159	1155	1144	1133	1128	1131	1132	1141	1141	1138	1132	1130	1124	1117	1128	1130	1142	1146	1156	1167	1179	1182	1175	1161	1160	1160	1165	1154	1153	1158	1163	1151	1149	1147	1152	1154	1158	1152	1145	1137	1128	1120	1117	1123	1124	1125	1127	1136	1137	1137	1141	1148	1157	1138	1129	1125	1113	1106	1111	1116	1116	1122	1122	1120	1106	1097	1104	1118	1128	1128	1120	1124	1124	1109	1105	1106	1112	1111	1110	1121	1123	1128	1118	1124	1113	1111	1099	1097	1093	1097	1112	1109	1109	1110	1117	1118	1112	1126	1117	1112	1080	1074	1079	1089	1100	1110	1111	1103	1098	1104	1105	1104	1109	1125	1132	1136	1118	1114	1117	1119	1119	1118	1118	1120	1123	1129	1130	1127	1126	1127	1130	1143	1156	1154	1145	1132	1129	1124	1122	1123	1126	1124	1125	1126	1131	1135	1136	1129	1118	1095	1087	1087	1099	1109	1097	1088	1084	1084	1089	1078	1075	1079	1083	1088	1084	1073	1069	1067	1064	1057	1059	1071	1087	1125	1118	1110	1110	1111	1114	1114	1096	1087	1089	1086	1091	1097	1103	1106	1109	1110	1113	1119	1115	1118	1125	1129	1131	1130	1118	1093	1092	1083	1083	1082	1092	1098	1101	1105	1107	1110	1113	1110	1101	1092	1087	1063	1066	1079	1086	1090	1074	1065	1055	1048	1048	1059	1073	1085	1086	1081	1081	1084	1090	1094	1092	1087	1083	1083	1086	1088	1081	1080	1077	1076	1076	1064	1063	0	0	0	0	0	0	0
1230	1225	1225	1226	1230	1241	1249	1249	1255	1253	1252	1253	1253	1254	1264	1272	1280	1231	1231	1226	1230	1227	1229	1226	1226	1208	1195	1198	1204	1221	1229	1229	1229	1233	1238	1236	1234	1236	1236	1247	1243	1219	1219	1220	1218	1220	1223	1223	1220	1210	1208	1211	1216	1225	1236	1244	1255	1255	1270	1279	1285	1286	1273	1253	1245	1240	1230	1226	1233	1236	1236	1241	1221	1209	1204	1202	1209	1207	1210	1206	1203	1205	1216	1230	1234	1220	1197	1180	1169	1164	1168	1175	1176	1176	1178	1178	1181	1187	1177	1186	1198	1192	1186	1183	1195	1196	1187	1187	1184	1190	1196	1206	1206	1217	1232	1225	1203	1192	1188	1181	1180	1177	1195	1213	1223	1226	1219	1222	1224	1218	1215	1208	1205	1203	1209	1216	1218	1219	1220	1221	1203	1189	1193	1203	1207	1206	1199	1197	1194	1188	1181	1175	1173	1187	1218	1222	1203	1189	1186	1179	1174	1175	1181	1178	1173	1179	1191	1199	1198	1202	1196	1188	1180	1175	1174	1168	1163	1157	1157	1161	1162	1172	1167	1174	1165	1151	1145	1153	1154	1155	1164	1163	1138	1134	1130	1121	1133	1147	1158	1171	1166	1158	1134	1128	1130	1136	1143	1156	1157	1138	1129	1177	1179	1181	1173	1171	1165	1168	1172	1170	1170	1164	1160	1159	1159	1163	1163	1151	1141	1144	1141	1150	1142	1136	1138	1146	1150	1151	1153	1160	1166	1165	1166	1160	1158	1155	1159	1166	1176	1173	1160	1147	1138	1128	1136	1154	1153	1144	1140	1139	1140	1146	1149	1151	1152	1151	1151	1148	1139	1125	1130	1123	1118	1119	1112	1111	1117	1130	1135	1141	1140	1139	1135	1127	1112	1108	1128	1133	1125	1116	1111	1115	1120	1118	1115	1113	1118	1115	1116	1118	1121	1117	1119	1119	1125	1126	1132	1132	1134	1142	1151	1154	1145	1141	1144	1140	1142	1141	1140	1138	1140	1141	1136	1131	1127	1119	1115	1121	1120	1116	1111	1108	1110	1106	1108	1120	1124	1122	1124	1123	1117	1119	1126	1124	1116	1110	1105	1104	1108	1118	1125	1128	1122	1131	1141	1148	1145	1147	1148	1146	1141	1128	1114	1117	1122	1122	1128	1134	1127	1126	1130	1137	1146	1152	1148	1138	1132	1127	1127	1118	1127	1127	1125	1117	1116	1122	1130	1130	1125	1120	1113	1117	1122	1114	1119	1121	1123	1121	1115	1107	1105	1110	1116	1123	1127	1146	1158	1148	1145	1149	1151	1144	1134	1129	1140	1137	1136	1131	1100	1108	1131	1148	1155	1150	1111	1104	1101	1103	1103	1105	1103	1104	1101	1108	1105	1114	1120	1118	1114	1111	1105	1105	1096	1095	1101	1095	1095	1101	1112	1124	1126	1115	1091	1084	1099	1109	1108	1098	1094	1090	1089	1091	1095	1093	1087	1094	1092	1093	1094	1122	1120	1105	1099	1095	1096	1100	1092	1089	1095	1100	1101	1088	1095	1090	1099	1078	1069	1068	1074	1082	1093	1086	1095	1094	1082	1076	1082	1098	1105	1117	1125	1118	1117	1115	1116	1113	1105	1103	1102	1104	1115	1127	1131	1129	1127	1126	1122	1115	1112	1128	1125	1120	1111	1112	1109	1105	1102	1107	1104	1111	1115	1093	1095	1094	1085	1069	1065	1075	1079	1077	1077	1076	1078	1078	1071	1063	1061	1064	1056	1055	1070	1068	1063	1056	1050	1044	1047	1056	1066	1073	1074	1075	1074	1071	1075	1095	1090	1082	1077	1075	1086	1090	1097	1090	1094	1104	1109	1111	1110	1117	1119	1123	1118	1110	1070	1062	1068	1068	1070	1072	1070	1072	1078	1079	1080	1084	1076	1065	1060	1058	1052	1046	1028	1028	1045	1050	1041	1033	1031	1032	1044	1055	1065	1066	1075	1075	1075	1075	1074	1076	1070	1083	1080	1076	1071	1061	1059	1061	1053	1053	1042	1034	1034	0	0	0	0	0	0	0
1219	1210	1210	1202	1205	1216	1231	1231	1236	1240	1239	1236	1228	1228	1226	1238	1239	1212	1212	1210	1212	1216	1218	1207	1207	1194	1188	1189	1194	1200	1207	1207	1210	1221	1224	1218	1214	1215	1217	1217	1221	1206	1210	1205	1195	1200	1200	1200	1195	1191	1198	1201	1199	1198	1202	1207	1214	1214	1221	1223	1216	1203	1198	1198	1198	1212	1211	1206	1215	1221	1226	1199	1197	1195	1190	1183	1182	1186	1190	1187	1187	1194	1202	1202	1196	1180	1164	1153	1151	1147	1153	1157	1162	1160	1160	1158	1161	1161	1165	1166	1180	1188	1184	1177	1173	1169	1162	1160	1173	1184	1191	1196	1190	1177	1170	1183	1186	1184	1177	1170	1161	1159	1165	1173	1174	1169	1206	1220	1220	1210	1194	1188	1189	1190	1192	1186	1184	1203	1204	1199	1182	1185	1187	1198	1204	1201	1196	1189	1182	1172	1169	1165	1162	1163	1165	1166	1157	1152	1159	1162	1162	1145	1149	1154	1159	1167	1168	1170	1172	1157	1160	1160	1163	1161	1169	1159	1154	1145	1135	1117	1132	1141	1133	1147	1158	1158	1153	1149	1150	1146	1130	1115	1108	1103	1087	1101	1116	1120	1126	1131	1133	1130	1127	1125	1126	1127	1133	1142	1142	1120	1116	1119	1121	1125	1152	1137	1125	1127	1135	1141	1148	1149	1144	1142	1141	1141	1142	1138	1128	1135	1129	1115	1118	1121	1127	1133	1134	1138	1143	1151	1165	1171	1169	1158	1153	1142	1143	1154	1158	1153	1145	1138	1127	1119	1117	1122	1135	1138	1134	1124	1116	1109	1093	1091	1118	1129	1121	1123	1117	1108	1100	1102	1111	1105	1109	1116	1122	1124	1127	1126	1126	1127	1124	1122	1112	1104	1109	1115	1115	1106	1107	1111	1114	1114	1110	1104	1107	1106	1107	1110	1112	1114	1110	1110	1112	1117	1123	1120	1129	1116	1111	1114	1113	1101	1122	1125	1133	1134	1133	1134	1126	1128	1126	1122	1118	1111	1106	1094	1086	1091	1094	1101	1100	1091	1096	1108	1107	1102	1097	1090	1102	1116	1102	1101	1098	1094	1088	1086	1087	1100	1104	1100	1094	1099	1117	1128	1130	1131	1128	1104	1090	1082	1077	1072	1080	1100	1115	1121	1118	1120	1123	1123	1125	1114	1097	1112	1113	1121	1115	1110	1104	1112	1118	1113	1110	1106	1100	1108	1107	1104	1104	1110	1099	1093	1102	1109	1111	1114	1107	1101	1094	1094	1098	1105	1112	1120	1135	1132	1117	1113	1110	1112	1112	1120	1123	1084	1074	1084	1092	1089	1089	1089	1095	1099	1092	1079	1075	1080	1082	1080	1090	1096	1098	1092	1096	1100	1096	1104	1095	1085	1083	1085	1083	1083	1079	1076	1074	1078	1087	1096	1102	1098	1094	1084	1066	1059	1062	1065	1076	1082	1081	1085	1089	1081	1076	1080	1079	1078	1069	1095	1096	1091	1074	1068	1075	1067	1064	1063	1065	1064	1066	1072	1076	1075	1069	1064	1060	1064	1070	1075	1077	1079	1078	1076	1073	1068	1068	1079	1097	1102	1090	1076	1105	1106	1108	1104	1097	1091	1089	1095	1103	1115	1113	1088	1083	1083	1083	1086	1090	1102	1114	1106	1105	1102	1094	1077	1073	1067	1067	1064	1066	1075	1083	1079	1067	1060	1058	1063	1063	1065	1060	1052	1049	1045	1044	1047	1047	1042	1036	1039	1062	1065	1055	1046	1039	1035	1034	1046	1056	1058	1059	1058	1054	1052	1058	1064	1067	1059	1051	1042	1037	1061	1062	1061	1066	1086	1090	1078	1080	1088	1091	1091	1094	1066	1056	1052	1052	1048	1046	1051	1052	1048	1049	1056	1040	1040	1040	1043	1030	1017	1013	1021	1028	1032	1034	1031	1026	1020	1025	1031	1046	1049	1050	1045	1042	1042	1041	1043	1043	1043	1043	1043	1070	1056	1041	1029	1041	1037	1036	1036	1026	1022	1023	0	0	0	0	0	0	0
1199	1191	1191	1183	1182	1195	1208	1208	1224	1229	1226	1213	1202	1202	1211	1215	1218	1195	1191	1191	1192	1200	1198	1193	1189	1189	1186	1183	1182	1182	1190	1190	1202	1214	1217	1212	1206	1195	1198	1198	1201	1187	1190	1189	1184	1187	1180	1176	1176	1182	1183	1181	1175	1172	1174	1180	1190	1201	1201	1203	1205	1199	1183	1178	1186	1189	1194	1196	1199	1200	1194	1194	1193	1184	1172	1166	1162	1161	1163	1168	1172	1179	1188	1186	1180	1169	1156	1152	1153	1145	1137	1133	1135	1136	1141	1141	1152	1163	1166	1163	1168	1170	1174	1168	1160	1149	1140	1146	1155	1173	1187	1193	1183	1166	1150	1144	1156	1163	1153	1140	1136	1142	1145	1147	1145	1142	1150	1155	1160	1161	1166	1174	1182	1184	1178	1157	1145	1136	1130	1127	1134	1157	1185	1192	1194	1194	1187	1167	1149	1144	1148	1150	1147	1135	1129	1132	1133	1135	1143	1137	1133	1131	1141	1145	1148	1146	1142	1144	1144	1150	1150	1148	1139	1131	1146	1146	1130	1125	1106	1110	1115	1124	1127	1110	1110	1131	1139	1142	1130	1122	1109	1101	1086	1063	1075	1094	1107	1108	1113	1120	1125	1123	1126	1124	1123	1123	1126	1130	1125	1113	1103	1108	1111	1104	1106	1105	1104	1111	1119	1129	1127	1124	1126	1126	1129	1132	1130	1124	1115	1100	1085	1080	1107	1106	1111	1106	1115	1116	1117	1136	1141	1155	1155	1148	1134	1120	1122	1126	1133	1119	1109	1105	1114	1105	1097	1096	1110	1125	1122	1117	1088	1065	1066	1076	1082	1088	1094	1108	1106	1101	1098	1095	1094	1099	1100	1113	1118	1119	1112	1109	1110	1114	1110	1110	1103	1100	1102	1103	1103	1099	1100	1102	1093	1080	1076	1075	1087	1097	1102	1103	1106	1109	1106	1100	1099	1099	1103	1107	1105	1108	1108	1105	1096	1083	1087	1108	1125	1120	1125	1118	1109	1107	1107	1108	1111	1106	1103	1086	1078	1080	1088	1090	1077	1072	1075	1090	1095	1098	1110	1098	1102	1101	1098	1095	1090	1082	1059	1053	1059	1070	1075	1062	1047	1052	1058	1079	1082	1082	1077	1085	1087	1090	1082	1075	1069	1065	1068	1075	1069	1072	1069	1064	1060	1053	1047	1065	1073	1101	1103	1089	1089	1089	1095	1097	1090	1089	1081	1082	1082	1084	1087	1088	1081	1080	1086	1090	1102	1100	1100	1098	1091	1087	1084	1084	1085	1102	1109	1108	1101	1083	1091	1098	1106	1097	1095	1072	1051	1061	1073	1082	1069	1066	1060	1060	1067	1066	1063	1060	1060	1059	1060	1081	1075	1078	1081	1089	1088	1086	1075	1049	1040	1043	1047	1052	1059	1066	1068	1072	1069	1062	1056	1096	1089	1077	1069	1057	1059	1063	1065	1067	1070	1072	1074	1075	1071	1071	1065	1054	1059	1067	1078	1047	1045	1044	1043	1038	1055	1059	1058	1058	1059	1062	1066	1062	1057	1049	1052	1055	1061	1062	1067	1072	1070	1065	1062	1061	1060	1063	1065	1065	1058	1052	1064	1082	1083	1087	1087	1078	1077	1075	1073	1069	1069	1070	1068	1070	1070	1074	1092	1096	1060	1068	1064	1057	1050	1040	1034	1035	1041	1048	1055	1054	1051	1049	1050	1051	1047	1049	1048	1050	1049	1045	1044	1041	1035	1038	1042	1039	1035	1037	1050	1058	1051	1042	1040	1035	1033	1042	1050	1051	1049	1043	1028	1036	1041	1051	1052	1047	1040	1027	1025	1025	1034	1037	1036	1053	1057	1051	1057	1065	1068	1062	1057	1053	1053	1047	1040	1033	1033	1035	1035	1037	1034	1024	1022	1027	1028	1029	1023	1007	1003	1018	1030	1040	1038	1031	1022	1019	1015	1018	1024	1027	1030	1036	1029	1029	1020	1013	1009	1009	1004	996	1042	1024	1026	1019	1012	1001	1001	1001	1002	1004	1018	0	0	0	0	0	0	0
1170	1165	1161	1161	1158	1174	1194	1210	1210	1219	1214	1191	1184	1184	1192	1207	1202	1175	1171	1171	1173	1173	1172	1171	1180	1180	1181	1180	1174	1174	1180	1190	1190	1198	1201	1199	1194	1190	1186	1186	1170	1171	1172	1169	1165	1157	1161	1166	1166	1173	1177	1168	1161	1156	1161	1166	1172	1183	1183	1189	1188	1176	1163	1158	1158	1169	1176	1188	1194	1165	1169	1167	1167	1154	1155	1150	1152	1149	1149	1150	1147	1146	1157	1172	1166	1151	1144	1144	1148	1145	1137	1132	1130	1133	1132	1143	1143	1158	1166	1163	1164	1165	1160	1151	1139	1135	1136	1143	1151	1169	1183	1192	1182	1162	1140	1132	1134	1127	1100	1097	1101	1101	1103	1108	1113	1111	1111	1124	1133	1142	1148	1146	1156	1143	1132	1110	1107	1120	1109	1102	1107	1132	1137	1141	1152	1170	1172	1150	1146	1143	1141	1142	1125	1119	1117	1126	1126	1123	1114	1110	1111	1120	1131	1134	1125	1127	1129	1137	1138	1139	1139	1128	1120	1108	1104	1110	1110	1095	1100	1102	1102	1100	1088	1077	1069	1065	1071	1084	1111	1109	1101	1094	1086	1055	1068	1087	1090	1093	1099	1106	1111	1112	1109	1113	1116	1113	1111	1107	1102	1093	1088	1092	1095	1086	1091	1094	1095	1098	1093	1108	1095	1091	1098	1106	1115	1121	1120	1111	1099	1090	1070	1064	1052	1059	1085	1082	1094	1098	1105	1109	1115	1098	1131	1122	1114	1108	1104	1104	1109	1103	1069	1066	1065	1070	1082	1088	1095	1103	1103	1085	1065	1063	1063	1069	1072	1078	1085	1067	1070	1071	1094	1093	1092	1083	1087	1110	1112	1111	1097	1094	1092	1091	1082	1065	1066	1077	1089	1091	1090	1068	1069	1068	1064	1067	1067	1062	1061	1076	1088	1096	1104	1106	1099	1089	1088	1088	1085	1093	1100	1103	1106	1101	1083	1064	1067	1073	1074	1086	1086	1087	1090	1095	1085	1059	1063	1060	1057	1054	1050	1058	1058	1053	1047	1044	1050	1067	1074	1089	1100	1117	1091	1090	1081	1081	1078	1063	1053	1061	1066	1069	1070	1037	1041	1048	1062	1070	1063	1054	1062	1074	1080	1080	1073	1066	1060	1058	1052	1051	1055	1058	1057	1053	1056	1056	1057	1053	1047	1057	1056	1050	1050	1054	1063	1064	1074	1076	1074	1078	1081	1080	1078	1076	1071	1069	1073	1078	1093	1087	1082	1076	1078	1080	1082	1084	1085	1067	1068	1065	1068	1068	1062	1066	1078	1085	1062	1051	1045	1043	1049	1053	1055	1056	1054	1052	1055	1056	1055	1053	1052	1045	1052	1050	1046	1063	1072	1071	1073	1066	1038	1027	1018	1034	1041	1045	1052	1052	1055	1056	1040	1039	1044	1067	1066	1067	1060	1055	1054	1056	1060	1050	1056	1061	1068	1056	1030	1029	1033	1034	1038	1044	1044	1043	1044	1042	1040	1033	1050	1048	1048	1049	1053	1055	1051	1050	1046	1036	1038	1032	1033	1045	1047	1059	1052	1055	1053	1043	1040	1041	1039	1038	1044	1036	1045	1055	1079	1078	1066	1061	1061	1041	1041	1047	1046	1038	1030	1015	1014	1011	1021	1030	1036	1038	1038	1038	1038	1036	1031	1031	1034	1034	1040	1041	1042	1033	1033	1035	1036	1035	1029	1033	1041	1035	1035	1030	1026	1031	1034	1043	1040	1030	1041	1043	1040	1036	1033	1029	1023	1027	1025	1027	1017	1011	1010	1017	1026	1034	1015	1012	1009	1013	1012	998	1003	1012	1017	1009	1018	1021	1044	1052	1057	1053	1053	1054	1053	1042	1033	1027	1027	1029	1029	1027	1020	1013	1010	1017	1023	1027	1021	1009	1003	999	997	999	1024	1022	1013	1004	999	994	997	1002	1011	1015	1015	1008	1001	1001	999	997	993	977	963	998	1012	1015	1014	1008	1008	1004	1002	1002	1002	0	0	0	0	0	0	0
