0	0	0	0	0	0	0	0	0	0	1229	1294	1302	1293	1307	1307	1300	1294	1285	1278	1296	1296	1290	1294	1294	1287	1288	1286	1286	1295	1296	1310	1310	1298	1285	1283	1283	1287	1290	1292	1298	1311	1322	1320	1317	1326	1326	1337	1340	1332	1321	1310	1307	1310	1303	1303	1321	1321	1334	1342	1346	1339	1337	1351	1336	1345	1346	1361	1372	1370	1368	1356	1347	1359	1359	1359	1362	1369	1355	1345	1341	1340	1344	1354	1367	1370	1368	1352	1346	1351	1358	1356	1357	1356	1368	1386	1384	1360	1350	1345	1355	1344	1345	1342	1344	1343	1347	1358	1371	1376	1372	1364	1356	1346	1344	1350	1356	1384	1377	1349	1338	1339	1346	1359	1374	1379	1408	1403	1392	1383	1379	1378	1369	1355	1351	1360	1368	1368	1375	1373	1374	1388	1402	1413	1432	1472	1458	1441	1419	1415	1411	1398	1372	1369	1380	1388	1406	1417	1412	1375	1358	1342	1344	1342	1343	1347	1342	1337	1344	1374	1388	1383	1375	1374	1383	1398	1408	1395	1380	1375	1376	1384	1377	1360	1368	1398	1382	1377	1383	1385	1377	1400	1413	1416	1416	1409	1390	1386	1389	1379	1370	1362	1372	1381	1390	1383	1381	1381	1392	1403	1395	1395	1372	1380	1382	1385	1385	1390	1382	1376	1382	1389	1400	1391	1398	1415	1417	1427	1418	1407	1404	1404	1406	1400	1416	1412	1419	1408	1398	1411	1406	1412	1427	1425	1416	1424	1423	1423	1427	1420	1425	1424	1423	1434	1412	1417	1419	1433	1440	1439	1468	1474	1479	1477	1482	1484	1489	1467	1443	0	0	0	0	0	0	0	0	0	0	0	0	0	0	0	0	0	0	0	0	0	0	0	0	0	0	0	0	0	0	0	0	0	0	0	0	0	0	0	0	0	1872	1921	2133	2292	2280	2278	2234	2341	2203	1945	1857	1781	1743	1729	1733	1729	1726	1702	1756	1832	1852	1882	1894	1945	1935	1942	1932	1957	1974	1973	1954	1871	1749	1680	1641	1604	1566	1537	1525	1533	1551	1559	1553	1556	1547	1551	1542	1523	1494	1482	1482	1475	1478	1489	1513	1520	1512	1497	1491	1491	1495	1498	1504	1507	1508	1509	1523	1541	1543	1544	1533	1529	1538	1554	1555	1543	1545	1554	1564	1571	1567	1559	1553	1546	1545	1555	1567	1567	1567	1579	1607	1627	1730	2032	2688	3527	3640	3735	3789	3821	3861	3909	3913	3897	3876	3842	3831	3821	3811	3623	3266	3167	3103	3093	3100	3110	3078	3013	3022	3061	3100	3126	3181	3146	3125	3106	3108	3120	3126	3120	3113	3121	3132	3169	2984	2788	2678	2610	2556	2449	2420	2417	2411	2425	2484	2505	2498	2461	2444	2378	2329	2318	2530	2350	2204	2383	2306	2219	2209	2234	2230	2224	2225	2225	2234	2181	2208	2183	2187	2198	2220	2239	2237	2213	2179	2174	2177	2164	2155	2154	2180	2191	2195	2183	2154	2130	2105	2098	2096	2091	2093	2082	2084	2077	2077	2047	2046	2054	2020	2012	1991	1983	1989	1994	2001	1994	2032	2008	1951	1877	1891	1862	1847	1844	1847	1842	1772	1755	1757	1765	1788	1783	1768	1743	1721	1708	1716	1739	1750	1758	1764	1723	1722	1725	1707	1690	1684	1666	1644	1650	1648	1640	1644	1651	1655	1651	1643	1618	1604	1590	1585	1588	1583	1578	1569	1562	1563	1568	1574	1565	1549	1543	1547	1562	1565	1560	1548	1541	1537	1531	1536	1541	1535	1527	1517	1504	1500	1501	1501	1492	1472	1459	1459	1454	1456	1458	1457	1456	1458	1454	1450	1452	1451	1436	1426	1418	1415	1415	1414	1398	1392	1392	1383	1392	1398	1397	1393	1366	1370	1375	1370	1362	1355	1355	1352	1343	1339	1332	1333	1333	1334	1327	0	0	0	0	0	0	0	0
0	0	0	0	0	0	0	0	0	0	1216	1278	1282	1287	1306	1306	1304	1304	1302	1322	1320	1315	1315	1308	1301	1300	1301	1297	1296	1296	1309	1318	1321	1304	1295	1293	1293	1297	1300	1303	1312	1323	1333	1330	1320	1324	1324	1334	1343	1339	1330	1320	1316	1311	1314	1320	1329	1329	1338	1340	1341	1336	1334	1339	1326	1337	1332	1332	1320	1352	1367	1351	1332	1333	1333	1339	1342	1360	1370	1372	1363	1360	1357	1363	1367	1366	1362	1352	1349	1359	1371	1378	1373	1372	1376	1385	1398	1422	1427	1425	1412	1414	1423	1445	1458	1454	1450	1447	1446	1442	1445	1471	1496	1445	1415	1443	1467	1500	1511	1502	1493	1485	1469	1459	1443	1443	1470	1485	1492	1498	1502	1441	1434	1371	1353	1340	1340	1368	1391	1409	1427	1420	1396	1383	1396	1435	1439	1422	1412	1426	1429	1419	1380	1369	1363	1360	1366	1396	1411	1403	1383	1353	1340	1334	1328	1330	1322	1306	1302	1295	1281	1262	1242	1250	1276	1325	1366	1406	1378	1361	1373	1362	1364	1358	1363	1381	1386	1387	1388	1391	1379	1380	1403	1405	1404	1405	1399	1395	1391	1383	1373	1368	1364	1382	1395	1383	1366	1374	1379	1418	1420	1401	1369	1387	1398	1413	1409	1401	1396	1374	1388	1398	1395	1390	1391	1398	1411	1429	1421	1409	1416	1427	1414	1403	1413	1401	1421	1441	1408	1408	1426	1431	1416	1436	1424	1421	1425	1418	1424	1427	1428	1419	1421	1421	1426	1422	1423	1442	1442	1437	1436	1469	1488	1489	1494	1487	1498	1534	0	0	0	0	0	0	0	0	0	0	0	0	0	0	0	0	0	0	0	0	0	0	0	0	0	0	0	0	0	0	0	0	0	0	0	0	0	0	0	0	0	0	0	2093	2240	2362	2408	2416	2423	2401	2267	2016	1873	0	1763	1746	1765	1764	1758	1743	1762	1855	1890	1911	1925	1960	1959	1958	1968	1970	1975	1974	1965	1886	1766	1643	1615	1587	1557	1525	1497	1498	1508	1525	1532	1540	1548	1529	1518	1518	1491	1482	1490	1477	1472	1489	1506	1514	1516	1506	1499	1496	1499	1507	1508	1504	1501	1505	1523	1535	1543	1544	1531	1527	1540	1534	1540	1540	1537	1539	1550	1546	1564	1567	1558	1550	1550	1566	1583	1585	1582	1594	1614	1634	1730	2026	2848	3503	3618	3726	3777	3808	3877	3913	3916	3883	3867	3849	3839	3833	3838	3680	3278	3157	3106	3101	3104	3095	3059	2997	3034	3074	3098	3139	3168	3137	3116	3104	3102	3107	3114	3111	3100	3110	3133	3153	3108	2922	2763	2702	2692	2603	2587	2569	2523	2485	2542	2601	2643	2641	2601	2610	2624	2610	2606	2625	2589	2504	2394	2230	2212	2219	2206	2203	2207	2210	2233	2228	2190	2188	2175	2180	2187	2194	2209	2211	2182	2175	2185	2194	2203	2218	2215	2204	2205	2195	2183	2184	2202	2197	2193	2184	2188	2190	2181	2167	2144	2129	2119	2092	2058	2040	2028	2015	2029	2043	2047	2110	2090	2074	2067	2063	2036	1998	1986	1977	1953	1935	1905	1891	1873	1833	1800	1798	1787	1758	1731	1842	1841	1832	1824	1815	1809	1814	1815	1875	1873	1844	1806	1688	1649	1640	1631	1617	1612	1632	1636	1639	1636	1627	1606	1583	1584	1584	1583	1570	1563	1552	1561	1567	1576	1571	1561	1552	1550	1551	1541	1531	1530	1524	1543	1546	1546	1542	1531	1520	1516	1507	1508	1509	1507	1501	1483	1469	1455	1448	1443	1448	1449	1453	1457	1455	1451	1453	1452	1441	1431	1416	1403	1407	1404	1396	1384	1384	1373	1372	1386	1388	1387	1385	1379	1375	1369	1356	1344	1344	1343	1337	1326	1319	1325	1325	1325	1322	0	0	0	0	0	0	0	0
0	0	0	0	0	0	0	0	0	0	1220	1268	1280	1279	1297	1297	1306	1311	1321	1322	1318	1318	1318	1310	1311	1306	1312	1320	1314	1314	1316	1315	1314	1309	1298	1301	1305	1305	1309	1315	1326	1338	1347	1343	1329	1323	1323	1332	1339	1341	1332	1325	1325	1327	1320	1322	1330	1330	1337	1337	1336	1338	1338	1334	1314	1302	1324	1309	1322	1338	1365	1351	1326	1313	1317	1317	1326	1329	1339	1369	1376	1363	1361	1371	1385	1399	1402	1400	1404	1420	1433	1435	1434	1439	1446	1468	1489	1538	1572	1595	1599	1599	1608	1624	1637	1643	1634	1635	1627	1612	1632	1641	1577	1576	1475	1578	1523	1542	1552	1546	1547	1602	1653	1668	1668	1665	1662	1708	1713	1667	1642	1666	1756	1780	1775	1774	1780	1783	1869	1930	1632	1654	1780	1792	1712	1750	1785	1828	1942	1924	1813	1760	1715	1695	1687	1703	1758	1799	1793	1773	1686	0	0	0	0	0	0	0	0	0	0	0	0	0	0	0	1354	1383	1393	1366	1372	1351	1358	1361	1367	1377	1381	1401	1400	1395	1391	1386	1392	1394	1391	1397	1397	1399	1393	1382	1377	1371	1378	1384	1405	1408	1413	1381	1393	1416	1412	1404	1373	1397	1404	1410	1412	1403	1405	1406	1407	1399	1408	1412	1394	1393	1389	1408	1401	1402	1420	1418	1421	1414	1413	1414	1430	1435	1412	1410	1411	1427	1427	1429	1426	1426	1412	1426	1421	1423	1426	1430	1431	1420	1419	1423	1441	1418	1419	1390	1416	1466	1491	1517	1512	1506	1541	1666	0	0	0	0	0	0	0	0	0	0	0	0	0	0	0	0	0	0	0	0	0	0	0	0	0	0	0	0	0	0	0	0	0	0	0	0	0	0	0	0	0	0	0	2242	2316	2385	2427	2429	2451	2413	2242	2001	1884	0	0	1771	1765	1772	1764	1750	1772	1866	1886	1905	1925	1991	1991	1995	1977	1970	1964	1963	1964	1893	1756	1622	1611	1596	1571	1540	1503	1487	1479	1487	1499	1506	1537	1501	1499	1510	1490	1487	1503	1484	1483	1494	1501	1519	1517	1518	1513	1512	1513	1514	1514	1512	1505	1509	1522	1530	1532	1531	1518	1498	1501	1517	1534	1536	1535	1535	1542	1542	1568	1571	1555	1547	1547	1561	1586	1589	1584	1581	1593	1626	1715	2008	2873	3384	3632	3758	3816	3844	3867	3869	3866	3846	3833	3841	3846	3849	3831	3731	3371	3165	3089	3066	3088	3056	2979	2986	3035	3074	3104	3147	3153	3128	3112	3106	3103	3102	3100	3094	3094	3109	3141	3142	3107	3077	2969	2857	2865	2842	2774	2743	2730	2745	2763	2747	2800	2779	3111	3093	3087	3059	3011	2963	2901	2730	2517	2281	2235	2214	2198	2189	2188	2188	2206	2219	2193	2178	2182	2187	2192	2195	2210	2213	2194	2170	2175	2183	2205	2219	2210	2203	2203	2201	2191	2192	2210	2203	2191	2188	2191	2190	2184	2174	2160	2155	2143	2136	2150	2064	2049	2074	2115	2142	2168	2157	2139	2128	2109	2100	2097	2115	2120	2093	2064	2039	2046	2025	1974	1932	2632	2627	2621	2609	2613	2604	2593	2603	2581	2575	2597	2612	2566	2557	2555	2467	2345	1752	1671	1637	1610	1600	1599	1608	1623	1629	1633	1632	1611	1585	1566	1567	1570	1564	1558	1555	1564	1569	1578	1572	1562	1550	1538	1537	1531	1524	1522	1532	1541	1550	1550	1538	1529	1522	1516	1516	1521	1518	1511	1511	1514	1520	1529	1531	1516	1488	1486	1491	1470	1474	1483	1503	1494	1460	1430	1426	1409	1404	1397	1377	1374	1374	1369	1371	1373	1379	1381	1387	1390	1385	1374	1363	1345	1335	1336	1333	1328	1314	1321	1321	1318	1316	0	0	0	0	0	0	0	0
0	0	0	0	0	0	0	0	1214	1225	1225	1269	1281	1285	1297	1297	1310	1314	1308	1302	1300	1295	1295	1288	1293	1301	1307	1315	1322	1322	1316	1311	1305	1304	1305	1308	1304	1304	1308	1321	1341	1351	1354	1344	1327	1319	1319	1324	1333	1343	1333	1325	1325	1327	1316	1315	1324	1329	1329	1332	1340	1342	1344	1329	1314	1306	1312	1310	1330	1334	1330	1351	1332	1313	1314	1314	1316	1323	1331	1347	1361	1362	1363	1375	1402	1414	1410	1407	1398	1406	1432	1454	1460	1454	1470	1507	1550	1584	1615	1627	1629	1630	1636	1651	1664	1664	1662	1657	1664	1663	1684	1683	1678	1645	1702	1713	1704	1644	1624	1628	1662	1664	1692	1724	1724	1706	1731	1752	1748	1733	1719	1747	1791	1824	1836	1855	1856	1871	1918	1983	2038	2064	2058	2065	2080	2087	1921	1912	2061	1922	1877	1841	1808	1831	1907	1944	1975	1989	1973	1891	0	0	0	0	0	0	0	0	0	0	0	0	0	0	0	0	0	1367	1357	1358	1378	1362	1374	1375	1373	1377	1361	1389	1391	1393	1400	1401	1394	1388	1378	1381	1387	1401	1395	1388	1381	1378	1380	1391	1402	1409	1411	1411	1414	1413	1410	1408	1390	1402	1408	1403	1410	1406	1413	1411	1407	1410	1408	1412	1399	1385	1404	1424	1409	1393	1396	1424	1425	1412	1411	1413	1413	1403	1410	1412	1411	1412	1427	1401	1411	1414	1414	1424	1415	1407	1423	1424	1433	1434	1422	1421	1424	1405	1378	1387	1430	1467	1492	1519	1520	1524	1598	1821	0	0	0	0	0	0	0	0	0	0	0	0	0	0	0	0	0	0	0	0	0	0	0	0	0	0	0	0	0	0	0	0	0	0	0	0	0	0	0	0	0	0	0	2334	2341	2384	2433	2434	2452	2383	2141	1924	1838	0	0	0	1781	1779	1773	1759	1769	1860	1862	1880	1928	1974	1989	2002	1966	1959	1967	1970	1971	1917	1758	1615	1618	1632	1625	1594	1549	1512	1499	1497	1494	1494	1519	1490	1494	1506	1477	1489	1510	1517	1516	1509	1521	1532	1535	1525	1527	1528	1527	1525	1522	1515	1511	1513	1524	1534	1527	1517	1499	1486	1489	1510	1533	1543	1546	1544	1539	1540	1555	1571	1572	1556	1542	1546	1562	1575	1566	1553	1570	1610	1704	1989	2859	3359	3644	3782	3816	3842	3829	3807	3802	3806	3813	3823	3841	3820	3737	3691	3482	3209	3070	3057	3066	3038	2971	2980	3030	3061	3108	3129	3142	3128	3118	3114	3111	3106	3092	3090	3106	3138	3157	3142	3112	3095	3105	3130	3143	3151	3157	3140	3120	3102	3093	3091	3134	3132	3134	3147	3166	3165	3142	3102	2926	2791	2543	2283	2252	2226	2202	2183	2160	2145	2148	2204	2198	2186	2194	2196	2202	2216	2233	2218	2183	2168	2168	2182	2197	2211	2206	2199	2201	2202	2205	2218	2200	2189	2182	2176	2177	2183	2190	2184	2252	2311	2361	2363	2236	2130	2041	2002	2060	2128	2309	2397	2447	2431	2426	2426	2424	2487	2519	2549	2567	2582	2730	2737	2754	2779	2782	2779	2777	2766	2761	2728	2705	2724	2721	2731	2748	2758	2660	2652	2653	2550	2402	2257	1706	1624	1603	1600	1599	1606	1610	1622	1632	1628	1612	1582	1559	1553	1557	1565	1560	1568	1569	1596	1583	1570	1562	1554	1543	1535	1527	1519	1510	1524	1534	1536	1537	1538	1534	1529	1523	1526	1531	1527	1520	1521	1529	1544	1543	1541	1536	1522	1518	1546	1557	1550	1534	1531	1520	1502	1491	1480	1466	1453	1444	1434	1434	1414	1415	1416	1391	1397	1397	1400	1409	1412	1384	1355	1342	1329	1328	1324	1313	1304	1313	1313	1331	1331	0	0	0	0	0	0	0	0
0	0	0	0	0	0	0	0	1238	1246	1246	1267	1282	1295	1301	1307	1307	1310	1298	1294	1284	1278	1278	1274	1280	1287	1298	1305	1314	1314	1311	1305	1302	1298	1306	1308	1306	1306	1314	1328	1329	1340	1335	1330	1320	1313	1313	1310	1326	1335	1333	1325	1321	1315	1309	1312	1315	1329	1329	1335	1339	1341	1346	1326	1309	1313	1312	1316	1343	1332	1323	1340	1345	1327	1325	1325	1320	1322	1340	1355	1378	1392	1398	1402	1408	1414	1417	1415	1406	1408	1421	1449	1459	1464	1484	1517	1567	1601	1634	1660	1672	1671	1676	1697	1702	1701	1689	1684	1694	1707	1717	1721	1705	1695	1749	1770	1778	1713	1682	1692	1710	1694	1714	1734	1734	1737	1749	1789	1770	1761	1768	1787	1816	1847	1871	1888	1893	1911	1959	2020	2077	2112	2117	2131	2145	2167	2181	2208	2213	2143	2048	1993	1893	1934	1982	2021	2068	2074	2057	1982	0	0	0	0	0	0	0	0	0	0	0	0	0	0	0	0	0	1352	1343	1347	1373	1376	1393	1392	1381	1376	1357	1378	1382	1387	1385	1386	1390	1389	1377	1377	1376	1397	1400	1388	1381	1380	1378	1385	1393	1397	1402	1428	1428	1423	1418	1411	1400	1404	1387	1393	1400	1406	1412	1415	1416	1411	1406	1412	1399	1379	1403	1419	1414	1404	1403	1408	1404	1412	1417	1412	1411	1408	1409	1418	1413	1405	1391	1399	1399	1405	1425	1423	1428	1404	1415	1421	1436	1431	1429	1415	1406	1412	1397	1388	1443	1473	1486	1507	1527	1536	1644	1997	2545	0	0	0	0	0	0	0	0	0	0	0	0	0	0	2847	2880	0	0	3051	0	0	0	0	0	0	0	0	0	0	0	0	0	0	3142	3038	0	0	0	0	0	0	0	2351	2341	2370	2435	2442	2432	2356	2141	1903	1823	0	0	1806	1804	1809	1799	1784	1783	1840	1863	1884	1901	1926	1965	1949	1940	1942	1961	1971	1988	1960	1793	1623	1633	1654	1660	1634	1595	1554	1533	1529	1527	1515	1527	1501	1496	1494	1477	1489	1510	1513	1509	1517	1534	1534	1529	1528	1538	1537	1533	1526	1525	1522	1516	1501	1497	1502	1511	1507	1498	1488	1494	1510	1531	1545	1555	1555	1545	1531	1540	1565	1571	1568	1559	1553	1553	1554	1550	1533	1535	1579	1690	1955	2775	3337	3623	3746	3788	3794	3779	3757	3762	3778	3794	3819	3805	3741	3668	3529	3400	3161	3049	3028	3051	3041	2996	3002	3000	3041	3077	3111	3129	3128	3121	3134	3135	3134	3116	3108	3133	3150	3160	3138	3112	3088	3085	3127	3141	3155	3165	3169	3151	3133	3161	3155	3134	3139	3145	3157	3175	3177	3163	3125	3099	2840	2577	2304	2248	2230	2207	2170	2125	2113	2080	2108	2182	2188	2194	2199	2206	2231	2223	2208	2184	2168	2170	2176	2190	2200	2198	2195	2194	2202	2216	2218	2191	2175	2168	2167	2175	2188	2203	2278	2377	2415	2679	2795	2650	2398	2146	2086	2200	2340	2499	2732	2880	2953	2980	2972	2944	2975	2972	2929	2887	2878	2844	2857	2881	2920	2934	2939	2931	2911	2919	2923	2947	2947	2933	2907	2904	2908	2921	2919	2811	2629	2486	2318	1707	1623	1609	1601	1599	1602	1605	1601	1612	1616	1607	1585	1562	1547	1545	1567	1580	1573	1596	1596	1585	1579	1570	1561	1547	1544	1537	1516	1511	1527	1534	1536	1539	1547	1548	1542	1534	1538	1544	1545	1539	1539	1551	1563	1569	1566	1553	1542	1536	1556	1556	1554	1558	1567	1562	1511	1502	1539	1536	1529	1520	1513	1513	1492	1450	1445	1460	1471	1483	1441	1443	1435	1418	1401	1396	1385	1375	1361	1348	1343	1383	1383	1384	1377	0	0	0	0	0	0	0	0
0	0	0	0	0	0	0	0	1249	1251	1251	1257	1286	1301	1300	1301	1301	1301	1284	1287	1284	1277	1277	1279	1279	1280	1290	1298	1306	1306	1313	1308	1304	1300	1305	1311	1314	1314	1322	1328	1324	1316	1311	1311	1311	1311	1311	1309	1318	1323	1323	1316	1311	1307	1308	1307	1316	1332	1332	1343	1344	1344	1333	1325	1316	1311	1313	1311	1320	1324	1319	1333	1346	1344	1330	1330	1321	1341	1348	1362	1389	1405	1414	1405	1405	1409	1415	1419	1428	1432	1439	1449	1451	1467	1491	1522	1562	1608	1640	1663	1670	1682	1692	1721	1738	1732	1721	1716	1728	1739	1746	1743	1734	1707	1745	1754	1764	1738	1717	1739	1748	1705	1687	1709	1722	1747	1763	1801	1795	1777	1777	1792	1821	1862	1894	1912	1922	1943	1970	2025	2079	2117	2125	2146	2159	2194	2225	2243	2263	2219	2096	2055	2010	2058	2104	2138	2125	2146	2119	2088	0	0	0	0	0	0	0	0	0	0	0	0	0	0	0	0	0	1350	1359	1337	1368	1377	1409	1395	1385	1373	1353	1367	1385	1390	1388	1380	1376	1381	1384	1385	1386	1402	1408	1395	1387	1383	1376	1376	1379	1382	1387	1398	1429	1427	1419	1407	1399	1398	1383	1388	1396	1405	1409	1417	1417	1405	1404	1403	1407	1401	1414	1424	1416	1404	1408	1416	1395	1414	1418	1419	1415	1398	1407	1407	1418	1416	1413	1387	1396	1412	1419	1431	1427	1420	1404	1414	1430	1434	1433	1404	1405	1406	1450	1466	1459	1475	1482	1510	1542	1555	1721	2178	2683	2733	2799	2867	2891	2937	2983	3090	0	0	2971	2957	2936	2918	2921	2934	2955	3031	3132	3215	3220	3148	3129	3162	3186	3178	3184	3169	3163	3174	3210	3251	3267	3237	3190	3101	2908	0	0	0	0	0	0	2322	2322	2370	2437	2443	2422	2333	2133	1904	1839	1835	1825	1809	1824	1828	1812	1800	1802	1839	1871	1904	1908	1912	1917	1927	1917	1924	1946	1973	2005	1988	1831	1625	1637	1641	1647	1650	1622	1585	1569	1566	1561	1552	1535	1519	1504	1492	1475	1483	1507	1496	1494	1518	1537	1527	1530	1524	1529	1533	1529	1529	1531	1526	1513	1495	1486	1483	1489	1497	1496	1496	1501	1510	1528	1547	1551	1556	1548	1524	1528	1548	1566	1567	1552	1544	1542	1544	1544	1529	1525	1572	1680	1943	2646	3207	3394	3516	3593	3626	3638	3624	3613	3641	3684	3716	3690	3602	3527	3432	3209	3075	3037	3017	3068	3084	3029	3008	3024	3029	3037	3064	3109	3116	3128	3150	3163	3160	3150	3152	3167	3173	3174	3160	3136	3106	3091	3096	3126	3142	3158	3177	3203	3194	3185	3165	3158	3160	3152	3171	3177	3179	3174	3145	3102	2689	2575	2294	2235	2213	2184	2126	2122	2109	2088	2101	2158	2182	2196	2214	2223	2213	2211	2201	2189	2182	2180	2179	2179	2176	2190	2195	2192	2203	2207	2215	2194	2173	2166	2172	2187	2205	2211	2304	2467	2770	2924	2902	2674	2487	2029	2027	2213	2338	2547	2774	2924	3002	3003	2990	2993	2996	2995	2978	2980	2936	2906	2921	2956	2993	3015	3025	3011	2985	2971	2960	2966	2975	2984	2987	2979	2976	2961	2958	2909	2770	2500	2338	1678	1626	1609	1595	1597	1600	1604	1598	1598	1602	1583	1580	1569	1555	1544	1565	1589	1572	1580	1583	1582	1576	1574	1560	1551	1557	1568	1569	1562	1554	1540	1541	1544	1557	1560	1554	1549	1553	1563	1556	1551	1555	1564	1571	1559	1552	1553	1557	1572	1582	1589	1588	1598	1608	1591	1554	1547	1547	1617	1617	1608	1590	1590	1562	1509	1485	1520	1535	1544	1556	1565	1566	1472	1462	1456	1444	1431	1407	1413	1435	1435	1449	1446	1435	0	0	0	0	0	0	0	0
0	0	0	0	0	0	0	0	1248	1258	1258	1251	1283	1300	1291	1287	1287	1288	1273	1279	1283	1286	1286	1290	1297	1298	1294	1298	1311	1311	1320	1325	1317	1307	1309	1316	1323	1323	1322	1322	1313	1298	1288	1295	1304	1311	1308	1308	1314	1316	1314	1310	1302	1296	1297	1300	1322	1343	1343	1353	1354	1350	1337	1325	1321	1308	1305	1306	1319	1325	1320	1324	1330	1339	1338	1360	1360	1368	1373	1381	1396	1412	1410	1400	1393	1394	1398	1410	1421	1428	1439	1446	1454	1472	1498	1530	1568	1604	1644	1654	1665	1677	1692	1726	1751	1763	1745	1745	1750	1764	1768	1755	1751	1735	1730	1753	1742	1745	1737	1761	1758	1682	1652	1665	1696	1729	1758	1786	1783	1780	1772	1787	1827	1869	1893	1909	1927	1947	1981	2027	2079	2107	2134	2149	2179	2197	2226	2261	2285	2253	2148	2105	2085	2125	2149	2169	2176	2175	2196	2285	0	0	0	0	0	0	0	0	0	0	0	0	0	0	0	0	0	1354	1372	1369	1363	1379	1411	1384	1375	1369	1368	1377	1389	1397	1394	1387	1376	1373	1388	1395	1394	1398	1405	1395	1396	1389	1374	1373	1379	1380	1387	1395	1412	1414	1411	1406	1394	1389	1384	1384	1395	1403	1409	1420	1421	1421	1409	1400	1412	1409	1418	1436	1428	1394	1407	1412	1402	1413	1412	1416	1412	1403	1396	1412	1418	1431	1436	1428	1420	1416	1407	1413	1422	1409	1426	1417	1424	1424	1404	1414	1405	1412	1418	1410	1415	1460	1476	1515	1544	1569	1732	2197	2723	2812	2913	2967	2997	2991	2998	3034	3091	3093	3075	3033	3009	2980	2952	2937	2971	3044	3144	3224	3225	3206	3174	3145	3152	3174	3185	3177	3158	3189	3204	3234	3189	3166	3154	3132	2954	2726	0	0	0	0	2245	2243	2285	2377	2448	2440	2402	2307	2151	1964	1901	1878	1856	1837	1839	1850	1837	1821	1800	1819	1872	1921	1927	1910	1913	1914	1913	1921	1936	1970	2005	1992	1844	1621	1604	1599	1613	1609	1603	1578	1564	1558	1566	1564	1524	1518	1511	1495	1475	1470	1502	1512	1511	1519	1530	1525	1523	1524	1522	1513	1521	1529	1536	1535	1522	1504	1490	1483	1482	1488	1493	1498	1500	1511	1524	1537	1540	1553	1541	1529	1521	1528	1549	1559	1548	1545	1539	1538	1533	1527	1527	1572	1660	1871	2574	3034	3141	3223	3279	3324	3321	3300	3274	3259	3242	3265	3271	3255	3213	3161	3091	3032	2993	2998	3063	3061	3030	3006	3017	3017	3002	3030	3084	3102	3125	3155	3183	3186	3172	3159	3169	3167	3169	3151	3139	3129	3107	3111	3115	3129	3156	3188	3212	3199	3187	3176	3183	3205	3205	3189	3169	3169	3165	3153	3089	2655	2546	2248	2210	2191	2177	2140	2131	2117	2105	2103	2156	2180	2206	2232	2231	2204	2198	2196	2197	2187	2180	2173	2172	2171	2182	2197	2201	2206	2210	2205	2185	2178	2176	2189	2205	2211	2228	2317	2526	2943	3011	2952	2732	2532	2204	1961	2089	2298	2335	2521	2710	2800	2869	2874	2917	2924	2913	2893	2885	2832	2858	2843	2832	2869	2930	2957	2964	2954	2920	2883	2871	2901	2959	3003	3006	2992	2971	2955	2867	2614	2456	2316	1653	1619	1604	1591	1591	1596	1602	1601	1600	1596	1576	1568	1558	1556	1545	1541	1563	1564	1552	1565	1569	1570	1566	1556	1551	1561	1568	1575	1574	1577	1572	1548	1554	1566	1570	1570	1562	1560	1559	1556	1552	1557	1565	1568	1560	1548	1551	1555	1569	1579	1587	1594	1605	1611	1607	1586	1551	1618	1731	1755	1743	1728	1728	1690	1667	1674	1695	1718	1728	1732	1739	1742	1758	1779	1544	1533	1529	1526	1538	1547	1547	1546	1538	1529	0	0	0	0	0	0	0	0
0	0	0	0	0	0	0	0	1282	1268	1268	1252	1277	1298	1287	1278	1278	1271	1264	1267	1278	1290	1290	1308	1315	1312	1309	1306	1325	1325	1333	1339	1335	1321	1313	1310	1313	1313	1315	1313	1303	1292	1287	1291	1299	1305	1303	1303	1312	1314	1311	1306	1297	1292	1295	1307	1331	1352	1352	1365	1366	1357	1349	1349	1329	1323	1320	1323	1331	1335	1329	1316	1303	1323	1348	1385	1385	1393	1398	1397	1392	1392	1396	1392	1383	1382	1388	1393	1397	1415	1424	1446	1460	1483	1505	1536	1571	1611	1643	1659	1675	1688	1712	1743	1764	1771	1763	1754	1761	1775	1779	1763	1758	1751	1737	1733	1736	1744	1742	1761	1755	1682	1647	1647	1663	1706	1729	1753	1757	1758	1757	1766	1817	1863	1893	1905	1909	1951	1992	2036	2078	2114	2138	2160	2182	2195	2203	2254	2290	2288	2191	2152	2127	2164	2165	2174	2167	2175	2209	2332	0	0	0	0	0	0	0	0	0	0	0	0	0	0	0	0	0	1355	1387	1381	1386	1385	1401	1371	1347	1360	1392	1400	1395	1397	1399	1387	1377	1377	1388	1391	1397	1400	1398	1392	1394	1388	1376	1385	1383	1386	1384	1389	1394	1401	1404	1399	1388	1390	1388	1388	1392	1402	1414	1419	1429	1424	1415	1402	1403	1405	1405	1414	1432	1425	1393	1388	1394	1411	1407	1386	1400	1407	1407	1396	1421	1422	1430	1432	1426	1404	1403	1408	1417	1430	1424	1421	1422	1428	1433	1422	1415	1403	1383	1377	1402	1444	1467	1510	1545	1570	1726	2187	2776	2853	2921	2969	2997	3015	3006	3024	3053	3066	3070	3051	3039	3012	2976	2950	2954	3014	3066	3107	3100	3057	3035	3086	3105	3142	3127	3069	3067	3135	3157	3149	3148	3122	3114	3101	2981	2727	2540	2367	0	0	2243	2237	2254	2393	2480	2453	2408	2315	2186	2018	1979	1936	1904	1873	1863	1862	1841	1816	1801	1808	1847	1910	1937	1921	1925	1924	1924	1922	1936	1957	1979	1964	1849	1656	1588	1576	1570	1568	1565	1546	1544	1545	1539	1540	1488	1501	1511	1487	1479	1468	1489	1493	1495	1518	1518	1505	1510	1512	1509	1503	1515	1531	1539	1539	1532	1520	1508	1498	1488	1486	1489	1495	1509	1520	1519	1525	1539	1556	1550	1535	1524	1518	1533	1549	1555	1555	1547	1536	1527	1530	1558	1578	1643	1833	2353	2950	3090	3160	3196	3234	3228	3194	3178	3197	3183	3173	3171	3144	3129	3076	3030	2993	2990	3002	3007	3022	2972	2971	2986	2991	2966	2974	3008	3076	3113	3154	3178	3165	3152	3136	3153	3150	3147	3126	3117	3126	3109	3081	2945	2947	2952	2998	3037	3052	3046	3056	3062	3049	2989	2980	3001	3043	3037	3009	2976	2636	2489	2225	2205	2201	2187	2177	2141	2138	2140	2131	2159	2181	2208	2228	2223	2200	2189	2177	2190	2189	2186	2179	2181	2179	2189	2196	2210	2211	2215	2180	2173	2174	2179	2201	2212	2220	2217	2286	2529	2969	2963	2854	2692	2553	2296	2162	1928	2089	2190	2321	2479	2603	2726	2781	2825	2826	2805	2768	2758	2754	2697	2689	2703	2713	2737	2722	2702	2724	2725	2672	2673	2729	2783	2769	2745	2697	2739	2715	2637	2509	2410	2308	1704	1620	1608	1595	1595	1592	1603	1596	1594	1590	1587	1578	1572	1564	1551	1558	1569	1562	1538	1539	1550	1547	1551	1554	1559	1565	1576	1586	1591	1592	1584	1563	1563	1569	1569	1564	1555	1554	1556	1558	1556	1558	1567	1570	1560	1547	1546	1550	1561	1579	1583	1589	1599	1612	1606	1608	1629	1797	1844	2146	2156	2156	2166	2182	2199	2172	2161	2194	2216	2227	2237	2237	2240	2219	2144	2013	1851	1889	1894	1877	1877	1881	1903	1885	0	0	0	0	0	0	0	0
0	0	0	0	0	0	0	0	1306	1283	1283	1252	1260	1292	1282	1275	1275	1265	1260	1259	1266	1277	1298	1298	1311	1321	1322	1323	1331	1341	1341	1344	1341	1330	1312	1298	1291	1299	1299	1301	1299	1296	1294	1293	1294	1299	1304	1304	1314	1317	1314	1305	1298	1296	1306	1312	1335	1357	1375	1375	1374	1372	1355	1355	1342	1334	1335	1343	1350	1357	1344	1325	1309	1320	1351	1393	1393	1401	1402	1404	1394	1388	1386	1385	1383	1375	1383	1384	1387	1397	1412	1433	1459	1486	1515	1545	1585	1616	1644	1668	1687	1705	1726	1746	1765	1767	1763	1758	1759	1763	1764	1762	1756	1755	1733	1732	1731	1743	1748	1757	1744	1681	1653	1659	1675	1709	1714	1731	1736	1736	1740	1761	1805	1852	1878	1882	1902	1935	1987	2049	2091	2137	2171	2191	2201	2200	2197	2243	2308	2314	2208	2169	2143	2169	2175	2166	2172	2180	2216	2324	2503	2624	2725	2799	0	0	0	0	0	0	0	0	0	0	0	0	0	1354	1385	1393	1392	1384	1393	1356	1320	1351	1370	1402	1396	1391	1384	1377	1376	1377	1386	1389	1390	1398	1394	1392	1391	1389	1381	1385	1398	1393	1387	1382	1386	1393	1399	1400	1395	1396	1395	1387	1391	1400	1410	1418	1419	1435	1424	1406	1399	1402	1401	1406	1418	1431	1412	1398	1416	1413	1409	1393	1409	1407	1409	1408	1416	1415	1414	1425	1419	1411	1408	1416	1427	1428	1434	1411	1424	1430	1438	1430	1402	1407	1378	1383	1398	1429	1460	1495	1525	1562	1720	2156	2789	2858	2902	2948	2979	3007	2994	2978	2955	2957	3003	3027	3047	2999	2969	2932	2936	2956	2943	2957	2948	2951	2967	2993	3030	3058	2919	2841	2870	2947	3019	3066	3082	3072	3065	3013	2954	2780	2558	2411	2291	2262	2259	2264	2291	2403	2489	2485	2450	2372	2264	2093	2025	1992	1947	1897	1874	1874	1855	1831	1811	1817	1822	1867	1929	1945	1949	1951	1952	1937	1941	1947	1954	1904	1834	1718	1627	1597	1582	1565	1556	1543	1530	1527	1521	1508	1448	1460	1488	1494	1490	1474	1477	1494	1493	1499	1493	1503	1509	1505	1504	1501	1513	1533	1545	1548	1540	1532	1519	1508	1498	1484	1486	1493	1512	1524	1523	1520	1524	1555	1554	1545	1534	1524	1529	1544	1554	1556	1549	1531	1526	1530	1554	1574	1622	1787	2263	2859	3002	3091	3111	3128	3134	3060	3068	3137	3130	3112	3084	3059	3044	3022	2980	2973	2994	2987	2923	2911	2892	2912	2948	2945	2931	2895	2909	2927	2941	2939	2913	2919	2998	3044	3058	3079	3090	3081	3070	3050	2839	2849	2855	2859	2843	2836	2818	2814	2829	2857	2888	2872	2878	2866	2863	2863	2860	2803	2721	2599	2453	2244	2236	2233	2214	2197	2174	2156	2166	2146	2157	2184	2200	2217	2203	2190	2179	2166	2168	2187	2179	2182	2193	2188	2192	2191	2198	2215	2212	2182	2168	2174	2188	2203	2209	2209	2206	2276	2478	2809	2829	2683	2629	2577	2361	2241	2029	1975	2090	2158	2352	2525	2658	2711	2723	2730	2690	2662	2625	2628	2596	2597	2597	2589	2573	2581	2597	2627	2621	2580	2591	2628	2676	2678	2633	2589	2609	2594	2544	2450	2354	2241	1739	1664	1630	1608	1604	1604	1601	1598	1589	1588	1579	1571	1572	1572	1566	1576	1576	1566	1533	1522	1527	1529	1538	1553	1563	1572	1574	1587	1594	1595	1584	1568	1567	1568	1567	1559	1552	1552	1558	1562	1566	1569	1573	1574	1576	1565	1555	1557	1566	1578	1587	1584	1597	1617	1606	1614	1711	1876	2166	2176	2184	2184	2198	2220	2230	2209	2191	2213	2233	2242	2241	2253	2266	2264	2196	2148	2149	2142	2018	2007	2007	2013	2039	1969	0	0	0	0	0	0	0	0
0	0	0	0	0	0	0	0	1319	1275	1275	1256	1251	1282	1283	1270	1270	1264	1258	1253	1255	1267	1288	1288	1302	1318	1320	1326	1330	1336	1336	1338	1331	1317	1295	1284	1280	1287	1287	1295	1298	1300	1300	1296	1291	1298	1300	1300	1311	1321	1315	1306	1298	1295	1304	1315	1335	1342	1350	1350	1366	1360	1364	1354	1349	1338	1344	1350	1367	1351	1337	1331	1318	1319	1344	1376	1376	1385	1386	1397	1396	1385	1386	1392	1397	1392	1385	1382	1382	1387	1402	1427	1459	1486	1513	1539	1589	1617	1648	1673	1701	1728	1734	1747	1756	1767	1766	1761	1751	1747	1740	1745	1764	1772	1741	1731	1728	1751	1760	1762	1723	1673	1674	1680	1693	1718	1712	1726	1737	1740	1743	1775	1810	1833	1853	1859	1887	1920	1991	2050	2112	2158	2204	2228	2228	2219	2213	2250	2313	2318	2205	2168	2152	2167	2174	2176	2174	2187	2219	2294	2463	2633	2752	2823	2817	2766	2750	2814	2874	2891	2855	2778	2837	0	0	0	0	1348	1364	1381	1385	1377	1380	1356	1312	1337	1364	1376	1385	1380	1376	1373	1373	1376	1386	1385	1387	1394	1380	1376	1385	1392	1393	1387	1396	1397	1388	1375	1376	1386	1398	1397	1397	1394	1385	1396	1399	1404	1412	1417	1416	1433	1424	1407	1398	1402	1400	1403	1406	1430	1405	1392	1401	1417	1418	1411	1393	1422	1416	1418	1411	1425	1419	1424	1415	1423	1418	1428	1429	1426	1421	1432	1416	1416	1448	1436	1401	1441	1382	1390	1403	1428	1458	1482	1500	1557	1747	2174	2775	2816	2824	2898	2933	2929	2903	2874	2858	2866	2903	2945	2956	2948	2901	2865	2840	2831	2835	2828	2828	2825	2832	2869	2907	2873	2768	2734	2758	2829	2923	2960	2973	2982	2978	2933	2900	2826	2615	2445	2344	2329	2344	2313	2326	2405	2493	2500	2483	2434	2312	2083	2027	1986	1940	1934	1917	1890	1876	1856	1859	1863	1831	1848	1909	1957	1961	1961	1973	1966	1960	1955	1941	1873	1828	1748	1675	1647	1621	1596	1577	1561	1551	1543	1524	1493	1417	1423	1471	1513	1505	1483	1472	1493	1495	1501	1492	1499	1508	1510	1509	1509	1518	1531	1543	1550	1542	1530	1521	1514	1497	1487	1485	1495	1510	1523	1529	1529	1518	1532	1548	1545	1537	1535	1532	1533	1543	1542	1534	1525	1526	1534	1548	1572	1603	1715	2045	2574	2816	2923	2929	2954	2919	2896	2907	2984	3017	3018	2995	2981	2977	2924	2833	2827	2926	2860	2844	2827	2818	2818	2881	2869	2797	2789	2820	2848	2855	2850	2829	2789	2760	2761	2801	2813	2821	2833	2756	2760	2753	2710	2706	2721	2724	2685	2680	2710	2733	2758	2744	2766	2773	2762	2753	2733	2706	2681	2591	2537	2404	2269	2266	2255	2238	2205	2181	2182	2193	2168	2155	2182	2195	2213	2203	2189	2183	2183	2159	2176	2179	2181	2187	2198	2187	2188	2194	2208	2210	2186	2174	2176	2190	2200	2205	2205	2217	2267	2336	2507	2526	2567	2540	2513	2410	2290	2178	1992	2035	2083	2130	2403	2564	2605	2622	2601	2556	2522	2488	2511	2517	2501	2492	2468	2456	2440	2487	2520	2529	2469	2475	2495	2548	2557	2535	2504	2529	2519	2470	2369	2253	2116	1776	1679	1650	1621	1613	1609	1604	1598	1594	1585	1578	1576	1575	1579	1586	1587	1585	1571	1534	1519	1522	1529	1536	1554	1569	1571	1564	1569	1579	1583	1572	1567	1566	1565	1567	1566	1561	1556	1557	1564	1572	1580	1581	1581	1583	1588	1582	1568	1572	1579	1587	1593	1604	1608	1601	1629	1724	1991	2155	2162	2177	2177	2175	2153	2146	2158	2181	2224	2245	2246	2231	2222	2222	2216	2215	2217	2203	2193	2188	2126	2126	2150	2174	2196	0	0	0	0	0	0	0	0
0	0	0	0	0	0	0	0	1318	1263	1261	1261	1258	1261	1275	1265	1265	1271	1257	1252	1256	1262	1279	1279	1293	1299	1311	1315	1322	1322	1322	1319	1310	1298	1282	1274	1277	1284	1284	1289	1304	1309	1309	1300	1293	1298	1303	1303	1314	1312	1313	1307	1301	1298	1302	1311	1325	1335	1336	1336	1342	1344	1351	1339	1338	1344	1341	1350	1358	1345	1327	1333	1329	1320	1339	1353	1365	1365	1375	1392	1397	1391	1392	1399	1413	1418	1418	1407	1399	1399	1408	1429	1453	1475	1499	1535	1587	1623	1654	1691	1720	1733	1735	1738	1748	1760	1771	1767	1755	1743	1730	1743	1762	1771	1744	1744	1746	1769	1777	1771	1714	1667	1693	1701	1718	1746	1726	1751	1772	1769	1778	1792	1823	1840	1847	1857	1885	1922	1987	2065	2131	2188	2228	2250	2258	2245	2248	2258	2283	2297	2227	2167	2154	2162	2173	2175	2180	2184	2227	2289	2415	2557	2644	2715	2754	2741	2712	2714	2743	2771	2734	2679	2638	2584	0	0	0	1367	1356	1358	1371	1377	1374	1373	1354	1340	1370	1376	1379	1380	1376	1377	1377	1375	1374	1378	1378	1387	1384	1378	1378	1382	1390	1388	1388	1390	1389	1375	1380	1388	1392	1394	1391	1388	1383	1388	1404	1413	1417	1415	1417	1416	1409	1398	1394	1394	1398	1397	1407	1416	1396	1398	1410	1425	1416	1416	1421	1425	1425	1408	1419	1417	1423	1422	1412	1420	1419	1428	1436	1427	1417	1420	1420	1419	1423	1432	1433	1416	1386	1391	1403	1432	1458	1471	1484	1550	1750	2185	2651	2725	2746	2744	2768	2749	2727	2756	2773	2797	2824	2859	2866	2853	2826	2767	2778	2741	2766	2775	2762	2754	2743	2766	2778	2741	2666	2638	2672	2724	2797	2806	2834	2842	2854	2845	2825	2775	2699	2590	2497	2443	2393	2382	2375	2403	2421	2473	2440	2441	2327	2077	2010	1970	1950	1943	1926	1902	1874	1862	1871	1902	1895	1886	1934	1961	1968	1972	1984	1999	1982	1962	1936	1872	1850	1748	1679	1648	1649	1645	1619	1605	1593	1578	1546	1498	1402	1424	1474	1525	1511	1489	1486	1504	1505	1504	1497	1501	1515	1526	1527	1515	1518	1529	1532	1538	1532	1520	1506	1504	1500	1490	1496	1495	1506	1527	1535	1538	1525	1530	1536	1540	1537	1533	1530	1527	1529	1530	1525	1521	1530	1540	1553	1587	1611	1708	2033	2299	2642	2728	2729	2756	2794	2786	2790	2817	2809	2827	2815	2839	2817	2772	2714	2701	2716	2753	2746	2720	2701	2727	2661	2670	2672	2699	2728	2756	2771	2768	2750	2709	2674	2677	2693	2720	2645	2657	2661	2655	2614	2599	2608	2619	2614	2593	2575	2576	2595	2568	2546	2534	2586	2637	2632	2620	2590	2542	2506	2484	2360	2298	2285	2266	2242	2214	2189	2193	2206	2228	2173	2178	2192	2206	2199	2185	2179	2181	2175	2171	2169	2176	2190	2191	2180	2175	2180	2199	2202	2187	2186	2185	2192	2196	2195	2190	2197	2212	2293	2285	2414	2428	2418	2482	2438	2332	2195	2003	2021	2037	2065	2113	2375	2541	2544	2481	2429	2387	2338	2442	2466	2441	2384	2379	2362	2321	2275	2276	2316	2368	2404	2417	2434	2421	2386	2399	2467	2447	2353	2225	2135	1928	1839	1689	1658	1627	1617	1609	1606	1606	1602	1593	1586	1583	1573	1584	1589	1589	1595	1585	1542	1526	1525	1542	1547	1559	1570	1573	1567	1563	1565	1569	1572	1572	1566	1567	1575	1573	1563	1556	1557	1563	1578	1585	1583	1583	1585	1587	1584	1578	1572	1578	1583	1592	1602	1601	1589	1656	1842	2112	2129	2140	2140	2153	2156	2152	2145	2163	2186	2218	2241	2238	2228	2207	2207	2205	2207	2210	2211	2198	2194	2194	2172	2180	2189	2204	0	0	0	0	0	0	0	0
0	0	0	0	0	0	0	0	1305	1237	1243	1243	1255	1253	1275	1282	1283	1283	1270	1269	1267	1276	1283	1283	1295	1295	1301	1305	1308	1308	1308	1297	1291	1285	1280	1279	1286	1290	1290	1302	1313	1321	1314	1305	1300	1308	1317	1317	1315	1316	1312	1310	1311	1308	1308	1314	1322	1326	1334	1334	1326	1328	1330	1331	1337	1343	1344	1346	1352	1351	1324	1318	1322	1321	1337	1347	1353	1353	1369	1383	1393	1397	1392	1388	1401	1435	1438	1435	1427	1421	1425	1436	1446	1464	1488	1527	1582	1631	1676	1709	1730	1742	1736	1736	1742	1753	1760	1769	1762	1753	1741	1747	1762	1767	1740	1755	1762	1779	1800	1783	1716	1657	1699	1719	1743	1763	1753	1761	1794	1803	1810	1824	1846	1860	1863	1870	1896	1938	2005	2084	2149	2196	2211	2225	2250	2252	2261	2259	2252	2250	2210	2179	2163	2157	2157	2172	2184	2196	2231	2296	2388	2501	2575	2634	2673	2693	2669	2645	2651	2675	2647	2625	2580	2529	0	0	0	1492	1370	1356	1362	1373	1373	1385	1367	1358	1372	1379	1381	1381	1385	1381	1378	1377	1379	1394	1384	1382	1383	1383	1379	1373	1377	1379	1380	1380	1381	1379	1386	1388	1390	1390	1392	1391	1383	1393	1408	1415	1413	1415	1407	1391	1393	1399	1398	1396	1397	1396	1394	1386	1398	1418	1417	1430	1425	1417	1415	1421	1420	1425	1410	1415	1421	1414	1416	1418	1421	1425	1424	1417	1416	1413	1413	1407	1411	1429	1426	1417	1391	1401	1409	1432	1458	1470	1473	1542	1738	2139	2438	2578	2611	2620	2606	2614	2651	2665	2691	2672	2659	2654	2639	2641	2599	2599	2619	2650	2684	2663	2681	2659	2660	2653	2645	2622	2599	2588	2603	2603	2633	2663	2697	2695	2684	2671	2644	2617	2564	2499	2442	2428	2427	2415	2420	2426	2414	2408	2404	2409	2295	2110	2023	1981	1962	1945	1933	1904	1873	1856	1858	1874	1908	1926	1948	1958	1965	1971	1993	1981	1966	1940	1915	1907	1884	1711	1632	1636	1656	1656	1632	1605	1589	1574	1543	1500	1429	1439	1477	1476	1492	1500	1509	1515	1510	1498	1499	1497	1513	1533	1548	1545	1527	1519	1516	1519	1516	1509	1500	1499	1500	1504	1504	1504	1513	1521	1535	1545	1540	1534	1531	1536	1532	1529	1529	1518	1520	1526	1532	1532	1535	1549	1564	1602	1620	1711	2064	2144	2426	2509	2585	2563	2548	2561	2582	2624	2641	2653	2665	2714	2704	2662	2603	2557	2538	2666	2657	2597	2543	2534	2550	2575	2601	2631	2662	2680	2711	2689	2662	2575	2554	2578	2510	2524	2572	2568	2567	2554	2510	2512	2522	2536	2531	2510	2498	2460	2421	2374	2379	2378	2446	2515	2538	2530	2481	2435	2433	2347	2331	2299	2295	2264	2235	2214	2195	2198	2203	2219	2221	2175	2187	2194	2186	2184	2185	2184	2177	2169	2173	2173	2173	2166	2160	2163	2172	2173	2190	2196	2198	2192	2197	2187	2177	2166	2170	2168	2181	2260	2261	2250	2233	2233	2235	2238	2150	2086	2038	2030	2049	2078	2103	2136	2194	2231	2255	2251	2250	2291	2277	2256	2247	2230	2190	2127	2118	2158	2208	2236	2230	2210	2197	2193	2198	2186	2175	2167	2166	2145	2074	1989	1926	1683	1663	1624	1613	1606	1607	1609	1606	1599	1591	1582	1585	1579	1587	1596	1605	1580	1542	1538	1543	1547	1564	1568	1561	1567	1560	1561	1565	1568	1573	1576	1573	1559	1566	1564	1558	1555	1559	1567	1579	1583	1582	1577	1571	1570	1571	1571	1567	1565	1568	1588	1604	1608	1587	1642	1796	2045	2077	2082	2082	2099	2091	2069	2045	2030	2048	2091	2151	2159	2142	2123	2133	2125	2129	2134	2125	2111	2084	2084	2069	2058	2069	2166	0	0	0	0	0	0	0	0
0	0	0	0	0	0	0	0	1303	1228	1247	1247	1263	1265	1286	1297	1305	1305	1294	1287	1286	1288	1291	1291	1291	1286	1293	1304	1306	1298	1298	1292	1290	1287	1284	1289	1300	1304	1304	1302	1318	1324	1322	1311	1314	1325	1330	1330	1330	1317	1315	1314	1317	1324	1324	1327	1328	1327	1321	1321	1323	1307	1318	1339	1361	1346	1346	1350	1354	1355	1327	1316	1318	1331	1348	1351	1351	1351	1358	1364	1371	1371	1367	1363	1390	1418	1442	1441	1435	1431	1428	1433	1442	1450	1483	1526	1585	1640	1681	1709	1736	1739	1741	1734	1734	1736	1748	1760	1755	1758	1750	1748	1756	1745	1732	1760	1767	1778	1795	1784	1717	1663	1691	1721	1757	1786	1766	1790	1811	1824	1827	1843	1859	1880	1878	1880	1903	1943	2005	2110	2179	2195	2188	2198	2212	2237	2256	2255	2245	2236	2184	2156	2138	2141	2151	2168	2189	2212	2245	2297	2387	2461	2511	2543	2589	2617	2614	2582	2595	2595	2577	2552	2528	2498	2258	0	0	1540	1422	1361	1362	1377	1371	1382	1369	1372	1379	1384	1381	1382	1377	1374	1363	1375	1397	1404	1389	1382	1380	1382	1377	1366	1364	1374	1379	1380	1376	1370	1379	1385	1384	1391	1396	1398	1396	1394	1409	1413	1412	1414	1398	1378	1389	1400	1408	1398	1394	1391	1390	1383	1403	1401	1403	1429	1425	1418	1416	1421	1426	1426	1419	1431	1412	1413	1413	1411	1409	1421	1429	1425	1416	1424	1425	1411	1425	1424	1424	1416	1396	1419	1414	1430	1451	1466	1473	1537	1726	2084	2309	2431	2484	2506	2505	2508	2534	2576	2584	2575	2504	2447	2434	2439	2407	2398	2375	2396	2422	2455	2499	2528	2539	2521	2506	2486	2488	2521	2471	2449	2451	2456	2491	2522	2494	2397	2358	2369	2422	2407	2372	2356	2382	2421	2440	2423	2398	2376	2359	2357	2248	2153	2060	2017	1992	1971	1953	1920	1882	1862	1850	1857	1905	1945	1964	1951	1965	1966	1975	1963	1950	1942	1933	1913	1879	1706	1680	1658	1672	1665	1640	1617	1589	1564	1539	1517	1477	1471	1475	1462	1485	1506	1509	1506	1502	1496	1503	1497	1501	1526	1540	1542	1526	1511	1492	1491	1500	1499	1497	1497	1505	1510	1512	1513	1508	1510	1520	1544	1544	1537	1533	1531	1526	1524	1521	1515	1523	1537	1551	1558	1562	1561	1569	1596	1623	1724	2078	2171	2259	2362	2400	2402	2428	2449	2447	2469	2500	2514	2524	2528	2530	2502	2471	2456	2448	2461	2481	2497	2515	2517	2513	2531	2551	2572	2603	2625	2633	2620	2520	2425	2321	2340	2433	2501	2508	2467	2437	2464	2464	2454	2440	2455	2452	2440	2412	2370	2325	2293	2289	2300	2328	2319	2311	2299	2274	2269	2290	2306	2286	2281	2271	2248	2219	2201	2192	2196	2192	2208	2220	2172	2175	2174	2162	2160	2180	2182	2186	2194	2208	2175	2164	2154	2149	2150	2151	2162	2191	2191	2200	2202	2205	2189	2170	2153	2110	2134	2136	2146	2173	2179	2183	2202	2196	2188	2198	2172	2102	2024	2038	2028	2057	2100	2113	2165	2215	2239	2228	2213	2196	2188	2193	2189	2185	2180	2187	2197	2199	2188	2178	2169	2167	2178	2197	2187	2165	2146	2153	2135	2098	2021	1943	1666	1595	1619	1604	1605	1606	1609	1605	1601	1594	1586	1573	1571	1577	1590	1595	1566	1542	1543	1544	1549	1562	1563	1559	1545	1543	1541	1538	1558	1564	1573	1569	1565	1562	1562	1557	1558	1574	1570	1581	1583	1585	1578	1565	1564	1565	1569	1565	1561	1564	1580	1598	1604	1588	1639	1793	1993	2040	2070	2070	2089	2083	2062	2034	2015	2026	2061	2087	2082	2078	2074	2067	2078	2089	2096	2083	2063	2036	2036	2013	2011	2019	2036	0	0	0	0	0	0	0	0
0	0	0	0	0	0	0	1595	1326	1257	1283	1283	1281	1285	1294	1309	1311	1311	1304	1298	1296	1294	1282	1282	1276	1281	1299	1308	1311	1306	1306	1299	1297	1296	1298	1303	1308	1302	1297	1297	1304	1319	1320	1325	1330	1338	1337	1340	1340	1330	1323	1321	1325	1336	1341	1335	1333	1329	1319	1309	1304	1300	1314	1352	1364	1364	1364	1365	1359	1343	1335	1329	1325	1351	1368	1361	1355	1351	1351	1343	1351	1359	1350	1343	1370	1405	1425	1435	1434	1428	1430	1432	1436	1449	1484	1535	1594	1641	1687	1714	1737	1747	1743	1739	1734	1729	1731	1742	1753	1752	1748	1730	1731	1726	1735	1747	1757	1776	1780	1767	1704	1654	1679	1710	1752	1783	1777	1786	1807	1818	1826	1838	1860	1876	1873	1889	1919	1958	2019	2106	2174	2187	2182	2181	2189	2215	2232	2241	2240	2239	2153	2122	2103	2118	2145	2166	2193	2225	2270	2321	2379	2405	2418	2424	2448	2508	2523	2531	2492	2465	2458	2456	2457	2457	2268	2016	1894	1546	1427	1370	1371	1383	1380	1387	1374	1382	1381	1373	1376	1386	1375	1365	1372	1394	1405	1395	1383	1373	1379	1381	1366	1353	1376	1385	1394	1394	1379	1363	1364	1370	1385	1405	1410	1406	1401	1397	1409	1415	1414	1409	1386	1372	1382	1408	1406	1398	1393	1380	1390	1389	1402	1409	1418	1423	1421	1415	1411	1420	1424	1418	1415	1427	1424	1432	1412	1405	1420	1432	1431	1422	1424	1421	1425	1433	1454	1446	1438	1427	1430	1436	1421	1426	1445	1466	1477	1540	1733	2073	2133	2340	2379	2408	2396	2373	2355	2343	2342	2353	2333	2349	2359	2335	2321	2311	2315	2322	2331	2333	2332	2340	2350	2353	2309	2305	2270	2256	2258	2317	2334	2356	2375	2380	2351	2267	2247	2254	2275	2293	2303	2313	2322	2332	2347	2347	2328	2292	2264	2285	2228	2152	2094	2053	2029	1997	1963	1925	1880	1858	1849	1856	1890	1932	1954	1946	1958	1961	1965	1962	1951	1950	1941	1925	1869	1732	1706	1696	1692	1687	1660	1623	1599	1567	1547	1541	1521	1495	1464	1446	1468	1487	1496	1478	1490	1497	1503	1496	1497	1503	1521	1524	1515	1478	1473	1478	1492	1498	1497	1505	1514	1523	1520	1510	1506	1496	1523	1540	1541	1539	1533	1526	1520	1515	1511	1515	1524	1537	1558	1565	1571	1565	1578	1595	1616	1740	2057	2149	2229	2289	2293	2288	2302	2336	2357	2350	2377	2393	2408	2417	2425	2411	2398	2442	2442	2433	2425	2473	2488	2484	2441	2434	2450	2505	2475	2448	2431	2421	2319	2291	2285	2314	2380	2426	2425	2397	2378	2356	2351	2330	2298	2308	2323	2339	2341	2327	2288	2270	2268	2277	2288	2288	2279	2273	2277	2265	2259	2265	2264	2254	2228	2201	2182	2180	2181	2186	2188	2199	2183	2196	2169	2138	2120	2151	2166	2187	2204	2214	2218	2213	2168	2155	2149	2147	2156	2120	2124	2110	2112	2121	2124	2099	2083	2073	2076	2107	2112	2127	2152	2157	2168	2182	2177	2170	2173	2143	2146	2075	2026	2002	1992	2037	2104	2165	2216	2232	2222	2210	2196	2189	2189	2189	2188	2184	2183	2189	2186	2167	2165	2165	2166	2177	2195	2184	2166	2158	2152	2147	2112	2047	1971	1871	1646	1595	1591	1599	1609	1609	1607	1598	1593	1584	1570	1567	1573	1575	1582	1556	1543	1543	1548	1554	1552	1555	1551	1537	1540	1538	1539	1547	1564	1564	1566	1564	1563	1558	1553	1564	1574	1580	1577	1576	1584	1579	1570	1560	1559	1568	1571	1565	1565	1575	1585	1586	1578	1615	1761	1855	1979	1979	2007	2028	2037	2032	2019	2005	1999	2007	2021	2025	2021	2018	2015	2011	2006	2003	1996	1997	1994	1994	1970	1949	1943	1967	0	0	0	0	0	0	0	0
0	0	0	0	0	0	0	1544	1324	1287	1313	1313	1311	1291	1284	1304	1297	1297	1302	1300	1299	1297	1287	1276	1276	1283	1298	1311	1313	1312	1308	1308	1310	1311	1312	1308	1313	1304	1294	1294	1290	1301	1309	1316	1325	1323	1324	1332	1332	1331	1328	1326	1330	1340	1347	1337	1327	1330	1321	1307	1307	1301	1311	1346	1351	1361	1364	1366	1359	1353	1363	1348	1360	1378	1379	1361	1355	1340	1340	1341	1345	1354	1350	1355	1364	1395	1413	1421	1423	1421	1426	1438	1438	1437	1491	1544	1598	1643	1688	1722	1746	1757	1747	1739	1734	1721	1718	1731	1738	1736	1728	1720	1716	1716	1733	1745	1751	1765	1773	1776	1706	1650	1687	1708	1733	1775	1766	1775	1807	1831	1832	1836	1843	1856	1859	1880	1929	1971	2031	2118	2163	2182	2182	2176	2173	2190	2209	2227	2232	2234	2142	2118	2098	2097	2124	2162	2182	2229	2272	2311	2348	2370	2339	2299	2303	2365	2413	2419	2360	2342	2352	2369	2357	2406	2281	1956	1853	1529	1417	1381	1387	1388	1388	1390	1398	1400	1379	1369	1369	1386	1378	1376	1389	1402	1395	1386	1378	1368	1377	1383	1367	1361	1393	1398	1404	1405	1412	1395	1373	1377	1387	1402	1415	1411	1399	1399	1416	1415	1411	1404	1384	1380	1405	1402	1401	1400	1394	1379	1412	1408	1400	1415	1415	1412	1405	1419	1402	1409	1407	1405	1409	1410	1410	1414	1440	1410	1409	1420	1426	1426	1425	1420	1423	1431	1444	1440	1435	1432	1434	1438	1425	1432	1448	1469	1488	1565	1768	2030	2144	2209	2263	2281	2259	2229	2211	2197	2195	2194	2208	2236	2252	2246	2236	2240	2253	2273	2295	2285	2228	2169	2142	2154	2181	2197	2186	2165	2164	2228	2246	2271	2291	2302	2266	2231	2194	2170	2150	2136	2211	2251	2270	2244	2242	2250	2252	2232	2207	2204	2184	2140	2067	2034	2013	1994	1960	1912	1877	1857	1855	1864	1883	1911	1929	1950	1956	1951	1953	1963	1962	1957	1947	1934	1910	1762	1715	1696	1685	1674	1660	1630	1606	1574	1564	1556	1548	1500	1456	1445	1464	1480	1476	1483	1482	1503	1509	1499	1497	1494	1500	1509	1508	1490	1467	1482	1489	1497	1505	1511	1518	1528	1528	1513	1508	1496	1516	1535	1545	1543	1536	1528	1519	1516	1513	1520	1526	1539	1555	1568	1568	1564	1576	1593	1609	1747	1930	2130	2221	2270	2279	2279	2289	2307	2338	2338	2320	2321	2343	2385	2409	2404	2382	2403	2400	2378	2350	2369	2367	2358	2355	2354	2368	2380	2381	2371	2345	2280	2259	2258	2285	2315	2337	2331	2326	2315	2281	2262	2247	2244	2244	2245	2266	2293	2300	2283	2264	2248	2248	2248	2253	2255	2251	2263	2272	2250	2227	2217	2212	2201	2185	2171	2165	2178	2172	2170	2171	2173	2149	2166	2163	2138	2136	2151	2163	2155	2144	2165	2169	2164	2137	2104	2033	2029	2030	2015	1979	1952	1955	1969	1980	1982	1994	2003	2005	1989	1981	1994	2006	2005	1991	1995	2002	2006	2038	2090	2092	2054	2005	1973	1936	1904	1973	2014	2087	2125	2138	2139	2141	2149	2143	2129	2125	2125	2120	2121	2118	2105	2099	2122	2136	2131	2116	2156	2156	2153	2152	2147	2121	2054	1979	1880	1656	1615	1605	1593	1599	1603	1602	1594	1588	1588	1578	1566	1563	1564	1564	1559	1551	1551	1554	1561	1559	1553	1549	1540	1542	1537	1542	1551	1557	1560	1561	1561	1563	1558	1552	1554	1566	1570	1568	1577	1579	1575	1563	1555	1558	1569	1582	1585	1573	1567	1566	1571	1580	1591	1639	1791	1945	1945	1965	1984	1993	1999	1989	1986	1993	2002	1993	1979	1989	1993	1985	1966	1951	1938	1931	1949	1949	1961	1957	1939	1934	1943	0	0	0	0	0	0	0	0
2309	2309	2286	2214	2043	1857	1857	1622	1357	1299	1324	1324	1318	1283	1275	1288	1298	1298	1296	1309	1311	1307	1290	1283	1283	1288	1300	1305	1302	1311	1312	1312	1312	1314	1316	1318	1316	1303	1290	1290	1285	1289	1301	1306	1309	1304	1309	1321	1321	1328	1327	1325	1324	1333	1340	1326	1319	1314	1312	1309	1309	1307	1313	1339	1347	1356	1358	1356	1350	1355	1361	1348	1366	1392	1380	1350	1345	1344	1344	1347	1354	1360	1360	1364	1371	1390	1403	1413	1417	1412	1422	1419	1417	1438	1483	1554	1617	1650	1692	1724	1758	1765	1758	1752	1743	1730	1725	1725	1720	1717	1715	1714	1719	1726	1729	1747	1749	1780	1792	1782	1713	1655	1683	1715	1732	1777	1758	1782	1821	1846	1858	1855	1852	1843	1845	1868	1926	1976	2037	2129	2173	2204	2195	2173	2168	2170	2186	2195	2214	2202	2165	2133	2120	2128	2146	2176	2186	2200	2246	2288	2316	2320	2278	2217	2217	2251	2311	2312	2263	2250	2246	2255	2275	2306	2151	1968	1842	1510	1405	1388	1404	1393	1388	1388	1400	1397	1394	1381	1386	1379	1385	1390	1401	1400	1391	1378	1370	1365	1367	1368	1376	1378	1387	1409	1410	1410	1409	1406	1386	1384	1394	1405	1411	1404	1403	1402	1405	1417	1414	1394	1396	1413	1405	1397	1393	1389	1397	1422	1420	1415	1403	1395	1400	1394	1407	1406	1420	1407	1404	1409	1409	1411	1416	1419	1431	1420	1413	1415	1420	1420	1427	1423	1418	1423	1437	1435	1432	1424	1428	1428	1430	1435	1462	1467	1488	1582	1781	1965	2099	2146	2190	2202	2186	2172	2158	2163	2151	2146	2140	2139	2147	2172	2194	2208	2228	2231	2196	2188	2132	2113	2100	2105	2124	2123	2116	2135	2149	2144	2146	2164	2188	2204	2207	2186	2163	2138	2126	2120	2132	2133	2135	2139	2129	2161	2161	2155	2147	2169	2160	2104	2037	1989	1935	1922	1940	1921	1878	1857	1855	1878	1886	1902	1911	1950	1952	1943	1950	1954	1956	1949	1937	1942	1928	1803	1730	1698	1670	1653	1636	1611	1603	1579	1567	1558	1552	1496	1460	1446	1476	1481	1473	1476	1477	1501	1501	1494	1492	1471	1478	1497	1505	1502	1489	1489	1493	1497	1501	1507	1520	1529	1529	1523	1508	1505	1519	1538	1551	1550	1541	1531	1525	1528	1527	1532	1534	1540	1549	1559	1560	1560	1561	1580	1607	1774	1882	2044	2166	2252	2296	2306	2300	2297	2292	2294	2281	2233	2240	2261	2342	2367	2337	2272	2275	2271	2274	2280	2287	2281	2281	2279	2266	2275	2218	2229	2209	2199	2202	2209	2225	2255	2275	2274	2269	2278	2246	2216	2211	2219	2232	2251	2266	2272	2250	2228	2213	2209	2219	2217	2223	2225	2228	2239	2228	2213	2199	2186	2167	2145	2137	2143	2166	2175	2161	2152	2151	2137	2120	2105	2108	2133	2132	2131	2125	2112	2039	2041	2051	2047	2026	2014	2016	2017	2018	2010	1971	1942	1933	1950	1963	1965	1980	1988	1984	1957	1953	1982	2000	1996	1980	1984	1984	1981	2004	2049	2062	2028	1987	1939	1903	1877	1909	1927	1974	1993	2034	2049	2056	2066	2063	2051	2045	2040	2035	2025	2008	2006	2024	2064	2093	2088	2068	2037	2085	2102	2110	2042	2064	1985	1919	1835	1705	1627	1615	1616	1582	1584	1582	1587	1597	1604	1598	1579	1556	1548	1547	1553	1556	1561	1563	1569	1560	1555	1551	1550	1547	1543	1540	1546	1553	1556	1553	1555	1557	1556	1552	1559	1568	1567	1567	1563	1561	1559	1543	1532	1544	1567	1591	1591	1575	1564	1555	1562	1571	1582	1614	1725	1849	1849	1936	1940	1939	1950	1989	1995	2002	1993	1981	1967	1958	1943	1922	1904	1886	1866	1875	1883	1883	1893	1895	1893	1870	1860	0	0	0	0	0	0	0	0
2227	2227	2218	2153	2028	1865	1865	1656	1385	1302	1319	1322	1322	1291	1284	1287	1294	1294	1299	1311	1327	1318	1296	1289	1289	1295	1300	1300	1298	1300	1304	1304	1307	1311	1314	1314	1311	1304	1294	1294	1283	1288	1299	1303	1301	1294	1293	1297	1325	1325	1325	1319	1317	1323	1327	1317	1318	1316	1313	1311	1311	1313	1322	1343	1339	1348	1350	1344	1333	1349	1353	1344	1365	1387	1374	1355	1350	1349	1357	1357	1359	1359	1360	1366	1375	1385	1394	1402	1401	1404	1413	1409	1409	1441	1494	1571	1638	1667	1693	1730	1760	1760	1761	1758	1748	1737	1730	1725	1723	1717	1715	1734	1742	1745	1741	1753	1757	1778	1796	1773	1704	1638	1676	1703	1735	1775	1756	1785	1823	1857	1872	1875	1863	1847	1841	1853	1898	1960	2028	2112	2173	2204	2197	2161	2147	2154	2164	2178	2181	2187	2193	2198	2209	2217	2203	2176	2173	2181	2207	2250	2265	2251	2200	2154	2141	2169	2178	2176	2168	2180	2191	2201	2205	2208	2118	1895	1781	1456	1386	1389	1401	1391	1386	1360	1397	1388	1387	1383	1382	1375	1372	1371	1373	1393	1386	1375	1369	1365	1369	1376	1386	1387	1395	1404	1404	1401	1402	1402	1398	1397	1397	1402	1404	1398	1401	1407	1400	1412	1408	1400	1404	1418	1407	1396	1389	1389	1414	1417	1410	1419	1398	1391	1393	1390	1398	1407	1421	1407	1414	1406	1417	1421	1428	1433	1428	1425	1421	1409	1407	1420	1424	1426	1427	1424	1435	1427	1428	1428	1434	1414	1429	1434	1450	1455	1472	1575	1753	1873	2026	2094	2134	2144	2136	2138	2137	2135	2122	2103	2082	2074	2093	2121	2145	2171	2172	2148	2106	2104	2095	2083	2088	2092	2097	2079	2069	2092	2114	2117	2090	2120	2138	2125	2092	2102	2117	2128	2116	2109	2088	2079	2071	2060	2047	2059	2059	2062	2079	2070	2066	2061	2057	2029	1990	1957	1948	1926	1882	1842	1851	1884	1902	1896	1891	1938	1943	1945	1952	1952	1946	1939	1929	1948	1966	1813	1740	1702	1668	1640	1626	1618	1598	1576	1562	1551	1545	1499	1475	1452	1488	1485	1479	1480	1478	1498	1498	1488	1483	1472	1472	1486	1499	1505	1503	1498	1499	1496	1499	1511	1517	1523	1522	1519	1511	1506	1522	1542	1553	1547	1540	1533	1533	1543	1543	1542	1543	1545	1550	1555	1558	1557	1556	1567	1614	1773	1916	2023	2115	2181	2224	2242	2170	2156	2147	2154	2181	2188	2210	2219	2262	2259	2206	2194	2200	2205	2201	2210	2220	2226	2220	2207	2159	2131	2123	2139	2149	2155	2168	2175	2170	2205	2218	2213	2209	2208	2188	2168	2170	2177	2190	2215	2202	2167	2142	2147	2153	2153	2182	2186	2190	2196	2199	2202	2199	2187	2167	2152	2138	2119	2115	2132	2158	2143	2136	2137	2131	2114	2095	2088	2118	2125	2119	2110	2103	2081	2047	2003	2009	2013	1992	1981	1986	1992	1999	1986	1964	1927	1919	1938	1949	1955	1954	1944	1923	1910	1916	1929	1934	1930	1914	1904	1890	1881	1880	1895	1950	1948	1891	1832	1827	1845	1862	1885	1908	1934	1964	1969	1996	2012	2000	1967	1947	1927	1915	1908	1886	1894	1904	1902	1851	1989	2001	1958	1953	1977	2015	2001	2047	1942	1899	1773	1659	1655	1643	1618	1590	1580	1580	1585	1595	1602	1594	1582	1570	1557	1545	1539	1556	1566	1569	1557	1551	1555	1561	1562	1553	1543	1541	1542	1547	1548	1552	1550	1547	1548	1557	1568	1583	1578	1572	1566	1566	1562	1558	1553	1556	1564	1576	1587	1577	1564	1557	1563	1574	1590	1641	1697	1697	1821	1897	1902	1909	1883	1884	1888	1896	1875	1889	1895	1885	1873	1864	1844	1833	1807	1792	1773	1773	1769	1769	1777	1792	1815	0	0	0	0	0	0	0	0
2182	2182	2180	2125	2028	1884	1884	1683	1416	1300	1330	1339	1339	1316	1305	1298	1309	1305	1305	1322	1331	1329	1304	1291	1291	1295	1300	1298	1295	1293	1292	1292	1293	1295	1299	1299	1302	1304	1302	1302	1299	1298	1304	1309	1309	1297	1293	1302	1322	1322	1323	1313	1311	1318	1327	1321	1321	1319	1309	1316	1319	1319	1328	1332	1331	1345	1340	1334	1325	1341	1345	1339	1353	1360	1349	1352	1350	1362	1360	1360	1352	1339	1344	1357	1368	1381	1385	1385	1397	1420	1420	1417	1412	1446	1503	1574	1644	1678	1703	1733	1743	1745	1744	1750	1750	1741	1734	1735	1737	1743	1761	1770	1775	1752	1741	1754	1765	1769	1770	1743	1698	1636	1665	1693	1734	1779	1763	1787	1814	1857	1879	1887	1885	1857	1847	1856	1877	1936	2011	2086	2136	2149	2162	2146	2137	2135	2139	2137	2143	2158	2168	2192	2190	2183	2147	2127	2122	2116	2118	2159	2180	2181	2156	2122	2105	2101	2097	2096	2120	2130	2134	2133	2125	2107	2085	1810	1723	1424	1371	1382	1391	1393	1380	1348	1391	1380	1374	1375	1370	1367	1364	1364	1366	1369	1372	1373	1371	1370	1378	1385	1396	1394	1394	1396	1399	1391	1390	1400	1402	1400	1395	1397	1396	1394	1394	1396	1393	1388	1393	1391	1401	1415	1414	1405	1405	1412	1408	1407	1400	1377	1384	1375	1373	1402	1401	1408	1423	1419	1411	1407	1423	1435	1437	1438	1436	1431	1422	1415	1415	1418	1418	1419	1420	1429	1441	1440	1426	1435	1450	1453	1433	1437	1436	1437	1441	1551	1746	1864	1947	2039	2069	2080	2093	2102	2102	2091	2082	2057	2038	2029	2041	2064	2087	2100	2091	2089	2072	2065	2077	2072	2083	2080	2067	2043	2031	2016	2043	2052	2049	2060	2067	2045	2046	2053	2069	2088	2084	2067	2053	2063	2055	2037	1995	1962	1962	1983	1990	2008	2020	2029	2021	2006	2000	1996	1986	1943	1916	1875	1863	1890	1888	1885	1889	1919	1938	1938	1948	1948	1945	1938	1931	1951	1960	1788	1733	1699	1667	1642	1623	1618	1593	1579	1554	1545	1537	1507	1494	1463	1494	1507	1518	1492	1490	1506	1504	1491	1485	1479	1474	1477	1494	1505	1512	1515	1509	1502	1508	1522	1523	1519	1517	1515	1518	1528	1546	1544	1548	1539	1534	1532	1537	1541	1543	1545	1546	1553	1560	1565	1562	1546	1534	1542	1548	1736	1877	2005	2081	2120	2130	2129	2125	2120	2115	2103	2116	2142	2168	2199	2209	2200	2137	2151	2145	2110	2129	2166	2198	2215	2195	2175	2144	2108	2092	2091	2090	2089	2066	2061	2061	2089	2113	2133	2140	2120	2108	2100	2091	2088	2091	2093	2093	2079	2075	2075	2063	2062	2082	2097	2096	2101	2114	2119	2156	2157	2135	2106	2097	2104	2104	2108	2113	2112	2089	2087	2095	2093	2080	2059	2096	2106	2103	2084	1990	1986	1985	1988	2006	2000	1985	1962	1965	1970	1978	1977	1958	1934	1922	1923	1934	1949	1951	1940	1917	1899	1908	1916	1915	1908	1914	1902	1870	1847	1841	1844	1886	1904	1898	1849	1831	1814	1793	1774	1746	1782	1781	1801	1814	1821	1894	1880	1843	1802	1752	1751	1757	1782	1796	1759	1745	1731	1772	1876	1873	1851	1847	1933	1911	1877	1875	1731	1663	1646	1653	1634	1602	1578	1577	1586	1598	1602	1595	1583	1580	1567	1552	1544	1563	1556	1549	1547	1551	1559	1566	1565	1559	1548	1542	1542	1549	1564	1561	1555	1553	1554	1561	1575	1578	1575	1572	1568	1567	1564	1565	1564	1559	1560	1566	1573	1567	1558	1560	1573	1583	1593	1639	1685	1685	1634	1806	1849	1852	1845	1848	1852	1860	1849	1840	1833	1831	1828	1821	1799	1762	1726	1704	1695	1695	1689	1687	1689	1693	1699	0	0	0	0	0	0	0	0
2186	2186	2184	2134	2035	1897	1897	1553	1466	1305	1341	1354	1354	1338	1327	1306	1312	1313	1313	1321	1332	1334	1314	1292	1292	1284	1291	1296	1299	1297	1290	1290	1284	1282	1284	1290	1297	1306	1304	1299	1299	1302	1307	1318	1319	1309	1300	1303	1316	1316	1320	1310	1308	1312	1305	1310	1311	1306	1303	1312	1323	1323	1333	1330	1327	1344	1342	1334	1326	1334	1331	1335	1331	1333	1326	1332	1347	1365	1363	1363	1355	1347	1343	1354	1369	1387	1397	1409	1421	1433	1441	1424	1426	1445	1499	1577	1652	1688	1710	1726	1733	1727	1736	1742	1741	1741	1743	1746	1749	1764	1775	1789	1788	1761	1749	1753	1765	1776	1765	1736	1691	1655	1670	1701	1731	1780	1782	1808	1818	1844	1860	1876	1882	1868	1866	1866	1876	1918	1973	2034	2054	2096	2116	2126	2134	2137	2126	2100	2089	2091	2098	2113	2122	2108	2071	2053	2049	2047	2053	2086	2098	2114	2118	2095	2074	2053	2039	2038	2032	2034	2038	2040	2029	2031	1990	1738	1671	1405	1359	1373	1380	1389	1388	1348	1355	1388	1377	1374	1369	1364	1368	1368	1375	1375	1380	1381	1385	1384	1384	1392	1393	1388	1389	1387	1383	1377	1375	1386	1398	1398	1392	1390	1392	1391	1386	1383	1378	1371	1380	1381	1391	1400	1408	1407	1413	1412	1400	1400	1390	1375	1386	1393	1395	1408	1416	1412	1411	1420	1412	1420	1427	1438	1430	1425	1427	1433	1422	1420	1429	1422	1426	1432	1435	1414	1442	1430	1420	1431	1428	1444	1434	1442	1442	1446	1436	1546	1724	1817	1920	1972	2000	1990	1963	1937	1956	1975	1978	1979	1979	1995	2009	2027	2040	2041	2034	2024	2014	2010	2004	1998	2015	2022	2018	1993	1972	1969	1985	1995	1967	1997	2008	2020	2024	2031	2042	2038	2006	2006	2021	2037	2041	2004	1958	1933	1934	1955	1979	1993	2004	2006	2011	1998	1979	1973	1971	1949	1916	1894	1880	1880	1882	1895	1888	1896	1912	1925	1942	1951	1944	1939	1929	1943	1941	1770	1714	1693	1667	1653	1634	1612	1597	1574	1548	1527	1518	1502	1486	1458	1460	1482	1521	1505	1505	1521	1511	1487	1483	1477	1472	1473	1481	1502	1510	1514	1517	1519	1530	1537	1536	1530	1519	1522	1541	1546	1552	1553	1543	1532	1527	1529	1530	1528	1530	1535	1548	1554	1563	1566	1556	1544	1534	1526	1549	1759	1841	1935	2025	2078	2100	2106	2097	2095	2092	2064	2061	2065	2092	2108	2112	2096	2092	2074	2058	2055	2087	2128	2065	2070	2067	2071	2083	2079	2056	2027	2031	2038	2025	2022	2034	2039	2041	2057	2088	2087	2076	2053	2045	2036	2048	2053	2048	2043	2045	2025	1999	2000	2019	2026	2044	2056	2065	2082	2097	2082	2067	2052	2048	2067	2080	2080	2067	2052	2035	2017	2002	1998	2006	2016	2030	2043	1964	1946	1947	1943	1950	1963	1976	1974	1964	1958	1951	1949	1961	1972	1947	1930	1917	1923	1934	1957	1966	1963	1951	1925	1924	1922	1913	1913	1914	1906	1877	1850	1845	1847	1853	1842	1836	1833	1824	1818	1808	1802	1801	1802	1781	1772	1763	1761	1756	1751	1764	1710	1674	1629	1576	1574	1636	1699	1683	1679	1751	1777	1793	1771	1771	1767	1750	1809	1786	1678	1630	1649	1638	1629	1619	1610	1602	1603	1610	1608	1601	1588	1575	1565	1554	1558	1566	1546	1536	1540	1548	1561	1566	1565	1561	1551	1545	1545	1562	1563	1560	1555	1552	1551	1557	1566	1572	1574	1575	1572	1572	1568	1567	1568	1566	1563	1557	1553	1551	1555	1562	1569	1582	1586	1614	1614	1598	1656	1631	1638	1644	1644	1643	1649	1664	1673	1676	1648	1639	1632	1629	1634	1654	1657	1645	1645	1631	1615	1610	1614	1620	1614	0	0	0	0	0	0	0	0
2177	2177	2154	2106	2023	1805	1615	1615	1485	1313	1337	1350	1350	1340	1329	1318	1309	1310	1310	1314	1324	1326	1315	1292	1279	1279	1292	1302	1309	1308	1300	1293	1293	1281	1281	1289	1300	1305	1299	1294	1294	1293	1302	1312	1314	1312	1306	1308	1314	1314	1316	1312	1305	1301	1303	1306	1312	1312	1308	1312	1324	1324	1339	1333	1327	1353	1352	1348	1335	1331	1320	1342	1329	1305	1304	1315	1339	1360	1367	1371	1371	1369	1369	1371	1383	1401	1408	1419	1429	1442	1433	1426	1428	1455	1488	1558	1655	1685	1710	1731	1733	1738	1743	1738	1741	1746	1750	1752	1754	1761	1779	1782	1785	1770	1755	1756	1758	1774	1770	1736	1704	1688	1694	1714	1738	1780	1797	1810	1832	1836	1850	1859	1868	1882	1879	1872	1883	1913	1940	1946	1955	1983	1999	2037	2079	2109	2105	2087	2059	2045	2042	2039	2040	2021	1997	1986	2001	2007	2020	2024	2023	2016	2014	2025	2029	2002	1969	1929	1928	1967	1980	1979	1977	1981	1923	1694	1632	1396	1361	1364	1371	1386	1399	1355	1358	1397	1392	1380	1374	1370	1378	1381	1383	1380	1383	1386	1387	1392	1391	1393	1390	1382	1382	1379	1375	1365	1382	1393	1401	1399	1392	1386	1383	1384	1389	1386	1384	1378	1380	1376	1387	1392	1392	1392	1390	1398	1396	1390	1384	1376	1386	1397	1401	1407	1414	1400	1404	1421	1414	1428	1428	1436	1425	1422	1424	1432	1436	1431	1428	1429	1427	1434	1437	1405	1408	1410	1426	1428	1424	1424	1428	1447	1469	1472	1460	1555	1650	1818	1886	1919	1924	1916	1911	1911	1918	1939	1947	1936	1925	1923	1931	1939	1937	1944	1953	1948	1931	1932	1930	1951	1960	1958	1948	1929	1916	1908	1912	1923	1944	1952	1979	1976	1989	1968	1985	1968	1964	1972	1988	1997	1985	1951	1912	1905	1929	1967	1977	1983	1961	1970	1985	1983	1981	1970	1967	1960	1919	1909	1920	1931	1925	1892	1878	1885	1894	1908	1938	1953	1950	1941	1932	1936	1922	1745	1696	1674	1659	1642	1619	1583	1579	1564	1538	1522	1499	1463	1459	1417	1426	1468	1499	1510	1505	1527	1508	1484	1482	1480	1478	1485	1486	1491	1498	1507	1512	1521	1533	1542	1542	1539	1532	1548	1549	1551	1549	1546	1535	1526	1510	1517	1512	1510	1517	1528	1547	1554	1563	1562	1550	1533	1523	1520	1556	1763	1830	1914	1993	2033	2053	2070	2073	2066	2050	2026	2028	2034	2052	2067	2045	2058	2039	2025	2015	2021	2020	2021	2019	2020	2039	2040	2032	2013	1985	1990	2009	2013	2018	2016	2010	2000	1994	1992	2033	2010	1999	1955	1962	1967	1965	1958	1982	1984	1980	1974	1970	1985	1994	2004	2013	2028	2034	2049	2020	2006	1998	2004	2019	2039	2050	2047	2035	2035	2023	2004	1985	1991	1997	1984	1946	1949	1952	1933	1932	1931	1933	1926	1924	1932	1932	1927	1907	1892	1881	1923	1930	1915	1910	1913	1938	1955	1966	1966	1940	1900	1900	1914	1907	1890	1874	1882	1882	1878	1866	1866	1863	1847	1836	1827	1827	1823	1821	1812	1803	1777	1759	1759	1760	1755	1719	1683	1714	1701	1631	1582	1551	1536	1549	1576	1640	1656	1658	1670	1687	1703	1722	1718	1713	1747	1639	1640	1641	1650	1655	1639	1624	1601	1588	1581	1582	1584	1587	1585	1575	1563	1558	1580	1570	1551	1535	1539	1550	1561	1568	1564	1556	1552	1547	1549	1553	1558	1558	1554	1547	1543	1546	1553	1565	1573	1574	1574	1571	1570	1568	1568	1568	1565	1557	1553	1558	1559	1566	1569	1573	1570	1586	1586	1613	1577	1564	1563	1572	1581	1587	1591	1593	1595	1589	1585	1576	1578	1580	1588	1584	1585	1578	1578	1573	1572	1574	1581	1597	1604	0	0	0	0	0	0	0	0
2138	2106	2106	2067	1937	1771	1658	1658	1532	1332	1323	1329	1329	1326	1321	1315	1307	1304	1304	1306	1311	1312	1301	1289	1284	1284	1293	1313	1319	1319	1310	1301	1301	1293	1290	1297	1304	1303	1293	1284	1284	1282	1286	1299	1306	1305	1303	1309	1317	1317	1319	1313	1313	1311	1315	1321	1323	1327	1316	1316	1326	1326	1341	1335	1330	1356	1361	1353	1329	1321	1313	1341	1343	1302	1295	1305	1317	1338	1358	1389	1389	1397	1398	1396	1399	1407	1416	1423	1431	1436	1433	1428	1437	1456	1481	1522	1603	1660	1698	1734	1751	1754	1756	1754	1754	1763	1754	1752	1745	1749	1752	1761	1770	1772	1761	1762	1760	1774	1779	1741	1721	1731	1714	1727	1737	1764	1788	1803	1832	1844	1855	1862	1872	1875	1879	1894	1897	1890	1893	1911	1923	1924	1915	1926	1960	2007	2041	2038	2005	1991	1977	1998	1992	1975	1965	1968	1978	1980	1977	1965	1958	1968	1986	1997	1998	1973	1946	1922	1910	1917	1927	1924	1931	1944	1900	1717	1668	1412	1349	1350	1360	1390	1395	1368	1368	1406	1401	1384	1378	1377	1384	1388	1390	1385	1384	1389	1388	1388	1381	1389	1383	1393	1397	1382	1377	1382	1391	1396	1401	1397	1389	1383	1380	1383	1389	1392	1392	1394	1380	1373	1377	1387	1389	1385	1383	1380	1386	1398	1393	1381	1388	1407	1407	1416	1405	1401	1401	1446	1442	1418	1422	1421	1414	1415	1427	1428	1437	1430	1429	1427	1432	1432	1411	1409	1420	1426	1410	1412	1429	1440	1443	1440	1480	1488	1484	1579	1671	1753	1885	1899	1896	1895	1887	1890	1899	1912	1909	1899	1879	1862	1850	1832	1847	1864	1886	1892	1902	1901	1903	1909	1917	1915	1906	1893	1888	1888	1885	1907	1925	1934	1950	1943	1942	1924	1930	1935	1933	1934	1933	1944	1942	1927	1905	1912	1923	1936	1936	1933	1922	1928	1954	1961	1958	1945	1931	1931	1925	1927	1935	1934	1917	1883	1877	1873	1881	1893	1916	1937	1927	1929	1939	1942	1901	1758	1669	1650	1643	1614	1575	1558	1564	1555	1539	1526	1491	1447	1451	1426	1423	1456	1480	1495	1509	1515	1495	1487	1489	1498	1510	1519	1504	1495	1494	1498	1500	1506	1518	1532	1544	1546	1546	1542	1538	1536	1536	1529	1526	1519	1506	1506	1502	1507	1510	1532	1545	1553	1556	1556	1545	1531	1517	1509	1554	1743	1807	1907	1970	1990	2016	2026	2003	1994	1999	2001	1998	1982	1962	1974	1998	2041	2015	1970	1975	1966	1961	1960	1971	1983	1993	1990	1986	1975	1973	1979	1989	1986	1978	1973	1970	1958	1952	1958	1940	1931	1923	1901	1918	1933	1934	1923	1913	1933	1934	1942	1960	1974	1981	1979	1982	2001	2003	1972	1982	1986	1985	1983	1992	1978	1979	1978	1975	1990	1985	1991	1985	1903	1898	1894	1906	1920	1937	1935	1919	1908	1918	1911	1903	1888	1878	1870	1871	1866	1880	1876	1885	1881	1889	1892	1912	1942	1964	1954	1913	1876	1865	1865	1873	1850	1845	1855	1859	1858	1845	1837	1834	1826	1826	1825	1832	1834	1831	1815	1794	1767	1750	1749	1753	1766	1736	1703	1648	1680	1658	1592	1557	1547	1551	1553	1578	1632	1639	1639	1632	1632	1639	1644	1641	1628	1631	1608	1635	1660	1665	1644	1621	1596	1585	1580	1574	1571	1576	1579	1571	1563	1559	1585	1579	1571	1552	1545	1553	1562	1567	1564	1558	1554	1552	1552	1552	1555	1564	1576	1570	1534	1535	1546	1554	1552	1551	1562	1585	1586	1581	1575	1576	1576	1575	1574	1568	1568	1569	1573	1564	1563	1587	1587	1571	1565	1547	1547	1560	1573	1579	1580	1581	1578	1579	1578	1575	1576	1578	1585	1580	1578	1573	1573	1569	1571	1570	1575	1591	1601	0	0	0	0	0	0	0	0
1964	1954	1954	1910	1838	1744	1645	1645	1508	1343	1300	1306	1306	1313	1316	1303	1295	1300	1300	1299	1298	1292	1289	1286	1289	1289	1308	1321	1324	1320	1310	1304	1304	1300	1296	1303	1307	1302	1291	1279	1279	1273	1280	1295	1302	1296	1297	1304	1322	1325	1325	1319	1317	1322	1326	1330	1332	1326	1319	1313	1327	1339	1339	1325	1333	1355	1360	1332	1315	1308	1309	1339	1355	1326	1314	1320	1311	1326	1359	1397	1397	1412	1414	1409	1405	1401	1402	1409	1422	1434	1448	1447	1450	1460	1471	1498	1593	1650	1693	1738	1758	1761	1762	1760	1762	1756	1748	1740	1733	1728	1727	1738	1751	1765	1769	1764	1765	1777	1764	1738	1731	1739	1721	1714	1725	1750	1778	1793	1837	1860	1875	1885	1887	1896	1902	1895	1875	1869	1869	1881	1900	1908	1899	1893	1901	1907	1944	1959	1948	1923	1916	1949	1943	1935	1933	1945	1953	1953	1938	1919	1931	1948	1974	1987	1978	1949	1925	1912	1904	1882	1880	1880	1886	1904	1891	1724	1657	1438	1356	1344	1359	1382	1389	1377	1387	1405	1398	1389	1372	1375	1383	1387	1387	1381	1385	1398	1399	1386	1382	1375	1383	1390	1396	1389	1389	1389	1390	1390	1394	1397	1389	1385	1384	1389	1398	1400	1401	1401	1398	1386	1385	1387	1387	1380	1374	1386	1396	1385	1401	1387	1407	1424	1425	1420	1406	1407	1403	1401	1449	1442	1423	1417	1403	1404	1409	1416	1423	1426	1428	1430	1434	1435	1422	1431	1432	1415	1415	1409	1409	1422	1418	1431	1454	1476	1482	1577	1659	1750	1826	1891	1882	1878	1874	1872	1875	1875	1859	1819	1811	1803	1801	1803	1814	1834	1850	1855	1873	1873	1866	1869	1870	1871	1859	1858	1853	1852	1860	1876	1895	1884	1843	1846	1867	1881	1892	1898	1896	1901	1864	1855	1861	1867	1869	1880	1886	1855	1860	1871	1881	1896	1926	1927	1919	1907	1875	1885	1876	1866	1878	1884	1881	1871	1860	1852	1857	1877	1880	1890	1900	1915	1932	1938	1877	1732	1649	1638	1612	1581	1550	1534	1549	1549	1539	1535	1514	1440	1441	1449	1442	1462	1492	1499	1511	1499	1493	1499	1503	1509	1516	1521	1515	1511	1510	1508	1504	1506	1507	1515	1526	1545	1543	1530	1521	1529	1528	1513	1503	1493	1496	1503	1498	1494	1495	1506	1523	1529	1527	1530	1529	1521	1514	1507	1513	1719	1800	1879	1945	1960	1951	1956	1967	1988	1992	1979	1958	1938	1911	1910	1954	1940	1937	1932	1932	1924	1920	1912	1906	1898	1888	1900	1928	1951	1948	1943	1928	1921	1922	1922	1916	1917	1916	1913	1884	1896	1895	1886	1900	1919	1936	1929	1912	1895	1892	1898	1890	1888	1891	1906	1931	1960	1961	1948	1956	1962	1966	1952	1921	1918	1922	1927	1918	1913	1905	1872	1876	1885	1886	1892	1894	1893	1898	1887	1869	1863	1876	1879	1869	1866	1865	1852	1851	1856	1865	1862	1843	1835	1833	1853	1860	1854	1875	1860	1856	1850	1838	1834	1830	1815	1817	1831	1842	1839	1831	1827	1826	1818	1815	1812	1812	1806	1784	1761	1748	1747	1740	1741	1745	1759	1724	1678	1650	1644	1663	1617	1580	1564	1568	1566	1579	1589	1634	1669	1660	1655	1649	1646	1643	1636	1619	1619	1619	1649	1654	1621	1604	1591	1574	1559	1553	1547	1538	1533	1531	1531	1540	1568	1569	1557	1538	1522	1543	1558	1574	1575	1555	1539	1530	1527	1531	1534	1543	1551	1558	1550	1537	1540	1544	1537	1529	1539	1550	1551	1543	1537	1533	1534	1562	1593	1603	1595	1577	1540	1539	1550	1550	1523	1519	1518	1516	1516	1537	1547	1554	1552	1546	1532	1519	1520	1515	1510	1517	1509	1524	1535	1535	1522	1501	1491	1495	1501	1509	1516	0	0	0	0	0	0	0	0
1890	1861	1861	1836	1786	1708	1618	1618	1519	1359	1304	1302	1308	1308	1304	1293	1287	1292	1293	1293	1290	1285	1285	1294	1304	1304	1311	1322	1322	1317	1310	1304	1304	1302	1302	1301	1307	1305	1295	1287	1287	1285	1290	1300	1306	1301	1292	1301	1314	1325	1311	1307	1313	1328	1332	1329	1321	1316	1305	1306	1323	1329	1329	1321	1327	1347	1354	1324	1307	1304	1315	1337	1349	1337	1333	1334	1321	1327	1365	1391	1410	1410	1413	1411	1402	1391	1390	1395	1411	1446	1463	1455	1449	1447	1455	1511	1585	1661	1710	1750	1757	1751	1755	1755	1749	1746	1738	1735	1724	1716	1718	1732	1736	1749	1758	1760	1765	1769	1756	1741	1737	1737	1709	1705	1714	1730	1751	1783	1900	1899	1876	1840	1847	1865	1884	1885	1869	1851	1847	1849	1879	1891	1886	1881	1868	1881	1899	1919	1879	1861	1868	1900	1908	1897	1897	1909	1916	1917	1902	1898	1907	1920	1935	1947	1933	1894	1884	1870	1874	1848	1827	1833	1847	1861	1832	1691	1639	1443	1363	1341	1340	1369	1371	1373	1386	1397	1387	1382	1375	1379	1381	1381	1383	1380	1391	1397	1395	1382	1376	1375	1379	1380	1387	1379	1377	1379	1377	1379	1383	1394	1391	1389	1389	1389	1396	1400	1397	1403	1414	1415	1408	1396	1385	1385	1380	1395	1405	1400	1386	1389	1406	1400	1404	1424	1416	1412	1409	1410	1436	1420	1420	1398	1397	1394	1409	1422	1428	1436	1432	1431	1431	1417	1419	1436	1438	1418	1417	1416	1406	1405	1399	1390	1403	1449	1446	1498	1626	1699	1795	1857	1884	1863	1841	1837	1832	1800	1798	1779	1768	1767	1770	1779	1791	1807	1825	1833	1847	1841	1832	1824	1823	1819	1812	1810	1796	1768	1775	1802	1814	1807	1809	1803	1799	1802	1837	1842	1837	1832	1812	1826	1831	1839	1843	1839	1830	1820	1824	1848	1860	1855	1840	1846	1853	1857	1861	1860	1850	1844	1842	1845	1846	1828	1823	1821	1824	1844	1850	1864	1875	1890	1890	1907	1830	1720	1640	1630	1595	1564	1526	1528	1536	1542	1538	1525	1489	1425	1419	1458	1456	1465	1488	1502	1502	1501	1497	1511	1514	1513	1504	1500	1505	1513	1516	1512	1506	1504	1506	1512	1524	1540	1530	1519	1514	1519	1522	1506	1493	1480	1479	1485	1485	1486	1486	1489	1496	1493	1508	1523	1526	1524	1519	1523	1525	1698	1754	1841	1926	1905	1904	1909	1931	1961	1975	1971	1951	1925	1902	1882	1890	1895	1891	1899	1902	1904	1907	1905	1891	1874	1878	1888	1889	1892	1889	1881	1864	1857	1870	1881	1887	1886	1889	1887	1875	1860	1844	1846	1871	1888	1897	1895	1885	1859	1836	1820	1827	1831	1835	1857	1880	1898	1897	1910	1932	1940	1919	1886	1884	1892	1897	1906	1899	1863	1846	1842	1846	1857	1865	1851	1855	1839	1827	1818	1790	1781	1808	1827	1840	1840	1819	1799	1793	1814	1808	1795	1774	1770	1767	1765	1753	1763	1780	1795	1806	1803	1801	1804	1805	1795	1790	1794	1800	1803	1777	1785	1805	1809	1805	1799	1787	1778	1775	1756	1745	1750	1747	1741	1734	1723	1707	1671	1657	1640	1636	1616	1618	1592	1595	1615	1610	1617	1634	1665	1618	1628	1646	1651	1642	1622	1606	1606	1601	1609	1611	1604	1596	1586	1571	1559	1542	1549	1544	1537	1527	1526	1537	1564	1563	1551	1535	1523	1516	1505	1517	1526	1517	1502	1495	1499	1505	1505	1488	1474	1465	1466	1477	1481	1483	1482	1482	1486	1492	1497	1498	1496	1488	1478	1470	1468	1480	1482	1476	1467	1463	1468	1468	1476	1496	1492	1483	1475	1490	1495	1506	1506	1504	1495	1503	1505	1496	1483	1472	1459	1499	1509	1509	1494	1473	1467	1468	1474	1475	1469	0	0	0	0	0	0	0	0
1864	1842	1842	1807	1755	1681	1595	1595	1515	1375	1305	1297	1300	1300	1296	1283	1283	1285	1286	1286	1283	1282	1287	1301	1309	1309	1313	1309	1310	1314	1306	1304	1297	1297	1292	1294	1297	1301	1297	1291	1293	1293	1300	1310	1313	1308	1290	1298	1310	1311	1312	1304	1314	1333	1334	1326	1320	1314	1310	1308	1309	1332	1332	1326	1323	1337	1334	1319	1307	1302	1317	1335	1343	1337	1334	1331	1323	1324	1349	1381	1392	1392	1402	1401	1397	1400	1405	1407	1411	1440	1461	1439	1431	1433	1447	1498	1601	1663	1728	1752	1754	1746	1738	1739	1729	1723	1729	1734	1738	1739	1729	1739	1732	1737	1747	1751	1765	1770	1750	1744	1738	1738	1731	1695	1695	1711	1747	1819	1861	1839	1819	1816	1827	1859	1887	1890	1869	1846	1826	1835	1858	1876	1868	1859	1851	1856	1874	1860	1813	1810	1829	1839	1854	1861	1878	1895	1885	1872	1865	1862	1859	1866	1906	1890	1863	1844	1822	1833	1836	1821	1785	1791	1799	1816	1763	1633	1578	1448	1352	1320	1327	1361	1356	1358	1377	1395	1387	1386	1383	1378	1379	1383	1385	1381	1382	1377	1372	1369	1366	1371	1377	1366	1371	1366	1370	1379	1387	1385	1384	1389	1397	1394	1389	1387	1388	1390	1382	1382	1404	1433	1422	1417	1390	1381	1379	1385	1393	1393	1388	1377	1395	1406	1414	1403	1407	1409	1407	1409	1413	1400	1399	1386	1383	1387	1397	1407	1416	1423	1434	1417	1415	1419	1420	1437	1431	1425	1423	1419	1413	1403	1375	1365	1378	1410	1438	1480	1556	1631	1711	1765	1812	1801	1777	1759	1759	1762	1744	1738	1729	1731	1755	1760	1761	1777	1783	1791	1807	1811	1793	1789	1778	1780	1765	1761	1741	1747	1753	1767	1765	1771	1782	1782	1762	1759	1768	1781	1780	1769	1774	1786	1797	1803	1804	1801	1797	1788	1793	1811	1813	1808	1740	1735	1735	1746	1772	1786	1796	1798	1809	1807	1803	1800	1801	1800	1804	1810	1814	1824	1807	1814	1823	1847	1799	1777	1684	1618	1599	1560	1525	1542	1549	1538	1520	1506	1477	1418	1401	1448	1455	1443	1482	1502	1501	1502	1494	1512	1517	1509	1494	1468	1459	1464	1467	1480	1493	1507	1515	1512	1521	1529	1502	1496	1509	1514	1519	1514	1497	1489	1482	1481	1482	1482	1480	1477	1481	1497	1517	1528	1530	1530	1527	1538	1554	1676	1731	1809	1884	1870	1879	1873	1883	1907	1937	1952	1942	1860	1827	1817	1815	1831	1835	1847	1844	1875	1894	1894	1869	1856	1848	1863	1864	1853	1854	1852	1836	1826	1827	1841	1854	1853	1855	1873	1862	1830	1799	1803	1809	1819	1837	1842	1848	1830	1812	1795	1785	1789	1811	1843	1869	1865	1840	1858	1884	1894	1855	1842	1840	1856	1824	1826	1825	1823	1833	1823	1810	1806	1796	1779	1787	1788	1790	1778	1756	1753	1772	1795	1798	1784	1761	1746	1748	1761	1758	1753	1751	1747	1744	1730	1718	1715	1734	1750	1745	1730	1734	1744	1754	1746	1765	1767	1759	1727	1706	1705	1734	1783	1790	1772	1727	1715	1755	1759	1762	1755	1746	1741	1734	1719	1701	1677	1664	1649	1636	1579	1562	1586	1598	1610	1621	1625	1627	1599	1603	1602	1622	1635	1631	1618	1605	1598	1588	1581	1584	1591	1591	1585	1574	1563	1547	1552	1545	1535	1524	1521	1536	1553	1553	1543	1525	1515	1503	1504	1511	1523	1517	1507	1501	1501	1504	1500	1479	1468	1468	1461	1464	1476	1481	1479	1476	1477	1481	1479	1483	1481	1474	1464	1455	1454	1467	1471	1466	1460	1456	1456	1454	1452	1457	1462	1449	1436	1421	1437	1441	1445	1441	1449	1450	1449	1446	1449	1445	1428	1424	1420	1420	1419	1429	1430	1438	1441	1447	1450	0	0	0	0	0	0	0	0
1826	1814	1814	1788	1745	1671	1596	1505	1505	1375	1302	1290	1286	1286	1289	1273	1273	1265	1270	1270	1272	1277	1287	1301	1306	1300	1300	1302	1305	1310	1302	1292	1285	1285	1277	1280	1287	1293	1294	1293	1297	1297	1307	1315	1314	1314	1310	1313	1309	1310	1312	1312	1325	1330	1331	1329	1330	1319	1325	1319	1320	1343	1327	1327	1320	1325	1322	1313	1312	1308	1319	1335	1337	1327	1321	1315	1323	1325	1340	1350	1365	1379	1379	1389	1401	1404	1421	1426	1415	1433	1449	1419	1416	1412	1436	1506	1572	1679	1722	1744	1745	1733	1718	1708	1705	1710	1718	1735	1747	1753	1751	1752	1737	1729	1743	1756	1778	1782	1764	1751	1735	1726	1718	1712	1715	1752	1798	1833	1813	1816	1807	1802	1808	1838	1860	1863	1850	1844	1823	1814	1815	1819	1821	1806	1805	1801	1799	1781	1766	1768	1785	1808	1797	1806	1815	1844	1845	1843	1831	1818	1812	1822	1838	1829	1812	1790	1774	1787	1790	1770	1755	1756	1749	1740	1745	1603	1522	1467	1362	1314	1326	1358	1344	1352	1384	1395	1390	1388	1382	1370	1376	1383	1388	1379	1378	1373	1363	1359	1361	1368	1369	1366	1365	1365	1373	1385	1393	1387	1383	1380	1384	1387	1388	1385	1383	1386	1384	1382	1393	1433	1432	1416	1397	1388	1382	1378	1394	1397	1387	1390	1398	1400	1405	1400	1398	1403	1409	1403	1407	1420	1419	1415	1400	1395	1401	1409	1421	1418	1437	1431	1415	1413	1417	1421	1419	1421	1415	1432	1431	1397	1378	1379	1376	1411	1442	1467	1500	1584	1651	1708	1734	1727	1729	1736	1738	1727	1716	1704	1702	1714	1737	1746	1746	1708	1714	1729	1744	1751	1751	1741	1731	1733	1740	1738	1728	1735	1731	1726	1734	1743	1753	1747	1731	1720	1719	1731	1733	1734	1740	1751	1759	1762	1762	1764	1757	1736	1753	1771	1732	1716	1707	1699	1698	1684	1683	1716	1728	1743	1764	1780	1779	1778	1767	1760	1751	1757	1776	1780	1774	1757	1753	1755	1771	1763	1728	1682	1639	1605	1585	1571	1548	1529	1502	1483	1445	1418	1414	1446	1454	1443	1477	1488	1496	1493	1496	1502	1510	1498	1480	1468	1457	1460	1462	1474	1487	1508	1526	1525	1517	1505	1493	1496	1505	1519	1529	1523	1508	1495	1492	1487	1482	1469	1468	1473	1483	1500	1519	1530	1535	1534	1531	1537	1569	1656	1699	1783	1853	1857	1847	1840	1847	1849	1862	1806	1801	1800	1793	1785	1793	1797	1797	1800	1798	1814	1856	1864	1856	1832	1817	1804	1801	1803	1805	1801	1798	1779	1778	1795	1812	1810	1809	1820	1816	1796	1779	1771	1775	1785	1796	1807	1818	1809	1790	1770	1755	1759	1779	1807	1815	1819	1793	1789	1790	1785	1772	1774	1752	1761	1759	1758	1757	1750	1756	1753	1740	1723	1704	1714	1733	1762	1766	1761	1740	1744	1751	1747	1737	1737	1723	1720	1711	1731	1730	1719	1712	1709	1718	1720	1710	1703	1702	1709	1709	1702	1701	1701	1695	1704	1732	1731	1711	1683	1668	1680	1714	1742	1746	1709	1693	1695	1704	1722	1727	1705	1686	1679	1681	1681	1669	1650	1583	1582	1579	1581	1595	1613	1610	1600	1587	1588	1621	1621	1608	1596	1622	1631	1628	1615	1601	1592	1576	1561	1561	1569	1572	1579	1573	1565	1555	1548	1536	1526	1515	1511	1515	1536	1529	1529	1520	1510	1499	1500	1508	1523	1525	1521	1513	1506	1504	1499	1488	1479	1471	1465	1464	1467	1470	1473	1471	1467	1456	1444	1441	1444	1454	1455	1443	1425	1424	1425	1430	1426	1409	1409	1400	1400	1403	1406	1404	1384	1370	1343	1345	1356	1363	1374	1375	1366	1360	1351	1350	1344	1335	1335	1340	1337	1329	1320	1314	1313	1322	1332	0	0	0	0	0	0	0	0
1742	1750	1753	1753	1717	1653	1570	1448	1448	1366	1293	1282	1276	1276	1276	1263	1260	1246	1248	1248	1264	1268	1276	1284	1290	1290	1290	1296	1309	1304	1293	1285	1275	1275	1268	1266	1275	1287	1291	1297	1303	1303	1310	1314	1317	1315	1317	1315	1299	1305	1309	1309	1318	1326	1325	1327	1332	1331	1334	1332	1328	1345	1328	1328	1321	1321	1323	1327	1322	1321	1318	1332	1326	1309	1309	1310	1321	1338	1341	1347	1347	1356	1356	1373	1392	1414	1428	1425	1413	1425	1431	1410	1403	1409	1446	1504	1612	1672	1711	1728	1726	1713	1703	1680	1670	1689	1708	1734	1741	1740	1735	1728	1719	1707	1682	1694	1698	1700	1696	1702	1716	1756	1761	1753	1751	1745	1743	1739	1714	1700	1693	1634	1642	1658	1661	1644	1648	1660	1742	1729	1736	1749	1754	1758	1767	1761	1747	1735	1717	1717	1724	1732	1731	1734	1724	1707	1696	1707	1750	1749	1744	1731	1742	1745	1747	1725	1681	1675	1693	1711	1729	1737	1716	1693	1695	1588	1514	1463	1369	1326	1335	1352	1330	1344	1374	1389	1386	1384	1373	1373	1377	1380	1379	1379	1375	1371	1362	1356	1355	1369	1365	1365	1367	1373	1376	1380	1376	1380	1381	1374	1376	1383	1386	1389	1388	1390	1384	1385	1404	1430	1425	1414	1400	1392	1396	1400	1401	1396	1401	1402	1404	1405	1418	1401	1411	1392	1393	1396	1402	1411	1414	1423	1419	1419	1413	1407	1412	1421	1425	1434	1411	1413	1417	1418	1427	1410	1409	1409	1405	1392	1387	1393	1395	1419	1457	1474	1498	1537	1598	1621	1654	1682	1697	1711	1707	1700	1684	1669	1666	1664	1671	1678	1676	1668	1671	1686	1707	1723	1728	1715	1705	1696	1700	1710	1701	1689	1688	1696	1713	1729	1729	1709	1708	1680	1676	1680	1689	1693	1706	1728	1736	1718	1698	1693	1681	1679	1681	1680	1683	1671	1663	1660	1657	1657	1662	1686	1706	1714	1719	1727	1727	1729	1729	1690	1678	1687	1714	1733	1746	1730	1723	1714	1704	1677	1703	1729	1686	1594	1555	1549	1536	1523	1493	1466	1447	1437	1425	1452	1472	1475	1480	1484	1488	1486	1491	1497	1501	1496	1484	1482	1485	1484	1480	1483	1496	1508	1522	1527	1508	1499	1490	1496	1513	1525	1533	1527	1515	1501	1491	1481	1472	1469	1462	1481	1493	1506	1521	1531	1527	1527	1528	1532	1571	1618	1661	1787	1819	1826	1825	1813	1776	1758	1753	1741	1737	1737	1754	1749	1748	1758	1766	1769	1773	1777	1788	1800	1785	1789	1779	1774	1764	1762	1761	1764	1768	1741	1730	1729	1756	1776	1797	1799	1794	1779	1767	1747	1751	1747	1740	1744	1759	1764	1748	1724	1707	1709	1736	1758	1754	1777	1774	1773	1745	1738	1713	1708	1721	1718	1710	1710	1714	1716	1724	1718	1722	1705	1688	1687	1696	1731	1734	1735	1725	1726	1726	1718	1715	1706	1702	1700	1685	1692	1702	1710	1706	1710	1708	1709	1706	1697	1694	1698	1696	1691	1686	1682	1691	1703	1712	1714	1699	1670	1653	1652	1645	1632	1628	1625	1633	1626	1624	1638	1679	1672	1656	1620	1607	1598	1585	1572	1572	1580	1590	1594	1604	1611	1615	1602	1587	1574	1577	1584	1587	1583	1597	1632	1633	1614	1598	1583	1564	1538	1535	1545	1562	1562	1562	1555	1543	1527	1516	1513	1504	1497	1502	1506	1511	1517	1508	1507	1499	1497	1505	1517	1526	1527	1512	1485	1474	1467	1466	1464	1459	1457	1463	1462	1463	1457	1437	1444	1452	1438	1424	1434	1432	1423	1407	1398	1396	1403	1417	1420	1420	1421	1408	1396	1390	1385	1381	1367	1352	1324	1313	1336	1343	1343	1344	1337	1326	1321	1323	1318	1327	1327	1331	1326	1311	1296	1286	1280	1286	1293	0	0	0	0	0	0	0	0
1678	1673	1669	1669	1647	1609	1516	1423	1423	1353	1300	1288	1282	1282	1275	1255	1237	1242	1243	1243	1256	1265	1269	1271	1274	1278	1278	1288	1298	1293	1284	1279	1273	1273	1262	1267	1278	1292	1297	1303	1308	1308	1313	1318	1312	1317	1313	1307	1301	1295	1303	1303	1315	1318	1318	1319	1324	1331	1328	1330	1325	1339	1339	1339	1334	1327	1332	1337	1335	1328	1325	1332	1320	1301	1302	1315	1315	1344	1352	1351	1341	1353	1353	1368	1395	1415	1418	1405	1397	1413	1421	1397	1396	1412	1447	1550	1628	1674	1696	1702	1693	1689	1674	1661	1661	1676	1703	1674	1677	1672	1674	1664	1655	1651	1652	1658	1669	1676	1675	1673	1673	1666	1634	1642	1664	1673	1689	1688	1632	1611	1593	1597	1617	1640	1646	1638	1622	1643	1649	1624	1609	1614	1630	1638	1647	1642	1708	1695	1681	1686	1702	1699	1669	1659	1672	1672	1667	1662	1660	1652	1650	1660	1674	1679	1663	1633	1615	1612	1617	1624	1650	1658	1642	1619	1628	1553	1496	1457	1373	1340	1355	1350	1329	1334	1369	1373	1378	1383	1380	1377	1375	1372	1371	1372	1372	1369	1361	1363	1364	1369	1368	1368	1372	1375	1367	1359	1352	1355	1364	1370	1371	1375	1386	1388	1393	1392	1392	1393	1412	1424	1417	1411	1406	1397	1401	1408	1412	1403	1391	1399	1399	1401	1407	1412	1387	1391	1397	1403	1408	1415	1412	1414	1412	1403	1391	1406	1414	1416	1425	1432	1421	1414	1415	1420	1412	1410	1402	1399	1394	1423	1445	1449	1430	1434	1473	1494	1511	1572	1583	1608	1626	1639	1671	1667	1676	1679	1661	1648	1650	1656	1661	1666	1660	1649	1644	1653	1666	1680	1683	1662	1644	1642	1650	1684	1683	1676	1678	1671	1658	1638	1634	1634	1643	1669	1678	1679	1672	1667	1665	1662	1659	1659	1656	1642	1628	1642	1655	1656	1645	1636	1632	1629	1627	1630	1646	1666	1681	1680	1684	1680	1692	1697	1664	1643	1645	1647	1655	1665	1654	1660	1663	1641	1636	1621	1642	1679	1669	1624	1607	1560	1526	1519	1501	1484	1449	1444	1423	1450	1473	1487	1482	1467	1480	1481	1499	1501	1502	1496	1485	1484	1493	1502	1509	1510	1512	1515	1519	1519	1513	1509	1501	1503	1499	1510	1520	1525	1511	1497	1481	1479	1473	1473	1479	1497	1506	1518	1530	1528	1528	1531	1534	1532	1567	1599	1641	1750	1771	1795	1748	1726	1708	1694	1683	1684	1693	1700	1720	1722	1726	1733	1736	1739	1741	1738	1738	1737	1733	1749	1747	1743	1740	1737	1739	1737	1736	1718	1691	1694	1715	1729	1731	1720	1702	1691	1680	1693	1704	1700	1701	1715	1730	1732	1721	1693	1672	1671	1687	1703	1713	1727	1737	1718	1670	1676	1687	1687	1691	1696	1694	1691	1687	1683	1680	1690	1691	1681	1677	1675	1692	1697	1703	1695	1684	1681	1687	1686	1676	1675	1671	1663	1650	1640	1650	1681	1682	1679	1662	1667	1671	1662	1657	1662	1655	1650	1636	1632	1645	1663	1680	1686	1661	1620	1590	1576	1570	1564	1560	1565	1566	1560	1562	1548	1539	1567	1576	1578	1574	1567	1563	1564	1562	1566	1574	1580	1575	1569	1565	1566	1565	1552	1544	1546	1549	1541	1549	1572	1585	1588	1572	1553	1525	1496	1483	1484	1520	1542	1538	1527	1521	1519	1513	1505	1490	1481	1482	1486	1494	1500	1506	1503	1498	1494	1497	1508	1513	1511	1503	1484	1465	1454	1450	1448	1439	1426	1421	1419	1416	1415	1416	1430	1437	1430	1413	1407	1397	1413	1402	1395	1398	1405	1416	1417	1417	1412	1400	1397	1393	1388	1379	1369	1360	1345	1315	1313	1341	1341	1344	1339	1340	1344	1340	1331	1317	1317	1302	1297	1292	1283	1269	1258	1263	1268	0	0	0	0	0	0	0	0
1629	1616	1610	1610	1587	1541	1483	1423	1423	1362	1314	1306	1288	1275	1275	1267	1249	1246	1252	1255	1255	1261	1267	1261	1266	1278	1278	1285	1283	1275	1271	1269	1270	1270	1271	1282	1294	1298	1302	1304	1307	1312	1312	1313	1307	1298	1294	1301	1303	1299	1307	1307	1318	1322	1318	1307	1308	1310	1311	1309	1315	1334	1348	1341	1341	1338	1341	1346	1339	1324	1327	1334	1324	1313	1312	1316	1323	1358	1364	1361	1349	1342	1349	1349	1387	1407	1415	1399	1386	1411	1405	1386	1377	1401	1442	1556	1650	1676	1682	1669	1665	1655	1629	1631	1631	1641	1645	1653	1656	1653	1635	1632	1632	1632	1642	1652	1659	1655	1627	1595	1577	1584	1591	1586	1600	1610	1618	1615	1592	1576	1563	1564	1586	1615	1623	1622	1609	1600	1589	1599	1606	1610	1623	1620	1602	1595	1604	1620	1632	1629	1613	1591	1588	1611	1613	1632	1656	1663	1640	1622	1621	1628	1643	1633	1619	1601	1591	1583	1598	1609	1602	1570	1557	1548	1555	1496	1466	1445	1387	1355	1364	1354	1332	1336	1354	1362	1367	1380	1378	1372	1370	1363	1363	1376	1374	1368	1361	1363	1377	1382	1384	1378	1380	1376	1356	1338	1329	1337	1357	1358	1359	1374	1386	1390	1393	1393	1391	1390	1387	1414	1408	1412	1411	1415	1415	1415	1418	1412	1405	1391	1386	1383	1384	1401	1382	1389	1394	1410	1415	1422	1415	1409	1403	1404	1399	1398	1407	1414	1434	1445	1444	1414	1424	1423	1425	1421	1406	1403	1422	1424	1443	1442	1431	1424	1444	1511	1531	1560	1573	1597	1607	1612	1613	1580	1634	1638	1637	1630	1636	1644	1647	1646	1644	1613	1599	1601	1615	1611	1631	1638	1627	1617	1613	1628	1647	1663	1663	1644	1614	1619	1626	1620	1605	1594	1624	1643	1651	1650	1644	1649	1645	1637	1621	1611	1602	1609	1636	1644	1627	1616	1609	1607	1608	1613	1629	1654	1664	1656	1653	1636	1637	1638	1615	1603	1602	1614	1624	1628	1626	1622	1630	1632	1636	1630	1619	1615	1642	1665	1663	1652	1566	1541	1511	1483	1456	1431	1435	1440	1469	1502	1483	1466	1469	1473	1480	1495	1496	1496	1492	1494	1507	1520	1527	1528	1522	1517	1508	1512	1513	1517	1515	1514	1491	1498	1508	1511	1504	1487	1479	1477	1487	1492	1498	1521	1526	1536	1544	1543	1544	1546	1555	1559	1561	1597	1657	1689	1672	1698	1702	1694	1681	1668	1668	1674	1683	1695	1699	1706	1712	1714	1721	1703	1673	1676	1701	1702	1690	1685	1674	1685	1705	1699	1708	1718	1720	1713	1685	1677	1686	1696	1688	1679	1658	1645	1646	1647	1661	1666	1676	1683	1702	1706	1694	1670	1651	1652	1665	1679	1668	1673	1630	1634	1637	1645	1650	1665	1674	1668	1674	1672	1667	1651	1651	1658	1666	1663	1658	1663	1676	1684	1680	1673	1667	1663	1656	1650	1621	1596	1590	1599	1613	1590	1593	1623	1632	1608	1614	1617	1614	1604	1615	1616	1616	1613	1592	1581	1583	1600	1613	1621	1595	1553	1544	1542	1544	1544	1542	1513	1509	1518	1523	1536	1521	1511	1508	1497	1494	1493	1538	1543	1539	1544	1548	1551	1549	1538	1517	1513	1507	1508	1510	1514	1507	1499	1497	1504	1496	1491	1481	1471	1460	1460	1459	1468	1471	1474	1494	1492	1488	1479	1481	1477	1472	1462	1453	1449	1459	1471	1487	1490	1488	1489	1485	1485	1492	1494	1488	1477	1462	1452	1448	1446	1436	1422	1411	1410	1406	1406	1413	1424	1430	1428	1416	1409	1401	1386	1372	1362	1367	1377	1387	1387	1386	1374	1372	1376	1379	1387	1396	1395	1371	1347	1309	1309	1340	1342	1343	1343	1342	1340	1335	1329	1329	1314	1301	1294	1292	1285	1284	1275	1265	1270	0	0	0	0	0	0	0	0
1591	1591	1585	1585	1568	1524	1474	1416	1416	1359	1324	1313	1294	1279	1279	1285	1270	1267	1262	1267	1267	1269	1269	1272	1271	1273	1273	1277	1268	1263	1265	1271	1278	1292	1292	1295	1298	1302	1300	1297	1296	1300	1300	1305	1304	1295	1298	1320	1316	1311	1312	1322	1322	1327	1317	1306	1301	1298	1300	1303	1317	1332	1354	1347	1347	1339	1342	1356	1343	1321	1325	1332	1332	1330	1336	1327	1336	1369	1380	1374	1361	1351	1360	1360	1384	1401	1403	1389	1379	1399	1394	1374	1371	1391	1433	1551	1638	1644	1588	1598	1606	1597	1592	1602	1614	1607	1607	1615	1613	1610	1601	1575	1576	1591	1601	1616	1622	1618	1594	1569	1558	1565	1567	1565	1557	1576	1596	1593	1567	1558	1550	1544	1555	1583	1605	1607	1589	1579	1572	1583	1584	1598	1599	1587	1566	1571	1578	1595	1590	1566	1558	1554	1548	1543	1555	1581	1601	1615	1625	1606	1599	1613	1619	1617	1605	1583	1571	1580	1581	1594	1599	1563	1543	1537	1522	1456	1433	1411	1427	1382	1369	1360	1330	1344	1338	1360	1370	1366	1366	1357	1358	1358	1366	1371	1377	1372	1373	1372	1379	1383	1382	1381	1383	1378	1362	1349	1339	1343	1355	1358	1362	1373	1377	1382	1384	1377	1384	1388	1379	1375	1392	1408	1409	1415	1422	1430	1418	1412	1402	1402	1376	1371	1376	1371	1366	1358	1381	1413	1418	1426	1425	1404	1401	1398	1401	1396	1397	1404	1426	1444	1441	1436	1435	1433	1431	1420	1418	1416	1416	1421	1431	1434	1432	1428	1445	1494	1514	1542	1566	1585	1595	1594	1576	1566	1553	1544	1543	1594	1592	1588	1596	1607	1608	1564	1552	1541	1555	1572	1600	1619	1620	1608	1591	1579	1578	1585	1590	1575	1574	1585	1595	1598	1593	1588	1592	1596	1613	1636	1652	1647	1633	1609	1578	1557	1556	1561	1583	1590	1590	1581	1582	1580	1582	1582	1575	1552	1536	1537	1548	1547	1550	1549	1551	1554	1568	1585	1592	1596	1591	1585	1599	1619	1629	1614	1591	1584	1590	1606	1611	1614	1601	1563	1514	1483	1448	1439	1438	1457	1477	1497	1480	1481	1459	1468	1491	1490	1487	1490	1495	1502	1507	1519	1523	1524	1521	1512	1506	1508	1511	1519	1522	1523	1506	1495	1499	1501	1494	1475	1480	1489	1499	1513	1526	1525	1537	1549	1558	1563	1565	1573	1592	1601	1607	1625	1622	1631	1649	1658	1668	1670	1666	1662	1658	1668	1677	1683	1687	1689	1688	1685	1677	1657	1655	1647	1645	1647	1645	1642	1630	1645	1646	1648	1646	1666	1686	1697	1675	1662	1650	1639	1640	1638	1627	1632	1632	1632	1638	1640	1636	1650	1669	1683	1669	1657	1641	1638	1648	1595	1596	1595	1586	1569	1556	1561	1567	1587	1598	1606	1594	1566	1536	1516	1560	1610	1621	1623	1627	1643	1644	1637	1662	1651	1643	1635	1628	1617	1592	1577	1572	1574	1565	1556	1556	1563	1575	1582	1589	1581	1548	1536	1542	1548	1559	1566	1569	1556	1554	1535	1530	1535	1526	1521	1528	1508	1497	1493	1497	1504	1511	1513	1514	1506	1493	1487	1483	1480	1469	1455	1457	1472	1497	1513	1501	1497	1485	1465	1452	1461	1475	1477	1480	1485	1475	1471	1456	1466	1472	1457	1448	1444	1439	1435	1434	1435	1433	1440	1444	1449	1447	1435	1447	1451	1446	1441	1440	1446	1447	1442	1437	1434	1433	1437	1437	1442	1422	1430	1435	1436	1433	1426	1423	1422	1412	1404	1401	1399	1399	1399	1411	1426	1429	1424	1414	1413	1401	1380	1370	1358	1363	1369	1375	1375	1368	1361	1365	1376	1376	1371	1364	1363	1361	1351	1339	1321	1323	1317	1297	1295	1292	1289	1297	1289	1289	1284	1287	1294	1297	1295	1280	1270	1263	1263	0	0	0	0	0	0	0	0
1585	1574	1567	1567	1541	1501	1446	1389	1345	1345	1308	1298	1292	1286	1286	1298	1291	1286	1281	1276	1276	1276	1270	1272	1273	1280	1281	1281	1272	1268	1267	1279	1296	1301	1301	1307	1309	1302	1293	1284	1287	1294	1294	1300	1303	1305	1325	1331	1324	1309	1310	1322	1322	1330	1325	1320	1313	1310	1315	1323	1331	1347	1349	1335	1335	1334	1339	1365	1353	1328	1321	1328	1335	1338	1348	1346	1360	1383	1387	1385	1381	1376	1374	1388	1388	1400	1387	1382	1385	1392	1390	1389	1384	1400	1420	1501	1564	1562	1560	1573	1587	1593	1590	1588	1590	1585	1584	1582	1571	1566	1560	1536	1533	1552	1565	1577	1578	1591	1577	1561	1548	1545	1549	1554	1556	1558	1573	1574	1547	1537	1535	1532	1536	1548	1564	1582	1585	1577	1581	1580	1567	1557	1542	1533	1534	1542	1554	1566	1553	1538	1527	1521	1518	1515	1531	1555	1578	1597	1596	1577	1567	1553	1604	1599	1579	1555	1563	1556	1557	1567	1562	1540	1527	1520	1511	1439	1423	1424	1420	1395	1358	1333	1334	1349	1343	1357	1370	1364	1355	1350	1353	1362	1368	1378	1381	1380	1380	1378	1370	1367	1368	1374	1377	1373	1361	1361	1353	1352	1358	1375	1379	1373	1370	1369	1366	1364	1376	1381	1386	1390	1393	1412	1396	1390	1410	1417	1406	1405	1402	1397	1393	1360	1356	1372	1373	1370	1371	1388	1410	1428	1427	1400	1394	1389	1376	1372	1369	1384	1414	1445	1441	1433	1436	1429	1428	1417	1417	1409	1407	1399	1403	1425	1429	1432	1448	1457	1500	1526	1502	1514	1531	1534	1527	1515	1512	1525	1532	1536	1527	1517	1532	1539	1534	1538	1532	1529	1530	1531	1542	1548	1558	1569	1560	1546	1542	1533	1533	1540	1544	1529	1529	1530	1529	1531	1547	1576	1578	1594	1606	1608	1595	1575	1549	1521	1513	1514	1521	1527	1523	1523	1525	1531	1541	1546	1522	1493	1488	1515	1533	1541	1534	1522	1517	1526	1542	1544	1533	1508	1522	1527	1550	1564	1570	1565	1554	1549	1556	1557	1537	1510	1501	1497	1501	1524	1473	1467	1466	1466	1479	1476	1475	1479	1485	1495	1498	1496	1490	1491	1493	1495	1504	1506	1509	1517	1516	1504	1502	1504	1510	1514	1518	1531	1518	1504	1504	1502	1499	1492	1494	1529	1541	1545	1543	1530	1539	1549	1564	1569	1576	1594	1597	1601	1601	1597	1606	1617	1625	1631	1639	1652	1652	1648	1652	1662	1659	1655	1652	1661	1655	1654	1650	1640	1635	1622	1608	1598	1598	1599	1587	1605	1615	1613	1602	1598	1587	1602	1616	1617	1606	1615	1600	1584	1592	1597	1610	1615	1605	1585	1570	1582	1602	1618	1648	1640	1622	1536	1531	1543	1559	1555	1551	1541	1543	1550	1558	1565	1571	1571	1560	1536	1519	1516	1503	1502	1518	1529	1549	1569	1582	1581	1578	1572	1566	1569	1586	1592	1573	1554	1552	1555	1543	1523	1516	1525	1531	1544	1562	1545	1524	1516	1513	1508	1515	1527	1533	1528	1520	1521	1516	1514	1497	1496	1490	1481	1481	1486	1487	1485	1464	1447	1440	1470	1472	1469	1465	1459	1446	1427	1428	1431	1444	1450	1464	1461	1449	1449	1438	1436	1435	1447	1437	1439	1444	1422	1422	1431	1439	1428	1423	1414	1413	1412	1418	1423	1429	1430	1428	1435	1431	1431	1433	1423	1410	1399	1398	1405	1428	1417	1404	1394	1391	1390	1391	1396	1398	1408	1413	1404	1405	1402	1411	1407	1400	1391	1388	1399	1398	1397	1403	1396	1379	1364	1361	1377	1384	1381	1364	1353	1349	1363	1363	1362	1363	1360	1364	1375	1373	1367	1359	1356	1361	1361	1345	1339	1335	1317	1291	1286	1287	1287	1290	1285	1285	1285	1284	1290	1288	1286	1273	1277	1282	1279	0	0	0	0	0	0	0	0
