678	690	680	667	665	665	664	668	679	684	684	685	685	682	684	684	685	677	668	675	675	674	674	656	657	660	660	680	680	674	675	677	677	674	673	678	685	688	688	688	687	684	683	680	684	686	686	686	687	689	687	685	676	674	682	682	678	672	668	667	665	670	674	681	678	678	669	664	663	669	671	676	677	677	675	673	676	676	679	679	683	685	676	675	673	666	660	659	664	662	661	655	652	654	670	670	668	664	662	658	658	659	666	675	678	682	682	681	683	690	684	666	659	655	654	652	655	660	663	657	661	663	666	665	664	663	660	663	664	674	682	688	678	677	675	669	669	670	669	665	659	642	657	667	671	672	665	649	648	654	665	666	657	654	656	657	660	667	658	657	658	658	662	659	657	662	655	659	666	662	658	660	661	664	674	676	677	669	661	661	662	664	667	668	671	668	663	658	652	656	658	659	656	648	647	655	663	663	660	648	646	653	658	657	652	649	644	643	643	638	637	637	638	643	643	643	644	644	645	646	649	654	654	650	644	637	639	647	654	651	650	668	659	662	662	666	667	660	638	634	624	631	634	637	634	630	642	640	635	628	627	632	632	644	651	651	650	644	640	638	641	643	643	632	626	621	621	630	632	632	624	626	632	634	635	636	641	637	636	634	634	636	636	635	632	628	630	639	653	656	652	652	649	645	648	651	650	653	650	649	651	651	649	646	648	647	638	651	650	647	642	641	638	636	632	633	649	649	645	645	641	641	640	643	645	642	637	638	641	639	640	630	626	641	640	636	633	628	627	637	642	640	639	624	630	632	633	634	628	629	632	624	638	641	644	642	632	630	631	627	622	623	630	639	635	634	634	633	634	634	633	635	632	636	635	634	635	638	635	643	637	639	641	641	644	651	654	646	631	628	631	638	642	643	638	635	635	635	636	638	645	656	662	631	628	627	632	631	632	629	628	630	635	632	633	633	637	643	642	638	637	639	641	647	651	648	639	642	637	636	637	643	643	639	636	628	631	635	638	631	631	632	632	630	630	630	634	635	634	626	624	626	626	621	625	628	628	628	624	625	629	629	630	627	625	622	625	631	631	629	631	631	629	627	645	648	652	648	641	640	624	630	637	634	627	631	640	638	640	639	641	634	640	641	639	635	634	637	636	633	627	627	628	627	627	634	636	634	630	625	629	630	638	640	636	633	629	637	638	638	640	642	641	636	634	638	640	644	643	643	641	643	638	638	646	650	649	648	642	639	634	638	633	645	643	642	643	639	637	639	643	644	646	638	631	625	622	624	628	638	637	640	646	648	649	651	656	656	657	650	649	651	644	635	635	639	636	636	640	640	629	626	632	640	639	639	638	632	632	626	620	621	622	630	631	631	633	626	622	635	634	634	626	625	615	620	617	621	621	640	642	637	623	623	623	624	626	635	620	618	617	617	616	615	624	626	624	623	623	622	620	621	621	628	626	0	0	0	0	0
679	679	677	662	663	663	665	670	675	677	677	674	676	673	678	678	663	664	662	665	665	669	669	659	654	667	667	680	677	672	674	674	674	672	668	670	680	688	677	677	675	674	677	675	676	685	683	683	681	684	672	672	668	667	674	674	667	665	659	657	662	662	665	665	668	668	665	656	657	664	665	669	674	669	668	664	659	659	659	662	670	675	668	669	666	664	660	657	660	660	653	649	650	661	662	659	659	658	657	658	655	655	653	653	657	661	667	674	678	682	679	659	656	653	648	646	650	654	657	653	653	657	659	664	660	658	653	652	653	655	656	657	655	653	648	664	664	667	664	658	642	643	646	652	648	648	646	645	651	657	663	663	656	653	653	657	661	658	655	653	647	647	657	659	656	652	647	654	658	660	657	656	658	661	662	660	660	657	657	658	660	663	655	656	655	660	653	640	638	648	656	664	664	661	653	655	653	652	653	654	648	652	652	657	651	646	641	637	636	638	638	636	638	639	640	635	634	634	640	643	647	642	633	632	633	634	634	641	638	639	640	642	653	655	649	650	649	646	631	623	620	623	625	629	630	634	634	624	620	620	622	625	630	630	633	641	642	634	632	626	628	630	629	620	621	621	615	613	616	633	638	639	642	635	631	620	626	630	630	629	634	637	641	636	630	625	625	631	634	631	626	624	621	622	630	630	632	631	629	633	641	641	634	626	630	629	632	635	638	637	636	636	633	630	629	626	629	628	625	631	629	632	630	640	629	633	634	635	635	638	635	626	635	638	635	629	625	624	623	627	634	637	637	626	625	632	633	633	624	619	622	621	620	635	635	624	622	626	620	619	614	618	630	637	631	628	628	629	630	628	627	630	629	633	633	630	630	630	634	634	634	631	634	638	620	619	625	624	621	625	628	638	642	641	631	627	632	632	631	635	639	640	635	628	619	618	627	631	631	626	621	623	629	633	633	635	638	639	638	637	632	635	639	642	641	643	643	644	640	636	637	642	640	635	631	631	632	636	636	627	623	627	628	631	631	630	628	630	626	623	620	619	620	613	620	623	625	623	621	621	624	627	630	629	622	622	625	630	631	630	629	625	622	623	639	643	649	647	639	630	622	625	625	626	622	622	630	633	638	632	629	626	635	638	634	633	633	633	632	630	621	622	623	620	619	628	630	627	627	624	623	635	637	635	632	630	629	627	631	634	640	638	637	634	633	634	633	629	623	632	637	639	637	638	644	646	651	650	647	620	616	629	631	639	640	642	641	638	634	631	630	628	629	628	626	624	620	620	623	638	640	641	650	640	644	648	649	647	641	639	642	643	631	629	629	631	620	621	624	632	632	621	621	632	636	636	633	633	630	624	617	619	620	622	626	625	630	621	612	607	607	608	619	612	609	610	608	615	615	626	620	620	621	620	619	620	621	620	612	610	611	611	613	615	616	618	623	621	622	619	618	618	617	619	619	0	0	0	0	0
679	671	655	663	666	666	667	671	666	657	657	655	664	673	648	648	650	651	651	657	666	666	651	661	663	672	673	673	666	669	670	670	670	670	666	665	667	666	664	669	669	671	673	675	656	660	656	656	660	668	668	664	661	659	652	652	652	654	656	656	656	657	658	655	654	651	651	653	655	659	662	663	666	667	668	665	662	653	653	652	654	657	656	654	657	662	665	665	657	654	648	643	642	647	644	648	651	651	656	654	652	653	640	644	643	648	666	672	678	682	660	656	647	646	645	644	645	648	650	646	644	646	652	656	656	652	647	647	653	652	655	655	653	647	643	656	657	662	660	648	635	641	643	645	645	646	645	650	653	651	660	662	655	652	653	658	664	655	652	647	644	642	644	645	647	644	647	642	647	657	653	653	654	654	651	647	644	643	649	651	654	651	641	640	643	640	631	628	638	649	650	656	654	641	639	637	643	645	649	641	645	646	649	651	647	645	639	635	635	635	632	635	636	637	630	620	625	627	633	631	621	621	625	622	619	627	629	626	631	632	630	627	625	620	620	619	634	633	635	636	630	623	623	626	629	633	631	622	619	618	618	623	628	631	630	626	634	631	631	628	625	627	623	617	620	623	623	622	622	628	635	634	627	630	630	618	619	621	624	626	632	637	638	636	628	622	620	624	626	625	619	617	621	622	619	623	635	629	626	633	622	635	629	623	624	628	631	631	627	627	630	632	632	628	623	621	620	609	619	628	616	616	610	623	623	619	627	629	630	632	636	634	631	618	621	626	626	626	623	626	621	619	623	631	627	634	630	627	623	619	613	617	615	614	614	617	630	624	619	611	608	625	634	634	629	622	622	628	626	623	623	623	623	630	630	630	629	633	621	616	623	622	617	614	611	610	616	619	620	620	620	621	625	626	627	615	631	626	625	625	624	635	631	622	617	617	619	629	627	620	620	619	616	619	628	631	633	635	637	633	629	635	634	628	624	626	641	641	638	635	631	631	629	630	630	628	633	632	626	622	614	614	626	619	614	619	621	621	622	623	615	613	612	608	610	614	613	618	617	620	627	625	625	624	625	621	625	629	632	629	629	629	622	621	629	637	641	640	629	623	620	624	622	624	620	623	632	633	640	629	626	620	620	626	629	631	630	629	628	626	615	611	606	607	618	621	622	623	623	623	621	632	636	634	630	626	625	624	625	628	630	636	636	631	626	627	632	626	621	628	632	636	632	631	642	634	650	645	636	619	615	613	616	619	627	633	634	631	629	623	619	619	619	624	624	622	620	627	625	632	640	650	645	640	631	631	635	625	620	629	635	632	624	621	621	624	616	614	622	625	619	613	616	617	631	630	630	625	624	625	620	621	622	621	624	622	617	607	608	603	603	605	612	615	608	610	608	608	609	612	625	620	618	614	611	616	617	612	609	609	609	612	615	617	620	620	621	617	614	619	611	611	606	608	611	0	0	0	0	0
671	639	654	650	652	645	645	642	646	645	654	654	664	668	644	643	643	642	644	649	645	645	651	654	655	660	662	662	653	657	666	665	666	666	663	658	654	654	660	666	666	665	670	670	657	645	643	645	645	656	657	658	661	652	646	644	644	645	649	652	655	652	652	655	655	655	655	654	655	658	658	660	660	662	662	667	660	653	649	649	649	653	644	647	651	655	652	649	646	645	642	637	643	647	650	651	641	641	641	642	646	648	636	631	642	646	662	666	657	660	648	641	639	644	644	644	643	642	646	641	638	640	646	650	650	645	638	643	649	650	651	650	648	644	642	641	644	633	632	632	632	635	639	642	643	645	643	640	650	648	651	649	639	630	634	637	636	635	638	641	640	641	641	644	646	645	645	642	643	647	643	644	645	641	625	624	625	640	649	649	652	647	636	635	638	634	622	618	620	645	647	650	643	635	629	622	620	613	613	617	625	633	644	647	627	632	637	634	633	628	629	630	625	607	610	621	621	622	621	616	611	620	622	620	622	619	619	620	625	625	623	618	611	616	616	616	615	623	626	625	628	622	621	622	624	631	626	624	617	613	615	621	627	627	624	622	622	627	630	631	627	625	618	612	612	621	623	622	631	633	627	622	614	622	626	615	616	617	612	610	616	623	629	626	621	615	617	615	623	622	619	620	621	613	613	608	622	634	627	630	621	619	616	616	619	621	622	623	625	627	625	621	615	618	623	619	618	613	613	621	618	614	608	611	615	612	608	603	604	627	627	634	632	623	599	615	616	618	615	625	622	619	620	627	627	630	627	625	613	612	612	609	606	606	604	601	611	621	621	610	608	609	626	630	621	615	619	626	626	624	621	620	619	609	603	599	599	611	615	614	614	613	614	609	607	609	614	613	610	605	595	593	598	610	612	615	629	619	620	620	625	624	623	623	613	615	623	623	620	620	614	613	615	617	622	626	626	623	620	622	621	619	614	609	609	611	620	636	629	623	620	624	625	627	625	625	611	607	607	605	603	610	611	608	612	614	618	623	621	614	614	609	603	613	622	620	614	609	607	610	611	612	615	621	625	624	626	628	630	628	629	619	623	621	624	626	629	632	623	618	619	623	622	629	630	632	633	637	633	629	626	605	608	619	624	627	624	626	625	620	615	605	605	617	619	622	618	619	619	620	617	615	617	617	620	618	621	618	619	617	617	613	616	610	610	611	615	615	615	616	616	612	614	621	637	630	627	625	621	615	611	609	611	617	623	629	627	625	622	615	613	613	613	615	628	628	623	618	618	620	624	643	641	625	623	623	617	608	613	623	629	623	613	620	618	613	611	610	605	611	608	606	606	606	616	616	616	618	618	622	621	621	621	621	615	611	608	606	602	602	602	606	613	609	610	608	608	611	611	609	618	613	609	609	609	607	610	609	609	613	613	613	619	617	610	601	598	597	595	600	600	592	596	599	605	0	0	0	0	0
639	654	644	652	648	640	640	638	640	645	651	651	663	651	644	638	638	635	637	652	642	643	643	639	644	651	653	653	653	637	644	641	643	647	647	651	654	658	660	661	662	662	661	652	647	644	644	640	640	651	654	656	653	650	646	642	645	645	646	648	650	660	660	656	658	657	655	655	652	654	653	655	653	648	651	651	651	649	647	646	646	647	641	642	646	651	649	648	646	643	635	632	631	634	640	651	650	633	633	633	636	638	636	622	632	635	640	649	652	618	618	631	627	622	620	627	636	636	632	629	626	624	632	633	634	639	638	644	647	649	647	640	638	638	641	634	635	633	627	623	626	630	635	640	642	644	643	638	621	614	624	628	628	628	627	627	627	631	634	638	639	640	642	648	646	644	644	642	639	638	637	629	627	624	623	623	624	631	645	645	641	642	641	632	628	627	617	615	612	617	617	629	636	629	622	617	612	610	610	615	622	621	620	619	627	630	630	632	630	616	611	607	601	596	608	620	621	614	609	606	603	601	605	612	617	613	617	618	623	620	615	611	609	614	616	616	614	613	617	616	613	613	615	620	622	625	628	627	612	610	613	619	624	624	617	611	611	614	616	618	622	621	615	611	617	617	620	625	629	630	625	621	609	614	617	611	612	606	602	603	608	615	618	621	621	617	612	608	609	610	614	617	618	615	613	608	609	612	631	630	625	617	618	625	624	626	615	616	615	618	620	618	619	619	619	621	616	620	621	619	616	618	609	608	591	589	594	598	596	599	615	623	630	625	610	600	607	609	613	618	623	620	621	628	627	625	620	615	612	610	607	602	604	604	601	606	616	614	611	613	607	604	607	609	606	601	599	599	607	605	609	612	609	605	602	599	600	610	612	609	608	602	604	603	605	608	615	609	607	606	602	595	590	599	607	612	608	601	602	602	603	619	617	614	611	609	613	608	607	603	605	613	614	611	612	611	619	615	613	613	607	599	603	607	609	615	610	620	620	625	622	623	623	626	612	607	607	605	605	603	603	602	608	607	606	608	608	609	616	610	608	602	600	613	615	614	614	609	608	610	610	607	610	608	619	620	617	625	629	626	612	619	620	616	616	622	627	629	625	615	616	616	626	627	629	626	625	626	621	623	622	609	609	612	606	611	621	618	622	619	615	616	617	614	614	614	614	613	616	617	617	612	613	614	617	617	616	614	612	609	613	611	609	605	608	611	614	614	612	613	607	605	606	608	610	610	609	611	611	608	605	604	602	603	612	619	621	618	614	612	609	610	612	622	626	621	614	607	603	608	622	627	627	623	620	619	616	601	607	618	620	616	610	606	596	595	596	610	612	608	606	602	602	599	599	607	614	614	611	610	613	617	622	613	611	608	602	602	602	601	602	602	605	612	604	600	600	600	599	602	613	614	612	607	601	599	598	598	599	599	589	593	595	598	599	600	587	585	588	595	595	600	597	596	593	0	0	0	0	0
636	644	639	648	649	642	638	638	640	636	643	643	655	647	642	633	630	630	648	628	636	632	632	632	640	647	648	641	641	629	629	630	628	629	629	635	642	650	656	660	661	661	649	647	638	641	641	641	643	643	647	650	652	650	651	652	648	648	649	647	648	649	652	644	639	641	640	640	639	635	630	628	628	630	637	642	650	649	643	640	640	640	635	636	642	644	645	646	642	637	631	628	627	625	630	634	637	635	632	635	635	637	636	635	630	631	627	628	623	620	625	626	623	616	612	611	619	626	628	631	630	629	632	630	628	624	620	624	635	640	630	622	625	629	632	629	629	632	625	622	626	630	635	637	642	640	637	630	625	613	602	612	619	623	628	626	621	627	629	626	628	630	629	625	624	631	640	641	639	626	626	627	628	625	623	619	619	621	630	646	636	640	644	616	619	618	617	617	612	612	612	616	622	621	620	620	612	608	609	615	618	618	613	608	609	610	610	609	611	611	609	606	598	609	618	618	620	608	604	599	598	598	601	609	600	609	610	616	624	622	610	599	604	617	616	613	613	613	612	608	604	609	611	613	614	614	612	620	607	605	607	610	612	607	604	602	607	611	613	617	618	619	615	611	612	613	612	604	620	620	606	609	606	605	608	604	599	594	592	598	603	612	617	616	615	613	606	606	608	608	611	608	610	618	603	600	600	592	604	603	602	603	604	605	616	622	612	608	608	605	609	614	616	617	616	615	617	619	620	619	614	612	603	598	590	592	595	600	600	599	597	598	599	600	606	599	599	598	601	603	609	609	609	608	607	604	597	591	603	608	608	607	603	603	605	607	611	609	608	610	609	607	605	605	604	597	596	596	601	600	603	605	605	603	601	598	590	605	603	604	604	603	603	603	605	610	609	609	604	602	600	599	598	597	598	601	595	599	601	601	597	596	593	591	594	594	595	596	597	602	612	616	613	608	605	604	612	609	608	604	598	598	599	603	604	604	611	612	616	607	607	605	606	607	610	607	611	609	605	605	604	600	600	606	604	604	603	600	598	602	603	599	601	609	608	609	609	608	608	605	606	605	605	605	607	614	609	600	596	607	612	615	615	615	613	615	619	621	612	600	603	600	606	615	617	611	609	607	609	613	612	612	605	611	607	608	600	601	605	607	612	614	617	611	606	607	608	607	609	612	614	604	598	603	607	611	612	608	605	603	603	604	608	610	608	609	610	611	608	601	597	602	606	608	606	604	603	606	606	605	590	598	600	603	611	615	614	611	610	609	606	608	613	617	618	616	606	600	598	595	601	605	602	606	602	614	601	597	604	612	613	605	606	589	588	590	590	594	599	604	607	605	605	602	595	600	601	601	613	615	616	614	616	612	607	599	598	599	605	605	603	603	603	604	593	593	598	596	594	599	609	611	613	608	600	594	588	589	589	596	586	585	591	596	602	593	584	574	571	588	597	595	592	590	573	0	0	0	0	0
638	639	639	653	643	637	630	630	628	632	646	646	646	638	633	633	617	617	619	632	629	626	626	630	641	645	639	633	633	625	626	626	626	628	632	632	638	644	652	657	654	654	646	642	638	638	642	643	647	647	636	635	637	640	645	645	644	642	642	638	637	649	618	617	634	636	639	638	638	638	631	626	625	628	631	636	647	648	643	637	633	633	633	633	632	631	632	621	629	630	631	627	624	627	628	629	626	625	627	629	633	633	636	632	628	626	626	625	619	619	620	620	620	619	612	606	610	616	619	626	630	628	626	626	628	622	614	613	617	620	613	612	615	619	621	623	616	617	617	617	623	629	630	631	633	629	624	622	616	601	603	610	613	612	620	619	620	629	631	632	627	618	617	618	619	617	616	618	624	626	626	623	624	627	624	612	611	608	609	614	615	614	613	612	604	608	614	614	614	608	602	602	611	614	613	612	609	613	615	613	611	598	606	611	614	613	605	599	603	607	606	591	607	607	615	613	603	599	597	596	598	594	590	597	601	604	608	610	614	604	605	605	606	606	609	609	610	611	609	604	601	605	608	611	612	611	601	603	603	602	590	603	598	597	600	602	600	597	609	611	614	604	604	611	610	612	603	595	597	601	604	604	600	598	598	598	593	590	589	590	599	606	601	601	603	604	602	602	603	604	602	590	599	602	598	597	598	593	598	599	599	602	601	607	601	599	613	605	603	602	602	605	609	601	598	597	612	604	603	607	607	600	598	595	590	595	600	604	601	594	592	592	594	596	596	594	592	592	584	594	598	598	603	604	603	597	592	588	590	600	604	602	605	597	601	605	604	601	599	594	597	597	595	592	593	596	599	599	596	595	599	603	598	599	598	598	597	590	595	598	599	600	600	601	596	601	595	597	597	600	599	595	592	592	590	592	595	593	595	593	589	591	594	589	589	593	594	596	599	602	607	614	610	605	592	595	598	602	598	593	594	596	599	602	603	600	591	588	595	600	601	604	605	606	604	615	615	612	609	603	603	601	601	600	604	603	600	597	595	598	599	596	597	596	602	603	596	590	597	600	599	602	601	605	604	602	589	581	578	588	599	614	610	608	604	599	598	593	595	599	599	599	594	594	604	602	601	594	591	591	595	600	602	611	613	609	598	597	595	600	602	612	610	605	605	606	608	606	604	599	601	608	595	598	602	601	593	591	591	596	599	605	612	611	609	607	605	602	597	593	596	601	602	602	605	603	600	596	596	593	592	591	588	590	602	605	606	606	605	604	603	592	600	606	609	604	600	595	593	593	593	593	599	600	604	598	595	595	593	592	602	594	587	590	591	591	589	586	584	586	591	591	595	605	601	600	596	597	595	596	598	598	598	611	600	596	596	606	604	604	604	598	597	595	595	591	589	582	583	587	602	610	608	603	600	594	587	586	586	586	583	581	589	593	597	589	579	571	571	571	580	594	588	583	575	0	0	0	0	0
638	645	653	643	629	632	632	632	630	637	641	645	645	644	641	639	619	619	621	626	629	628	633	633	636	639	637	632	625	625	625	624	625	626	631	631	635	639	637	638	639	640	640	639	635	634	637	641	642	644	644	644	637	630	625	625	625	629	629	631	627	623	617	614	621	628	634	638	635	635	621	622	627	633	638	629	627	629	631	632	632	622	622	620	617	615	612	610	614	622	622	627	630	629	627	625	623	623	624	623	625	630	630	626	625	624	623	615	616	619	616	614	614	615	618	606	607	613	616	623	620	616	611	611	614	614	609	611	614	612	609	607	612	615	618	610	605	604	599	601	607	625	620	613	605	610	612	609	597	599	603	610	614	613	612	619	625	628	630	627	622	615	611	612	611	611	613	613	618	623	622	612	604	610	614	611	611	611	612	606	608	604	603	602	602	604	607	606	603	600	600	605	610	612	603	595	591	596	600	601	596	584	599	604	610	613	604	595	594	590	591	597	602	602	607	602	601	597	599	598	591	586	593	599	603	603	602	604	605	601	609	611	608	606	608	608	608	606	607	602	601	604	607	609	606	607	603	605	597	591	586	585	594	599	601	600	596	592	592	602	600	597	599	597	593	591	589	592	593	595	597	599	593	593	596	593	591	584	584	589	591	597	598	600	596	594	594	596	591	594	592	595	597	598	598	597	596	594	594	593	594	597	600	602	600	597	584	583	593	596	598	599	596	593	593	589	587	585	589	598	600	598	594	593	591	595	597	598	596	594	591	590	591	592	591	593	588	592	586	583	582	584	586	588	597	598	594	591	597	598	598	598	584	588	596	601	600	597	594	595	597	596	595	592	594	596	599	598	595	597	597	598	597	597	598	598	597	591	593	594	593	590	589	589	589	586	586	589	585	596	596	593	590	589	590	593	593	593	592	592	594	596	586	586	585	582	589	596	599	602	603	611	606	588	587	592	596	599	595	592	590	595	597	595	589	591	586	584	587	592	597	597	599	602	613	617	618	614	597	591	595	601	601	597	591	591	595	596	598	595	595	592	588	587	593	601	587	584	586	598	593	595	596	601	599	597	582	579	582	589	596	605	605	605	606	600	598	594	597	596	591	584	573	573	576	587	590	586	591	586	587	590	602	607	608	604	596	592	595	598	593	591	592	596	601	604	602	591	587	595	596	590	596	601	607	606	601	595	592	597	598	600	609	614	609	603	597	594	589	587	593	602	600	594	591	589	595	595	595	592	590	589	585	581	586	585	602	602	600	592	587	595	593	592	592	591	591	590	589	590	591	590	592	595	598	595	595	591	588	587	589	584	583	577	576	577	576	572	573	577	577	580	583	592	590	590	590	587	582	588	597	597	591	586	588	590	590	586	582	581	583	589	592	592	591	589	580	580	579	580	596	601	603	602	600	587	581	581	577	577	577	580	583	588	593	591	583	576	576	576	586	588	586	581	577	0	0	0	0	0
640	649	643	643	629	634	634	634	634	634	642	649	647	647	632	615	619	622	622	629	631	628	629	629	631	632	631	631	628	628	628	625	624	626	630	630	633	629	630	632	637	636	636	633	630	627	625	622	629	634	634	637	637	622	621	619	617	619	621	621	625	620	620	616	609	611	615	618	616	616	614	616	617	622	625	616	614	614	613	613	610	597	597	606	603	607	607	604	604	607	615	617	631	627	624	622	618	619	616	613	617	621	622	622	622	620	616	614	612	612	612	610	612	614	614	608	600	607	611	618	613	601	604	606	609	609	609	611	609	608	602	608	610	610	610	606	603	603	604	604	606	608	609	608	606	607	606	604	598	600	602	606	611	612	612	612	620	621	624	622	616	610	606	599	598	596	597	604	606	602	602	602	601	601	602	606	608	611	602	601	600	603	600	598	600	600	601	601	602	598	597	598	604	602	591	586	589	588	590	594	599	589	599	599	605	612	606	594	593	590	588	591	597	602	605	602	597	595	595	589	581	583	589	597	599	601	596	596	594	592	602	604	602	600	609	603	602	598	600	601	603	603	604	605	605	604	593	590	592	592	587	581	583	598	603	598	589	587	590	597	598	604	603	603	594	587	588	592	586	597	597	593	591	576	591	591	588	583	582	585	590	593	597	596	590	590	591	591	590	595	593	599	600	602	601	596	595	594	591	586	592	594	596	592	589	584	576	575	588	588	585	585	585	578	573	570	570	579	593	594	595	591	587	587	590	594	598	597	595	593	591	588	592	590	587	589	589	584	585	586	581	583	581	580	585	596	602	601	603	590	590	592	591	591	591	605	598	595	579	581	582	593	592	591	593	595	595	591	581	587	586	585	588	592	595	591	590	590	583	585	585	586	586	585	589	585	584	585	584	591	590	589	584	585	588	590	593	596	597	599	597	595	585	585	582	580	585	591	597	597	600	596	589	584	583	589	587	585	588	590	587	585	583	581	583	585	580	580	583	587	590	589	594	597	602	614	616	597	589	592	594	601	603	596	593	597	597	596	595	598	590	588	588	586	595	596	598	590	598	588	588	585	588	592	593	589	579	578	580	584	592	591	593	596	602	601	605	589	576	577	579	583	584	579	570	580	587	587	586	583	578	585	591	590	590	585	584	588	594	593	587	588	586	588	592	595	587	583	581	580	586	585	588	592	592	605	600	596	595	590	585	582	584	591	588	583	576	572	570	582	594	595	592	590	590	595	598	598	594	591	590	586	586	576	575	576	574	579	595	598	599	593	588	587	585	584	585	585	589	591	588	587	587	587	589	589	588	581	580	580	579	579	575	573	574	572	570	569	568	568	569	573	576	580	587	584	586	590	579	582	582	581	580	582	589	590	585	565	577	576	579	581	587	587	590	576	577	584	577	576	582	584	578	595	582	577	580	580	578	577	576	579	580	585	588	588	584	584	581	576	580	578	581	579	579	0	0	0	0	0
629	631	623	623	624	628	631	624	624	626	624	630	625	625	617	618	616	618	618	620	624	626	620	622	622	616	614	620	630	628	628	624	624	623	627	626	626	626	627	626	626	633	631	631	628	621	615	610	612	612	614	614	615	609	611	617	617	615	619	619	622	623	617	616	608	602	595	600	602	606	606	609	608	608	610	614	614	612	611	607	602	594	597	597	596	600	603	600	595	601	601	607	624	617	611	601	599	602	609	610	614	619	621	618	618	615	613	607	606	605	606	609	610	615	614	608	602	606	612	612	606	596	598	600	605	606	606	604	606	602	599	609	608	604	603	597	595	600	602	599	597	600	604	598	609	609	607	603	596	599	600	604	604	607	608	609	602	609	609	609	604	597	592	593	592	580	576	583	600	599	598	595	589	594	601	600	597	595	595	596	597	596	596	596	591	591	588	586	595	591	577	592	594	593	589	588	581	594	599	600	600	595	590	590	592	597	601	599	593	584	584	585	568	581	587	601	595	593	589	580	578	579	585	589	594	593	589	587	585	588	593	597	595	594	594	598	596	596	599	604	606	603	598	596	592	590	580	584	591	591	587	578	577	584	587	581	581	585	587	588	587	585	584	580	597	594	591	587	594	595	598	591	581	576	583	587	587	587	583	587	585	584	587	589	587	586	589	595	595	593	598	598	595	594	592	591	592	592	590	584	585	592	592	591	589	580	577	573	575	584	582	582	578	577	575	574	570	575	586	592	593	584	582	585	586	588	597	596	595	594	592	590	588	585	585	581	581	582	579	581	580	583	578	582	586	587	590	591	591	580	585	586	593	596	594	606	595	579	581	583	591	590	588	587	583	589	587	581	578	576	570	568	569	575	586	585	580	581	581	583	580	581	568	577	579	579	581	582	584	585	585	587	585	586	587	588	592	593	600	596	595	592	584	583	581	580	582	586	589	593	595	591	584	574	574	576	576	577	586	586	582	580	578	574	576	577	574	577	581	584	586	585	585	593	587	586	588	586	589	592	595	599	601	595	595	597	598	596	594	590	596	590	588	583	591	593	592	585	583	580	580	580	586	587	585	584	578	577	578	580	587	584	587	580	578	573	567	569	570	571	576	579	582	578	575	584	586	589	586	584	578	577	579	583	582	585	589	594	577	593	591	584	583	583	581	580	583	582	582	576	575	578	578	570	571	589	591	593	597	599	590	578	577	576	582	582	578	576	573	573	573	583	584	581	584	580	595	602	601	595	587	581	580	573	569	570	573	576	576	577	583	581	583	581	580	580	582	582	586	587	584	583	580	582	582	584	584	581	577	575	576	569	564	572	569	567	569	569	567	566	566	568	569	571	579	578	576	583	582	579	576	576	578	580	590	591	583	583	573	573	576	578	578	582	580	575	572	575	582	570	577	583	576	576	572	575	575	578	577	576	574	575	580	580	574	584	582	582	573	574	569	569	566	556	563	0	0	0	0	0
613	614	619	624	624	618	613	612	612	611	609	611	615	615	612	613	611	604	612	612	616	620	618	617	617	616	615	622	629	626	626	616	615	617	621	622	622	624	624	621	620	622	622	622	625	621	609	603	597	599	604	604	603	598	597	600	606	611	621	621	621	620	615	615	604	604	605	603	603	602	602	602	604	607	604	602	594	594	596	599	598	597	594	590	590	589	598	602	597	587	588	605	621	616	610	602	590	594	599	594	614	618	618	611	612	612	605	599	597	595	601	603	608	612	608	603	601	603	609	608	601	592	589	595	600	602	602	602	601	592	597	605	600	596	594	592	593	592	589	590	580	580	584	598	602	598	603	599	593	580	581	589	591	597	597	601	597	598	595	584	584	582	578	579	574	575	574	584	591	596	596	594	591	587	587	590	587	590	592	592	593	595	595	598	577	586	585	585	586	586	582	577	579	582	575	583	589	595	596	597	596	590	587	582	585	591	583	588	592	581	580	570	571	580	585	588	589	584	581	582	583	582	581	581	580	584	585	585	585	588	589	589	584	579	576	580	578	579	593	599	603	591	584	580	581	578	572	586	590	588	583	578	577	579	576	578	581	585	586	590	586	584	582	579	577	578	581	578	574	560	580	582	581	582	581	585	585	584	584	585	579	584	582	578	582	582	584	590	589	586	585	586	577	579	578	582	588	592	586	584	583	591	592	590	586	577	575	569	575	579	579	579	577	574	573	573	571	572	578	587	585	578	578	581	571	573	583	593	592	594	591	590	580	578	577	575	577	576	574	576	575	577	578	583	580	583	586	585	581	579	576	574	585	598	592	601	580	577	579	582	590	587	587	586	581	583	582	569	572	568	569	564	567	573	580	585	577	577	575	575	575	575	570	574	578	581	576	579	581	577	581	584	581	583	584	583	586	589	599	588	590	590	584	580	574	575	580	583	580	579	587	583	576	570	569	568	572	574	583	583	577	577	575	576	576	578	576	576	578	582	584	573	570	568	564	567	580	583	590	592	594	596	596	594	593	596	595	592	584	582	583	591	581	577	580	587	583	580	578	578	577	580	580	584	581	580	578	578	578	567	572	574	578	577	576	571	566	566	567	569	572	570	575	576	575	570	585	590	588	577	575	576	578	572	582	588	584	577	575	571	588	580	582	583	580	582	582	583	581	578	576	575	572	569	569	572	573	573	571	573	572	572	570	576	580	579	577	573	568	568	567	575	576	578	579	579	570	588	582	577	576	577	575	567	566	568	571	573	573	570	567	565	576	575	575	571	579	581	584	585	581	578	566	569	575	585	583	579	573	574	574	564	560	559	563	564	564	566	565	566	566	566	566	566	574	573	574	575	573	575	577	573	574	577	580	584	584	571	570	573	575	575	576	575	575	566	566	568	568	566	565	574	569	568	564	564	565	569	570	574	574	575	572	559	567	566	566	574	573	570	567	565	562	559	569	569	0	0	0	0
605	608	612	616	616	618	603	597	599	599	606	613	613	609	609	605	603	604	604	604	611	615	615	615	617	617	609	612	619	617	617	612	608	610	614	612	613	613	615	616	615	616	622	621	621	616	600	596	596	598	600	600	600	596	594	599	603	601	601	598	598	598	593	597	601	603	604	603	601	594	590	590	592	593	587	586	586	589	587	593	599	595	592	590	590	589	586	584	579	578	592	579	596	594	605	599	587	588	593	589	592	600	599	604	610	592	592	588	587	584	584	584	589	602	603	600	598	597	595	594	592	591	589	590	593	597	599	600	588	589	591	597	593	590	585	579	579	579	580	580	580	582	583	594	595	593	584	594	572	572	564	571	588	592	589	589	591	594	590	587	581	578	576	577	573	571	571	584	587	592	594	592	589	586	587	587	587	585	588	586	587	592	597	583	575	581	576	577	580	579	576	575	573	572	572	574	578	577	578	576	577	586	587	583	582	590	584	583	580	588	581	574	575	579	588	595	593	580	578	580	581	581	581	579	576	574	576	586	582	582	576	575	582	578	574	572	571	573	575	589	589	584	579	579	581	572	570	575	579	575	573	575	573	571	574	576	577	577	583	585	585	582	577	574	574	575	579	578	575	566	569	578	581	584	583	583	577	577	579	584	584	578	575	576	578	576	576	585	586	586	586	587	587	587	578	581	585	586	588	584	579	585	588	581	575	573	573	573	576	581	579	578	574	571	575	574	569	568	567	571	571	563	556	565	564	566	571	580	583	586	590	573	573	574	574	568	569	571	568	568	574	573	575	572	571	576	578	575	576	577	573	571	573	581	586	589	577	576	577	584	571	573	575	577	570	573	566	568	566	564	562	556	557	578	578	580	575	573	571	569	569	569	562	568	572	578	571	570	565	565	572	576	582	581	580	580	584	590	595	575	577	582	577	576	577	576	583	582	578	581	580	583	569	568	564	565	566	573	578	579	575	576	576	579	581	584	585	576	577	584	580	568	566	566	566	570	572	574	574	574	573	580	591	592	592	587	589	586	582	578	578	569	573	573	576	576	577	578	577	575	573	577	578	577	568	563	568	569	566	566	571	574	576	570	569	568	565	564	564	567	566	567	572	573	571	569	572	575	574	574	564	566	562	572	574	578	575	574	568	568	567	577	579	581	575	577	581	582	578	577	575	573	572	568	569	570	573	572	571	571	567	566	567	570	575	577	575	570	565	567	566	569	573	573	570	568	563	565	561	572	566	567	571	559	560	566	568	570	569	563	562	561	557	567	571	569	570	577	581	580	578	567	568	570	571	571	570	576	571	573	570	563	555	557	557	557	562	560	561	565	568	563	563	565	565	570	571	571	570	571	574	571	569	572	574	571	581	567	567	568	568	571	570	566	564	564	564	565	568	567	571	571	569	568	569	569	570	567	560	568	569	562	560	557	557	562	562	567	568	566	567	570	571	572	574	574	0	0	0	0
605	605	606	607	601	601	601	586	594	594	601	607	609	605	605	601	598	599	603	603	608	611	608	611	610	610	603	604	609	613	612	612	598	604	610	610	612	612	611	606	606	603	603	609	609	609	590	594	595	596	597	595	595	592	593	598	602	596	599	594	590	590	588	592	597	599	600	600	588	580	580	593	593	591	589	589	589	590	589	588	589	591	594	595	593	593	592	579	573	571	572	576	589	589	590	585	581	589	593	594	595	593	592	589	592	582	584	584	582	569	578	579	581	579	580	580	578	587	586	586	582	585	585	587	590	591	594	588	587	587	585	586	583	580	579	575	575	573	579	580	581	582	584	588	586	584	579	581	569	567	573	575	584	582	585	582	583	587	589	584	580	572	573	576	576	574	569	580	588	591	588	589	586	577	587	588	584	580	575	573	573	577	580	579	568	570	575	574	576	573	572	573	574	573	575	573	575	573	573	569	574	577	580	578	568	568	567	555	554	577	583	575	574	579	595	586	585	586	570	576	583	579	579	573	568	567	569	564	563	564	568	574	578	578	576	571	568	573	577	579	585	582	576	580	577	575	566	571	573	571	569	567	567	571	570	571	567	563	566	579	578	577	576	577	576	575	572	569	564	561	570	575	581	582	589	569	565	564	577	578	581	577	576	577	576	573	573	574	581	582	584	584	583	585	586	585	581	581	577	584	573	562	576	571	572	562	565	568	572	570	562	563	566	568	571	567	562	557	559	574	575	563	564	564	564	578	570	574	577	578	572	569	570	560	561	564	567	567	567	567	569	568	577	567	566	568	570	570	571	574	573	571	568	568	573	574	574	572	572	566	565	569	570	571	565	565	561	567	563	559	557	557	566	568	572	568	562	562	565	566	565	564	562	564	572	566	564	563	559	562	564	571	570	578	577	577	576	576	569	556	548	556	558	563	563	562	564	561	569	574	572	564	570	560	563	561	567	569	573	574	569	567	566	568	583	582	582	582	585	583	564	565	562	563	563	566	566	563	562	563	568	566	562	563	566	562	566	564	567	564	569	560	561	565	566	561	556	558	573	578	561	563	573	570	568	561	558	559	560	565	582	579	568	558	559	562	562	556	554	564	564	565	564	567	568	570	569	567	571	571	558	555	556	558	566	566	571	565	565	562	558	562	571	573	573	573	574	573	571	573	566	568	566	565	567	569	570	571	570	561	561	561	562	563	568	575	574	555	552	561	563	567	571	571	566	563	554	558	559	550	549	557	556	556	559	561	565	565	557	557	561	564	559	555	559	568	568	572	576	563	577	564	564	565	567	567	564	566	569	569	569	563	563	556	555	556	559	557	560	563	561	562	560	563	563	563	563	566	568	574	574	568	572	572	571	570	561	563	566	568	568	569	568	565	559	552	552	552	550	548	566	567	568	570	570	571	564	560	555	555	558	559	551	551	554	554	558	562	566	563	569	567	570	571	571	572	0	0	0	0
605	600	598	594	602	602	601	586	587	594	594	603	605	602	596	596	595	595	603	598	598	600	607	598	596	596	589	589	596	599	595	595	594	600	605	608	608	607	607	604	599	598	600	605	594	594	590	592	595	595	594	591	586	586	587	593	598	595	591	587	583	588	588	582	584	589	595	593	583	577	574	581	581	590	589	590	593	591	591	588	585	597	595	594	592	588	588	579	573	571	572	573	581	583	582	585	587	587	588	594	594	590	585	582	580	578	581	576	576	560	560	569	574	574	575	575	577	579	582	585	586	578	578	582	582	584	586	585	583	581	578	574	572	574	576	572	566	574	580	579	578	580	583	589	584	583	578	571	568	570	570	577	578	577	575	575	578	575	575	570	566	565	570	577	578	576	577	583	587	579	578	577	575	571	574	582	583	583	575	578	580	582	581	574	568	571	577	581	576	571	568	576	576	576	575	572	570	569	570	570	570	572	575	572	569	565	560	553	551	554	558	563	565	565	582	578	580	579	571	568	571	570	568	566	569	573	569	559	561	563	568	567	572	570	566	561	565	573	575	576	575	577	569	563	565	565	564	566	565	564	562	558	564	562	563	557	561	560	561	562	568	571	573	577	575	569	571	567	563	562	560	557	563	582	574	562	563	562	549	559	564	574	566	574	570	569	570	571	571	570	571	577	578	581	583	582	578	575	571	568	562	566	569	563	560	560	562	560	555	557	561	566	566	568	559	557	556	554	557	561	562	561	562	566	565	564	559	557	571	573	579	570	564	556	556	558	557	556	559	568	570	571	563	566	565	568	567	566	567	571	571	568	564	562	565	569	569	568	567	555	557	559	563	567	568	567	565	557	555	554	555	557	564	564	562	560	560	562	566	568	569	562	562	566	572	565	565	558	558	556	555	563	568	570	563	565	562	560	557	552	546	546	550	556	554	555	556	558	569	567	558	557	558	550	555	560	567	568	569	572	571	563	554	551	551	551	558	561	563	559	561	561	561	561	563	567	563	559	560	562	567	564	559	557	559	562	563	563	561	564	566	565	559	559	558	560	561	557	554	553	559	560	564	571	564	557	555	556	554	556	564	555	554	556	556	559	562	560	557	553	554	556	560	561	559	567	559	563	570	570	564	557	556	561	557	557	561	559	555	555	554	562	564	568	567	566	561	562	564	559	557	559	557	559	561	562	559	563	562	559	560	560	560	561	564	574	574	552	548	541	539	544	560	565	560	556	554	554	553	555	542	541	543	555	558	559	559	557	556	553	558	562	566	560	559	557	566	571	577	559	560	560	562	563	562	560	560	560	567	566	566	566	555	553	554	555	557	556	557	558	562	560	558	558	557	557	555	558	570	573	569	567	564	563	563	564	559	565	562	562	563	567	567	561	553	548	548	542	541	541	547	548	559	559	560	561	557	551	547	546	546	546	549	548	548	549	553	557	563	565	562	562	556	562	562	568	0	0	0	0
599	599	593	597	602	602	599	589	588	588	588	589	597	594	594	594	595	597	601	584	584	583	584	590	591	589	589	589	591	592	593	594	594	596	602	602	601	603	603	598	600	595	589	583	584	584	587	587	590	588	587	590	586	586	586	591	589	595	592	586	584	582	582	579	578	582	588	574	573	569	569	573	577	577	582	584	585	586	592	594	596	594	592	589	586	584	581	581	576	568	568	576	576	583	587	590	586	582	585	592	591	584	582	580	572	575	577	574	561	560	560	560	570	569	569	572	574	579	581	586	585	581	572	572	573	581	582	581	579	577	574	567	568	569	566	559	562	566	569	571	570	573	566	577	577	575	566	556	551	552	560	580	566	569	570	570	572	573	565	563	565	567	575	582	582	578	571	567	568	568	571	572	568	563	566	569	570	570	579	573	575	579	576	579	567	568	577	585	575	570	568	566	562	571	570	568	566	570	562	563	564	562	569	568	566	561	555	554	550	554	559	562	549	549	550	559	559	561	559	563	560	557	558	558	559	565	567	567	561	563	565	566	564	566	563	557	563	568	568	568	566	562	561	562	564	565	562	564	563	559	556	556	559	562	558	558	556	558	560	563	565	565	566	565	563	557	565	568	563	564	559	559	563	566	569	557	556	549	554	560	566	567	564	562	558	558	559	552	549	565	565	569	570	573	578	580	577	571	567	561	545	546	560	560	552	553	558	559	555	555	555	560	565	563	557	556	555	555	559	561	561	557	556	562	565	554	549	547	560	566	572	567	561	562	564	565	556	567	570	564	569	568	568	567	568	568	571	562	565	564	562	562	558	558	560	564	565	566	563	555	551	551	555	561	563	568	557	555	555	555	556	560	557	559	559	557	554	557	566	567	566	564	558	569	569	564	564	559	555	553	556	559	569	554	557	557	558	557	555	551	540	539	543	544	555	554	561	564	567	563	551	551	550	551	554	558	561	565	567	567	562	557	552	549	547	551	557	559	558	555	561	561	560	555	558	566	565	562	561	561	561	563	555	554	554	556	561	553	551	560	558	561	543	541	550	561	561	555	557	557	562	562	562	566	560	551	549	551	551	553	554	554	553	554	556	559	561	562	554	557	562	562	561	554	549	546	548	553	563	566	564	562	555	551	552	558	558	552	550	548	548	557	562	567	563	562	564	563	556	547	551	547	552	553	553	555	556	557	564	564	562	559	560	561	557	560	559	553	547	539	534	542	557	560	559	553	551	547	543	540	534	534	543	550	557	562	555	555	552	550	553	555	561	556	563	557	552	549	550	554	556	551	551	559	560	560	559	559	559	562	561	552	551	551	551	553	556	552	554	553	555	554	548	549	548	548	549	554	563	564	565	564	564	560	552	554	562	560	560	559	556	555	561	560	550	543	539	542	541	541	548	546	553	553	556	553	551	548	546	541	543	545	547	546	546	548	553	552	557	559	559	549	551	551	555	559	0	0	0	0
597	597	594	602	602	597	597	589	590	586	586	581	585	588	592	592	595	597	597	584	583	583	586	590	591	593	593	594	590	587	589	587	587	591	592	594	595	595	587	587	585	581	580	578	578	582	582	575	575	574	576	578	578	581	581	588	591	590	586	577	575	580	579	577	576	573	572	580	580	574	575	577	576	578	578	581	583	583	585	587	586	580	585	581	578	577	572	572	567	562	565	576	579	584	586	585	584	580	586	580	582	578	577	575	570	573	571	566	560	559	557	557	560	566	568	569	575	568	568	570	578	578	567	569	566	565	566	575	573	568	564	561	560	563	563	562	564	566	563	561	552	548	550	556	557	557	557	554	547	540	545	555	561	562	552	561	571	563	559	559	561	570	572	574	561	558	558	557	558	555	556	557	553	556	569	567	566	567	573	571	574	574	573	568	563	568	579	567	574	572	563	560	557	553	563	563	562	558	557	554	549	553	548	548	550	554	553	550	538	540	544	549	544	543	539	547	549	553	552	553	550	547	547	552	558	561	562	562	564	562	563	565	565	565	563	556	559	561	562	563	557	558	561	560	564	563	567	561	561	556	555	555	552	551	548	550	549	551	557	563	564	563	563	562	561	556	559	561	562	556	563	562	562	562	561	558	550	555	557	559	559	555	556	557	556	555	551	557	553	551	549	551	553	556	562	568	578	568	561	546	550	553	558	556	554	556	556	558	558	557	556	557	560	561	561	555	555	556	557	559	556	557	556	557	562	546	548	548	557	558	562	560	557	558	559	557	556	551	565	569	568	568	566	561	558	553	556	552	559	563	561	555	554	556	556	561	559	558	557	555	552	553	554	557	559	563	556	555	555	556	556	558	559	559	555	551	549	553	555	563	559	550	549	562	564	565	567	555	549	548	554	564	555	557	555	555	555	552	550	548	535	536	538	539	545	552	561	564	563	550	548	548	546	549	553	557	557	559	565	561	556	555	552	551	546	547	551	555	552	557	556	556	559	559	564	565	567	564	560	560	561	560	555	551	551	548	548	547	540	539	547	543	540	539	545	551	555	555	556	557	550	549	542	543	544	550	548	548	551	556	558	555	554	554	558	563	564	562	553	562	563	563	558	552	547	542	544	555	562	562	554	554	552	551	553	551	554	552	550	547	550	551	561	564	567	571	571	564	548	544	546	551	551	550	550	552	556	566	567	566	566	565	563	553	550	549	554	552	545	542	538	536	545	558	556	552	549	541	546	545	541	545	548	548	553	552	549	550	552	550	549	548	549	555	554	556	554	550	540	543	549	554	556	553	557	555	555	555	556	553	548	548	548	549	550	551	544	542	547	548	546	545	545	544	539	530	528	531	559	559	555	552	547	546	544	545	546	546	554	552	551	549	549	555	546	538	538	540	540	540	541	545	545	547	548	545	544	544	542	542	544	545	545	545	546	547	550	552	547	548	552	548	549	549	550	557	0	0	0	0
594	597	597	595	595	596	596	594	583	576	575	575	579	584	587	589	589	595	581	580	581	581	584	587	587	592	589	589	583	583	583	586	591	586	586	589	588	584	583	583	580	578	574	577	579	578	578	566	570	568	569	568	570	578	578	579	573	568	568	567	572	577	577	581	579	573	576	573	570	567	572	574	575	575	575	580	578	572	573	578	575	565	565	573	573	572	565	562	562	559	558	560	564	573	576	573	564	567	570	574	572	572	572	571	563	564	566	560	557	557	557	560	560	564	569	569	554	549	557	563	568	559	562	559	554	555	556	565	564	566	564	563	559	561	565	565	564	563	562	556	554	553	554	556	556	554	557	551	549	547	548	550	551	555	559	561	565	570	564	563	562	566	561	562	557	553	553	560	563	562	553	550	554	556	561	563	561	561	565	566	567	567	566	562	558	553	557	559	559	557	557	557	553	550	556	557	557	555	543	544	547	548	543	544	547	548	542	539	541	538	539	541	545	545	540	541	546	546	545	540	539	539	537	546	544	548	551	550	545	552	556	561	568	553	552	551	556	557	557	550	553	557	557	559	558	560	562	560	559	556	556	553	547	548	548	548	546	550	554	563	563	562	562	561	554	552	555	556	544	553	558	563	563	563	566	558	555	557	557	556	556	553	551	551	550	553	549	548	547	548	549	549	552	554	556	555	551	555	554	549	545	545	552	553	556	556	557	557	556	556	555	552	555	555	554	554	554	554	556	556	548	547	547	547	546	549	546	546	549	551	554	554	555	553	549	553	552	553	560	561	565	564	561	558	555	552	549	552	554	558	557	554	555	555	554	554	553	554	557	555	557	556	558	558	562	558	554	549	551	552	556	556	553	556	548	546	547	548	548	548	553	550	551	543	542	550	550	546	541	544	550	556	550	555	553	551	552	545	545	542	541	536	543	540	542	557	559	561	546	538	538	544	548	553	555	555	543	542	544	549	550	554	555	551	549	548	551	550	549	560	556	549	548	553	555	567	561	564	560	560	557	556	555	551	551	550	550	548	548	542	539	541	537	538	545	549	552	553	554	551	549	545	540	543	543	548	547	548	550	558	556	558	559	557	558	548	549	550	554	554	555	558	553	549	544	541	543	552	562	551	551	548	545	549	548	547	552	551	550	548	553	554	555	553	553	550	550	548	550	549	548	551	557	548	549	544	550	559	563	562	562	564	562	550	546	546	546	542	541	538	543	542	537	543	543	551	547	540	546	545	546	548	548	549	545	543	544	546	547	547	546	544	539	539	542	548	559	543	535	547	549	544	544	546	551	545	538	533	546	542	540	541	545	547	547	543	540	541	542	545	544	544	542	539	535	534	532	528	532	549	538	535	542	542	542	544	544	545	546	547	546	546	545	539	543	539	536	538	542	542	541	541	544	547	543	538	537	537	538	540	542	538	544	544	553	554	548	543	544	546	549	544	544	540	541	533	0	0	0	0
578	571	571	573	574	578	582	582	583	573	576	576	575	574	575	577	577	578	575	578	581	581	581	583	578	577	576	576	575	574	575	583	586	586	581	582	582	574	580	581	581	580	573	577	577	573	566	566	566	563	563	567	573	572	569	569	572	565	565	567	575	580	581	573	573	570	565	562	562	563	570	573	573	568	570	570	571	565	568	575	574	569	560	554	557	560	559	557	552	552	552	554	556	554	554	560	568	564	562	560	560	559	560	563	554	558	558	557	551	550	550	551	551	553	553	553	554	547	547	546	557	561	549	548	550	561	562	564	564	563	563	560	559	555	555	566	566	556	550	553	551	552	555	556	557	550	557	554	550	550	550	551	555	555	551	546	544	548	547	559	558	555	555	557	553	550	550	551	552	556	561	558	551	556	560	557	556	555	550	548	546	548	549	547	554	550	548	548	554	552	551	554	554	544	553	554	554	547	538	539	546	546	546	544	546	546	543	542	540	537	536	542	543	542	540	540	539	536	538	539	536	536	534	543	538	544	545	545	537	541	542	543	538	555	547	546	551	554	554	551	552	556	556	554	553	553	552	544	544	549	551	550	547	546	543	542	543	549	550	552	562	560	561	560	550	547	544	549	547	541	542	541	542	540	541	540	542	544	547	553	548	545	547	547	546	547	540	537	539	543	549	551	552	554	554	551	548	556	554	549	546	543	549	543	534	537	540	543	548	548	548	537	543	541	549	538	545	539	545	545	546	543	538	539	538	546	547	546	547	548	552	551	546	545	544	548	549	549	553	557	556	558	556	554	549	545	545	549	554	556	555	552	551	551	546	544	541	541	549	553	558	560	560	540	536	538	539	543	544	545	549	551	554	555	550	547	546	551	546	542	541	537	539	541	538	543	544	544	539	535	537	549	551	543	542	537	544	543	540	540	541	547	547	544	540	554	558	545	538	540	544	546	547	549	554	549	551	544	542	545	546	541	544	536	540	544	543	545	545	559	555	543	542	546	551	556	562	565	558	555	546	546	546	548	547	547	548	549	549	541	539	537	537	538	544	548	550	550	549	547	544	542	539	543	539	537	541	540	538	547	548	547	543	547	547	549	547	544	546	547	552	553	550	548	543	542	542	548	551	544	544	536	538	539	535	538	545	545	546	544	554	554	554	551	547	542	539	546	548	549	546	543	546	554	542	543	547	548	551	550	551	552	550	548	542	539	543	539	535	549	549	544	539	540	542	549	545	541	542	544	544	547	549	543	535	536	538	541	541	534	530	528	528	537	537	537	538	537	531	525	533	533	541	542	537	528	514	527	523	535	536	540	544	544	545	539	536	537	538	540	541	539	536	536	536	532	528	534	535	537	535	533	541	540	541	542	542	544	542	541	541	541	540	535	533	535	534	537	538	535	541	541	541	533	526	525	530	532	533	530	529	537	537	549	539	539	545	542	543	545	544	544	540	539	530	528	0	0	0	0
560	563	563	575	580	581	578	578	578	581	579	566	566	556	564	572	574	574	575	578	581	579	579	568	564	562	566	569	569	570	579	580	581	581	579	579	569	570	574	576	576	575	572	574	573	567	567	567	561	559	559	566	566	566	567	567	567	565	564	565	569	571	574	573	557	557	556	556	557	557	556	559	563	566	565	565	563	558	555	555	561	559	559	556	559	565	560	557	553	551	551	552	555	555	552	552	555	558	559	561	558	555	553	540	549	551	552	555	551	545	544	544	545	545	551	551	548	547	545	546	548	552	545	540	538	549	550	551	552	558	559	559	557	553	552	552	552	554	555	550	543	543	553	557	551	554	557	556	554	552	550	551	548	546	545	545	545	547	548	543	549	551	551	551	550	547	548	549	550	554	558	562	560	561	556	554	545	543	541	543	533	539	537	536	539	546	548	548	546	547	551	552	550	546	546	545	541	541	535	543	545	546	550	545	546	547	547	548	543	542	538	539	542	543	544	545	537	536	536	535	537	536	537	542	545	538	537	530	532	541	542	541	539	535	537	542	546	545	556	556	557	558	552	551	549	548	549	542	540	545	550	549	546	546	544	544	543	548	549	550	549	548	547	545	541	539	540	546	545	538	540	539	540	540	540	540	540	544	547	547	550	550	546	544	544	540	535	538	538	539	545	546	547	549	548	545	541	551	552	549	547	544	541	540	534	531	534	537	538	537	532	532	540	540	525	538	532	538	539	539	540	539	541	536	531	528	532	533	540	546	549	542	540	540	541	543	544	546	551	553	552	549	552	535	535	535	530	531	534	541	542	543	543	542	540	538	540	543	549	550	547	542	537	538	536	535	537	540	542	543	548	550	551	552	549	547	542	537	539	539	538	535	538	538	535	536	541	536	529	532	542	543	542	542	540	540	540	537	540	541	546	549	549	550	545	543	544	541	539	541	543	545	548	543	543	541	538	543	545	541	537	527	527	530	538	539	537	537	541	537	542	541	541	541	542	527	529	532	530	528	523	528	539	542	540	543	543	543	540	538	534	533	533	533	536	530	530	544	546	544	543	543	533	526	525	531	542	543	531	531	533	533	538	541	547	546	547	543	544	542	539	550	550	546	542	540	541	539	543	542	532	532	528	529	526	523	541	541	543	545	533	534	537	539	542	540	538	539	537	539	540	538	541	540	540	540	542	543	534	526	526	532	544	544	544	541	536	531	536	540	545	542	536	536	541	546	542	538	541	541	544	539	530	529	526	527	532	534	534	534	534	531	528	527	526	522	531	533	527	525	520	520	536	536	528	521	521	519	523	526	529	534	542	542	539	537	536	537	537	536	536	532	531	534	535	534	533	532	534	536	537	532	536	535	534	534	540	543	544	537	535	537	534	532	524	528	532	532	531	531	535	534	530	528	526	525	529	531	527	522	520	520	529	533	534	534	536	546	541	542	543	543	536	529	527	521	0	0	0	0
557	559	572	572	580	579	573	573	573	581	568	562	562	560	568	570	573	573	574	575	579	579	577	561	556	560	564	563	563	564	569	574	577	579	579	562	563	562	569	567	566	566	566	567	567	566	565	561	560	556	561	560	562	563	563	563	563	563	560	549	549	553	556	558	556	556	556	555	554	552	552	557	563	564	565	560	560	555	553	553	556	559	560	561	564	566	565	559	553	549	548	548	550	554	549	548	551	555	558	557	555	548	548	544	549	550	548	550	549	544	542	542	541	542	541	542	539	539	543	545	546	549	544	539	535	540	545	545	551	548	552	558	556	552	548	549	552	553	552	550	543	536	537	543	550	557	550	547	545	544	545	544	543	540	547	547	546	541	541	542	543	541	548	548	549	550	548	545	544	547	555	563	562	559	555	549	544	544	543	537	534	537	534	534	534	544	542	546	544	549	550	551	549	544	541	543	535	531	530	544	546	547	544	549	546	545	548	552	544	544	543	543	540	537	537	545	542	539	548	551	549	546	543	540	535	532	531	531	533	535	541	542	542	543	544	544	544	542	537	541	552	558	557	547	543	541	536	543	539	541	547	544	540	537	536	539	543	544	545	546	545	538	542	543	539	537	535	534	545	540	540	538	537	541	540	544	538	540	544	548	547	547	543	542	539	536	533	534	538	538	535	537	541	545	543	538	531	533	544	546	543	540	539	536	533	531	532	536	537	535	531	531	531	527	520	533	536	535	536	537	537	536	536	534	531	525	530	531	534	535	538	541	543	541	542	543	549	543	540	542	534	532	532	532	530	526	527	525	525	536	538	542	542	540	538	537	539	541	543	542	540	533	536	538	536	535	535	533	536	542	543	547	545	547	548	545	537	539	536	538	537	533	528	531	531	532	527	526	528	529	544	540	535	535	541	541	541	531	538	545	547	545	543	536	532	531	534	535	539	540	540	544	543	543	537	539	541	539	540	535	527	524	523	524	528	530	531	538	534	528	530	522	520	523	517	520	525	526	529	534	533	533	535	536	535	536	540	539	535	533	528	529	530	531	536	534	531	530	529	531	534	532	528	520	519	521	524	526	518	517	523	528	532	533	539	544	544	543	542	536	534	531	545	543	538	533	535	540	540	540	531	528	529	527	530	533	535	537	528	527	528	539	539	538	536	539	539	535	533	536	541	538	530	521	524	525	519	517	527	530	527	527	531	533	533	533	531	531	529	530	533	532	533	537	539	535	531	534	535	541	541	535	529	524	521	522	526	529	529	531	533	531	530	528	526	522	530	525	522	522	525	520	526	525	525	526	525	521	522	526	529	532	536	540	540	538	542	543	540	536	535	533	530	533	531	529	529	528	531	535	535	532	529	529	529	530	527	523	518	517	519	519	522	523	522	527	532	530	529	531	531	531	530	531	526	524	525	523	519	518	522	522	523	522	524	527	536	538	536	539	539	538	524	522	525	518	0	0	0	0
552	556	560	560	566	563	563	568	568	577	568	562	560	560	561	562	567	568	568	570	575	577	559	559	553	561	571	563	555	555	554	556	555	559	562	557	558	555	556	559	559	559	563	563	565	563	563	560	560	551	552	556	554	553	549	548	548	547	541	549	551	555	558	557	545	548	548	549	547	544	544	548	553	554	552	546	541	541	547	554	556	559	551	550	553	555	553	546	545	547	549	549	548	549	549	549	551	548	558	557	552	541	542	543	544	545	541	543	540	540	539	538	538	536	533	533	539	543	543	544	543	548	542	539	538	539	541	542	546	546	549	552	554	550	550	550	546	541	540	535	537	541	539	543	548	546	540	538	538	536	540	541	546	547	539	538	539	537	537	540	540	535	541	552	552	551	549	543	540	544	552	561	561	556	546	542	539	542	541	534	534	533	534	533	532	528	529	542	546	549	551	551	547	541	537	539	533	531	527	542	545	546	542	543	537	533	538	539	538	539	543	543	543	539	537	543	545	551	544	540	538	539	534	534	533	531	529	526	536	537	541	541	542	543	544	544	543	541	538	536	554	555	557	555	548	551	547	544	542	541	543	540	537	534	535	534	534	536	539	539	534	535	540	543	542	535	533	532	542	538	539	538	536	535	541	543	537	538	540	536	537	540	540	537	535	532	533	533	537	540	536	535	541	539	538	538	534	528	538	538	539	535	536	535	531	530	530	535	537	535	529	529	530	523	532	533	536	530	528	531	535	538	539	534	528	527	527	526	526	535	534	537	541	534	547	548	542	531	531	530	533	532	532	531	528	526	525	522	521	522	535	538	537	533	533	534	537	538	539	531	527	530	536	538	536	535	536	533	534	537	537	543	543	544	545	543	539	543	539	536	535	531	522	522	526	528	524	525	529	530	530	532	528	529	537	538	540	533	530	529	538	539	537	532	530	526	527	533	533	537	535	538	539	534	535	533	535	536	532	531	530	524	523	520	523	526	532	530	516	523	527	524	523	523	522	524	524	526	529	535	533	537	534	530	530	532	534	534	530	528	527	525	528	529	529	532	528	528	528	527	528	533	532	529	525	521	524	526	517	516	512	525	527	535	539	539	542	543	540	536	528	530	531	531	528	528	521	530	538	536	526	533	533	531	529	529	529	526	528	527	527	524	536	535	533	529	531	527	525	528	531	526	525	526	521	518	522	527	530	527	526	523	525	525	526	530	528	527	526	526	526	529	527	529	527	528	520	526	528	527	535	527	515	514	517	522	524	526	534	534	528	523	522	526	528	527	527	524	521	521	524	524	531	531	531	528	524	522	523	529	530	529	525	525	529	534	536	534	533	534	533	532	531	530	529	526	526	527	527	530	529	523	524	524	525	530	525	521	519	518	516	517	517	519	522	525	525	524	525	529	527	524	524	524	522	520	518	517	516	516	516	517	518	518	518	518	527	522	521	520	520	524	518	514	512	514	0	0	0	0
554	552	561	563	563	564	561	564	564	567	566	558	554	554	557	560	562	563	563	568	571	570	559	549	547	554	558	562	561	561	559	556	554	555	557	549	550	552	552	552	554	556	556	561	561	559	553	551	551	548	548	551	553	551	547	545	546	546	546	548	548	547	548	547	542	545	545	544	529	529	537	537	538	539	544	543	538	540	540	542	549	551	548	550	552	551	547	544	544	543	547	546	546	544	541	541	547	543	551	541	541	539	540	533	539	538	533	535	532	533	525	528	534	531	532	534	537	538	537	536	536	536	539	536	536	539	542	545	543	547	550	551	551	546	546	544	539	534	532	530	534	537	536	535	542	531	533	533	535	535	539	541	546	546	536	531	530	535	537	536	531	533	538	554	552	553	549	541	537	539	550	548	544	538	536	537	538	539	537	533	533	533	533	532	532	529	529	529	537	545	549	549	541	533	529	530	531	529	528	532	541	541	542	535	528	531	536	538	534	532	533	535	534	534	535	539	541	545	545	536	534	535	537	536	533	529	527	525	528	532	534	537	541	542	542	541	540	539	539	538	550	551	546	541	547	545	543	540	539	530	529	529	533	535	538	542	538	536	536	535	531	536	536	536	533	529	531	537	533	532	528	526	525	539	542	534	530	526	527	531	534	536	535	533	531	533	534	534	534	535	534	533	531	533	532	533	528	529	544	542	540	534	535	526	533	537	534	531	530	529	528	530	527	524	524	528	533	534	528	529	528	536	537	535	522	525	527	526	525	524	529	530	523	532	526	529	540	537	531	531	532	531	532	531	532	526	524	520	519	520	520	517	518	530	531	532	532	533	531	532	522	522	534	534	529	528	526	532	535	535	541	535	539	541	542	540	543	540	538	534	530	524	521	521	522	522	532	533	528	526	522	526	527	523	528	534	536	533	528	529	522	527	531	535	526	523	526	526	527	527	531	533	532	532	532	531	528	527	526	526	532	529	520	520	523	528	516	522	522	524	524	521	520	521	521	524	524	526	532	533	532	526	530	527	528	528	530	525	527	529	527	525	527	522	524	524	520	527	525	524	524	528	533	532	531	523	525	522	517	517	516	520	523	527	534	539	542	543	542	537	533	528	528	526	526	517	527	528	538	527	529	533	533	529	524	520	522	525	528	527	521	526	534	528	527	527	527	527	526	526	530	528	529	528	521	519	522	526	527	525	520	520	519	520	521	526	524	523	521	519	519	524	525	522	520	517	519	520	519	523	520	516	514	517	522	525	524	529	533	534	533	527	525	527	527	526	525	526	523	520	520	521	516	525	527	526	524	521	519	529	524	524	524	523	524	526	527	526	528	514	513	525	527	527	525	524	525	526	524	526	525	520	520	522	526	530	521	517	514	514	513	515	517	522	521	524	524	519	519	525	519	525	520	522	521	519	518	515	512	513	513	514	516	515	517	502	516	511	512	512	515	514	514	512	506	515	0	0	0	0
554	548	553	558	558	560	561	559	562	562	563	558	553	553	553	555	559	561	561	563	562	563	549	538	538	541	545	554	554	554	554	553	551	550	549	550	542	536	543	544	540	543	543	545	544	544	547	544	548	548	547	544	545	547	546	543	538	540	540	547	545	542	543	541	542	539	532	532	529	530	531	533	533	535	537	534	536	536	536	541	546	549	537	541	546	550	546	543	541	543	544	544	542	542	538	535	534	536	539	539	536	537	536	532	528	530	528	528	521	524	524	528	530	527	525	534	534	536	531	533	535	537	537	536	535	540	534	530	532	541	542	539	537	541	535	534	530	526	525	527	531	533	532	539	537	528	533	529	529	531	535	535	533	532	529	525	526	531	537	534	528	531	532	528	522	521	526	528	528	532	533	535	536	533	531	529	534	536	538	530	530	531	532	531	531	529	528	527	530	529	531	532	533	532	530	530	530	530	533	534	536	539	537	535	525	530	535	536	533	526	532	532	530	531	532	530	533	535	541	538	533	533	536	537	532	529	523	522	521	525	528	529	535	538	535	531	529	531	538	535	533	544	537	535	533	531	530	539	535	529	530	525	528	531	530	524	523	536	536	533	530	527	530	533	534	533	528	529	531	529	527	522	523	528	534	533	526	526	525	524	527	531	536	533	533	533	533	527	530	531	530	529	530	529	530	529	529	528	535	541	539	533	524	526	528	532	533	535	529	527	529	529	527	528	519	524	526	530	530	528	525	533	530	530	521	516	523	531	525	524	515	514	520	523	525	525	534	529	527	530	532	531	532	530	527	528	523	520	519	518	517	515	513	524	526	527	529	530	532	523	524	521	523	524	525	524	526	529	533	535	538	532	535	538	539	535	541	534	531	526	521	522	527	525	528	527	522	529	525	525	519	524	524	525	520	524	531	529	527	524	518	517	525	530	524	516	524	523	522	525	527	529	532	532	529	525	520	507	519	523	525	518	515	518	516	515	524	522	522	524	519	508	510	513	518	520	523	527	526	526	525	527	521	522	517	522	520	520	525	524	522	518	518	520	522	523	519	513	521	520	519	523	527	527	524	524	522	519	518	519	519	520	523	524	531	533	537	542	540	537	531	528	526	521	522	518	529	529	530	529	528	529	526	524	521	518	519	524	526	524	518	517	519	521	521	522	525	521	517	525	529	529	529	531	525	520	520	523	524	523	524	514	516	517	520	521	521	520	515	513	516	514	522	520	518	518	518	517	516	515	512	508	512	512	522	520	518	520	526	525	522	525	523	523	523	517	511	524	522	518	518	519	509	530	525	522	519	517	515	514	520	523	520	520	521	524	525	521	513	513	511	510	518	521	523	523	524	523	522	522	520	520	516	516	522	521	514	510	508	510	511	512	514	516	522	522	522	522	518	517	514	516	517	517	516	520	519	515	512	512	511	512	510	513	503	504	502	504	503	503	507	507	510	508	510	506	0	0	0	0
547	543	549	555	555	554	557	557	554	554	554	556	545	546	546	547	544	546	545	545	545	544	542	538	535	537	543	547	545	543	543	542	545	545	542	542	538	541	538	538	540	536	535	535	535	537	541	543	549	547	545	541	543	545	544	541	538	536	536	540	543	541	539	539	539	534	530	529	529	531	532	533	534	532	527	530	528	532	535	535	538	532	533	540	544	545	545	544	543	541	539	540	539	536	536	533	530	534	536	531	533	534	533	528	527	519	522	521	515	515	516	516	518	517	521	523	526	528	532	537	539	532	533	531	535	535	534	530	532	530	532	522	531	537	534	527	524	521	518	520	522	523	525	535	534	528	522	516	515	523	526	531	532	530	529	526	527	528	532	532	523	522	524	523	517	510	517	518	519	523	526	524	523	526	525	527	527	533	533	518	516	522	532	533	532	530	530	530	530	532	530	530	530	529	527	526	527	529	531	535	536	536	536	527	526	527	530	526	524	524	530	526	523	524	527	528	529	530	530	533	530	532	532	531	533	527	523	520	517	514	524	524	527	526	523	523	524	527	532	532	527	523	518	517	517	518	522	529	529	524	524	529	527	528	528	516	515	516	521	519	519	515	520	522	529	529	525	528	527	518	525	527	525	532	531	530	528	527	522	523	528	532	533	528	530	523	524	524	523	521	523	526	529	531	522	520	527	532	532	537	539	526	524	523	525	527	530	533	531	530	531	530	526	513	518	522	524	525	527	522	519	509	525	527	524	516	520	524	523	525	517	512	516	519	524	523	527	532	523	529	530	529	526	526	527	517	515	518	523	524	523	513	514	519	524	522	522	526	529	526	520	519	520	523	524	520	519	526	529	530	531	529	529	525	526	529	531	531	531	516	518	523	527	525	526	524	522	518	512	513	521	522	523	520	520	523	526	525	526	523	516	516	514	522	519	514	515	518	518	516	518	520	519	513	513	507	510	514	515	515	512	517	517	514	516	516	517	520	523	520	514	508	507	511	514	512	513	515	511	513	508	508	515	515	515	515	516	524	526	527	525	518	517	517	513	513	512	511	512	512	513	516	520	527	525	517	517	518	519	519	520	522	522	522	521	517	514	512	527	527	527	524	528	522	520	532	529	527	525	527	529	527	525	519	518	519	518	521	521	521	515	514	515	518	517	516	517	515	516	522	525	525	521	520	524	517	515	516	517	518	521	524	523	521	520	519	520	518	513	509	510	510	512	511	506	517	519	517	513	505	499	498	497	512	513	506	508	511	512	511	506	504	505	502	502	503	506	516	517	518	516	514	508	505	508	512	513	511	509	505	502	513	517	517	520	522	523	519	512	511	509	508	509	513	519	522	514	511	510	518	518	516	510	513	514	515	507	506	505	505	507	512	510	510	514	516	516	514	511	517	516	511	512	512	509	507	506	515	515	508	510	510	510	510	504	504	492	492	492	497	498	497	501	501	503	504	504	0	0	0
543	543	542	551	552	552	551	550	544	544	547	546	545	541	541	538	540	538	534	534	530	537	537	535	539	539	541	541	541	541	541	540	542	544	541	538	541	541	537	535	534	533	530	530	530	535	541	547	549	545	542	542	539	537	537	537	534	535	537	537	542	538	537	534	534	528	527	532	532	540	539	535	536	532	532	534	533	529	528	528	528	528	517	523	529	536	539	540	542	536	536	536	530	530	534	534	532	525	526	529	533	532	524	519	518	519	521	514	515	514	515	520	520	518	516	518	518	518	520	522	525	529	531	533	532	530	531	531	531	521	523	524	520	534	540	527	522	519	514	515	515	519	521	530	530	522	518	515	512	520	524	529	530	527	525	524	526	527	524	521	517	518	516	519	516	510	518	518	521	524	525	522	519	523	525	524	525	522	518	518	514	518	518	529	532	525	525	523	525	524	523	524	524	524	523	522	521	521	525	529	529	530	529	521	526	525	528	522	519	521	523	519	518	522	521	523	525	526	527	535	529	529	529	527	526	525	521	518	517	519	513	522	522	519	518	518	519	527	530	533	523	520	515	513	514	517	520	529	533	527	527	518	523	519	518	511	509	517	521	521	519	515	515	518	518	520	523	518	515	517	522	529	526	526	527	525	527	527	521	521	524	532	531	526	519	519	523	520	518	518	519	524	532	530	526	516	510	510	519	529	528	522	521	522	518	520	521	520	520	523	523	520	513	512	513	513	511	521	510	520	520	515	507	519	516	515	518	522	518	518	517	513	513	515	518	522	525	519	519	521	527	524	515	515	515	512	509	510	516	518	521	516	515	520	514	515	520	524	521	519	516	519	520	525	528	524	521	526	526	529	529	527	520	514	518	525	527	527	527	518	518	524	520	520	519	518	518	517	506	516	520	519	511	516	515	519	519	517	522	522	513	518	515	511	511	515	516	512	509	514	507	507	508	510	510	505	506	511	514	515	513	509	507	508	508	509	511	515	521	519	513	507	502	501	505	511	511	509	506	502	502	497	507	512	513	514	515	528	530	531	528	520	517	513	511	510	507	507	509	509	508	511	522	524	522	520	520	510	513	515	516	520	518	518	509	503	502	506	518	518	516	514	510	513	517	518	521	524	519	513	518	514	513	513	514	516	514	514	514	511	510	510	513	511	515	515	516	514	514	515	525	523	522	519	519	510	512	513	510	508	510	520	525	517	515	516	515	514	513	510	507	516	514	507	507	508	516	518	513	510	501	496	495	497	499	500	500	509	511	511	512	512	502	502	502	500	498	510	514	517	517	514	507	502	506	508	511	510	507	507	507	512	514	514	518	519	519	513	510	509	512	508	508	513	515	514	509	508	507	510	514	510	514	513	513	513	509	501	496	496	498	501	505	505	506	510	510	505	509	513	516	515	509	507	506	506	506	505	505	506	508	510	513	507	502	494	492	492	492	495	496	496	495	494	497	499	499	0	0	0
537	537	542	533	548	548	549	537	532	537	537	543	540	531	538	538	539	536	533	530	530	523	526	529	539	538	536	540	541	541	540	540	543	544	542	540	541	539	534	534	533	528	527	529	529	536	542	545	547	545	542	524	524	523	529	531	530	532	535	535	538	537	536	534	534	528	526	530	526	526	534	534	528	527	531	533	534	527	524	523	523	515	515	520	524	526	528	532	534	527	522	517	519	522	525	523	523	523	526	528	532	527	520	516	516	520	519	514	515	514	514	520	520	519	519	520	518	516	517	517	523	523	525	524	523	521	520	520	524	518	517	517	520	521	534	529	523	511	512	514	514	516	527	524	522	523	523	520	517	519	522	520	522	523	520	519	521	520	518	516	512	510	514	518	517	517	516	510	511	514	518	518	518	525	525	523	521	519	519	511	514	516	517	518	521	521	519	524	524	516	516	521	522	524	519	517	510	513	516	521	521	522	521	522	517	516	518	519	516	516	517	518	516	519	521	525	522	522	524	521	523	526	525	525	525	521	518	518	522	522	511	508	516	515	514	515	518	518	516	521	519	519	516	513	513	515	516	512	513	513	512	508	495	495	497	499	505	510	518	520	509	511	513	517	521	516	516	518	520	520	521	521	509	519	520	518	515	521	520	517	520	522	525	518	517	517	517	518	519	514	517	521	530	530	515	506	509	509	506	528	523	520	517	512	517	519	519	515	513	507	510	511	510	509	511	509	508	519	508	508	517	519	519	508	513	515	514	514	513	513	514	512	512	515	516	523	519	514	516	520	516	520	513	513	510	504	503	504	510	519	519	514	509	509	504	502	507	518	517	512	511	522	525	528	529	523	519	520	518	518	519	518	514	513	517	517	516	510	513	513	508	518	517	515	513	513	516	516	511	513	513	512	511	512	516	516	515	513	515	516	516	513	513	514	513	513	509	503	507	504	504	504	509	512	507	507	508	510	513	513	512	507	504	503	503	504	508	510	511	513	512	511	500	502	500	502	500	501	500	502	498	498	497	507	508	509	513	524	531	531	525	520	516	511	508	506	501	505	505	505	508	510	514	511	512	514	512	507	509	509	513	516	516	514	506	502	504	504	511	510	512	510	509	506	500	501	504	508	507	505	504	504	509	504	507	502	503	502	503	504	505	508	515	511	504	500	503	505	507	509	508	507	513	513	507	497	497	504	508	506	509	520	513	507	507	508	512	511	511	511	514	515	516	506	504	505	501	501	512	505	498	497	497	499	497	497	500	503	506	508	506	510	512	504	498	500	499	498	502	508	513	512	508	500	497	505	510	510	508	511	512	514	511	509	514	515	513	507	498	508	504	513	503	501	501	502	500	500	500	507	511	509	512	504	501	500	496	500	500	499	498	494	501	502	498	498	498	501	503	508	511	515	510	506	505	505	504	504	500	500	508	508	506	503	498	498	496	496	495	499	498	494	491	491	493	493	499	0	0	0
533	533	536	533	530	536	536	531	530	534	534	536	536	531	538	538	534	533	532	529	529	527	529	535	538	531	531	531	541	536	537	537	541	541	538	537	539	534	526	529	531	531	528	529	529	530	535	539	525	522	524	513	513	516	518	518	521	524	531	535	535	536	537	535	532	528	523	519	527	530	530	528	527	526	525	523	523	523	519	513	512	512	514	516	518	520	520	522	524	520	516	515	513	516	519	522	522	522	525	529	525	524	517	517	517	518	518	513	513	515	517	518	520	520	520	521	508	507	512	517	520	520	522	522	520	520	520	517	525	507	515	513	516	508	504	501	502	506	509	515	516	521	520	517	520	521	521	519	519	517	517	518	510	513	514	514	515	517	516	510	507	507	505	511	516	516	513	514	512	511	515	508	517	518	525	525	513	510	510	512	512	511	514	517	518	517	520	522	522	516	516	520	521	519	512	505	508	510	514	518	515	515	514	513	513	514	519	517	516	511	509	503	507	513	518	524	520	517	519	516	520	522	518	516	519	519	519	518	515	506	506	501	504	512	518	513	516	512	507	513	519	515	514	510	509	510	512	511	512	511	509	507	494	494	496	499	497	501	508	510	509	510	510	510	509	506	497	507	511	515	505	501	502	504	506	516	515	519	509	514	515	516	519	516	521	518	515	513	513	513	511	511	512	507	503	503	506	503	503	516	517	515	512	511	514	516	514	514	507	500	501	504	506	504	502	499	501	500	500	501	505	513	516	515	513	517	517	513	511	507	509	511	511	516	517	524	513	514	511	512	509	503	513	508	511	505	503	504	511	520	519	517	511	504	501	501	505	506	507	509	509	508	509	514	508	510	504	502	503	511	513	515	513	513	504	504	505	509	511	512	508	508	513	513	510	512	512	498	506	511	512	512	514	517	516	513	510	508	507	505	494	490	503	503	491	492	490	491	497	500	501	501	501	502	502	504	501	506	512	511	506	503	502	498	500	503	500	505	505	502	502	505	506	507	505	493	491	489	495	499	499	498	496	502	500	502	511	508	509	506	508	512	505	504	505	505	500	502	505	506	503	503	506	501	507	508	505	501	505	506	508	512	513	510	506	501	513	514	513	506	505	508	504	499	497	498	498	507	506	503	501	502	502	509	509	499	499	501	497	503	500	499	500	505	505	500	500	503	506	507	508	514	511	506	494	494	500	497	498	500	509	514	509	506	505	504	504	508	509	507	508	511	513	504	498	494	498	493	492	498	497	498	501	500	496	495	496	500	503	504	504	509	488	498	498	499	497	496	497	501	504	503	502	501	502	502	511	511	509	515	516	514	511	504	503	507	507	492	493	497	500	504	505	501	500	500	499	499	499	501	501	501	502	503	501	500	503	503	503	502	499	497	491	496	496	496	495	497	503	503	501	510	505	505	502	500	500	498	496	497	503	502	500	502	498	498	498	496	497	493	492	492	496	491	495	495	500	0	0	0
529	526	526	533	519	521	521	523	525	529	532	532	532	534	538	531	531	529	528	527	525	525	526	532	531	531	522	518	523	524	526	529	529	530	533	535	531	526	522	525	526	527	526	522	521	521	516	518	520	520	517	513	513	513	511	513	517	518	524	531	534	534	535	533	528	523	519	516	515	525	525	528	527	514	514	512	511	511	511	511	512	514	514	515	512	514	517	513	512	513	508	506	503	509	510	515	520	527	527	523	520	518	514	508	506	511	512	510	505	504	507	510	512	517	519	511	508	507	514	512	517	513	512	510	511	514	516	518	515	496	504	510	511	507	510	507	508	510	511	512	514	516	515	515	517	519	519	519	520	517	514	512	516	514	512	511	509	513	511	511	506	505	503	505	507	512	512	512	510	509	513	513	501	509	511	502	500	510	509	509	509	507	509	513	513	514	517	521	521	518	512	509	508	508	505	503	505	504	514	517	513	511	503	504	504	503	496	495	493	501	504	504	506	510	514	513	513	513	511	513	513	513	519	510	510	510	512	506	503	501	500	504	501	509	508	510	510	506	507	505	512	513	511	507	507	508	515	512	510	505	505	505	503	500	497	498	499	498	504	506	506	508	508	506	507	506	498	497	498	497	488	496	496	502	503	508	513	513	505	503	502	499	499	502	505	505	513	512	511	506	506	503	506	505	500	498	498	501	503	501	511	511	509	510	509	510	510	503	499	499	498	502	500	500	500	502	502	501	499	499	506	510	508	507	509	507	510	507	507	506	507	509	507	507	507	516	519	511	507	502	500	502	503	505	509	506	509	504	504	515	517	517	513	506	497	492	496	505	507	507	508	508	505	504	504	504	503	502	503	505	507	507	506	506	507	507	506	506	511	508	508	507	505	510	507	509	509	507	502	507	505	505	505	509	507	508	507	503	501	493	492	491	501	496	492	492	490	490	490	494	492	494	495	500	491	491	490	492	496	497	503	500	500	500	497	502	503	502	501	499	499	494	493	493	494	494	492	491	489	493	496	499	497	497	497	500	504	509	499	493	489	489	505	511	510	505	500	499	502	505	503	504	506	503	508	507	505	503	505	504	504	504	506	504	503	500	513	513	513	514	510	500	490	494	494	493	498	506	506	502	500	497	497	500	496	498	498	498	498	500	498	497	499	500	488	489	498	502	503	506	506	492	490	493	499	497	495	494	490	493	497	502	506	507	505	504	501	501	502	502	504	505	508	496	494	492	494	502	498	494	497	500	508	503	498	497	494	499	497	503	494	489	488	496	499	500	498	492	493	497	501	499	499	501	502	502	500	511	509	507	501	502	502	501	502	507	505	498	492	497	500	504	503	498	498	497	497	493	488	499	497	498	502	501	500	501	502	504	504	503	497	495	492	492	485	494	494	494	496	494	497	503	503	502	500	498	498	491	494	495	496	498	498	493	500	499	499	490	493	491	498	496	498	493	493	492	493	0	0	0
529	525	525	519	514	518	518	518	522	526	527	527	528	535	536	530	530	526	525	523	522	522	522	523	522	522	513	513	514	515	518	520	520	521	524	524	524	522	525	520	522	520	520	523	521	521	516	515	518	520	517	513	513	513	509	510	514	517	515	517	519	519	521	522	521	520	516	516	517	520	519	519	516	511	510	510	509	510	511	514	516	514	515	510	509	510	508	501	506	509	509	506	504	508	510	511	515	523	521	521	514	512	506	505	504	506	505	501	500	504	505	506	507	509	509	516	511	507	509	514	516	511	510	505	506	506	507	507	494	495	500	506	507	503	502	501	499	501	503	507	512	513	513	512	511	510	511	514	514	514	512	512	515	508	503	504	504	505	510	510	510	509	509	508	509	511	512	513	516	515	511	498	509	510	511	506	499	504	505	507	508	508	511	509	513	514	516	520	518	515	498	499	495	501	502	500	506	513	508	506	509	509	507	507	508	499	497	495	495	502	503	503	505	507	506	501	509	507	499	497	496	499	501	505	505	508	501	504	501	502	504	502	502	504	504	506	509	509	504	505	509	510	509	505	504	506	512	511	507	503	502	503	501	498	495	495	497	499	504	503	504	504	504	501	497	497	497	498	495	492	490	491	494	500	502	502	497	496	502	500	498	497	497	497	503	501	496	496	499	502	497	499	498	502	502	501	497	495	499	500	504	505	505	506	506	501	495	498	499	500	493	496	497	495	500	502	504	502	503	503	503	498	501	504	506	505	507	496	499	500	500	501	501	499	500	502	501	491	490	490	492	498	499	502	511	510	511	504	503	507	512	503	506	497	490	492	493	499	505	507	513	508	506	503	500	500	500	502	497	503	503	503	503	508	507	508	507	510	511	512	506	505	501	503	501	491	493	496	502	505	505	504	503	503	503	506	501	497	496	494	493	492	489	492	497	497	490	487	490	492	493	493	495	497	490	488	490	490	492	494	496	497	497	496	500	499	499	499	497	495	499	495	491	493	493	493	493	491	490	493	491	492	492	493	494	500	500	503	501	496	490	500	501	501	491	493	496	496	499	501	503	505	506	498	484	486	500	503	499	497	500	502	499	501	500	503	506	506	500	495	494	491	485	492	490	489	490	496	497	496	495	493	496	494	501	498	497	495	496	496	494	495	495	496	487	489	492	496	501	502	498	491	481	490	498	495	493	487	489	486	492	497	498	502	508	504	502	497	496	495	498	495	487	491	489	490	496	500	493	494	498	498	507	506	507	505	501	495	498	501	489	489	485	493	496	499	490	489	490	491	491	494	493	500	500	498	498	500	503	500	499	499	498	500	500	505	506	495	493	495	497	500	499	493	490	490	488	486	485	488	494	498	495	494	498	497	494	492	486	485	488	490	490	490	488	483	491	493	494	494	494	497	497	500	496	496	495	491	492	495	495	495	494	492	489	489	488	490	490	487	489	499	497	497	497	494	491	0	0	0
519	514	515	515	514	513	515	515	517	519	523	522	522	519	528	530	517	523	521	520	517	516	516	522	515	514	513	511	511	515	516	515	516	516	518	518	521	519	520	510	518	519	517	519	519	516	516	516	520	520	516	513	505	505	504	508	509	510	512	515	516	517	517	518	517	515	516	513	517	518	517	517	513	508	504	503	505	509	513	514	514	513	510	507	505	509	500	501	507	509	509	506	504	507	509	511	509	504	501	501	496	498	493	496	496	496	498	499	502	501	502	503	504	504	504	507	512	508	508	508	509	507	504	503	505	501	498	496	494	495	497	498	498	499	497	496	493	496	503	501	499	498	502	508	505	505	508	510	512	511	508	516	499	494	496	499	500	500	499	496	496	504	509	507	508	509	510	513	517	517	508	502	500	509	499	498	498	501	504	507	510	507	509	508	516	516	513	513	507	503	501	500	500	501	499	499	504	509	504	501	498	501	505	505	505	506	499	497	497	502	500	494	493	493	495	499	503	504	500	495	495	498	501	509	507	505	502	498	503	503	501	502	498	499	503	506	508	508	507	502	504	506	503	502	502	502	502	502	502	503	503	502	500	487	487	497	498	505	499	500	500	502	503	497	493	497	497	496	491	484	482	492	497	499	503	503	493	495	489	491	489	489	493	499	503	503	496	497	499	502	496	496	500	501	501	496	501	500	496	496	497	495	493	500	495	495	495	496	493	493	498	491	493	495	499	501	504	501	501	491	488	493	496	496	501	500	499	497	493	495	498	494	498	493	491	494	495	492	493	496	494	493	496	500	507	511	509	505	498	504	506	497	497	496	493	492	490	493	500	495	491	492	494	494	496	498	502	499	494	498	498	501	500	493	493	496	496	494	495	498	490	496	496	495	499	498	489	492	494	496	500	501	501	501	499	494	493	492	494	498	498	495	493	499	497	488	492	493	493	496	498	496	492	489	487	488	489	492	496	498	495	492	493	495	499	495	497	493	498	493	498	497	493	491	493	491	493	493	491	489	488	486	488	487	491	499	496	498	499	496	499	499	496	495	494	489	492	498	499	496	496	494	486	490	481	481	489	490	486	502	489	501	498	498	496	495	496	498	494	494	494	493	487	487	487	488	490	487	494	489	489	490	491	500	503	498	497	494	494	499	494	496	497	495	491	490	489	490	493	496	497	488	480	486	494	492	489	482	481	483	487	491	492	493	498	504	501	497	493	491	490	487	485	487	488	485	488	488	489	491	491	486	485	485	489	490	498	503	498	490	490	488	488	489	490	491	487	486	487	488	490	492	492	495	497	490	494	496	500	498	495	494	495	495	498	499	495	493	487	491	493	489	484	483	483	486	481	480	480	485	493	491	491	492	487	494	491	488	487	485	485	485	485	486	485	485	484	487	496	493	492	494	495	496	496	492	491	490	493	491	490	491	492	490	492	481	478	485	485	483	483	481	495	495	496	492	486	0	0	0
512	513	517	517	512	513	512	512	517	519	519	520	520	514	512	517	518	518	518	516	511	512	512	516	512	511	511	511	508	510	510	510	508	508	508	513	502	501	510	518	505	507	505	503	506	508	508	513	518	519	519	508	505	506	506	508	507	507	502	509	515	515	515	515	513	511	511	506	514	516	514	509	509	506	505	502	503	509	501	502	509	509	507	510	510	500	499	502	507	508	507	506	505	507	508	507	505	503	497	496	496	494	496	497	497	498	498	501	503	502	499	500	499	501	501	504	499	504	500	507	503	498	496	501	498	501	501	503	497	494	494	497	498	496	495	496	498	498	500	498	495	493	494	495	498	504	509	515	512	509	502	503	497	492	492	497	500	499	495	491	493	496	501	504	504	504	505	509	515	515	507	502	496	493	494	496	497	500	504	507	503	505	507	515	495	497	492	490	494	492	492	493	498	494	494	502	504	504	496	492	489	490	489	490	489	494	498	498	499	497	495	494	488	489	493	498	500	503	499	498	496	499	501	506	501	498	496	492	495	497	499	501	500	498	497	498	499	506	505	503	503	501	499	498	498	499	498	499	501	500	500	499	492	481	473	477	490	492	494	495	499	498	493	490	491	493	495	489	487	486	481	493	496	497	502	494	492	492	486	486	488	491	492	502	503	507	492	492	495	493	492	491	497	498	492	490	486	490	488	486	493	497	495	488	488	490	490	492	491	493	493	490	488	487	485	494	495	493	487	485	487	488	491	491	496	501	499	500	499	498	493	493	488	490	490	494	495	491	493	495	494	491	494	497	500	501	503	502	492	487	485	485	485	493	495	494	490	494	493	493	492	498	499	502	501	498	497	490	490	489	488	492	494	493	491	494	496	495	494	492	490	487	485	490	493	497	499	492	493	497	501	501	503	501	499	495	494	491	493	497	498	497	502	499	496	489	486	490	495	497	499	496	497	495	481	479	489	493	498	497	491	488	489	493	501	494	486	492	495	493	496	495	493	490	492	490	492	492	481	489	488	488	500	497	493	495	495	493	496	490	487	482	484	484	481	489	488	496	495	492	490	482	484	488	480	481	484	486	486	491	485	487	490	490	488	487	489	488	487	487	486	486	486	486	486	486	482	482	480	484	485	486	484	493	498	500	500	495	495	497	494	499	497	492	489	486	484	484	487	490	492	490	479	481	490	489	487	478	477	480	485	488	489	490	490	494	491	491	497	493	490	487	483	482	484	482	483	489	492	493	488	484	481	479	485	489	485	494	493	491	490	489	489	488	485	485	486	483	483	486	490	491	490	493	494	493	494	491	494	497	494	489	491	491	495	498	495	490	484	484	482	480	478	478	476	476	477	478	467	485	487	485	490	485	485	483	487	485	484	482	482	482	481	482	483	485	477	478	491	491	490	492	494	491	491	487	489	486	481	488	482	484	484	490	490	482	480	479	478	481	478	476	476	480	486	485	484	0	0	0
510	514	515	515	509	509	495	507	507	516	514	516	516	512	505	505	518	507	499	506	509	512	515	515	513	511	507	508	498	495	495	498	501	502	502	500	497	498	500	505	496	500	502	502	506	503	498	498	499	503	505	503	504	506	497	497	496	499	502	505	511	511	511	511	509	507	506	501	499	499	499	503	503	503	501	499	499	497	497	495	498	502	509	502	498	498	498	501	505	505	505	504	500	501	504	504	497	493	493	494	495	495	496	498	500	503	502	501	504	502	498	497	499	496	497	494	495	493	496	502	502	494	496	495	503	503	505	491	491	492	495	496	496	494	489	491	490	496	497	499	493	494	492	495	488	487	494	500	506	501	499	501	496	493	491	496	497	496	493	490	491	492	500	503	493	501	501	502	507	508	507	502	495	490	492	487	488	485	492	497	495	498	501	494	491	490	488	487	487	488	490	490	492	493	494	502	502	502	495	492	489	490	488	488	488	493	497	498	499	498	495	486	490	495	501	496	496	499	497	493	491	496	496	499	500	494	492	490	489	494	500	490	490	487	486	488	485	496	495	504	496	496	495	495	494	494	493	489	498	495	495	497	487	472	482	483	480	479	475	483	493	493	485	484	486	487	489	488	480	476	479	486	489	490	495	492	491	490	490	486	487	488	492	493	493	493	493	490	491	483	488	493	494	492	493	493	492	487	486	483	488	487	484	486	485	486	488	490	492	493	492	491	489	485	482	477	478	483	486	484	481	481	482	483	494	500	498	493	491	488	491	492	491	486	483	485	487	491	494	487	484	482	482	477	481	480	481	485	488	488	486	485	479	485	489	489	491	503	499	497	500	501	497	497	489	485	487	486	484	486	487	488	492	489	486	492	494	494	487	477	478	481	484	486	492	495	497	495	497	498	499	501	504	500	498	496	496	492	491	494	492	493	493	496	493	483	488	492	491	493	490	482	486	496	478	480	481	489	497	495	491	485	484	485	492	484	483	489	494	493	493	493	492	490	488	485	479	476	477	481	486	491	501	498	489	486	488	489	490	487	486	481	481	480	480	490	491	489	486	488	484	485	479	481	484	488	478	475	476	480	482	484	484	482	481	481	481	483	486	485	484	479	476	480	481	479	481	475	477	483	484	481	479	468	478	482	486	486	487	495	498	498	491	482	479	480	481	478	478	479	480	479	476	475	472	481	477	473	474	472	481	484	482	486	489	487	487	484	485	484	487	486	485	480	481	480	479	484	488	490	485	482	480	480	479	479	483	482	484	483	478	480	486	485	484	486	486	481	476	482	481	483	485	489	484	480	478	483	487	493	481	482	480	493	495	487	485	487	484	479	477	476	476	471	473	475	476	473	469	470	479	480	483	483	480	480	483	481	481	480	480	476	474	478	480	475	474	478	479	480	478	475	474	474	478	483	483	478	478	483	478	478	479	484	482	478	478	476	475	472	471	471	471	471	475	483	481	0	0	0
503	508	509	498	498	491	495	499	499	506	511	508	502	502	499	496	507	499	499	502	503	506	505	505	503	502	501	498	498	489	488	490	497	496	496	496	491	493	495	496	500	499	506	507	506	504	504	501	501	500	504	505	505	497	497	497	498	500	502	504	508	508	504	503	503	501	502	501	497	498	489	495	495	495	495	495	497	494	493	491	493	499	499	502	487	489	489	492	497	494	500	497	496	496	501	504	501	500	492	493	494	496	495	501	501	508	509	509	508	506	502	496	488	486	491	494	490	488	491	490	490	485	489	493	493	494	493	489	486	486	490	494	494	489	485	489	491	493	494	494	492	491	488	486	483	483	484	487	495	496	494	494	498	497	492	495	496	496	493	493	491	494	502	502	492	497	498	499	501	505	493	485	487	488	486	486	486	489	490	492	492	492	496	489	488	487	487	486	488	490	493	494	497	497	499	502	503	502	496	492	489	488	486	485	485	487	481	479	482	492	491	487	492	495	497	495	485	484	480	482	485	483	489	488	487	491	485	484	481	479	481	482	482	481	482	485	483	483	487	496	496	493	494	496	491	491	491	487	493	492	489	494	483	483	481	486	487	480	474	466	473	476	476	481	485	488	488	486	482	477	484	488	486	483	494	491	473	476	477	483	484	490	480	486	483	490	488	487	475	479	478	484	485	492	491	490	486	486	483	482	484	492	494	480	479	477	478	480	483	489	492	487	482	482	479	481	480	482	483	483	483	482	484	485	486	498	494	491	488	485	488	488	485	485	483	482	483	487	488	478	478	479	477	485	479	476	479	477	477	479	478	473	472	477	483	486	485	485	486	488	491	492	484	487	485	480	479	478	481	483	485	487	487	492	488	490	488	487	485	474	476	480	483	484	486	485	483	482	485	497	501	493	487	485	487	489	490	491	490	485	480	487	481	484	484	479	480	481	481	486	484	492	478	476	472	478	485	490	495	495	491	484	482	486	484	482	480	482	489	491	493	491	489	488	485	481	478	476	478	482	488	488	485	479	479	486	487	487	488	486	483	481	481	480	480	490	490	487	485	475	480	487	489	492	491	482	479	475	469	474	479	484	479	474	479	480	484	480	483	486	483	480	479	475	475	478	480	478	480	483	483	477	466	478	477	485	483	475	477	475	477	474	473	472	473	470	466	469	473	475	475	472	467	461	461	465	465	466	468	475	480	481	480	484	487	487	484	482	478	481	479	488	487	486	479	480	480	481	485	486	481	480	478	477	474	477	480	480	480	479	478	473	476	483	486	483	472	475	477	478	479	478	479	480	474	475	472	472	471	480	481	479	479	481	479	478	478	477	477	477	476	476	477	477	474	477	476	474	471	469	478	477	478	478	477	482	481	480	478	478	473	469	472	475	474	473	470	475	477	480	477	473	473	473	474	479	475	473	468	477	475	473	473	479	477	475	473	470	468	468	470	470	469	471	476	482	481	0	0	0
503	502	499	492	492	488	491	499	496	496	499	498	497	497	488	494	492	499	494	494	500	502	500	500	500	498	495	489	489	484	486	489	491	492	490	490	488	489	491	494	499	502	507	507	506	504	504	498	498	502	503	504	505	497	494	498	498	499	502	500	502	500	499	496	496	495	495	498	494	499	490	489	487	486	486	490	493	491	492	491	492	495	490	487	483	484	484	484	485	490	499	496	491	489	493	496	501	500	494	487	491	495	480	480	491	496	498	500	503	505	507	492	487	487	478	476	485	488	483	484	486	484	488	493	492	490	487	487	483	480	483	490	490	488	487	487	490	492	492	491	491	490	488	483	484	483	485	486	498	493	491	496	493	486	485	488	489	495	497	495	495	491	490	498	490	490	496	496	502	492	492	487	488	487	485	487	488	489	488	489	484	494	488	483	482	484	488	490	485	486	486	488	496	498	497	497	493	489	492	493	493	492	492	490	487	482	479	474	474	482	486	486	485	487	486	484	478	476	474	478	479	483	486	485	483	482	477	477	475	475	476	475	480	479	478	478	477	479	483	490	489	488	482	480	481	487	486	485	482	482	484	482	480	474	481	482	483	481	469	472	472	470	471	476	485	487	486	484	480	479	486	481	477	480	482	482	474	475	475	481	483	485	475	485	480	485	485	476	474	474	478	481	482	483	483	481	484	488	480	483	485	495	490	489	486	484	473	473	474	480	485	480	482	478	477	482	482	481	482	482	482	482	487	487	487	491	491	489	484	482	480	473	473	478	477	476	478	472	482	476	476	477	477	483	480	476	471	469	474	477	477	471	467	469	472	477	480	480	476	476	479	488	485	484	483	480	479	474	473	475	475	479	489	493	491	487	485	482	473	478	474	472	475	478	481	483	484	483	488	491	493	490	464	475	475	479	480	486	483	481	477	480	481	480	483	473	477	479	479	480	480	470	467	470	475	476	479	487	489	486	487	483	482	480	478	479	476	479	483	487	492	493	493	491	481	479	476	474	475	477	481	476	476	481	479	480	487	488	486	484	483	479	474	472	473	477	485	482	478	475	471	487	489	490	487	476	476	478	475	474	479	483	477	474	473	477	476	474	475	479	479	481	476	470	470	476	470	481	481	481	480	478	476	482	485	484	482	472	470	476	476	477	477	476	470	470	469	468	472	471	473	472	468	454	452	460	462	463	466	467	474	471	472	476	481	482	482	479	475	475	474	471	471	485	476	477	479	479	484	482	478	476	476	475	473	469	473	474	475	475	472	473	479	475	471	468	468	469	471	474	476	476	474	469	472	475	471	478	474	475	474	477	481	482	478	477	474	472	472	472	472	477	476	481	477	476	474	473	471	472	474	476	476	477	478	477	477	478	478	477	473	471	473	473	473	471	467	468	471	473	473	473	471	469	469	467	468	469	469	466	462	464	473	473	473	472	471	468	467	468	464	464	466	467	470	472	476	0	0	0
498	490	492	493	491	491	491	494	488	488	488	489	482	487	487	487	492	494	494	490	494	495	496	494	494	493	490	485	484	484	485	488	490	489	488	488	486	486	487	493	502	507	492	505	503	502	500	501	499	499	499	501	503	498	492	493	493	495	497	497	494	493	493	492	492	492	492	493	491	490	489	488	487	481	486	486	493	489	486	484	489	489	488	486	482	477	481	481	488	490	492	494	487	485	486	489	488	500	499	486	482	483	482	486	488	488	491	490	493	493	486	487	480	479	478	477	470	481	482	484	485	485	490	492	492	487	484	487	484	480	479	481	489	487	485	487	487	489	486	478	469	475	482	487	488	488	490	498	497	495	494	486	485	481	481	481	484	488	493	493	494	486	485	488	489	489	486	485	486	487	495	491	490	486	484	485	485	485	487	485	480	479	479	481	480	481	484	489	489	486	484	485	493	496	498	488	483	477	473	478	489	481	477	484	486	478	473	473	472	474	484	484	481	483	484	481	473	473	473	474	476	480	483	483	479	478	478	475	478	482	484	483	476	471	477	472	475	476	482	487	485	482	476	475	473	474	474	473	474	473	476	478	476	474	479	479	479	478	475	478	473	481	482	477	479	476	485	482	481	479	482	483	478	475	475	473	470	481	474	470	478	480	475	475	476	477	476	477	477	478	479	484	488	482	480	480	486	486	477	479	484	492	495	495	488	479	475	476	474	467	471	476	476	473	477	478	481	481	479	479	478	480	484	484	482	480	486	475	478	475	471	472	473	474	477	475	475	469	467	468	467	467	465	467	475	472	469	468	475	482	481	478	471	466	466	469	472	477	474	475	476	484	485	477	472	478	473	473	477	478	478	477	477	482	482	481	478	477	467	473	475	471	471	475	469	475	480	477	481	482	476	471	474	478	480	482	484	482	480	478	478	476	479	481	481	466	467	472	472	476	476	475	474	470	470	472	475	477	481	483	478	478	477	477	475	473	476	475	477	478	482	480	485	488	486	482	477	475	476	475	475	475	478	478	478	472	471	475	483	481	480	478	474	469	470	474	476	473	466	466	470	466	484	483	484	475	474	477	477	475	477	479	478	477	475	472	471	473	477	471	473	469	469	468	466	469	469	480	484	484	483	479	473	479	479	478	471	467	466	466	467	475	476	474	470	469	469	469	471	471	471	469	465	451	455	464	465	465	466	470	471	471	469	468	470	480	486	480	476	472	471	458	457	456	470	474	477	477	480	477	475	474	473	473	473	469	470	468	467	465	465	466	469	465	468	466	462	461	463	469	473	472	471	468	467	463	464	475	477	476	471	476	481	483	480	476	473	469	469	468	471	473	471	465	468	470	471	470	471	472	473	473	475	473	473	471	472	475	475	475	471	466	470	472	471	468	464	464	466	469	469	469	467	466	467	469	470	469	466	463	463	463	464	466	467	472	471	467	478	472	472	465	466	467	467	472	466	0	0	0
491	491	490	488	488	488	490	490	488	483	483	477	476	476	476	483	489	490	490	489	488	490	487	488	488	488	488	482	485	485	485	489	489	491	489	486	486	481	477	489	492	492	490	492	496	495	497	496	495	495	496	497	498	495	492	487	490	490	492	494	491	489	488	491	492	491	491	491	491	488	489	487	485	481	481	485	485	487	489	488	487	487	486	484	474	473	478	481	481	486	489	490	489	485	484	483	479	482	487	492	486	485	482	489	486	481	481	484	487	483	483	482	477	477	477	476	476	471	481	484	488	487	489	494	488	484	485	487	484	480	479	480	483	484	484	487	488	483	479	474	467	473	481	488	489	489	488	493	494	495	494	484	480	482	481	483	485	479	483	488	490	490	484	486	484	480	480	482	484	487	490	480	480	481	485	485	485	480	478	478	475	476	477	480	480	482	482	485	485	483	486	486	490	490	482	485	483	480	478	481	482	479	475	479	481	474	472	471	473	476	482	472	468	473	478	475	478	475	478	478	476	478	482	478	474	471	472	471	473	473	479	481	474	472	468	476	478	482	484	484	484	474	474	473	476	476	472	472	473	473	476	478	476	474	471	475	468	471	475	476	471	476	480	477	478	474	479	478	478	480	481	478	478	477	479	474	468	472	468	470	476	477	480	475	476	476	476	475	473	476	478	478	476	476	474	471	485	484	484	474	476	483	487	489	485	480	475	475	473	466	466	468	470	472	472	474	478	478	476	475	473	474	478	477	475	474	475	473	472	472	466	469	472	477	478	470	466	468	470	472	475	475	475	470	472	464	467	468	474	481	482	475	472	465	465	464	461	466	469	470	478	479	480	471	470	468	470	471	474	475	471	473	466	474	475	474	466	467	466	471	472	471	470	467	466	471	464	463	476	474	469	468	471	477	478	477	482	481	480	477	477	477	480	480	466	462	462	471	473	471	472	473	472	470	469	472	475	476	476	472	473	477	477	475	472	470	467	466	466	465	466	475	476	476	476	476	476	476	474	474	473	473	475	477	468	467	469	478	484	481	477	479	473	470	464	466	469	468	467	466	466	466	464	465	474	477	479	480	473	474	473	473	473	473	465	460	462	473	467	472	470	469	467	465	464	464	470	477	484	485	480	477	472	472	472	468	467	466	463	462	470	472	474	469	463	463	466	468	470	472	468	465	461	458	459	467	468	468	468	465	466	468	464	464	465	464	469	471	471	466	461	457	454	458	457	467	467	468	463	461	466	469	471	470	465	465	467	463	461	461	461	463	464	465	464	464	461	459	459	460	468	469	469	468	466	462	461	469	472	472	470	471	479	483	480	477	474	474	472	467	462	462	461	465	459	464	464	463	461	469	471	470	470	466	468	469	470	470	474	473	467	466	468	471	469	466	464	460	461	464	464	465	465	466	466	465	463	463	458	462	462	463	465	463	462	468	473	477	478	478	472	464	461	461	461	465	460	460	0	0
482	482	483	484	484	487	487	486	483	479	479	474	472	473	479	479	476	487	489	488	490	484	484	483	487	487	485	480	484	485	485	486	486	483	483	480	480	476	480	480	487	490	492	485	488	489	490	491	489	491	491	495	496	494	488	485	487	481	481	483	486	485	486	491	491	491	491	489	489	483	485	490	494	497	484	481	481	481	484	482	482	482	482	476	474	474	476	478	480	480	481	485	478	476	476	475	476	473	478	482	485	489	492	478	474	476	478	478	477	478	479	480	479	474	473	473	477	478	477	478	483	483	483	483	479	480	480	484	484	480	478	478	480	481	479	483	488	487	485	479	475	483	482	483	478	481	485	489	493	494	495	491	483	482	481	481	483	483	477	478	479	487	489	483	481	481	477	483	485	484	483	479	479	480	480	487	488	487	483	477	472	472	478	477	482	483	482	483	480	476	483	484	485	486	480	484	484	470	477	481	483	480	479	480	479	475	474	477	482	485	480	467	464	465	474	478	468	464	465	469	477	477	474	471	471	470	470	469	469	472	477	482	480	473	466	467	471	473	481	482	482	482	477	476	476	472	470	470	470	469	471	473	477	465	462	461	466	465	466	463	469	470	468	467	469	474	475	474	482	479	477	476	476	469	477	475	466	469	464	465	468	477	475	478	475	475	472	469	472	474	470	464	475	476	471	470	481	479	479	474	465	471	480	482	482	480	476	471	470	468	467	467	469	471	470	472	473	473	472	472	472	471	474	471	468	470	470	471	470	469	470	471	474	474	471	473	472	467	470	469	465	471	473	472	471	470	467	468	472	473	471	476	473	463	463	460	461	464	468	472	476	478	472	467	461	463	466	466	473	473	467	468	465	466	464	462	465	464	470	469	470	471	469	464	459	460	458	456	457	464	465	466	469	473	475	475	477	478	477	474	473	478	480	469	463	461	461	465	470	474	466	458	461	462	470	470	471	469	466	461	461	473	468	472	474	471	469	464	464	461	460	463	469	470	473	474	470	470	470	469	471	474	475	466	465	464	466	476	478	481	478	473	469	470	460	461	465	466	467	463	469	469	469	462	468	468	468	477	474	470	468	467	468	469	466	461	458	461	468	470	469	465	464	460	463	469	472	474	473	477	476	471	470	470	470	468	467	464	463	464	465	470	466	463	461	461	463	466	468	468	466	463	461	459	460	468	467	464	460	455	455	457	464	463	463	464	468	468	465	460	459	458	458	456	457	461	467	466	465	461	461	469	467	467	462	462	452	458	461	453	459	454	460	456	462	463	462	461	461	460	460	464	468	470	473	467	466	469	467	465	467	466	472	479	476	477	477	471	466	461	459	457	460	458	456	458	459	461	460	459	462	466	464	463	462	466	466	467	469	467	467	465	466	469	467	462	460	457	463	463	464	459	453	460	463	463	463	463	462	454	454	460	459	457	454	464	468	470	474	474	465	457	457	454	451	460	454	454	0	0
