0	0	0	0	0	0	0	0	0	0	0	0	0	0	0	0	0	0	0	0	0	0	0	0	0	0	0	0	0	0	0	0	0	0	0	0	0	0	0	0	0	0	0	0	0	0	0	0	0	0	0	0	0	0	0	0	0	0	0	0	0	0	0	0	0	0	0	0	0	0	0	0	0	0	0	0	0	0	0	0	0	0	0	0	0	0	0	0	0	0	0	0	0	0	0	0	0	0	0	0	0	0	0	0	0	0	0	0	0	0	0	0	0	0	0	0	0	0	0	0	0	0	0	0	0	0	0	0	0	0	0	0	0	0	0	0	0	0	0	0	0	0	0	0	0	0	0	0	0	0	0	0	0	0	0	0	0	0	0	0	0	0	0	0	0	0	0	0	0	0	0	0	0	0	0	0	0	0	0	0	0	0	0	0	0	0	0	0	0	0	0	0	0	0	0	0	0	0	0	0	0	0	0	0	0	0	0	0	0	0	0	0	0	0	0	0	0	0	0	0	0	0	0	0	1417	1417	1416	1416	1418	1418	0	0	0	0	1422	1422	1423	1423	1424	1424	1425	1425	1427	1427	1427	1427	1427	1428	1428	1429	1429	1432	1432	1434	1434	1437	1437	1440	1440	1442	1442	1444	1444	1448	1448	1454	1454	1460	1460	1464	1464	1466	1466	1467	1467	1467	1465	1465	1464	1464	1462	1462	1462	1462	1462	1462	1465	1465	1465	1465	1467	1467	1468	1468	1468	1468	1468	1468	1470	1470	1473	1473	1477	1477	1483	1483	1488	1488	1493	1493	1498	1498	1502	1502	1506	1506	1509	1509	1510	1510	1510	1510	1509	1509	1504	1504	1499	1499	1496	1496	1495	1495	1498	1498	1503	1503	1509	1509	1513	1513	1514	1514	1513	1513	1511	1511	1507	1507	1507	1507	1507	1507	1509	1509	1511	1511	1513	1513	1515	1515	1521	1521	1528	1528	1542	1542	1561	1561	1562	1562	1566	1566	1567	1567	0	0	0	0	1536	1536	1542	1542	1549	1549	1555	1555	1560	1560	1562	1562	1564	1564	1564	1564	1563	1563	1563	1563	1563	1563	0	0	0	0	0	3200	3200	3197	3197	3192	3192	3184	3184	3163	3163	3149	3149	3092	3092	3062	3062	3054	3054	3043	3043	3026	3026	3013	3013	2981	2981	2942	2942	2941	2941	2945	2945	2958	2994	2994	3007	3007	3023	3023	2409	2409	2409	2409	2405	2405	2394	2394	2376	2376	2355	2355	2333	2315	2315	2304	2304	2282	2282	2222	2222	2203	2203	2200	2200	2201	2201	2201	2201	2196	2184	2184	2170	2170	2156	2156	2143	2143	2133	2133	2124	2124	2114	2114	2104	2089	2089	2070	2070	2053	2053	2030	2030	2011	2011	1998	1998	1987	1987	1975	1962	1962	1949	1949	1937	1937	1925	1925	1912	1912	1898	1898	1883	1869	1869	1857	1857	1844	1844	1832	1832	1820	1820	1808	1808	1795	1795	1779	1765	1765	1751	1751	1740	1740	1731	1731	1724	1724	1715	1715	1705	1705	1694	1694	1681	1667	1667	1640	1640	1623	1623	1610	1610	1600	1600	1589	1589	1577	1577	1570	1570	1562	1562	1558	1558	1556	1556	1553	1553	1548	1543	1543	1538	1538	1533	1533	1529	1529	1525	1525	1520	1520	1513	1513	1504	1504	1493	1493	1481	1481	1469	1469	1457	1457	1446	1446	1435	1435	1424	1424	1414	1414	1405	1405	1399	1399	1399	1394	1394	1388	1388	1381	1381	1371	1371	1360	1360	1351	1351	1344	1344	1341	1341	1341	1341	1341	1341	1341	0	0	0	0	0	0	0	0
0	0	0	0	0	0	0	0	0	0	0	0	0	0	0	0	0	0	0	0	0	0	0	0	0	0	0	0	0	0	0	0	0	0	0	0	0	0	0	0	0	0	0	0	0	0	0	0	0	0	0	0	0	0	0	0	0	0	0	0	0	0	0	0	0	0	0	0	0	0	0	0	0	0	0	0	0	0	0	0	0	0	0	0	0	0	0	0	0	0	0	0	0	0	0	0	0	0	0	0	0	0	0	0	0	0	0	0	0	0	0	0	0	0	0	0	0	0	0	0	0	0	0	0	0	0	0	0	0	0	0	0	0	0	0	0	0	0	0	0	0	0	0	0	0	0	0	0	0	0	0	0	0	0	0	0	0	0	0	0	0	0	0	0	0	0	0	0	0	0	0	0	0	0	0	0	0	0	0	0	0	0	0	0	0	0	0	0	0	0	0	0	0	0	0	0	0	0	0	0	0	0	0	0	0	0	0	0	0	0	0	0	0	0	0	0	0	0	0	0	0	0	0	0	1417	1417	1416	1416	1418	1418	0	0	0	0	1422	1422	1423	1423	1424	1424	1425	1425	1427	1427	1427	1427	1427	1428	1428	1429	1429	1432	1432	1434	1434	1437	1437	1440	1440	1442	1442	1444	1444	1448	1448	1454	1454	1460	1460	1464	1464	1466	1466	1467	1467	1467	1465	1465	1464	1464	1462	1462	1462	1462	1462	1462	1465	1465	1465	1465	1467	1467	1468	1468	1468	1468	1468	1468	1470	1470	1473	1473	1477	1477	1483	1483	1488	1488	1493	1493	1498	1498	1502	1502	1506	1506	1509	1509	1510	1510	1510	1510	1509	1509	1504	1504	1499	1499	1496	1496	1495	1495	1498	1498	1503	1503	1509	1509	1513	1513	1514	1514	1513	1513	1511	1511	1507	1507	1507	1507	1507	1507	1509	1509	1511	1511	1513	1513	1515	1515	1521	1521	1528	1528	1542	1542	1561	1561	1562	1562	1566	1566	1567	1567	0	0	0	0	1536	1536	1542	1542	1549	1549	1555	1555	1560	1560	1562	1562	1564	1564	1564	1564	1563	1563	1563	1563	1563	1563	0	0	0	0	0	3200	3200	3197	3197	3192	3192	3184	3184	3163	3163	3149	3149	3092	3092	3062	3062	3054	3054	3043	3043	3026	3026	3013	3013	2981	2981	2942	2942	2941	2941	2945	2945	2958	2994	2994	3007	3007	3023	3023	2409	2409	2409	2409	2405	2405	2394	2394	2376	2376	2355	2355	2333	2315	2315	2304	2304	2282	2282	2222	2222	2203	2203	2200	2200	2201	2201	2201	2201	2196	2184	2184	2170	2170	2156	2156	2143	2143	2133	2133	2124	2124	2114	2114	2104	2089	2089	2070	2070	2053	2053	2030	2030	2011	2011	1998	1998	1989	1989	1980	1969	1969	1957	1957	1945	1945	1932	1932	1917	1917	1902	1902	1887	1873	1873	1859	1859	1846	1846	1834	1834	1822	1822	1809	1809	1795	1795	1780	1766	1766	1753	1753	1743	1743	1733	1733	1723	1723	1713	1713	1701	1701	1689	1689	1674	1658	1658	1640	1640	1623	1623	1610	1610	1600	1600	1589	1589	1577	1577	1570	1570	1562	1562	1558	1558	1556	1556	1553	1553	1548	1543	1543	1538	1538	1533	1533	1529	1529	1525	1525	1520	1520	1513	1513	1504	1504	1493	1493	1481	1481	1469	1469	1457	1457	1446	1446	1435	1435	1424	1424	1414	1414	1405	1405	1399	1399	1399	1394	1394	1388	1388	1381	1381	1371	1371	1360	1360	1351	1351	1344	1344	1341	1341	1341	1341	1341	1341	1341	0	0	0	0	0	0	0	0
0	0	0	0	0	0	0	0	0	0	0	0	0	0	0	0	0	0	0	0	0	0	0	0	0	0	0	0	0	0	0	0	0	0	0	0	0	0	0	0	0	0	0	0	0	0	0	0	0	0	0	0	0	0	0	0	0	0	0	0	0	0	0	0	0	0	0	0	0	0	0	0	0	0	0	0	0	0	0	0	0	0	0	0	0	0	0	0	0	1339	1339	1339	1339	1339	1339	1339	1339	0	0	0	0	0	0	0	0	0	0	0	0	0	0	0	0	0	0	0	0	0	0	0	0	0	0	0	0	0	0	0	0	0	0	0	0	0	0	0	0	0	0	0	0	0	0	0	0	0	0	0	0	0	0	0	0	0	0	0	0	0	0	1373	1372	1372	1373	1373	1376	1376	1383	1383	0	0	1390	1390	1390	1390	1390	1389	1389	1389	1389	1389	1389	1388	1388	1386	1386	1385	1385	1383	1383	1383	1383	1383	1384	1384	1385	1385	1386	1386	1387	1387	1390	1390	1394	1394	1396	1401	1401	1402	1402	1404	1404	1406	1406	1409	1409	1412	1412	1415	1415	1416	1416	1417	1416	1416	1417	1417	1417	1417	1418	1418	1419	1419	1421	1421	1422	1422	1423	1423	1424	1424	1426	1426	1427	1427	1427	1428	1428	1429	1429	1430	1430	1433	1433	1435	1435	1438	1438	1440	1440	1442	1442	1445	1445	1448	1448	1454	1454	1460	1460	1464	1464	1467	1467	1468	1468	1468	1466	1466	1464	1464	1462	1462	1462	1462	1462	1462	1465	1465	1467	1467	1469	1469	1469	1469	1468	1468	1467	1467	1469	1469	1474	1474	1480	1480	1486	1486	1490	1490	1495	1495	1500	1500	1504	1504	1507	1507	1509	1509	1510	1510	1510	1510	1508	1508	1503	1503	1500	1500	1497	1497	1497	1497	1501	1501	1506	1506	1510	1510	1515	1515	1517	1517	1515	1515	1512	1512	1508	1508	1507	1507	1509	1509	1511	1511	1513	1513	1513	1513	1514	1514	1520	1520	1528	1528	1543	1543	1554	1554	1560	1560	1558	1558	1554	1554	1534	1534	1534	1534	1538	1538	1543	1543	1551	1551	1557	1557	1561	1561	1561	1561	1561	1561	1560	1560	1559	1559	1560	1560	1559	1559	0	0	0	0	0	3196	3196	3196	3196	3189	3189	3179	3179	3157	3157	3129	3129	3097	3097	3070	3070	3054	3054	3045	3045	3035	3035	3032	3032	3010	3010	2948	2948	2934	2934	2934	2934	2942	3030	3030	3030	3030	3030	3030	2401	2401	2401	2401	2395	2395	2383	2383	2366	2366	2350	2350	2332	2316	2316	2298	2298	2286	2286	2235	2235	2207	2207	2204	2204	2201	2201	2199	2199	2191	2180	2180	2167	2167	2153	2153	2141	2141	2132	2132	2124	2124	2117	2117	2108	2094	2094	2076	2076	2055	2055	2031	2031	2010	2010	1997	1997	1988	1988	1980	1971	1971	1960	1960	1949	1949	1936	1936	1921	1921	1906	1906	1891	1876	1876	1862	1862	1848	1848	1836	1836	1824	1824	1810	1810	1796	1796	1782	1768	1768	1756	1756	1745	1745	1734	1734	1722	1722	1710	1710	1696	1696	1682	1682	1668	1652	1652	1635	1635	1621	1621	1609	1609	1600	1600	1590	1590	1579	1579	1570	1570	1563	1563	1559	1559	1555	1555	1550	1550	1544	1539	1539	1535	1535	1532	1532	1529	1529	1525	1525	1520	1520	1514	1514	1505	1505	1495	1495	1483	1483	1470	1470	1458	1458	1447	1447	1435	1435	1425	1425	1415	1415	1407	1407	1401	1401	1401	1396	1396	1389	1389	1381	1381	1373	1373	1364	1364	1356	1356	1350	1350	1347	1347	1345	1345	1345	1345	1345	0	0	0	0	0	0	0	0
0	0	0	0	0	0	0	0	0	0	0	0	0	0	0	0	0	1298	1298	1310	1310	1310	1309	1309	1311	1311	1309	1309	1309	1307	1307	1307	1307	1309	0	0	0	0	0	0	0	0	0	0	0	0	0	0	0	0	0	0	0	0	0	0	0	0	0	0	0	0	0	0	0	0	0	0	0	0	0	0	0	0	0	0	0	0	0	0	0	0	0	0	0	0	0	0	0	1339	1339	1339	1339	1339	1339	1339	1339	0	0	0	0	0	0	0	0	0	0	0	0	0	0	0	0	0	0	0	0	0	0	0	0	0	0	0	0	0	0	0	0	0	0	0	0	0	0	0	0	0	0	0	0	0	0	0	0	0	0	0	0	0	0	0	0	0	0	0	0	0	0	1373	1372	1372	1373	1373	1376	1376	1383	1383	0	0	1390	1390	1390	1390	1390	1389	1389	1389	1389	1389	1389	1388	1388	1386	1386	1385	1385	1383	1383	1383	1383	1383	1384	1384	1385	1385	1386	1386	1387	1387	1390	1390	1394	1394	1396	1401	1401	1402	1402	1404	1404	1406	1406	1409	1409	1412	1412	1415	1415	1416	1416	1417	1416	1416	1417	1417	1417	1417	1418	1418	1419	1419	1421	1421	1422	1422	1423	1423	1424	1424	1426	1426	1427	1427	1427	1428	1428	1429	1429	1430	1430	1433	1433	1435	1435	1438	1438	1440	1440	1442	1442	1445	1445	1448	1448	1454	1454	1460	1460	1464	1464	1467	1467	1468	1468	1468	1466	1466	1464	1464	1462	1462	1462	1462	1462	1462	1465	1465	1467	1467	1469	1469	1469	1469	1468	1468	1467	1467	1469	1469	1474	1474	1480	1480	1486	1486	1490	1490	1495	1495	1500	1500	1504	1504	1507	1507	1509	1509	1510	1510	1510	1510	1508	1508	1503	1503	1500	1500	1497	1497	1497	1497	1501	1501	1506	1506	1510	1510	1515	1515	1517	1517	1515	1515	1512	1512	1508	1508	1507	1507	1509	1509	1511	1511	1513	1513	1513	1513	1514	1514	1520	1520	1528	1528	1543	1543	1554	1554	1560	1560	1558	1558	1554	1554	1534	1534	1534	1534	1538	1538	1543	1543	1551	1551	1557	1557	1561	1561	1561	1561	1561	1561	1560	1560	1559	1559	1560	1560	1559	1559	0	0	0	0	0	3196	3196	3196	3196	3189	3189	3179	3179	3157	3157	3129	3129	3097	3097	3070	3070	3054	3054	3045	3045	3035	3035	3032	3032	3010	3010	2948	2948	2934	2934	2934	2934	2942	3030	3030	3030	3030	3030	3030	2401	2401	2401	2401	2395	2395	2383	2383	2366	2366	2350	2350	2332	2316	2316	2298	2298	2286	2286	2235	2235	2207	2207	2204	2204	2201	2201	2199	2199	2191	2180	2180	2167	2167	2153	2153	2141	2141	2132	2132	2124	2124	2117	2117	2108	2094	2094	2076	2076	2055	2055	2031	2031	2010	2010	1997	1997	1988	1988	1980	1971	1971	1960	1960	1949	1949	1936	1936	1921	1921	1906	1906	1891	1876	1876	1862	1862	1848	1848	1836	1836	1824	1824	1810	1810	1796	1796	1782	1768	1768	1756	1756	1745	1745	1734	1734	1722	1722	1710	1710	1696	1696	1682	1682	1668	1652	1652	1635	1635	1621	1621	1609	1609	1600	1600	1590	1590	1579	1579	1570	1570	1563	1563	1559	1559	1555	1555	1550	1550	1544	1539	1539	1535	1535	1532	1532	1529	1529	1525	1525	1520	1520	1514	1514	1505	1505	1495	1495	1483	1483	1470	1470	1458	1458	1447	1447	1435	1435	1425	1425	1415	1415	1407	1407	1401	1401	1401	1396	1396	1389	1389	1381	1381	1373	1373	1364	1364	1356	1356	1350	1350	1347	1347	1345	1345	1345	1345	1345	0	0	0	0	0	0	0	0
0	0	0	0	0	0	0	0	0	0	0	0	0	0	0	0	0	1298	1298	1310	1310	1310	1309	1309	1311	1311	1309	1309	1309	1307	1307	1307	1307	1309	1309	1309	1312	1312	1315	1315	1317	1317	1317	1317	1317	1317	1317	1317	1317	1318	1318	1320	1320	1325	1325	1326	1326	1326	1328	1328	1328	1328	1328	1328	1329	1329	1329	1329	1330	1330	1331	1331	1332	1332	1333	1333	1333	1334	1334	1335	1335	1335	1335	1335	1335	1337	1337	1339	1339	1339	1339	1339	1339	1339	1339	1339	1339	1339	1339	1343	1343	0	0	1352	1352	1356	1356	1359	1359	1362	1362	1366	1366	1368	1368	1365	1365	1363	1363	1361	1358	1358	1360	1360	1363	1363	1366	1366	1366	1366	1365	1365	1363	1363	1362	1362	1364	1364	1365	1365	1368	1368	1373	1372	1372	1373	1373	1373	1373	1374	1374	1374	1374	1374	1374	1374	1374	1373	1373	1373	1373	1373	1375	1375	1378	1378	1383	1383	1387	1387	1390	1390	1391	1391	1389	1389	1389	1389	1389	1388	1388	1388	1388	1386	1386	1384	1384	1382	1382	1382	1384	1384	1386	1386	1387	1387	1387	1387	1389	1389	1391	1391	1394	1394	1398	1401	1401	1402	1402	1403	1403	1405	1405	1408	1408	1411	1411	1415	1415	1416	1416	1416	1416	1416	1416	1416	1417	1417	1419	1419	1421	1421	1422	1422	1423	1423	1424	1424	1424	1424	1426	1426	1427	1428	1428	1428	1428	1432	1432	1432	1432	1434	1434	1436	1436	1436	1436	1442	1442	1442	1442	1446	1446	1450	1450	1456	1456	1462	1462	1466	1466	1468	1468	1469	1469	1469	1466	1466	1464	1464	1462	1462	1463	1463	1465	1465	1467	1467	1469	1469	1470	1470	1470	1470	1468	1468	1466	1466	1468	1468	1474	1474	1480	1480	1485	1485	1490	1490	1495	1495	1500	1500	1504	1504	1507	1507	1509	1509	1510	1510	1510	1510	1508	1508	1503	1503	1500	1500	1497	1497	1497	1497	1501	1501	1506	1506	1510	1510	1514	1514	1517	1517	1519	1519	1517	1517	1514	1514	1512	1512	1511	1511	1513	1513	1513	1513	1513	1513	1513	1513	1517	1517	1528	1528	1540	1540	1552	1552	1557	1557	1554	1554	1545	1545	1534	1534	1534	1534	1537	1537	1543	1543	1551	1551	1557	1557	1560	1560	1560	1560	1558	1558	1557	1557	1557	1557	1558	1558	1559	1559	1557	1557	0	0	0	0	0	3193	3193	3185	3185	3173	3173	3151	3151	3125	3125	3098	3098	3074	3074	3059	3059	3052	3052	3048	3048	3042	3042	3035	3035	2957	2957	2934	2934	2927	2927	2930	3041	3041	3041	3041	3041	3041	2397	2397	2397	2397	2384	2384	2374	2374	2361	2361	2349	2349	2332	2332	2316	2294	2294	2269	2269	2229	2229	2214	2214	2208	2208	2203	2203	2198	2198	2190	2180	2180	2167	2167	2153	2153	2140	2140	2131	2131	2125	2125	2119	2119	2109	2095	2095	2077	2077	2054	2054	2028	2028	2002	2002	1994	1994	1985	1985	1979	1971	1971	1961	1961	1950	1950	1937	1937	1924	1924	1910	1910	1895	1879	1879	1865	1865	1851	1851	1839	1839	1826	1826	1812	1812	1797	1797	1783	1770	1770	1758	1758	1747	1747	1734	1734	1721	1721	1706	1706	1691	1691	1677	1677	1662	1648	1648	1633	1633	1621	1621	1611	1611	1602	1602	1592	1592	1583	1583	1573	1573	1565	1565	1559	1559	1552	1552	1546	1541	1541	1536	1536	1533	1533	1531	1531	1529	1529	1526	1526	1521	1521	1514	1514	1504	1504	1493	1493	1481	1481	1468	1468	1456	1456	1445	1445	1435	1435	1425	1425	1416	1416	1409	1409	1403	1403	1403	1398	1398	1391	1391	1383	1383	1374	1374	1367	1367	1360	1360	1355	1355	1350	1350	1349	1349	1348	1348	1348	0	0	0	0	0	0	0	0
0	0	0	0	0	0	0	0	0	0	0	0	1287	1287	1287	1277	1277	1298	1298	1307	1307	1307	1310	1310	1310	1310	1307	1307	1307	1305	1305	1306	1306	1309	1309	1309	1313	1312	1315	1315	1317	1317	1317	1317	1317	1317	1317	1317	1317	1318	1318	1320	1320	1325	1325	1326	1326	1326	1328	1328	1328	1328	1328	1328	1329	1329	1329	1329	1330	1330	1331	1331	1332	1332	1333	1333	1333	1334	1334	1335	1335	1335	1335	1335	1335	1337	1337	1339	1339	1339	1339	1339	1339	1339	1339	1339	1339	1339	1339	1343	1343	0	0	1352	1352	1356	1356	1359	1359	1362	1362	1366	1366	1368	1368	1365	1365	1363	1363	1361	1358	1358	1360	1360	1363	1363	1366	1366	1366	1366	1365	1365	1363	1363	1362	1362	1364	1364	1365	1365	1368	1368	1373	1372	1372	1373	1373	1373	1373	1374	1374	1374	1374	1374	1374	1374	1374	1373	1373	1373	1373	1373	1375	1375	1378	1378	1383	1383	1387	1387	1390	1390	1391	1391	1389	1389	1389	1389	1389	1388	1388	1388	1388	1386	1386	1384	1384	1382	1382	1382	1384	1384	1386	1386	1387	1387	1387	1387	1389	1389	1391	1391	1394	1394	1398	1401	1401	1402	1402	1403	1403	1405	1405	1408	1408	1411	1411	1415	1415	1416	1416	1416	1416	1416	1416	1416	1417	1417	1419	1419	1421	1421	1422	1422	1423	1423	1424	1424	1424	1424	1426	1426	1427	1428	1428	1428	1428	1432	1432	1432	1432	1434	1434	1436	1436	1436	1436	1442	1442	1442	1442	1446	1446	1450	1450	1456	1456	1462	1462	1466	1466	1468	1468	1469	1469	1469	1466	1466	1464	1464	1462	1462	1463	1463	1465	1465	1467	1467	1469	1469	1470	1470	1470	1470	1468	1468	1466	1466	1468	1468	1474	1474	1480	1480	1485	1485	1490	1490	1495	1495	1500	1500	1504	1504	1507	1507	1509	1509	1510	1510	1510	1510	1508	1508	1503	1503	1500	1500	1497	1497	1497	1497	1501	1501	1506	1506	1510	1510	1514	1514	1517	1517	1519	1519	1517	1517	1514	1514	1512	1512	1511	1511	1513	1513	1513	1513	1513	1513	1513	1513	1517	1517	1528	1528	1540	1540	1552	1552	1557	1557	1554	1554	1545	1545	1534	1534	1534	1534	1537	1537	1543	1543	1551	1551	1557	1557	1560	1560	1560	1560	1558	1558	1557	1557	1557	1557	1558	1558	1559	1559	1557	1557	0	0	0	0	0	3193	3193	3185	3185	3173	3173	3151	3151	3125	3125	3098	3098	3074	3074	3059	3059	3052	3052	3048	3048	3042	3042	3035	3035	2957	2957	2934	2934	2927	2927	2930	3041	3041	3041	3041	3041	3041	2397	2397	2397	2397	2384	2384	2374	2374	2361	2361	2349	2349	2332	2332	2316	2294	2294	2269	2269	2229	2229	2214	2214	2208	2208	2203	2203	2198	2198	2190	2180	2180	2167	2167	2153	2153	2140	2140	2131	2131	2125	2125	2119	2119	2109	2095	2095	2077	2077	2054	2054	2028	2028	2002	2002	1994	1994	1985	1985	1979	1971	1971	1961	1961	1950	1950	1937	1937	1924	1924	1910	1910	1895	1879	1879	1865	1865	1851	1851	1839	1839	1826	1826	1812	1812	1797	1797	1783	1770	1770	1758	1758	1747	1747	1734	1734	1721	1721	1706	1706	1691	1691	1677	1677	1662	1648	1648	1633	1633	1621	1621	1611	1611	1602	1602	1592	1592	1583	1583	1573	1573	1565	1565	1559	1559	1552	1552	1546	1541	1541	1536	1536	1533	1533	1531	1531	1529	1529	1526	1526	1521	1521	1514	1514	1504	1504	1493	1493	1481	1481	1468	1468	1456	1456	1445	1445	1435	1435	1425	1425	1416	1416	1409	1409	1403	1403	1398	1398	1398	1391	1391	1383	1383	1374	1374	1367	1367	1360	1360	1355	1355	1350	1350	1349	1349	1348	1348	1348	0	0	0	0	0	0	0	0
0	0	0	0	0	0	0	0	0	0	0	0	1287	1287	1287	1277	1277	1298	1298	1307	1307	1307	1310	1310	1310	1310	1307	1307	1307	1305	1305	1306	1306	1309	1309	1309	1313	1313	1316	1316	1316	1316	1316	1316	1316	1315	1315	1316	1316	1318	1318	1321	1321	1325	1325	1328	1328	1328	1329	1329	1329	1329	1329	1329	1330	1330	1331	1331	1332	1332	1333	1333	1333	1333	1333	1334	1334	1334	1334	1334	1334	1334	1334	1335	1335	1338	1338	1340	1340	1341	1341	1340	1340	1339	1339	1339	1339	1340	1340	1343	1343	1348	1348	1352	1352	1356	1356	1359	1359	1363	1363	1366	1366	1367	1367	1364	1364	1361	1361	1358	1358	1358	1360	1360	1363	1363	1366	1366	1366	1366	1364	1364	1362	1362	1362	1362	1364	1364	1366	1366	1370	1370	1373	1374	1374	1375	1375	1376	1376	1377	1377	1377	1377	1376	1376	1374	1374	1373	1373	1374	1375	1375	1376	1376	1382	1382	1388	1388	1393	1393	1392	1392	1391	1391	1390	1388	1388	1388	1388	1388	1388	1387	1387	1386	1386	1384	1384	1383	1383	1383	1384	1384	1386	1386	1388	1388	1389	1389	1389	1389	1393	1393	1397	1397	1400	1401	1401	1402	1402	1402	1402	1404	1404	1407	1407	1410	1410	1413	1413	1415	1415	1416	1416	1416	1416	1416	1417	1417	1419	1419	1421	1421	1423	1423	1423	1423	1424	1424	1425	1425	1426	1426	1427	1429	1429	1431	1431	1434	1434	1435	1435	1435	1435	1436	1436	1439	1439	1442	1442	1445	1445	1447	1447	1450	1450	1456	1456	1462	1462	1467	1467	1470	1470	1471	1471	1470	1468	1468	1465	1465	1465	1465	1466	1466	1467	1467	1469	1469	1472	1472	1473	1473	1471	1471	1469	1469	1467	1467	1470	1470	1476	1476	1482	1482	1488	1488	1493	1493	1497	1497	1501	1501	1505	1505	1507	1507	1509	1509	1509	1509	1509	1509	1507	1507	1504	1504	1502	1502	1501	1501	1502	1502	1506	1506	1509	1509	1512	1512	1516	1516	1519	1519	1520	1520	1521	1521	1517	1517	1516	1516	1515	1515	1514	1514	1513	1513	1512	1512	1512	1512	1516	1516	1524	1524	1534	1534	1543	1543	1546	1546	1544	1544	1540	1540	1534	1534	1535	1535	1540	1540	1546	1546	1552	1552	1556	1556	1556	1556	1554	1554	1551	1551	1549	1549	1551	1551	1554	1554	1555	1555	1557	1557	0	0	0	0	0	3193	3193	3179	3179	3164	3164	3142	3142	3118	3118	3098	3098	3080	3080	3070	3070	3063	3063	3061	3061	3052	3052	3055	3055	2988	2988	2938	2938	2930	2930	2928	3045	3045	3045	3045	3045	3045	2423	2423	2423	2423	2372	2372	2365	2365	2359	2359	2349	2349	2334	2334	2315	2292	2292	2266	2266	2241	2241	2222	2222	2213	2213	2208	2208	2202	2202	2194	2184	2184	2171	2171	2157	2157	2144	2144	2134	2134	2127	2127	2121	2121	2110	2095	2095	2076	2076	2057	2057	2025	2025	1999	1999	1991	1991	1983	1983	1976	1968	1968	1959	1959	1948	1948	1936	1936	1924	1924	1912	1912	1898	1882	1882	1867	1867	1853	1853	1841	1841	1828	1828	1813	1813	1798	1798	1783	1771	1771	1761	1761	1749	1749	1736	1736	1721	1721	1704	1704	1688	1688	1674	1674	1661	1648	1648	1635	1635	1624	1624	1615	1615	1606	1606	1597	1597	1587	1587	1575	1575	1566	1566	1557	1557	1549	1549	1542	1537	1537	1534	1534	1533	1533	1532	1532	1530	1530	1527	1527	1522	1522	1513	1513	1502	1502	1489	1489	1477	1477	1465	1465	1454	1454	1443	1443	1434	1434	1426	1426	1418	1418	1412	1412	1407	1407	1401	1401	1401	1394	1394	1385	1385	1377	1377	1370	1370	1364	1364	1359	1359	1354	1354	1351	1351	1350	1350	1350	0	0	0	0	0	0	0	0
0	0	0	0	0	0	0	0	0	0	1282	1282	1287	1287	1287	1290	1290	1301	1301	1310	1310	1310	1311	1311	1310	1310	1307	1307	1307	1305	1305	1306	1306	1309	1309	1309	1313	1313	1316	1316	1316	1316	1316	1316	1316	1315	1315	1316	1316	1318	1318	1321	1321	1325	1325	1328	1328	1328	1329	1329	1329	1329	1329	1329	1330	1330	1331	1331	1332	1332	1333	1333	1333	1333	1333	1334	1334	1334	1334	1334	1334	1334	1334	1335	1335	1338	1338	1340	1340	1341	1341	1340	1340	1339	1339	1339	1339	1340	1340	1343	1343	1348	1348	1352	1352	1356	1356	1359	1359	1363	1363	1366	1366	1367	1367	1364	1364	1361	1361	1358	1358	1358	1360	1360	1363	1363	1366	1366	1366	1366	1364	1364	1362	1362	1362	1362	1364	1364	1366	1366	1370	1370	1373	1374	1374	1375	1375	1376	1376	1377	1377	1377	1377	1376	1376	1374	1374	1373	1373	1374	1375	1375	1376	1376	1382	1382	1388	1388	1393	1393	1392	1392	1391	1391	1390	1388	1388	1388	1388	1388	1388	1387	1387	1386	1386	1384	1384	1383	1383	1383	1384	1384	1386	1386	1388	1388	1389	1389	1389	1389	1393	1393	1397	1397	1400	1401	1401	1402	1402	1402	1402	1404	1404	1407	1407	1410	1410	1413	1413	1415	1415	1416	1416	1416	1416	1416	1417	1417	1419	1419	1421	1421	1423	1423	1423	1423	1424	1424	1425	1425	1426	1426	1427	1429	1429	1431	1431	1434	1434	1435	1435	1435	1435	1436	1436	1439	1439	1442	1442	1445	1445	1447	1447	1450	1450	1456	1456	1462	1462	1467	1467	1470	1470	1471	1471	1470	1468	1468	1465	1465	1465	1465	1466	1466	1467	1467	1469	1469	1472	1472	1473	1473	1471	1471	1469	1469	1467	1467	1470	1470	1476	1476	1482	1482	1488	1488	1493	1493	1497	1497	1501	1501	1505	1505	1507	1507	1509	1509	1509	1509	1509	1509	1507	1507	1504	1504	1502	1502	1501	1501	1502	1502	1506	1506	1509	1509	1512	1512	1516	1516	1519	1519	1520	1520	1521	1521	1517	1517	1516	1516	1515	1515	1514	1514	1513	1513	1512	1512	1512	1512	1516	1516	1524	1524	1534	1534	1543	1543	1546	1546	1544	1544	1540	1540	1534	1534	1535	1535	1540	1540	1546	1546	1552	1552	1556	1556	1556	1556	1554	1554	1551	1551	1549	1549	1551	1551	1554	1554	1555	1555	1557	1557	0	0	0	0	0	3193	3193	3179	3179	3164	3164	3142	3142	3118	3118	3098	3098	3080	3080	3070	3070	3063	3063	3061	3061	3052	3052	3055	3055	2988	2988	2938	2938	2930	2930	2928	3045	3045	3045	3045	3045	3045	2423	2423	2423	2423	2372	2372	2365	2365	2359	2359	2349	2349	2334	2334	2315	2292	2292	2266	2266	2241	2241	2222	2222	2213	2213	2208	2208	2202	2202	2194	2184	2184	2171	2171	2157	2157	2144	2144	2134	2134	2127	2127	2121	2121	2110	2095	2095	2076	2076	2057	2057	2025	2025	1999	1999	1991	1991	1983	1983	1976	1968	1968	1959	1959	1948	1948	1936	1936	1924	1924	1912	1912	1898	1882	1882	1867	1867	1853	1853	1841	1841	1828	1828	1813	1813	1798	1798	1783	1771	1771	1761	1761	1749	1749	1736	1736	1721	1721	1704	1704	1688	1688	1674	1674	1661	1648	1648	1635	1635	1624	1624	1615	1615	1606	1606	1597	1597	1587	1587	1575	1575	1566	1566	1557	1557	1549	1549	1542	1537	1537	1534	1534	1533	1533	1532	1532	1530	1530	1527	1527	1522	1522	1513	1513	1502	1502	1489	1489	1477	1477	1465	1465	1454	1454	1443	1443	1434	1434	1426	1426	1418	1418	1412	1412	1407	1407	1401	1401	1401	1394	1394	1385	1385	1377	1377	1370	1370	1364	1364	1359	1359	1354	1354	1351	1351	1350	1350	1350	0	0	0	0	0	0	0	0
0	0	0	0	0	0	0	0	0	0	1282	1282	1287	1287	1287	1290	1290	1301	1301	1310	1310	1310	1311	1311	1310	1310	1307	1307	1307	1305	1305	1306	1306	1309	1309	1309	1313	1313	1316	1316	1317	1317	1316	1316	1316	1315	1315	1316	1316	1318	1318	1322	1322	1326	1326	1329	1329	1329	1329	1329	1330	1330	1330	1330	1331	1331	1332	1332	1333	1333	1333	1333	1333	1333	1333	1333	1333	1334	1334	1334	1334	1334	1334	1335	1335	1339	1339	1341	1341	1342	1342	1342	1342	1340	1340	1339	1339	1342	1342	1345	1345	1349	1349	1353	1353	1356	1356	1359	1359	1362	1362	1364	1364	1366	1366	1365	1365	1361	1361	1357	1357	1357	1360	1360	1365	1365	1367	1367	1367	1367	1364	1364	1362	1362	1361	1361	1364	1364	1368	1368	1372	1372	1375	1376	1376	1377	1377	1378	1378	1378	1378	1378	1378	1377	1377	1375	1375	1374	1374	1375	1378	1378	1382	1382	1387	1387	1392	1392	1395	1395	1395	1395	1393	1393	1390	1388	1388	1387	1387	1387	1387	1387	1387	1386	1386	1385	1385	1384	1384	1384	1386	1386	1388	1388	1390	1390	1391	1391	1393	1393	1396	1396	1400	1400	1402	1402	1402	1401	1401	1400	1400	1401	1401	1403	1403	1407	1407	1410	1410	1412	1412	1413	1414	1414	1416	1416	1417	1417	1420	1420	1422	1422	1424	1424	1425	1425	1425	1425	1426	1426	1426	1426	1427	1429	1429	1431	1431	1434	1434	1435	1435	1436	1436	1437	1437	1439	1439	1442	1442	1446	1446	1448	1448	1453	1453	1458	1458	1463	1463	1467	1467	1471	1471	1472	1471	1471	1469	1469	1468	1468	1468	1468	1470	1470	1472	1472	1474	1474	1475	1475	1475	1475	1473	1473	1471	1471	1471	1471	1474	1474	1480	1480	1487	1487	1492	1492	1495	1495	1498	1498	1501	1501	1504	1504	1506	1506	1508	1508	1509	1509	1509	1509	1508	1508	1506	1506	1504	1504	1503	1503	1503	1503	1506	1506	1509	1509	1512	1512	1515	1515	1519	1519	1523	1523	1524	1524	1519	1519	1515	1515	1513	1513	1510	1510	1509	1509	1508	1508	1509	1509	1513	1513	1520	1520	1528	1528	1535	1535	1537	1537	1537	1537	1535	1535	1534	1534	1538	1538	1542	1542	1548	1548	1551	1551	1552	1552	1551	1551	1548	1548	1544	1544	1544	1544	1548	1548	1553	1553	1557	1557	1559	1559	0	0	0	0	0	3193	3193	3177	3177	3166	3166	3145	3145	3122	3122	3102	3102	3094	3094	3085	3085	3079	3079	3074	3074	3063	3063	3062	3062	3012	3012	2939	2939	2935	2935	2929	2986	2986	3067	3067	3063	3063	2434	2434	2434	2434	2379	2379	2368	2368	2362	2362	2351	2351	2335	2335	2316	2293	2293	2268	2268	2243	2243	2226	2226	2219	2219	2214	2214	2208	2208	2200	2191	2191	2178	2178	2164	2164	2151	2151	2139	2139	2132	2132	2123	2123	2110	2095	2095	2075	2075	2050	2050	2015	2015	1998	1998	1988	1988	1980	1980	1973	1964	1964	1954	1954	1943	1943	1932	1932	1922	1922	1912	1912	1899	1884	1884	1869	1869	1855	1855	1843	1843	1829	1829	1813	1813	1798	1798	1785	1774	1774	1764	1764	1753	1753	1741	1741	1725	1725	1705	1705	1689	1689	1675	1675	1663	1652	1652	1639	1639	1628	1628	1619	1619	1611	1611	1601	1601	1590	1590	1576	1576	1563	1563	1553	1553	1544	1544	1538	1534	1534	1534	1534	1534	1534	1534	1534	1532	1532	1529	1529	1523	1523	1512	1512	1498	1498	1486	1486	1473	1473	1461	1461	1452	1452	1443	1443	1435	1435	1427	1427	1419	1419	1414	1414	1410	1410	1405	1405	1405	1397	1397	1388	1388	1380	1380	1373	1373	1367	1367	1361	1361	1356	1356	1353	1353	1351	1351	1351	0	0	0	0	0	0	0	0
0	0	0	0	0	0	0	0	0	0	1288	1288	1291	1291	1291	1295	1295	1304	1304	1308	1308	1308	1311	1311	1309	1309	1306	1306	1306	1304	1304	1306	1306	1310	1310	1310	1314	1314	1315	1315	1314	1314	1314	1314	1316	1315	1315	1316	1316	1318	1318	1322	1322	1326	1326	1329	1329	1329	1329	1329	1330	1330	1330	1330	1331	1331	1332	1332	1333	1333	1333	1333	1333	1333	1333	1333	1333	1334	1334	1334	1334	1334	1334	1335	1335	1339	1339	1341	1341	1342	1342	1342	1342	1340	1340	1339	1339	1342	1342	1345	1345	1349	1349	1353	1353	1356	1356	1359	1359	1362	1362	1364	1364	1366	1366	1365	1365	1361	1361	1357	1357	1357	1360	1360	1365	1365	1367	1367	1367	1367	1364	1364	1362	1362	1361	1361	1364	1364	1368	1368	1372	1372	1375	1376	1376	1377	1377	1378	1378	1378	1378	1378	1378	1377	1377	1375	1375	1374	1374	1375	1378	1378	1382	1382	1387	1387	1392	1392	1395	1395	1395	1395	1393	1393	1390	1388	1388	1387	1387	1387	1387	1387	1387	1386	1386	1385	1385	1384	1384	1384	1386	1386	1388	1388	1390	1390	1391	1391	1393	1393	1396	1396	1400	1400	1402	1402	1402	1401	1401	1400	1400	1401	1401	1403	1403	1407	1407	1410	1410	1412	1412	1413	1414	1414	1416	1416	1417	1417	1420	1420	1422	1422	1424	1424	1425	1425	1425	1425	1426	1426	1426	1426	1427	1429	1429	1431	1431	1434	1434	1435	1435	1436	1436	1437	1437	1439	1439	1442	1442	1446	1446	1448	1448	1453	1453	1458	1458	1463	1463	1467	1467	1471	1471	1472	1471	1471	1469	1469	1468	1468	1468	1468	1470	1470	1472	1472	1474	1474	1475	1475	1475	1475	1473	1473	1471	1471	1471	1471	1474	1474	1480	1480	1487	1487	1492	1492	1495	1495	1498	1498	1501	1501	1504	1504	1506	1506	1508	1508	1509	1509	1509	1509	1508	1508	1506	1506	1504	1504	1503	1503	1503	1503	1506	1506	1509	1509	1512	1512	1515	1515	1519	1519	1523	1523	1524	1524	1519	1519	1515	1515	1513	1513	1510	1510	1509	1509	1508	1508	1509	1509	1513	1513	1520	1520	1528	1528	1535	1535	1537	1537	1537	1537	1535	1535	1534	1534	1538	1538	1542	1542	1548	1548	1551	1551	1552	1552	1551	1551	1548	1548	1544	1544	1544	1544	1548	1548	1553	1553	1557	1557	1559	1559	0	0	0	0	0	3193	3193	3177	3177	3166	3166	3145	3145	3122	3122	3102	3102	3094	3094	3085	3085	3079	3079	3074	3074	3063	3063	3062	3062	3012	3012	2939	2939	2935	2935	2929	2986	2986	3067	3067	3063	3063	2434	2434	2434	2434	2379	2379	2368	2368	2362	2362	2351	2351	2335	2335	2316	2293	2293	2268	2268	2243	2243	2226	2226	2219	2219	2214	2214	2208	2208	2200	2191	2191	2178	2178	2164	2164	2151	2151	2139	2139	2132	2132	2123	2123	2110	2095	2095	2075	2075	2050	2050	2015	2015	1998	1998	1988	1988	1980	1980	1973	1964	1964	1954	1954	1943	1943	1932	1932	1922	1922	1912	1912	1899	1884	1884	1869	1869	1855	1855	1843	1843	1829	1829	1813	1813	1798	1798	1785	1774	1774	1764	1764	1753	1753	1741	1741	1725	1725	1705	1705	1689	1689	1675	1675	1663	1652	1652	1639	1639	1628	1628	1619	1619	1611	1611	1601	1601	1590	1590	1576	1576	1563	1563	1553	1553	1544	1544	1538	1534	1534	1534	1534	1534	1534	1534	1534	1532	1532	1529	1529	1523	1523	1512	1512	1498	1498	1486	1486	1473	1473	1461	1461	1452	1452	1443	1443	1435	1435	1427	1427	1419	1419	1414	1414	1410	1410	1405	1405	1405	1397	1397	1388	1388	1380	1380	1373	1373	1367	1367	1361	1361	1356	1356	1353	1353	1351	1351	1351	0	0	0	0	0	0	0	0
0	0	0	0	0	0	0	0	0	0	1288	1288	1291	1291	1291	1295	1295	1304	1304	1308	1308	1308	1311	1311	1309	1309	1306	1306	1306	1304	1304	1306	1306	1310	1310	1310	1314	1314	1315	1315	1314	1314	1314	1314	1314	1314	1314	1316	1316	1319	1319	1323	1323	1327	1327	1330	1330	1330	1331	1331	1331	1331	1332	1332	1334	1334	1335	1335	1336	1336	1336	1336	1336	1336	1336	1334	1334	1333	1333	1333	1333	1335	1335	1337	1337	1341	1341	1344	1344	1345	1345	1344	1344	1342	1342	1341	1341	1343	1343	1346	1346	1349	1349	1352	1352	1356	1356	1358	1358	1361	1361	1363	1363	1363	1363	1362	1362	1359	1359	1357	1357	1357	1360	1360	1364	1364	1366	1366	1365	1365	1363	1363	1361	1361	1362	1362	1365	1365	1370	1370	1375	1375	1379	1381	1381	1383	1383	1384	1384	1384	1384	1384	1384	1381	1381	1378	1378	1377	1377	1379	1384	1384	1389	1389	1394	1394	1398	1398	1398	1398	1396	1396	1393	1393	1389	1386	1386	1386	1386	1387	1387	1388	1388	1388	1388	1386	1386	1385	1385	1386	1387	1387	1389	1389	1391	1391	1393	1393	1396	1396	1400	1400	1403	1403	1404	1403	1403	1401	1401	1398	1398	1398	1398	1399	1399	1402	1402	1405	1405	1407	1407	1410	1412	1412	1415	1415	1417	1417	1420	1420	1422	1422	1425	1425	1426	1426	1426	1426	1427	1427	1426	1426	1427	1429	1429	1432	1432	1434	1434	1435	1435	1436	1436	1437	1437	1438	1438	1442	1442	1446	1446	1450	1450	1454	1454	1458	1458	1462	1462	1466	1466	1469	1469	1470	1470	1470	1470	1470	1469	1469	1469	1469	1471	1471	1474	1474	1476	1476	1476	1476	1475	1475	1474	1474	1472	1472	1473	1473	1481	1481	1481	1481	1487	1487	1492	1492	1496	1496	1499	1499	1502	1502	1502	1502	0	0	0	0	1509	1509	1509	1509	1508	1508	1507	1507	1507	1507	1507	1507	0	0	0	0	1509	1509	1948	1948	1515	1515	0	0	1535	1535	1535	1535	1533	1533	1523	1523	1510	1510	1504	1504	1503	1503	1503	1503	1505	1505	1510	1510	1517	1517	1523	1523	1528	1528	1530	1530	1531	1531	1533	1533	1535	1535	1541	1541	1545	1545	1549	1549	1550	1550	1548	1548	1546	1546	1542	1542	1541	1541	1543	1543	1548	1548	1555	1555	1560	1560	1561	1561	0	0	0	0	0	3813	3813	3811	3811	3809	3809	3806	3806	3804	3804	3801	3801	3097	3097	3097	3097	3091	3091	3085	3085	3073	3073	3066	3066	3071	3071	2942	2942	2945	2945	2931	2986	2986	3088	3088	3082	3082	2433	2433	2433	2433	2389	2389	2368	2368	2364	2364	2352	2352	2336	2336	2316	2297	2297	2265	2265	2246	2246	2230	2230	2222	2222	2219	2219	2214	2214	2208	2199	2199	2187	2187	2173	2173	2159	2159	2148	2148	2140	2140	2129	2129	2115	2098	2098	2080	2080	2054	2054	2024	2024	2002	2002	1987	1987	1978	1978	1969	1958	1958	1950	1950	1937	1937	1927	1927	1919	1919	1909	1909	1896	1882	1882	1868	1868	1855	1855	1842	1842	1829	1829	1814	1814	1800	1800	1788	1778	1778	1770	1770	1761	1761	1753	1753	1734	1734	1703	1703	1689	1689	1679	1679	1669	1657	1657	1645	1645	1632	1632	1623	1623	1614	1614	1603	1603	1590	1590	1575	1575	1560	1560	1548	1548	1540	1540	1535	1534	1534	1535	1535	1537	1537	1537	1537	1535	1535	1531	1531	1522	1522	1510	1510	1496	1496	1482	1482	1470	1470	1460	1460	1452	1452	1444	1444	1437	1437	1429	1429	1422	1422	1417	1417	1413	1413	1408	1408	1408	1400	1400	1391	1391	1383	1383	1376	1376	1370	1370	1363	1363	1357	1357	1355	1355	1353	1353	1353	0	0	0	0	0	0	0	0
0	0	0	0	0	0	0	0	0	0	1293	1293	1295	1295	1295	1300	1300	1305	1305	1310	1310	1310	1311	1311	1309	1309	1306	1306	1306	1305	1305	1308	1308	1313	1313	1313	1316	1316	1316	1316	1314	1314	1314	1314	1314	1314	1314	1317	1316	1319	1319	1323	1323	1327	1327	1327	1330	1330	1331	1331	1331	1331	1332	1332	1334	1334	1335	1335	1336	1336	1336	1336	1336	1336	1336	1334	1334	1333	1333	1333	1333	1335	1335	1337	1337	1341	1341	1344	1344	1345	1345	1344	1344	1342	1342	1341	1341	1343	1343	1346	1346	1349	1349	1352	1352	1356	1356	1358	1358	1361	1361	1363	1363	1363	1363	1362	1362	1359	1359	1357	1357	1357	1360	1360	1364	1364	1366	1366	1365	1365	1363	1363	1361	1361	1362	1362	1365	1365	1370	1370	1375	1375	1379	1381	1381	1383	1383	1384	1384	1384	1384	1384	1384	1381	1381	1378	1378	1377	1377	1379	1384	1384	1389	1389	1394	1394	1398	1398	1398	1398	1396	1396	1393	1393	1389	1386	1386	1386	1386	1387	1387	1388	1388	1388	1388	1386	1386	1385	1385	1386	1387	1387	1389	1389	1391	1391	1393	1393	1396	1396	1400	1400	1403	1403	1404	1403	1403	1401	1401	1398	1398	1398	1398	1399	1399	1402	1402	1405	1405	1407	1407	1410	1412	1412	1415	1415	1417	1417	1420	1420	1422	1422	1425	1425	1426	1426	1426	1426	1427	1427	1426	1426	1427	1429	1429	1432	1432	1434	1434	1435	1435	1436	1436	1437	1437	1438	1438	1442	1442	1446	1446	1450	1450	1454	1454	1458	1458	1462	1462	1466	1466	1469	1469	1470	1470	1470	1470	1470	1469	1469	1469	1469	1471	1471	1474	1474	1476	1476	1476	1476	1475	1475	1474	1474	1472	1472	1473	1473	1481	1481	1481	1481	1487	1487	1492	1492	1496	1496	1499	1499	1502	1502	1502	1502	0	0	0	0	1509	1509	1509	1509	1508	1508	1507	1507	1507	1507	1507	1507	0	0	0	0	1509	1509	1948	1948	1515	1515	0	0	1535	1535	1535	1535	1533	1533	1523	1523	1510	1510	1504	1504	1503	1503	1503	1503	1505	1505	1510	1510	1517	1517	1523	1523	1528	1528	1530	1530	1531	1531	1533	1533	1535	1535	1541	1541	1545	1545	1549	1549	1550	1550	1548	1548	1546	1546	1542	1542	1541	1541	1543	1543	1548	1548	1555	1555	1560	1560	1561	1561	0	0	0	0	0	3813	3813	3811	3811	3809	3809	3806	3806	3804	3804	3801	3801	3097	3097	3097	3097	3091	3091	3085	3085	3073	3073	3066	3066	3071	3071	2942	2942	2945	2945	2931	2986	2986	3088	3088	3082	3082	2433	2433	2433	2433	2389	2389	2368	2368	2364	2364	2352	2352	2336	2336	2316	2297	2297	2265	2265	2246	2246	2230	2230	2222	2222	2219	2219	2214	2214	2208	2199	2199	2187	2187	2173	2173	2159	2159	2148	2148	2140	2140	2129	2129	2115	2098	2098	2080	2080	2054	2054	2024	2024	2002	2002	1987	1987	1978	1978	1969	1958	1958	1950	1950	1937	1937	1927	1927	1919	1919	1909	1909	1896	1882	1882	1868	1868	1855	1855	1842	1842	1829	1829	1814	1814	1800	1800	1788	1778	1778	1770	1770	1761	1761	1753	1753	1734	1734	1703	1703	1689	1689	1679	1679	1669	1657	1657	1645	1645	1632	1632	1623	1623	1614	1614	1603	1603	1590	1590	1575	1575	1560	1560	1548	1548	1540	1540	1535	1534	1534	1535	1535	1537	1537	1537	1537	1535	1535	1531	1531	1522	1522	1510	1510	1496	1496	1482	1482	1470	1470	1460	1460	1452	1452	1444	1444	1437	1437	1429	1429	1422	1422	1417	1417	1413	1413	1408	1408	1408	1400	1400	1391	1391	1383	1383	1376	1376	1370	1370	1363	1363	1357	1357	1355	1355	1353	1353	1353	0	0	0	0	0	0	0	0
0	0	0	0	0	0	0	0	0	0	1293	1293	1295	1295	1295	1300	1300	1305	1305	1310	1310	1310	1311	1311	1309	1309	1306	1306	1306	1305	1305	1308	1308	1313	1313	1313	1316	1316	1316	1316	1314	1314	1314	1314	1314	1314	1314	1317	1317	1321	1321	1325	1325	1329	1329	1329	1331	1331	1332	1332	1333	1333	1334	1334	1336	1336	1338	1338	1340	1340	1340	1340	1338	1338	1338	1337	1337	1336	1336	1337	1337	1339	1339	1342	1342	1346	1346	1347	1347	1347	1347	1345	1345	1343	1343	1342	1342	1344	1344	1347	1347	1350	1350	1352	1352	1355	1355	1358	1358	1361	1361	1364	1364	1364	1364	1362	1362	1359	1359	1357	1358	1358	1361	1361	1364	1364	1365	1365	1364	1364	1363	1363	1362	1362	1364	1364	1369	1369	1374	1374	1380	1380	1384	1387	1387	1389	1389	1390	1390	1390	1390	1389	1389	1386	1386	1383	1383	1383	1383	1385	1390	1390	1396	1396	1399	1399	1401	1401	1400	1400	1396	1396	1391	1391	1388	1386	1386	1386	1386	1388	1388	1390	1390	1390	1390	1389	1389	1387	1387	1386	1387	1387	1389	1389	1391	1391	1394	1394	1397	1397	1402	1402	1406	1406	1406	1404	1404	1400	1400	1396	1396	1395	1395	1395	1395	1397	1397	1399	1399	1402	1402	1407	1410	1410	1413	1413	1416	1416	1419	1419	1423	1423	1425	1425	1427	1427	1428	1428	1427	1427	1427	1427	1428	1429	1429	1431	1431	1433	1433	1434	1434	1435	1435	1435	1435	1436	1436	1440	1440	1446	1446	1451	1451	1455	1455	1457	1457	1460	1460	1464	1464	1468	1468	1468	0	0	0	0	0	0	0	0	0	0	0	0	0	0	0	0	0	0	0	0	0	0	0	0	0	0	0	0	0	0	0	0	0	0	0	0	0	0	0	0	0	0	0	0	0	0	0	0	0	0	0	0	0	0	0	0	0	0	0	0	1943	1943	1948	1948	1949	1949	0	0	1545	1545	1545	1545	1550	1550	1550	1550	1556	1556	1499	1499	1495	1495	1497	1497	1501	1501	1507	1507	1513	1513	1518	1518	1523	1523	1526	1526	1528	1528	1530	1530	1534	1534	1540	1540	1545	1545	1548	1548	1548	1548	1545	1545	1541	1541	1539	1539	1541	1541	1545	1545	1552	1552	1558	1558	1562	1562	1563	1563	0	0	0	0	0	3813	3813	3811	3811	3809	3809	3806	3806	3804	3804	3801	3801	3105	3105	3105	3105	3097	3097	3090	3090	3079	3079	3074	3074	3085	3085	3097	3097	3117	3117	3120	3117	3117	3115	3115	3113	3113	3113	3113	0	0	2409	2409	2389	2389	2371	2371	2355	2355	2339	2339	2321	2302	2302	2273	2273	2244	2244	2237	2237	2223	2223	2221	2221	2217	2217	2212	2204	2204	2193	2193	2180	2180	2168	2168	2159	2159	2151	2151	2138	2138	2124	2108	2108	2093	2093	2076	2076	2031	2031	2006	2006	1992	1992	1979	1979	1969	1959	1959	1949	1949	1939	1939	1931	1931	1919	1919	1910	1910	1898	1884	1884	1871	1871	1854	1854	1840	1840	1826	1826	1813	1813	1800	1800	1790	1782	1782	1776	1776	1769	1769	1765	1765	1761	1761	1707	1707	1696	1696	1685	1685	1676	1663	1663	1649	1649	1637	1637	1624	1624	1615	1615	1603	1603	1587	1587	1571	1571	1553	1553	1545	1545	1537	1537	1534	1535	1535	1538	1538	1540	1540	1540	1540	1537	1537	1531	1531	1521	1521	1509	1509	1495	1495	1481	1481	1470	1470	1461	1461	1454	1454	1446	1446	1438	1438	1431	1431	1424	1424	1419	1419	1415	1415	1410	1410	1410	1403	1403	1394	1394	1386	1386	1379	1379	1372	1372	1366	1366	1359	1359	1356	1356	1354	1354	1354	0	0	0	0	0	0	0	0
0	0	0	0	0	0	0	0	0	0	1300	1300	1302	1302	1302	1304	1304	1307	1307	1307	1310	1310	1309	1309	1308	1308	1308	1306	1306	1307	1307	1311	1311	1316	1316	1316	1317	1317	1316	1316	1314	1314	1314	1314	1314	1316	1316	1320	1320	1324	1324	1328	1328	1330	1329	1329	1331	1331	1332	1332	1333	1333	1334	1334	1336	1336	1338	1338	1340	1340	1340	1340	1338	1338	1338	1337	1337	1336	1336	1337	1337	1339	1339	1342	1342	1346	1346	1347	1347	1347	1347	1345	1345	1343	1343	1342	1342	1344	1344	1347	1347	1350	1350	1352	1352	1355	1355	1358	1358	1361	1361	1364	1364	1364	1364	1362	1362	1359	1359	1357	1358	1358	1361	1361	1364	1364	1365	1365	1364	1364	1363	1363	1362	1362	1364	1364	1369	1369	1374	1374	1380	1380	1384	1387	1387	1389	1389	1390	1390	1390	1390	1389	1389	1386	1386	1383	1383	1383	1383	1385	1390	1390	1396	1396	1399	1399	1401	1401	1400	1400	1396	1396	1391	1391	1388	1386	1386	1386	1386	1388	1388	1390	1390	1390	1390	1389	1389	1387	1387	1386	1387	1387	1389	1389	1391	1391	1394	1394	1397	1397	1402	1402	1406	1406	1406	1404	1404	1400	1400	1396	1396	1395	1395	1395	1395	1397	1397	1399	1399	1402	1402	1407	1410	1410	1413	1413	1416	1416	1419	1419	1423	1423	1425	1425	1427	1427	1428	1428	1427	1427	1427	1427	1428	1429	1429	1431	1431	1433	1433	1434	1434	1435	1435	1435	1435	1436	1436	1440	1440	1446	1446	1451	1451	1455	1455	1457	1457	1460	1460	1464	1464	1468	1468	1468	0	0	0	0	0	0	0	0	0	0	0	0	0	0	0	0	0	0	0	0	0	0	0	0	0	0	0	0	0	0	0	0	0	0	0	0	0	0	0	0	0	0	0	0	0	0	0	0	0	0	0	0	0	0	0	0	0	0	0	0	1943	1943	1948	1948	1949	1949	0	0	1545	1545	1545	1545	1550	1550	1550	1550	1556	1556	1499	1499	1495	1495	1497	1497	1501	1501	1507	1507	1513	1513	1518	1518	1523	1523	1526	1526	1528	1528	1530	1530	1534	1534	1540	1540	1545	1545	1548	1548	1548	1548	1545	1545	1541	1541	1539	1539	1541	1541	1545	1545	1552	1552	1558	1558	1562	1562	1563	1563	0	0	0	0	0	3813	3813	3811	3811	3809	3809	3806	3806	3804	3804	3801	3801	3105	3105	3105	3105	3097	3097	3090	3090	3079	3079	3074	3074	3085	3085	3097	3097	3117	3117	3120	3117	3117	3115	3115	3113	3113	3113	3113	0	0	2409	2409	2389	2389	2371	2371	2355	2355	2339	2339	2321	2302	2302	2273	2273	2244	2244	2237	2237	2223	2223	2221	2221	2217	2217	2212	2204	2204	2193	2193	2180	2180	2168	2168	2159	2159	2151	2151	2138	2138	2124	2108	2108	2093	2093	2076	2076	2031	2031	2006	2006	1992	1992	1979	1979	1969	1959	1959	1949	1949	1939	1939	1931	1931	1919	1919	1910	1910	1898	1884	1884	1871	1871	1854	1854	1840	1840	1826	1826	1813	1813	1800	1800	1790	1782	1782	1776	1776	1769	1769	1765	1765	1761	1761	1707	1707	1696	1696	1685	1685	1676	1663	1663	1649	1649	1637	1637	1624	1624	1615	1615	1603	1603	1587	1587	1571	1571	1553	1553	1545	1545	1537	1537	1534	1535	1535	1538	1538	1540	1540	1540	1540	1537	1537	1531	1531	1521	1521	1509	1509	1495	1495	1481	1481	1470	1470	1461	1461	1454	1454	1446	1446	1438	1438	1431	1431	1424	1424	1419	1419	1415	1415	1410	1410	1403	1403	1403	1394	1394	1386	1386	1379	1379	1372	1372	1366	1366	1359	1359	1356	1356	1354	1354	1354	0	0	0	0	0	0	0	0
0	0	0	0	0	0	0	0	0	0	1300	1300	1302	1302	1302	1304	1304	1307	1307	1307	1310	1310	1309	1309	1308	1308	1308	1306	1306	1307	1307	1311	1311	1316	1316	1316	1317	1317	1316	1316	1314	1314	1314	1314	1314	1316	1316	1320	1320	1324	1324	1328	1328	1330	1330	1330	1332	1332	1332	1332	1333	1333	1334	1334	1337	1337	1341	1341	1344	1344	1345	1345	1345	1345	1345	1344	1344	1343	1343	1344	1344	1348	1348	1352	1352	1355	1355	1358	1358	1356	1356	1350	1350	1346	1346	1345	1345	1345	1345	1347	1347	1349	1349	1352	1352	1354	1354	1357	1357	1360	1360	1362	1362	1363	1363	1362	1362	1361	1361	1360	1359	1359	1360	1360	1363	1363	1364	1364	1364	1364	1363	1363	1363	1363	1365	1365	1369	1369	1374	1374	1380	1380	1385	1389	1389	1391	1391	1393	1393	1392	1392	1391	1391	1388	1388	1385	1385	1385	1385	1387	1391	1391	1397	1397	1401	1401	1402	1402	1397	1397	1397	1397	1392	1392	1388	1386	1386	1387	1387	1389	1389	1391	1391	1392	1392	1391	1391	1389	1389	1388	1388	1388	1389	1389	1391	1391	1395	1395	1399	1399	1404	1404	1407	1407	1407	1404	1404	1400	1400	1395	1395	1392	1392	1392	1392	1392	1392	1395	1395	1399	1399	1404	1409	1409	1413	1413	1416	1416	1419	1419	1422	1422	1426	1426	1428	1428	1429	1429	1429	1429	1428	1428	1428	1429	1429	1431	1431	1432	1432	1433	1433	1433	1433	1433	1433	1435	1435	1440	1440	1448	1448	1453	1453	1458	1458	1458	1458	1458	1458	0	0	0	0	0	0	0	0	0	0	0	0	0	0	0	0	0	0	0	0	0	0	0	0	0	0	0	0	0	0	0	0	0	0	0	0	0	0	0	0	0	0	0	0	0	0	0	0	0	0	0	0	0	0	0	0	0	0	0	0	0	1939	1939	1942	1942	1943	1943	1948	1948	1949	1949	1948	1948	1563	1563	1563	1563	1568	1568	1561	1561	1556	1556	1496	1496	1494	1494	1494	1494	1499	1499	1505	1505	1511	1511	1515	1515	1519	1519	1523	1523	1525	1525	1528	1528	1532	1532	1537	1537	1542	1542	1545	1545	1544	1544	1541	1541	1539	1539	1538	1538	1542	1542	1548	1548	1555	1555	1561	1561	1563	1563	1564	1564	0	0	0	0	0	3810	3810	3809	3809	3807	3807	3804	3804	3803	3803	3802	3802	3106	3106	3106	3106	3100	3100	3085	3085	3076	3076	3076	3076	3093	3093	3114	3114	3130	3130	3135	3131	3131	3129	3129	3132	3132	3154	3154	0	0	0	0	0	0	0	0	0	0	0	0	0	0	0	0	0	0	0	2224	2224	2224	2224	2220	2220	2218	2218	2213	2206	2206	2197	2197	2186	2186	2179	2179	2172	2172	2171	2171	2164	2164	2163	2140	2140	2160	2160	2177	2177	2192	2192	2198	2198	2202	2202	2202	2202	2202	1948	1948	1948	1948	1948	1948	0	0	0	0	0	0	0	0	0	1853	1853	1853	1853	1840	1840	1829	1829	1816	1816	1804	1804	1794	1786	1786	1781	1781	1774	1774	1771	1771	1750	1750	1712	1712	1701	1701	1690	1690	1681	1667	1667	1648	1648	1635	1635	1624	1624	1612	1612	1599	1599	1583	1583	1567	1567	1553	1553	1543	1543	1536	1536	1535	1537	1537	1541	1541	1543	1543	1542	1542	1538	1538	1530	1530	1520	1520	1508	1508	1495	1495	1480	1480	1471	1471	1465	1465	1457	1457	1450	1450	1439	1439	1431	1431	1425	1425	1420	1420	1416	1416	1410	1410	1403	1403	1403	1396	1396	1389	1389	1382	1382	1374	1374	1366	1366	1360	1360	1358	1358	1355	1355	1355	0	0	0	0	0	0	0	0
0	0	0	0	0	0	0	0	0	0	1303	1303	1303	1303	1303	1305	1305	1305	1305	1305	1307	1307	1307	1307	1307	1307	1307	1306	1306	1308	1308	1313	1313	1317	1317	1317	1319	1319	1317	1317	1315	1315	1315	1315	1315	1318	1318	1323	1323	1327	1327	1330	1330	1331	1331	1331	1331	1331	1331	1331	1332	1333	1334	1334	1337	1337	1341	1341	1344	1344	1345	1345	1345	1345	1345	1344	1344	1343	1343	1344	1344	1348	1348	1352	1352	1355	1355	1358	1358	1356	1356	1350	1350	1346	1346	1345	1345	1345	1345	1347	1347	1349	1349	1352	1352	1354	1354	1357	1357	1360	1360	1362	1362	1363	1363	1362	1362	1361	1361	1360	1359	1359	1360	1360	1363	1363	1364	1364	1364	1364	1363	1363	1363	1363	1365	1365	1369	1369	1374	1374	1380	1380	1385	1389	1389	1391	1391	1393	1393	1392	1392	1391	1391	1388	1388	1385	1385	1385	1385	1387	1391	1391	1397	1397	1401	1401	1402	1402	1397	1397	1397	1397	1392	1392	1388	1386	1386	1387	1387	1389	1389	1391	1391	1392	1392	1391	1391	1389	1389	1388	1388	1388	1389	1389	1391	1391	1395	1395	1399	1399	1404	1404	1407	1407	1407	1404	1404	1400	1400	1395	1395	1392	1392	1392	1392	1392	1392	1395	1395	1399	1399	1404	1409	1409	1413	1413	1416	1416	1419	1419	1422	1422	1426	1426	1428	1428	1429	1429	1429	1429	1428	1428	1428	1429	1429	1431	1431	1432	1432	1433	1433	1433	1433	1433	1433	1435	1435	1440	1440	1448	1448	1453	1453	1458	1458	1458	1458	1458	1458	0	0	0	0	0	0	0	0	0	0	0	0	0	0	0	0	0	0	0	0	0	0	0	0	0	0	0	0	0	0	0	0	0	0	0	0	0	0	0	0	0	0	0	0	0	0	0	0	0	0	0	0	0	0	0	0	0	0	0	0	0	1939	1939	1942	1942	1943	1943	1948	1948	1949	1949	1948	1948	1563	1563	1563	1563	1568	1568	1561	1561	1556	1556	1496	1496	1494	1494	1494	1494	1499	1499	1505	1505	1511	1511	1515	1515	1519	1519	1523	1523	1525	1525	1528	1528	1532	1532	1537	1537	1542	1542	1545	1545	1544	1544	1541	1541	1539	1539	1538	1538	1542	1542	1548	1548	1555	1555	1561	1561	1563	1563	1564	1564	0	0	0	0	0	3810	3810	3809	3809	3807	3807	3804	3804	3803	3803	3802	3802	3106	3106	3106	3106	3100	3100	3085	3085	3076	3076	3076	3076	3093	3093	3114	3114	3130	3130	3135	3131	3131	3129	3129	3132	3132	3154	3154	0	0	0	0	0	0	0	0	0	0	0	0	0	0	0	0	0	0	0	2224	2224	2224	2224	2220	2220	2218	2218	2213	2206	2206	2197	2197	2186	2186	2179	2179	2172	2172	2171	2171	2164	2164	2163	2140	2140	2160	2160	2177	2177	2192	2192	2198	2198	2202	2202	2202	2202	2202	1948	1948	1948	1948	1948	1948	0	0	0	0	0	0	0	0	0	1853	1853	1853	1853	1840	1840	1829	1829	1816	1816	1804	1804	1794	1786	1786	1781	1781	1774	1774	1771	1771	1750	1750	1712	1712	1701	1701	1690	1690	1681	1667	1667	1648	1648	1635	1635	1624	1624	1612	1612	1599	1599	1583	1583	1567	1567	1553	1553	1543	1543	1536	1536	1535	1537	1537	1541	1541	1543	1543	1542	1542	1538	1538	1530	1530	1520	1520	1508	1508	1495	1495	1480	1480	1471	1471	1465	1465	1457	1457	1450	1450	1439	1439	1431	1431	1425	1425	1420	1420	1416	1416	1410	1410	1403	1403	1403	1396	1396	1389	1389	1382	1382	1374	1374	1366	1366	1363	1363	1363	1363	0	0	0	0	0	0	0	0	0	0	0
0	0	0	0	0	0	0	0	0	0	1303	1303	1303	1303	1303	1305	1305	1305	1305	1305	1307	1307	1307	1307	1307	1307	1307	1306	1306	1308	1308	1313	1313	1317	1317	1317	1319	1319	1317	1317	1315	1315	1315	1315	1315	1318	1318	1323	1323	1327	1327	1330	1330	1331	1331	1331	1331	1331	1331	1331	1332	1332	1334	1334	1338	1338	1342	1342	1347	1347	1350	1350	1350	1353	1353	1352	1352	1353	1353	1356	1356	1362	1362	1369	1369	1374	1374	1380	1380	1388	1388	1347	1347	1347	1347	1346	1346	1346	1346	0	0	0	0	0	0	0	0	0	0	0	0	0	0	0	0	0	0	0	0	0	1359	1359	1752	1752	1363	1363	1747	1747	1364	1364	0	0	0	0	0	0	0	0	0	0	1380	1380	2140	1389	1389	0	0	0	0	0	0	0	0	0	0	0	0	0	0	0	0	0	0	0	0	0	0	0	0	0	0	0	0	0	0	1387	1387	1387	1387	1391	1391	1392	1392	1394	1394	1392	1392	1390	1390	1389	1389	1389	1391	1391	1393	1393	1397	1397	1401	1401	1404	1404	1407	1407	1407	1404	1404	1400	1400	1395	1395	1391	1391	1390	1390	1391	1391	1394	1394	1398	1398	1404	1409	1409	1413	1413	1416	1416	1418	1418	1421	1421	1425	1425	1428	1428	1429	1429	1429	1429	1429	1429	1428	1428	1428	1429	1429	1430	1430	1431	1431	1430	1430	1431	1431	1434	1434	1441	1441	1449	1449	1458	1458	1459	1459	1459	1459	0	0	0	0	0	0	0	0	0	0	0	0	0	0	0	0	0	0	0	0	0	0	0	0	0	0	0	0	0	0	0	0	0	0	0	0	0	0	0	0	0	0	0	0	0	0	0	0	0	0	0	0	0	0	0	0	0	0	0	0	0	0	0	1937	1937	1943	1943	1948	1948	1949	1949	1950	1950	1952	1952	1577	1577	1577	1577	1572	1572	1572	1572	1567	1567	1521	1521	1495	1495	1496	1496	1499	1499	1505	1505	1510	1510	1515	1515	1518	1518	1521	1521	1523	1523	1525	1525	1528	1528	1532	1532	1536	1536	1539	1539	1540	1540	1538	1538	1537	1537	1539	1539	1543	1543	1549	1549	1555	1555	1560	1560	1562	1562	1563	1563	0	0	0	0	0	3810	3810	3809	3809	3807	3807	3804	3804	3803	3803	3802	3802	3118	3118	3118	3118	3088	3088	3074	3074	3070	3070	3075	3075	3089	3089	3111	3111	3132	3132	3140	3140	3140	3143	3143	3149	3149	3154	3154	3165	3165	0	0	0	0	0	0	0	0	0	0	0	0	0	0	0	0	0	0	0	2218	2218	2218	2218	2215	2215	2211	2204	2204	2197	2197	2189	2189	2185	2185	2184	2184	2182	2182	2183	2183	2187	2185	2185	2186	2186	2186	2186	2192	2192	2198	2198	2202	2202	2202	2202	2202	0	0	0	0	0	0	0	0	0	0	0	0	0	0	0	0	0	0	0	0	0	0	0	0	0	0	0	0	0	0	0	0	0	0	0	0	0	0	0	0	0	0	1683	1683	1683	1651	1651	1631	1631	1630	1630	1618	1618	1607	1607	1594	1594	1579	1579	1564	1564	1551	1551	1542	1542	1538	1537	1537	1540	1540	1545	1545	1547	1547	1544	1544	1538	1538	1531	1531	1522	1522	1512	1512	1501	1501	1490	1490	1478	1478	1469	1469	1465	1465	1458	1458	1450	1450	1437	1437	1427	1427	1422	1422	1417	1417	1413	1413	1407	1407	1407	1400	1400	1392	1392	1386	1386	1380	1380	1372	1372	1363	1363	1363	1363	0	0	0	0	0	0	0	0	0	0	0
0	0	0	0	0	0	0	0	0	0	1302	1302	1302	1302	1302	1301	1301	1301	1301	1301	1301	1301	1302	1302	1302	1302	1302	1303	1303	1307	1307	1313	1313	1318	1318	1318	1318	1318	1316	1316	1315	1315	1316	1316	1316	1321	1321	1325	1325	1329	1329	1331	1331	1330	1330	1330	1328	1328	1328	1328	1329	1329	1333	1333	1337	1337	1343	1343	1348	1348	1350	1350	1350	1353	1353	1352	1352	1353	1353	1356	1356	1362	1362	1369	1369	1374	1374	1380	1380	1388	1388	1347	1347	1347	1347	1346	1346	1346	1346	0	0	0	0	0	0	0	0	0	0	0	0	0	0	0	0	0	0	0	0	0	0	1359	1752	1752	1363	1363	1747	1747	1364	1364	0	0	0	0	0	0	0	0	0	0	1380	1380	2140	1389	1389	0	0	0	0	0	0	0	0	0	0	0	0	0	0	0	0	0	0	0	0	0	0	0	0	0	0	0	0	0	0	1387	1387	1387	1387	1391	1391	1392	1392	1394	1394	1392	1392	1390	1390	1389	1389	1389	1391	1391	1393	1393	1397	1397	1401	1401	1404	1404	1407	1407	1407	1404	1404	1400	1400	1395	1395	1391	1391	1390	1390	1391	1391	1394	1394	1398	1398	1404	1409	1409	1413	1413	1416	1416	1418	1418	1421	1421	1425	1425	1428	1428	1429	1429	1429	1429	1429	1429	1428	1428	1428	1429	1429	1430	1430	1431	1431	1430	1430	1431	1431	1434	1434	1441	1441	1449	1449	1458	1458	1459	1459	1459	1459	0	0	0	0	0	0	0	0	0	0	0	0	0	0	0	0	0	0	0	0	0	0	0	0	0	0	0	0	0	0	0	0	0	0	0	0	0	0	0	0	0	0	0	0	0	0	0	0	0	0	0	0	0	0	0	0	0	0	0	0	0	0	0	1937	1937	1943	1943	1948	1948	1949	1949	1950	1950	1952	1952	1577	1577	1577	1577	1572	1572	1572	1572	1567	1567	1521	1521	1495	1495	1496	1496	1499	1499	1505	1505	1510	1510	1515	1515	1518	1518	1521	1521	1523	1523	1525	1525	1528	1528	1532	1532	1536	1536	1539	1539	1540	1540	1538	1538	1537	1537	1539	1539	1543	1543	1549	1549	1555	1555	1560	1560	1562	1562	1563	1563	0	0	0	0	0	3810	3810	3809	3809	3807	3807	3804	3804	3803	3803	3802	3802	3118	3118	3118	3118	3088	3088	3074	3074	3070	3070	3075	3075	3089	3089	3111	3111	3132	3132	3140	3140	3140	3143	3143	3149	3149	3154	3154	3165	3165	0	0	0	0	0	0	0	0	0	0	0	0	0	0	0	0	0	0	0	2218	2218	2218	2218	2215	2215	2211	2204	2204	2197	2197	2189	2189	2185	2185	2184	2184	2182	2182	2183	2183	2187	2185	2185	2186	2186	2186	2186	2192	2192	2198	2198	2202	2202	2202	2202	2202	0	0	0	0	0	0	0	0	0	0	0	0	0	0	0	0	0	0	0	0	0	0	0	0	0	0	0	0	0	0	0	0	0	0	0	0	0	0	0	0	0	0	1683	1683	1683	1651	1651	1631	1631	1630	1630	1618	1618	1607	1607	1594	1594	1579	1579	1564	1564	1551	1551	1542	1542	1538	1537	1537	1540	1540	1545	1545	1547	1547	1544	1544	1538	1538	1531	1531	1522	1522	1512	1512	1501	1501	1490	1490	1478	1478	1469	1469	1465	1465	1458	1458	1450	1450	1437	1437	1427	1427	1422	1422	1417	1417	1413	1413	1407	1407	1407	1400	1401	1394	1394	1388	1388	1381	1381	1381	1381	0	0	0	0	0	0	0	0	0	0	0	0	0	0	0
0	0	0	0	0	0	0	0	0	0	1302	1302	1302	1302	1302	1301	1301	1301	1301	1301	1301	1301	1302	1302	1302	1302	1302	1303	1303	1307	1307	1313	1313	1318	1318	1318	1318	1318	1316	1316	1315	1315	1316	1316	1316	1321	1321	1325	1325	1329	1329	1331	1331	1330	1330	1330	1328	1328	1328	1328	1329	1329	1333	1333	1337	1337	1343	1343	1348	1348	1354	1354	1354	1359	1359	1363	1363	1365	1365	1370	1370	1380	1380	1396	1396	1410	1410	1423	1423	1439	1439	1448	1448	1458	1458	1467	1467	0	0	0	0	0	0	0	0	0	0	0	0	0	0	0	0	0	0	0	0	0	0	0	0	1754	1752	1752	1757	1757	1747	1747	1810	1810	0	0	0	0	0	0	0	0	0	0	0	0	2140	2167	2167	0	0	0	0	0	0	0	0	0	0	0	0	0	0	0	0	0	0	0	0	0	0	0	0	0	0	0	0	0	0	0	0	1387	1387	1389	1389	1392	1392	1393	1393	1393	1393	1392	1392	1391	1392	1392	1394	1394	1396	1396	1399	1399	1403	1403	1405	1405	1407	1407	1407	1404	1404	1400	1400	1396	1396	1393	1393	1392	1392	1393	1393	1396	1396	1400	1400	1406	1411	1411	1414	1414	1416	1416	1418	1418	1421	1421	1424	1424	1427	1427	1428	1428	1429	1429	1429	1429	1428	1428	1428	1428	1428	1428	1428	1429	1429	1429	1429	1430	1430	1435	1435	1443	1443	1453	1453	1461	1461	1462	1462	0	0	0	0	0	0	0	0	0	0	0	0	0	0	0	0	0	0	0	0	0	0	0	0	0	0	0	0	0	0	0	0	0	0	0	0	0	0	0	0	0	0	0	0	0	0	0	0	0	2425	2425	2425	2425	0	0	1962	1962	1961	1961	1952	1952	0	0	0	0	1939	1939	1944	1944	1947	1947	1951	1951	1952	1952	1952	1952	1585	1585	1585	1585	1580	1580	1575	1575	1564	1564	1563	1563	1498	1498	1498	1498	1501	1501	1507	1507	1512	1512	1516	1516	1519	1519	1521	1521	1522	1522	1523	1523	1525	1525	1527	1527	1531	1531	1535	1535	1537	1537	1537	1537	1538	1538	1540	1540	1544	1544	1549	1549	1553	1553	1557	1557	1560	1560	1560	1560	1557	1557	0	0	0	0	0	3805	3805	3804	3804	3803	3803	3803	3803	0	0	3091	3091	3091	3091	3079	3079	3068	3068	3063	3063	3061	3061	3092	3092	3115	3115	3135	3135	3146	3148	3148	3152	3152	3155	3155	3160	3160	3165	3165	3169	3169	3169	3169	3167	3167	3165	3165	3166	3166	0	0	0	0	0	0	0	0	0	0	0	2214	2214	2212	2212	2208	2201	2201	2195	2195	2190	2190	2187	2187	2189	2189	2193	2193	2193	2193	2190	2187	2187	2187	2187	2191	2191	2197	2197	2203	2203	2203	2203	2204	2204	2204	0	0	0	0	0	0	0	0	0	0	0	0	0	0	0	0	0	0	0	0	0	0	0	0	0	0	0	0	0	0	0	0	0	0	0	0	0	0	0	0	0	0	0	0	1630	1630	1630	1625	1625	1618	1618	1612	1612	1601	1601	1588	1588	1575	1575	1562	1562	1551	1551	1544	1544	1540	1541	1541	1544	1544	1548	1548	1550	1550	1547	1547	1542	1542	1535	1535	1527	1527	1522	1522	1525	1525	1530	1530	1522	1522	1481	1481	1470	1470	1465	1465	1474	1474	1460	1460	1460	1460	1418	1418	1418	1418	1418	1418	1401	1401	1401	1401	1401	1394	1394	1388	1388	1381	1381	1381	1381	0	0	0	0	0	0	0	0	0	0	0	0	0	0	0
0	0	0	0	0	0	0	0	0	0	1292	1292	1295	1295	1295	1293	1293	1294	1294	1294	1295	1295	1295	1295	1296	1296	1296	1300	1300	1307	1307	1313	1313	1318	1318	1318	1318	1318	1316	1316	1316	1316	1318	1318	1318	1323	1323	1327	1327	1329	1329	1329	1329	1327	1327	1327	1324	1324	1324	1324	1326	1326	1331	1331	1337	1337	1343	1343	1350	1350	1356	1356	1356	1364	1364	1370	1370	1375	1375	1379	1379	1380	1380	1396	1396	1410	1410	1423	1423	1439	1439	1448	1448	1458	1458	1467	1467	0	0	0	0	0	0	0	0	0	0	0	0	0	0	0	0	0	0	0	0	0	0	0	0	1754	1752	1752	1757	1757	1747	1747	1810	1810	0	0	0	0	0	0	0	0	0	0	0	0	2140	2167	2167	0	0	0	0	0	0	0	0	0	0	0	0	0	0	0	0	0	0	0	0	0	0	0	0	0	0	0	0	0	0	0	0	1387	1387	1389	1389	1392	1392	1393	1393	1393	1393	1392	1392	1391	1392	1392	1394	1394	1396	1396	1399	1399	1403	1403	1405	1405	1407	1407	1407	1404	1404	1400	1400	1396	1396	1393	1393	1392	1392	1393	1393	1396	1396	1400	1400	1406	1411	1411	1414	1414	1416	1416	1418	1418	1421	1421	1424	1424	1427	1427	1428	1428	1429	1429	1429	1429	1428	1428	1428	1428	1428	1428	1428	1429	1429	1429	1429	1430	1430	1435	1435	1443	1443	1453	1453	1461	1461	1462	1462	0	0	0	0	0	0	0	0	0	0	0	0	0	0	0	0	0	0	0	0	0	0	0	0	0	0	0	0	0	0	0	0	0	0	0	0	0	0	0	0	0	0	0	0	0	0	0	0	0	2425	2425	2425	2425	0	0	1962	1962	1961	1961	1952	1952	0	0	0	0	1939	1939	1944	1944	1947	1947	1951	1951	1952	1952	1952	1952	1585	1585	1585	1585	1580	1580	1575	1575	1564	1564	1563	1563	1498	1498	1498	1498	1501	1501	1507	1507	1512	1512	1516	1516	1519	1519	1521	1521	1522	1522	1523	1523	1525	1525	1527	1527	1531	1531	1535	1535	1537	1537	1537	1537	1538	1538	1540	1540	1544	1544	1549	1549	1553	1553	1557	1557	1560	1560	1560	1560	1557	1557	0	0	0	0	0	3805	3805	3804	3804	3803	3803	3803	3803	0	0	3091	3091	3091	3091	3079	3079	3068	3068	3063	3063	3061	3061	3092	3092	3115	3115	3135	3135	3146	3148	3148	3152	3152	3155	3155	3160	3160	3165	3165	3169	3169	3169	3169	3167	3167	3165	3165	3166	3166	0	0	0	0	0	0	0	0	0	0	0	2214	2214	2212	2212	2208	2201	2201	2195	2195	2190	2190	2187	2187	2189	2189	2193	2193	2193	2193	2190	2187	2187	2187	2187	2191	2191	2197	2197	2203	2203	2203	2203	2204	2204	2204	0	0	0	0	0	0	0	0	0	0	0	0	0	0	0	0	0	0	0	0	0	0	0	0	0	0	0	0	0	0	0	0	0	0	0	0	0	0	0	0	0	0	0	0	1630	1630	1630	1625	1625	1618	1618	1612	1612	1601	1601	1588	1588	1575	1575	1562	1562	1551	1551	1544	1544	1540	1541	1541	1544	1544	1548	1548	1550	1550	1547	1547	1542	1542	1535	1535	1527	1527	1522	1522	1525	1525	1530	1530	1522	1522	1481	1481	1470	1470	1465	1465	1474	1474	1460	1562	0	0	0	0	0	0	0	0	0	0	0	0	0	0	0	0	0	0	0	0	0	0	0	0	0	0	0	0	0	0	0	0	0	0	0	0
0	0	0	0	0	0	0	0	0	0	1292	1292	1295	1295	1295	1293	1293	1294	1294	1294	1295	1295	1295	1295	1296	1296	1296	1300	1300	1307	1307	1313	1313	1318	1318	1318	1318	1318	1316	1316	1316	1316	1318	1318	1318	1323	1323	1327	1327	1329	1329	1329	1329	1327	1327	1327	1324	1324	1324	1324	1326	1326	1331	1331	1337	1337	1343	1343	1350	1350	1356	1356	1356	1364	1364	1370	1370	1375	1375	1379	1379	1387	1387	1397	1397	1410	1410	1426	1426	1440	1440	1448	1448	1456	1456	1467	1467	0	0	1728	1728	1733	1733	1736	1736	1744	1744	1748	1748	1751	1751	1755	1755	1758	1758	1761	1761	1763	1763	1756	1756	1754	1754	1754	1757	1757	1795	1795	1810	1810	1820	1820	1825	1825	1831	1831	0	0	0	0	2144	2144	2157	2167	2167	2187	2187	2197	2197	2182	2182	2151	2151	2155	2155	2152	2152	2155	2155	0	0	0	0	0	0	0	0	0	0	0	0	0	0	0	0	0	0	1386	1386	1389	1389	1389	1389	1392	1392	1392	1392	1392	1392	1392	1393	1393	1396	1396	1398	1398	1401	1401	1403	1403	1405	1405	1407	1407	1407	1405	1405	1402	1402	1399	1399	1396	1396	1396	1396	1398	1398	1401	1401	1405	1405	1409	1412	1412	1415	1415	1416	1416	1418	1418	1420	1420	1423	1423	1425	1425	1427	1427	1428	1428	1428	1428	1428	1427	1427	1427	1427	1427	1427	1428	1428	1429	1429	1431	1431	1436	1436	1445	1445	1455	1455	1463	1463	1465	1465	0	0	0	0	0	0	0	0	0	0	0	0	0	0	0	0	0	0	0	0	0	0	0	0	0	0	0	0	0	0	0	0	0	0	0	0	0	0	0	0	0	0	0	0	0	0	0	2342	2342	2387	2387	2413	2413	2413	2413	2043	2043	1967	1967	1952	1952	1920	1920	0	0	1944	1944	1944	1944	1952	1952	1953	1953	1955	1955	1955	1955	1592	1592	1592	1592	1585	1585	1579	1579	1569	1569	1564	1564	1513	1513	1502	1502	1505	1505	1509	1509	1514	1514	1518	1518	1520	1520	1522	1522	1524	1524	1525	1525	1524	1524	1525	1525	1528	1528	1531	1531	1535	1535	1538	1538	1540	1540	1542	1542	1545	1545	1549	1549	1552	1552	1554	1554	1556	1556	1556	1556	1557	1557	0	0	0	0	0	0	0	0	0	0	0	0	0	0	0	0	0	3065	3065	3059	3059	3047	3047	3043	3043	3053	3053	3047	3047	3105	3105	3132	3132	3142	3149	3149	3153	3153	3158	3158	3163	3163	3167	3167	3169	3169	3169	3169	3167	3167	3165	3165	3166	3166	0	0	0	0	0	0	0	0	0	0	0	2208	2208	2208	2208	2201	2193	2193	2187	2187	2184	2184	2184	2184	2187	2187	2191	2191	2195	2195	2197	2197	2197	2197	2197	2198	2198	2200	2200	2204	2204	2206	2206	2207	2207	0	0	0	0	0	0	0	0	0	0	0	0	0	0	0	0	0	0	0	0	0	0	0	0	0	0	0	0	0	0	0	0	0	0	0	0	0	0	0	0	0	0	0	0	0	0	1626	1626	1623	1623	1616	1616	1607	1607	1596	1596	1584	1584	1572	1572	1561	1561	1552	1552	1546	1546	1543	1545	1545	1549	1549	1553	1553	1554	1554	1552	1552	1547	1547	1542	1542	1538	1538	1535	1535	1537	1537	1547	1547	1549	1549	1553	1553	1560	1560	1561	1561	1561	1561	1562	1562	0	0	0	0	0	0	0	0	0	0	0	0	0	0	0	0	0	0	0	0	0	0	0	0	0	0	0	0	0	0	0	0	0	0	0	0
0	0	0	0	0	0	0	0	0	0	1292	1292	1293	1293	1293	1289	1289	1288	1288	1288	1288	1288	1289	1289	1292	1292	1292	1298	1298	1306	1306	1315	1315	1319	1319	1319	1319	1319	1317	1317	1317	1317	1320	1320	1320	1324	1324	1328	1328	1329	1329	1326	1326	1322	1322	1322	1319	1319	1320	1320	1324	1324	1330	1330	1337	1337	1343	1343	1350	1350	1357	1357	1357	1364	1364	1373	1373	1378	1378	1383	1383	1391	1391	1401	1401	1414	1414	1428	1428	1441	1441	1453	1453	1454	1454	1454	1467	0	0	1728	1728	1733	1733	1736	1736	1744	1744	1748	1748	1751	1751	1755	1755	1758	1758	1761	1761	1763	1763	1756	1756	1754	1754	1754	1757	1757	1795	1795	1810	1810	1820	1820	1825	1825	1831	1831	0	0	0	0	2144	2144	2157	2167	2167	2187	2187	2197	2197	2182	2182	2151	2151	2155	2155	2152	2152	2155	2155	0	0	0	0	0	0	0	0	0	0	0	0	0	0	0	0	0	0	1386	1386	1389	1389	1389	1389	1392	1392	1392	1392	1392	1392	1392	1393	1393	1396	1396	1398	1398	1401	1401	1403	1403	1405	1405	1407	1407	1407	1405	1405	1402	1402	1399	1399	1396	1396	1396	1396	1398	1398	1401	1401	1405	1405	1409	1412	1412	1415	1415	1416	1416	1418	1418	1420	1420	1423	1423	1425	1425	1427	1427	1428	1428	1428	1428	1428	1427	1427	1427	1427	1427	1427	1428	1428	1429	1429	1431	1431	1436	1436	1445	1445	1455	1455	1463	1463	1465	1465	0	0	0	0	0	0	0	0	0	0	0	0	0	0	0	0	0	0	0	0	0	0	0	0	0	0	0	0	0	0	0	0	0	0	0	0	0	0	0	0	0	0	0	0	0	0	0	2342	2342	2387	2387	2413	2413	2413	2413	2043	2043	1967	1967	1952	1952	1920	1920	0	0	1944	1944	1944	1944	1952	1952	1953	1953	1955	1955	1955	1955	1592	1592	1592	1592	1585	1585	1579	1579	1569	1569	1564	1564	1513	1513	1502	1502	1505	1505	1509	1509	1514	1514	1518	1518	1520	1520	1522	1522	1524	1524	1525	1525	1524	1524	1525	1525	1528	1528	1531	1531	1535	1535	1538	1538	1540	1540	1542	1542	1545	1545	1549	1549	1552	1552	1554	1554	1556	1556	1556	1556	1557	1557	0	0	0	0	0	0	0	0	0	0	0	0	0	0	0	0	0	3065	3065	3059	3059	3047	3047	3043	3043	3053	3053	3047	3047	3105	3105	3132	3132	3142	3149	3149	3153	3153	3158	3158	3163	3163	3167	3167	3169	3169	3169	3169	3167	3167	3165	3165	3166	3166	0	0	0	0	0	0	0	0	0	0	0	2208	2208	2208	2208	2201	2193	2193	2187	2187	2184	2184	2184	2184	2187	2187	2191	2191	2195	2195	2197	2197	2197	2197	2197	2198	2198	2200	2200	2204	2204	2206	2206	2207	2207	0	0	0	0	0	0	0	0	0	0	0	0	0	0	0	0	0	0	0	0	0	0	0	0	0	0	0	0	0	0	0	0	0	0	0	0	0	0	0	0	0	0	0	0	0	0	1626	1626	1623	1623	1616	1616	1607	1607	1596	1596	1584	1584	1572	1572	1561	1561	1552	1552	1546	1546	1543	1545	1545	1549	1549	1553	1553	1554	1554	1552	1552	1547	1547	1542	1542	1538	1538	1535	1535	1548	1548	1549	1549	1553	1553	1556	1556	1560	1560	1561	1561	1564	1564	1565	1565	0	0	0	0	0	0	0	0	0	0	0	0	0	0	0	0	0	0	0	0	0	0	0	0	0	0	0	0	0	0	0	0	0	0	0	0
0	0	0	0	0	0	0	0	0	0	1292	1292	1293	1293	1293	1289	1289	1288	1288	1288	1288	1288	1289	1289	1292	1292	1292	1298	1298	1306	1306	1315	1315	1319	1319	1319	1319	1319	1317	1317	1317	1317	1320	1320	1320	1324	1324	1328	1328	1329	1329	1326	1326	1322	1322	1322	1319	1319	1320	1320	1324	1324	1330	1330	1337	1337	1343	1343	1350	1350	1357	1357	1357	1364	1364	1373	1373	1378	1378	1383	1383	1391	1391	1401	1401	1414	1414	1428	1428	1441	1441	1453	1453	1454	1454	1454	1454	1627	1627	1723	1723	1731	1731	1738	1738	1746	1746	1748	1748	1751	1751	1755	1755	1759	1759	1762	1762	1762	1762	1758	1758	1754	1741	1741	1759	1759	1796	1796	1806	1806	1819	1819	1823	1823	1829	1829	1827	1827	2148	2148	2148	2148	2158	2175	2175	2193	2193	2193	2193	2189	2189	2161	2161	2152	2152	2152	2152	2155	2155	0	0	0	0	0	0	0	0	0	0	0	0	0	0	0	0	0	0	0	0	1382	1382	1387	1387	1389	1389	1390	1390	1391	1391	1392	1393	1393	1395	1395	1398	1398	1401	1401	1403	1403	1405	1405	1407	1407	1407	1406	1406	1405	1405	1402	1402	1401	1401	1401	1401	1404	1404	1407	1407	1410	1410	1412	1414	1414	1415	1415	1417	1417	1418	1418	1420	1420	1422	1422	1425	1425	1427	1427	1429	1429	1429	1429	1429	1427	1427	1427	1427	1427	1427	1429	1429	1431	1431	1433	1433	1438	1438	1446	1446	1456	1456	1462	1462	1464	1464	0	0	0	0	0	0	0	0	0	0	0	0	0	0	0	0	0	0	0	0	0	0	0	0	0	0	0	0	0	0	0	0	0	0	0	0	0	0	0	0	0	0	0	0	0	2346	2346	2350	2350	2369	2369	2397	2397	2043	2043	2043	2043	1975	1975	1957	1957	1944	1944	1927	1927	1935	1935	1944	1944	1953	1953	1955	1955	1956	1956	1956	1956	1599	1599	1599	1599	1593	1593	1584	1584	1572	1572	1562	1562	1518	1518	1506	1506	1506	1506	1509	1509	1513	1513	1517	1517	1520	1520	1524	1524	1526	1526	1528	1528	1528	1528	1527	1527	1528	1528	1530	1530	1534	1534	1538	1538	1542	1542	1545	1545	1547	1547	1549	1549	1550	1550	1551	1551	1553	1553	1553	1553	1554	1554	0	0	0	0	0	0	0	0	0	0	0	0	0	0	0	0	0	0	0	3048	3048	3042	3042	3042	3042	3032	3032	3032	3032	0	0	0	0	0	0	0	0	0	0	0	0	0	0	0	0	0	0	0	0	0	0	0	0	0	0	0	0	0	0	0	0	0	0	0	0	2208	2208	2201	2201	2196	2179	2179	2173	2173	2172	2172	2174	2174	2180	2180	2185	2185	2190	2190	2195	2198	2198	2200	2200	2203	2203	2205	2205	2206	2206	2207	2207	2205	2205	2199	0	0	0	0	0	0	0	0	0	0	0	0	0	0	0	0	0	0	0	0	0	0	0	0	0	0	0	0	0	0	0	0	0	0	0	0	0	0	0	0	0	0	0	0	0	1622	1622	1618	1618	1613	1613	1603	1603	1592	1592	1580	1580	1570	1570	1561	1561	1553	1553	1548	1548	1547	1549	1549	1554	1554	1558	1558	1559	1559	1558	1558	1553	1553	1550	1550	1547	1547	1546	1546	1548	1548	1549	1549	1553	1553	1556	1556	1560	1560	1561	1561	1564	1564	1565	1565	0	0	0	0	0	0	0	0	0	0	0	0	0	0	0	0	0	0	0	0	0	0	0	0	0	0	0	0	0	0	0	0	0	0	0	0
0	0	0	0	0	0	0	0	0	0	1293	1293	1291	1291	1291	1289	1289	1286	1286	1286	1285	1285	1286	1286	1289	1289	1289	1296	1296	1304	1304	1313	1313	1318	1318	1318	1319	1319	1318	1318	1318	1318	1320	1320	1320	1324	1324	1327	1327	1327	1327	1324	1324	1319	1319	1319	1316	1316	1317	1317	1322	1322	1330	1330	1337	1337	1343	1343	1349	1349	1356	1356	1356	1364	1364	1374	1374	1380	1380	1385	1385	1392	1392	1400	1400	1411	1411	1423	1423	1436	1436	1448	1448	1455	1455	1627	1627	1627	1627	1719	1719	1726	1726	1735	1735	1743	1743	1747	1747	1750	1750	1754	1754	1758	1759	1762	1762	1762	1762	1758	1758	1754	1741	1741	1759	1759	1796	1796	1806	1806	1819	1819	1823	1823	1829	1829	1827	1827	2148	2148	2148	2148	2158	2175	2175	2193	2193	2193	2193	2189	2189	2161	2161	2152	2152	2152	2152	2155	2155	0	0	0	0	0	0	0	0	0	0	0	0	0	0	0	0	0	0	0	0	1382	1382	1387	1387	1389	1389	1390	1390	1391	1391	1392	1393	1393	1395	1395	1398	1398	1401	1401	1403	1403	1405	1405	1407	1407	1407	1406	1406	1405	1405	1402	1402	1401	1401	1401	1401	1404	1404	1407	1407	1410	1410	1412	1414	1414	1415	1415	1417	1417	1418	1418	1420	1420	1422	1422	1425	1425	1427	1427	1429	1429	1429	1429	1429	1427	1427	1427	1427	1427	1427	1429	1429	1431	1431	1433	1433	1438	1438	1446	1446	1456	1456	1462	1462	1464	1464	0	0	0	0	0	0	0	0	0	0	0	0	0	0	0	0	0	0	0	0	0	0	0	0	0	0	0	0	0	0	0	0	0	0	0	0	0	0	0	0	0	0	0	0	0	2346	2346	2350	2350	2369	2369	2397	2397	2043	2043	2043	2043	1975	1975	1957	1957	1944	1944	1927	1927	1935	1935	1944	1944	1953	1953	1955	1955	1956	1956	1956	1956	1599	1599	1599	1599	1593	1593	1584	1584	1572	1572	1562	1562	1518	1518	1506	1506	1506	1506	1509	1509	1513	1513	1517	1517	1520	1520	1524	1524	1526	1526	1528	1528	1528	1528	1527	1527	1528	1528	1530	1530	1534	1534	1538	1538	1542	1542	1545	1545	1547	1547	1549	1549	1550	1550	1551	1551	1553	1553	1553	1553	1554	1554	0	0	0	0	0	0	0	0	0	0	0	0	0	0	0	0	0	0	0	3048	3048	3042	3042	3042	3042	3032	3032	3032	3032	0	0	0	0	0	0	0	0	0	0	0	0	0	0	0	0	0	0	0	0	0	0	0	0	0	0	0	0	0	0	0	0	0	0	0	0	2208	2208	2201	2201	2196	2179	2179	2173	2173	2172	2172	2174	2174	2180	2180	2185	2185	2190	2190	2195	2198	2198	2200	2200	2203	2203	2205	2205	2206	2206	2207	2207	2205	2205	2199	0	0	0	0	0	0	0	0	0	0	0	0	0	0	0	0	0	0	0	0	0	0	0	0	0	0	0	0	0	0	0	0	0	0	0	0	0	0	0	0	0	0	0	0	0	1622	1622	1618	1618	1613	1613	1603	1603	1592	1592	1580	1580	1570	1570	1561	1561	1553	1553	1548	1548	1550	1553	1553	1558	1558	1562	1562	1564	1564	1563	1563	1560	1560	1558	1558	1556	1556	1555	1555	1555	1555	1557	1557	1558	1558	1560	1560	1562	1562	1566	1566	1565	1565	1566	1566	0	0	0	0	0	0	0	0	0	0	0	0	0	0	0	0	0	0	0	0	0	0	0	0	0	0	0	0	0	0	0	0	0	0	0	0
0	0	0	0	0	0	0	0	0	0	1293	1293	1291	1291	1291	1289	1289	1286	1286	1286	1285	1285	1286	1286	1289	1289	1289	1296	1296	1304	1304	1313	1313	1318	1318	1318	1319	1319	1318	1318	1318	1318	1320	1320	1320	1324	1324	1327	1327	1327	1327	1324	1324	1319	1319	1319	1316	1316	1317	1317	1322	1322	1330	1330	1337	1337	1343	1343	1349	1349	1356	1356	1356	1364	1364	1374	1374	1380	1380	1385	1385	1392	1392	1400	1400	1411	1411	1423	1423	1436	1436	1448	1448	1455	1455	1627	1627	1627	1627	1719	1719	1726	1726	1735	1735	1743	1743	1747	1747	1750	1750	1754	1754	1758	1758	1761	1761	1761	1761	1756	1756	1738	1738	1738	1738	1738	1731	1731	1799	1799	1814	1814	1823	1823	1824	1824	1827	1827	2150	2150	2150	2150	2162	2177	2177	2194	2194	2195	2195	2187	2187	2149	2149	2151	2151	2153	2153	2160	2160	0	0	0	0	0	0	0	0	0	0	0	0	0	0	0	0	0	0	0	0	1382	1382	1384	1384	1386	1386	1388	1388	1390	1390	1391	1392	1392	1393	1393	1396	1396	1399	1399	1402	1402	1404	1404	1406	1406	1407	1407	1407	1406	1406	1405	1405	1405	1405	1406	1406	1408	1408	1411	1411	1413	1413	1414	1415	1415	1415	1415	1417	1417	1419	1419	1421	1421	1423	1423	1425	1425	1428	1428	1430	1430	1431	1431	1431	1430	1430	1429	1429	1429	1429	1431	1431	1433	1433	1436	1436	1440	1440	1447	1447	1456	1456	1461	1461	1463	1463	0	0	0	0	0	0	0	0	0	0	0	0	0	0	0	0	0	0	0	0	0	0	0	0	0	0	0	0	0	0	0	0	0	0	0	0	0	0	0	0	0	0	0	0	0	2346	2346	2346	2346	2355	2355	2359	2359	2043	2043	2043	2043	2034	2034	2004	2004	1956	1956	1927	1927	1935	1935	1944	1944	1951	1951	1956	1956	1958	1958	1958	1958	1605	1605	1605	1605	1602	1602	1592	1592	1588	1588	1587	1587	1518	1518	1508	1508	1507	1507	1509	1509	1512	1512	1516	1516	1520	1520	1525	1525	1529	1529	1530	1530	1530	1530	1529	1529	1528	1528	1530	1530	1533	1533	1539	1539	1543	1543	1547	1547	1549	1549	1550	1550	1550	1550	1549	1549	1550	1550	1552	1552	1552	1552	0	0	0	0	0	0	0	0	0	0	0	0	0	0	0	0	0	0	0	0	0	0	0	0	0	0	0	0	0	0	0	0	0	0	0	0	0	0	0	0	0	0	0	0	0	0	0	0	0	0	0	0	0	0	0	0	0	0	0	0	0	0	0	2203	2203	2202	2202	2196	2196	2174	2151	2151	2151	2151	2155	2155	2159	2159	2166	2166	2175	2175	2184	2184	2187	2195	2195	2201	2201	2205	2205	2206	2206	2204	2204	2203	2203	2196	2196	2199	0	0	0	0	0	0	0	0	0	0	0	0	0	0	0	0	0	0	0	0	0	0	0	0	0	0	0	0	0	0	0	0	0	0	0	0	0	0	0	0	0	0	0	0	0	1621	1621	1618	1618	1611	1611	1600	1600	1588	1588	1577	1577	1568	1568	1560	1560	1553	1553	1550	1550	1550	1553	1553	1558	1558	1562	1562	1564	1564	1563	1563	1560	1560	1558	1558	1556	1556	1555	1555	1555	1555	1557	1557	1558	1558	1560	1560	1562	1562	1566	1566	1565	1565	1566	1566	0	0	0	0	0	0	0	0	0	0	0	0	0	0	0	0	0	0	0	0	0	0	0	0	0	0	0	0	0	0	0	0	0	0	0	0
0	0	0	0	0	0	0	0	0	0	1293	1293	1291	1291	1291	1290	1290	1286	1286	1286	1285	1285	1285	1285	1288	1288	1288	1295	1295	1304	1304	1311	1311	1315	1315	1315	1316	1316	1317	1317	1318	1318	1320	1320	1320	1323	1323	1325	1325	1325	1325	1322	1322	1317	1317	1317	1314	1314	1315	1315	1322	1322	1331	1331	1339	1339	1344	1344	1347	1347	1354	1354	1354	1362	1362	1373	1373	1381	1381	1386	1386	1392	1392	1399	1399	1408	1408	1418	1418	1432	1432	1445	1445	1460	1460	1634	1634	1634	1634	1713	1713	1712	1712	1730	1730	1739	1739	1745	1745	1749	1749	1752	1752	1756	1756	1759	1759	1757	1757	1755	1755	1712	1712	1712	1707	1707	1735	1735	1798	1798	1808	1808	1818	1818	1824	1824	1827	1827	2150	2150	2150	2150	2162	2177	2177	2194	2194	2195	2195	2187	2187	2149	2149	2151	2151	2153	2153	2160	2160	0	0	0	0	0	0	0	0	0	0	0	0	0	0	0	0	0	0	0	0	1382	1382	1384	1384	1386	1386	1388	1388	1390	1390	1391	1392	1392	1393	1393	1396	1396	1399	1399	1402	1402	1404	1404	1406	1406	1407	1407	1407	1406	1406	1405	1405	1405	1405	1406	1406	1408	1408	1411	1411	1413	1413	1414	1415	1415	1415	1415	1417	1417	1419	1419	1421	1421	1423	1423	1425	1425	1428	1428	1430	1430	1431	1431	1431	1430	1430	1429	1429	1429	1429	1431	1431	1433	1433	1436	1436	1440	1440	1447	1447	1456	1456	1461	1461	1463	1463	0	0	0	0	0	0	0	0	0	0	0	0	0	0	0	0	0	0	0	0	0	0	0	0	0	0	0	0	0	0	0	0	0	0	0	0	0	0	0	0	0	0	0	0	0	2346	2346	2346	2346	2355	2355	2359	2359	2043	2043	2043	2043	2034	2034	2004	2004	1956	1956	1927	1927	1935	1935	1944	1944	1951	1951	1956	1956	1958	1958	1958	1958	1605	1605	1605	1605	1602	1602	1592	1592	1588	1588	1587	1587	1518	1518	1508	1508	1507	1507	1509	1509	1512	1512	1516	1516	1520	1520	1525	1525	1529	1529	1530	1530	1530	1530	1529	1529	1528	1528	1530	1530	1533	1533	1539	1539	1543	1543	1547	1547	1549	1549	1550	1550	1550	1550	1549	1549	1550	1550	1552	1552	1552	1552	0	0	0	0	0	0	0	0	0	0	0	0	0	0	0	0	0	0	0	0	0	0	0	0	0	0	0	0	0	0	0	0	0	0	0	0	0	0	0	0	0	0	0	0	0	0	0	0	0	0	0	0	0	0	0	0	0	0	0	0	0	0	0	2203	2203	2202	2202	2196	2196	2174	2151	2151	2151	2151	2155	2155	2159	2159	2166	2166	2175	2175	2184	2184	2187	2195	2195	2201	2201	2205	2205	2206	2206	2204	2204	2203	2203	2196	2196	2199	0	0	0	0	0	0	0	0	0	0	0	0	0	0	0	0	0	0	0	0	0	0	0	0	0	0	0	0	0	0	0	0	0	0	0	0	0	0	0	0	0	0	0	0	0	1620	1620	1616	1616	1609	1609	1598	1598	1586	1586	1576	1576	1567	1567	1560	1560	1554	1554	1552	1552	1552	1556	1556	1561	1561	1565	1565	1567	1567	1567	1567	1566	1566	1564	1564	1562	1562	1561	1561	1560	1560	1560	1560	1560	1560	1561	1561	1563	1563	1567	1567	1569	1569	1569	1569	0	0	0	0	0	0	0	0	0	0	0	0	0	0	0	0	0	0	0	0	0	0	0	0	0	0	0	0	0	0	0	0	0	0	0	0
0	0	0	0	0	0	0	0	0	0	1293	1293	1291	1291	1291	1290	1290	1286	1286	1286	1285	1285	1285	1285	1288	1288	1288	1295	1295	1304	1304	1311	1311	1315	1315	1315	1316	1316	1317	1317	1318	1318	1320	1320	1320	1323	1323	1325	1325	1325	1325	1322	1322	1317	1317	1317	1314	1314	1315	1315	1322	1322	1331	1331	1339	1339	1344	1344	1347	1347	1354	1354	1354	1362	1362	1373	1373	1381	1381	1386	1386	1392	1392	1399	1399	1408	1408	1418	1418	1432	1432	1445	1445	1460	1460	1634	1634	1634	1634	1713	1713	1712	1712	1730	1730	1739	1739	1745	1745	1749	1749	1752	1752	1756	1756	1759	1759	1757	1757	1755	1755	1712	1712	1712	1707	1707	1735	1735	1798	1798	1808	1808	1818	1818	1818	1818	1821	1821	2156	2156	2156	2156	2164	2180	2180	2193	2193	2190	2190	2174	2174	2156	2156	2152	2152	2153	2153	2185	2185	0	0	0	0	0	0	0	0	0	0	0	0	0	0	0	0	0	0	1379	1379	1380	1380	1383	1383	1385	1385	1387	1387	1389	1389	1390	1391	1391	1392	1392	1394	1394	1397	1397	1400	1400	1403	1403	1404	1404	1405	1405	1405	1405	1405	1406	1406	1407	1407	1409	1409	1411	1411	1413	1413	1415	1415	1415	1415	1415	1416	1416	1417	1417	1420	1420	1422	1422	1425	1425	1427	1427	1430	1430	1432	1432	1433	1433	1433	1432	1432	1431	1431	1432	1432	1433	1433	1435	1435	1437	1437	1441	1441	1447	1447	1454	1454	1459	1459	1460	1460	0	0	0	0	0	0	0	0	0	0	0	0	0	0	0	0	0	0	0	0	0	0	0	0	0	0	0	0	0	0	0	0	0	0	0	0	0	0	0	0	0	0	0	0	0	2345	2345	2345	2345	2345	2345	2341	2341	2044	2044	2044	2044	2022	2022	1981	1981	1926	1926	1923	1923	1931	1931	1941	1941	1950	1950	1957	1957	1958	1958	1958	1958	1620	1620	1620	1620	1609	1609	1601	1601	1598	1598	1592	1592	1509	1509	1506	1506	1507	1507	1507	1507	1510	1510	1514	1514	1519	1519	1526	1526	1530	1530	1531	1531	1530	1530	1528	1528	1526	1526	1528	1528	1532	1532	1538	1538	1544	1544	1548	1548	1551	1551	1551	1551	1550	1550	1548	1548	1551	1551	1552	1552	1555	1555	0	0	0	0	0	0	0	0	0	0	0	0	0	0	0	0	0	0	0	0	0	0	0	0	0	0	0	0	0	0	0	0	0	0	0	0	0	0	0	0	0	0	0	0	0	0	0	0	0	0	0	0	0	0	0	0	0	0	0	0	0	2209	2209	2203	2203	2194	2194	2193	2193	2167	2138	2138	2139	2139	2139	2139	2147	2147	2153	2153	2160	2160	2170	2170	2180	2188	2188	2197	2197	2197	2197	2199	2199	2197	2197	2193	2193	2192	2192	2189	2115	2115	0	0	0	0	0	0	0	0	1990	1990	0	0	0	0	0	0	0	0	0	0	0	0	0	0	0	0	0	0	0	0	0	0	0	0	0	0	0	0	0	0	0	0	0	1620	1620	1616	1616	1609	1609	1598	1598	1586	1586	1576	1576	1567	1567	1560	1560	1554	1554	1552	1552	1552	1556	1556	1561	1561	1565	1565	1567	1567	1567	1567	1566	1566	1564	1564	1562	1562	1561	1561	1560	1560	1560	1560	1560	1560	1561	1561	1563	1563	1567	1567	1569	1569	1569	1569	0	0	0	0	0	0	0	0	0	0	0	0	0	0	0	0	0	0	0	0	0	0	0	0	0	0	0	0	0	0	0	0	0	0	0	0
0	0	0	0	0	0	0	0	0	0	1294	1294	1293	1293	1293	1291	1291	1288	1288	1288	1287	1287	1287	1287	1289	1289	1289	1294	1294	1301	1301	1307	1307	1311	1311	1311	1313	1313	1314	1314	1316	1316	1319	1319	1319	1322	1322	1324	1324	1323	1323	1321	1321	1317	1317	1317	1314	1314	1316	1316	1322	1322	1332	1332	1340	1340	1346	1346	1349	1349	1355	1355	1355	1363	1363	1374	1374	1383	1383	1389	1389	1394	1394	1399	1399	1406	1406	1414	1414	1425	1425	1441	1441	1452	1452	1633	1633	1633	1633	1693	1693	1719	1719	1726	1726	1737	1737	1744	1744	1747	1747	1751	1751	1754	1754	1754	1754	1754	1754	1749	1749	1686	1686	1686	1709	1709	1772	1772	1792	1792	1797	1797	1807	1807	1809	1809	1810	1810	2150	2150	2150	2150	2166	2185	2185	2186	2186	2185	2185	2174	2174	2163	2163	2161	2152	2153	2153	2185	2185	0	0	0	0	0	0	0	0	0	0	0	0	0	0	0	0	0	0	1379	1379	1380	1380	1383	1383	1385	1385	1387	1387	1389	1389	1390	1391	1391	1392	1392	1394	1394	1397	1397	1400	1400	1403	1403	1404	1404	1405	1405	1405	1405	1405	1406	1406	1407	1407	1409	1409	1411	1411	1413	1413	1415	1415	1415	1415	1415	1416	1416	1417	1417	1420	1420	1422	1422	1425	1425	1427	1427	1430	1430	1432	1432	1433	1433	1433	1432	1432	1431	1431	1432	1432	1433	1433	1435	1435	1437	1437	1441	1441	1447	1447	1454	1454	1459	1459	1460	1460	0	0	0	0	0	0	0	0	0	0	0	0	0	0	0	0	0	0	0	0	0	0	0	0	0	0	0	0	0	0	0	0	0	0	0	0	0	0	0	0	0	0	0	0	0	2345	2345	2345	2345	2345	2345	2341	2341	2044	2044	2044	2044	2022	2022	1981	1981	1926	1926	1923	1923	1931	1931	1941	1941	1950	1950	1957	1957	1958	1958	1958	1958	1620	1620	1620	1620	1609	1609	1601	1601	1598	1598	1592	1592	1509	1509	1506	1506	1507	1507	1507	1507	1510	1510	1514	1514	1519	1519	1526	1526	1530	1530	1531	1531	1530	1530	1528	1528	1526	1526	1528	1528	1532	1532	1538	1538	1544	1544	1548	1548	1551	1551	1551	1551	1550	1550	1548	1548	1551	1551	1552	1552	1555	1555	0	0	0	0	0	0	0	0	0	0	0	0	0	0	0	0	0	0	0	0	0	0	0	0	0	0	0	0	0	0	0	0	0	0	0	0	0	0	0	0	0	0	0	0	0	0	0	0	0	0	0	0	0	0	0	0	0	0	0	0	0	2209	2209	2203	2203	2194	2194	2193	2193	2167	2138	2138	2139	2139	2139	2139	2147	2147	2153	2153	2160	2160	2170	2170	2180	2188	2188	2197	2197	2197	2197	2199	2199	2197	2197	2193	2193	2192	2192	2189	2115	2115	0	0	0	0	0	0	0	0	1990	1990	0	0	0	0	0	0	0	0	0	0	0	0	0	0	0	0	0	0	0	0	0	0	0	0	0	0	0	0	0	0	0	0	0	1613	1613	1613	1613	1606	1606	1597	1597	1586	1586	1576	1576	1568	1568	1561	1561	1556	1556	1554	1554	1555	1558	1558	1562	1562	1566	1566	1569	1569	1570	1570	1569	1569	1567	1567	1566	1566	1564	1564	1563	1563	1563	1563	1563	1563	1563	1563	1565	1565	1568	1568	1570	1570	1571	1571	0	0	0	0	0	0	0	0	0	0	0	0	0	2016	2016	2013	2013	1994	1994	0	0	0	0	0	0	0	0	0	0	0	0	0	0	0	0	0
0	0	0	0	0	0	0	0	0	0	1294	1294	1293	1293	1293	1291	1291	1288	1288	1288	1287	1287	1287	1287	1289	1289	1289	1294	1294	1301	1301	1307	1307	1311	1311	1311	1313	1313	1314	1314	1316	1316	1319	1319	1319	1322	1322	1324	1324	1323	1323	1321	1321	1317	1317	1317	1314	1314	1316	1316	1322	1322	1332	1332	1340	1340	1346	1346	1349	1349	1355	1355	1355	1363	1363	1374	1374	1383	1383	1389	1389	1394	1394	1399	1399	1406	1406	1414	1414	1425	1425	1441	1441	1452	1452	1633	1633	1633	1633	1693	1693	1719	1719	1726	1726	1737	1737	1744	1744	1747	1747	1751	1751	1754	1754	1754	1754	1754	1754	1749	1749	1686	1686	1686	1709	1709	1772	1772	1792	1792	1797	1797	1807	1807	1809	1809	1810	1810	2150	2150	2150	2150	2166	2185	2185	2186	2186	2185	2185	2174	2174	2163	2163	2161	2161	2163	2163	2221	2221	0	0	0	0	0	0	0	0	0	0	0	0	0	0	0	0	0	0	1379	1379	1379	1379	1381	1381	1384	1384	1386	1386	1389	1389	1390	1391	1391	1392	1392	1393	1393	1396	1396	1399	1399	1401	1401	1401	1401	1401	1402	1402	1404	1404	1406	1406	1408	1408	1410	1410	1412	1412	1413	1413	1415	1415	1415	1415	1415	1416	1416	1418	1418	1421	1421	1424	1424	1426	1426	1429	1429	1432	1432	1435	1435	1436	1436	1435	1434	1434	1433	1433	1433	1433	1435	1435	1435	1435	1437	1437	1440	1440	1446	1446	1453	1453	1457	1457	1460	1460	0	0	0	0	0	0	0	0	0	0	0	0	0	0	0	0	0	0	0	0	0	0	0	0	0	0	0	0	0	0	0	0	0	0	0	0	0	0	0	0	0	0	0	2094	2094	2091	2091	2074	2074	2068	2068	2051	2051	2041	2041	2028	2028	1994	1994	1929	1929	1917	1917	1920	1920	1926	1926	1937	1937	1947	1947	1954	1954	1955	1955	1955	1955	1658	1658	1658	1658	1624	1624	1603	1603	1602	1602	1599	1599	1505	1505	1506	1506	1505	1505	1507	1507	1509	1509	1513	1513	1519	1519	1525	1525	1529	1529	1530	1530	1528	1528	1525	1525	1523	1523	1524	1524	1529	1529	1536	1536	1542	1542	1547	1547	1550	1550	1551	1551	1550	1550	1549	1549	1552	1552	1553	1553	1555	1555	0	0	0	0	0	0	0	0	0	0	0	0	0	0	0	0	0	0	0	0	0	0	0	0	0	0	0	0	0	0	0	0	0	0	0	0	0	0	0	0	0	0	0	0	0	0	0	0	0	0	0	0	2218	2224	2224	2229	2229	2231	2231	2223	2223	2209	2209	2202	2202	2190	2190	2176	2176	2155	2134	2134	2121	2121	2117	2117	2131	2131	2143	2143	2155	2155	2021	2021	2168	2185	2185	2190	2190	1980	1980	1968	1968	2194	2194	2190	2190	2178	2178	2174	2115	2115	2167	2167	2060	2060	0	0	1999	1999	1990	1990	1985	0	0	0	0	0	0	0	0	0	0	0	0	0	0	0	0	0	0	0	0	0	0	0	0	0	0	0	0	0	0	0	0	1613	1613	1613	1613	1606	1606	1597	1597	1586	1586	1576	1576	1568	1568	1561	1561	1556	1556	1554	1554	1555	1558	1558	1562	1562	1566	1566	1569	1569	1570	1570	1569	1569	1567	1567	1566	1566	1564	1564	1563	1563	1563	1563	1563	1563	1563	1563	1565	1565	1568	1568	1570	1570	1571	1571	0	0	0	0	0	0	0	0	0	0	0	0	0	2016	2016	2013	2013	1994	1994	0	0	0	0	0	0	0	0	0	0	0	0	0	0	0	0	0
0	0	0	0	0	0	0	0	0	0	1296	1296	1295	1295	1295	1292	1292	1289	1289	1289	1289	1289	1290	1290	1292	1292	1292	1296	1296	1300	1300	1304	1304	1308	1308	1308	1310	1310	1312	1312	1315	1315	1317	1317	1317	1320	1320	1321	1321	1321	1321	1319	1319	1316	1316	1316	1315	1315	1317	1317	1323	1323	1332	1332	1341	1341	1348	1348	1352	1352	1359	1359	1359	1368	1368	1376	1376	1386	1386	1392	1392	1397	1397	1402	1402	1407	1407	1416	1416	1424	1424	1437	1437	1451	1451	1673	1673	1673	1673	1709	1709	1721	1721	1730	1730	1738	1738	1743	1743	1747	1747	1750	1750	1752	1752	1751	1751	1750	1750	1749	1749	1686	1686	1686	1772	1772	1784	1784	1784	1784	1792	1792	1796	1796	1803	1803	1804	1804	2163	2163	2163	2163	2168	2177	2177	2182	2182	2182	2182	2175	2175	2178	2178	2203	2203	2214	2214	2227	2227	0	0	0	0	0	0	0	0	0	0	0	0	0	0	0	0	0	0	1379	1379	1379	1379	1381	1381	1384	1384	1386	1386	1389	1389	1390	1391	1391	1392	1392	1393	1393	1396	1396	1399	1399	1401	1401	1401	1401	1401	1402	1402	1404	1404	1406	1406	1408	1408	1410	1410	1412	1412	1413	1413	1415	1415	1415	1415	1415	1416	1416	1418	1418	1421	1421	1424	1424	1426	1426	1429	1429	1432	1432	1435	1435	1436	1436	1435	1434	1434	1433	1433	1433	1433	1435	1435	1435	1435	1437	1437	1440	1440	1446	1446	1453	1453	1457	1457	1460	1460	0	0	0	0	0	0	0	0	0	0	0	0	0	0	0	0	0	0	0	0	0	0	0	0	0	0	0	0	0	0	0	0	0	0	0	0	0	0	0	0	0	0	0	2094	2094	2091	2091	2074	2074	2068	2068	2051	2051	2041	2041	2028	2028	1994	1994	1929	1929	1917	1917	1920	1920	1926	1926	1937	1937	1947	1947	1954	1954	1955	1955	1955	1955	1658	1658	1658	1658	1624	1624	1603	1603	1602	1602	1599	1599	1505	1505	1506	1506	1505	1505	1507	1507	1509	1509	1513	1513	1519	1519	1525	1525	1529	1529	1530	1530	1528	1528	1525	1525	1523	1523	1524	1524	1529	1529	1536	1536	1542	1542	1547	1547	1550	1550	1551	1551	1550	1550	1549	1549	1552	1552	1553	1553	1555	1555	0	0	0	0	0	0	0	0	0	0	0	0	0	0	0	0	0	0	0	0	0	0	0	0	0	0	0	0	0	0	0	0	0	0	0	0	0	0	0	0	0	0	0	0	0	0	0	0	0	0	0	0	2218	2224	2224	2229	2229	2231	2231	2223	2223	2209	2209	2202	2202	2190	2190	2176	2176	2155	2134	2134	2121	2121	2117	2117	2131	2131	2143	2143	2155	2155	2021	2021	2168	2185	2185	2190	2190	1980	1980	1968	1968	2194	2194	2190	2190	2178	2178	2174	2115	2115	2167	2167	2060	2060	2018	2018	1999	1999	1990	1990	1985	1820	1820	0	0	0	0	0	0	0	0	0	0	0	0	0	0	0	0	0	0	0	0	0	0	0	0	0	0	0	0	0	0	0	0	1613	1613	1607	1607	1599	1599	1589	1589	1580	1580	1571	1571	1564	1564	1559	1559	1557	1557	1558	1560	1560	1564	1564	1567	1567	1569	1569	1570	1570	1570	1570	1568	1568	1567	1567	1566	1566	1565	1565	1564	1564	1564	1564	1564	1564	1565	1565	1568	1568	1570	1570	1571	1571	0	0	0	0	0	0	0	0	0	0	0	0	0	2016	2016	1993	1993	0	0	0	0	0	0	0	0	0	0	0	0	0	0	0	0	0	0	0
0	0	0	0	0	0	0	0	0	0	1296	1296	1295	1295	1295	1292	1292	1289	1289	1289	1289	1289	1290	1290	1292	1292	1292	1296	1296	1300	1300	1304	1304	1308	1308	1308	1310	1310	1312	1312	1315	1315	1317	1317	1317	1320	1320	1321	1321	1321	1321	1319	1319	1316	1316	1316	1315	1315	1317	1317	1323	1323	1332	1332	1341	1341	1348	1348	1352	1352	1359	1359	1359	1368	1368	1376	1376	1386	1386	1392	1392	1397	1397	1402	1402	1407	1407	1416	1416	1424	1424	1437	1437	1451	1451	1673	1673	1673	1673	1709	1709	1721	1721	1730	1730	1738	1738	1743	1743	1747	1747	1750	1750	1752	1752	1751	1751	1750	1750	1749	1749	1686	1686	1686	1772	1772	1784	1784	1784	1784	1792	1792	1796	1796	1803	1803	1804	1804	2163	2163	2163	2163	2168	2177	2177	2182	2182	2182	2182	2175	2175	2178	2178	2203	2203	2214	2214	2227	2227	0	0	0	0	0	0	0	0	0	0	0	0	0	0	0	0	0	0	1378	1378	1379	1379	1380	1380	1383	1383	1386	1386	1388	1388	1390	1391	1391	1392	1392	1393	1393	1395	1395	1398	1398	1399	1399	1399	1399	1399	1399	1399	1402	1402	1405	1405	1407	1407	1408	1408	1409	1409	1411	1411	1413	1413	1415	1415	1415	1416	1416	1419	1419	1421	1421	1424	1424	1427	1427	1431	1431	1434	1434	1437	1437	1438	1438	1437	1436	1436	1435	1435	1435	1435	1434	1434	1434	1434	1435	1435	1438	1438	1445	1445	1452	1452	1454	1454	1457	1457	0	0	0	0	0	0	0	0	0	0	0	2177	2177	2178	2178	0	0	0	0	0	0	0	0	0	0	0	0	0	0	1996	1996	2104	2104	1973	1973	0	0	0	0	1971	1971	2093	2093	2094	2094	2091	2091	2074	2074	2068	2068	2051	2051	2041	2041	2028	2028	2022	2022	1916	1916	1915	1915	1918	1918	1924	1924	1934	1934	1943	1943	1950	1950	1950	1950	1951	1951	1666	1666	1666	1666	1644	1644	1610	1610	1605	1605	1603	1603	1502	1502	1502	1502	1503	1503	1504	1504	1508	1508	1513	1513	1518	1518	1524	1524	1527	1527	1527	1527	1525	1525	1522	1522	1521	1521	1522	1522	1527	1527	1533	1533	1540	1540	1545	1545	1548	1548	1549	1549	1550	1550	1550	1550	1553	1553	1555	1555	1556	1556	0	0	0	0	0	0	0	0	0	0	0	0	0	0	0	0	0	0	0	0	0	0	0	0	0	0	0	0	0	0	0	0	0	0	0	0	0	0	0	0	0	0	0	0	0	0	0	0	0	0	2209	2209	2218	2224	2224	2229	2229	2224	2224	2218	2218	2182	2182	2188	2188	2182	2182	2174	2174	2157	2135	2135	2102	2102	2092	2092	2049	2049	2040	2040	2027	2027	2021	2021	2015	2004	2004	1993	1993	1980	1980	1968	1968	1951	1951	1941	1941	1922	1922	1913	1917	1917	2061	2061	2060	2060	2018	2018	1999	1999	1990	1990	1985	1820	1820	0	0	0	0	0	0	0	0	0	0	0	0	0	0	0	0	0	0	0	0	0	0	0	0	0	0	0	0	0	0	0	0	1613	1613	1607	1607	1599	1599	1589	1589	1580	1580	1571	1571	1564	1564	1559	1559	1557	1557	1558	1560	1560	1564	1564	1567	1567	1569	1569	1570	1570	1570	1570	1568	1568	1567	1567	1566	1566	1565	1565	1564	1564	1564	1564	1564	1564	1565	1565	1568	1568	1570	1570	1571	1571	0	0	0	0	0	0	0	0	0	0	0	0	0	2016	2016	1993	1993	0	0	0	0	0	0	0	0	0	0	0	0	0	0	0	0	0	0	0
0	0	0	0	0	0	0	0	0	0	1297	1297	1295	1295	1295	1290	1290	1290	1290	1290	1290	1290	1293	1293	1296	1296	1296	1300	1300	1303	1303	1305	1305	1307	1307	1307	1309	1309	1311	1311	1313	1313	1314	1314	1314	1316	1316	1317	1317	1318	1318	1318	1318	1316	1316	1316	1315	1315	1317	1317	1324	1324	1333	1333	1342	1342	1351	1351	1357	1357	1364	1364	1364	1373	1373	1379	1379	1388	1388	1394	1394	1399	1399	1405	1405	1410	1410	1416	1416	1424	1424	1427	1427	1436	1436	1672	1672	1672	1672	1728	1728	1734	1734	1736	1736	1741	1741	1744	1744	1747	1747	1749	1749	1751	1751	1751	1751	1750	1750	1747	1747	1744	1743	1743	1772	1772	1778	1778	1783	1783	1784	1784	1791	1791	1793	1793	1805	1805	1943	1943	1953	1953	2167	2172	2172	2173	2173	2175	2175	2173	2173	2180	2180	2147	2147	2208	2208	2161	2161	2063	0	0	0	0	0	0	0	0	0	0	0	0	0	0	0	0	0	1378	1378	1378	1378	1380	1380	1381	1381	1386	1386	1388	1388	1390	1391	1391	1392	1392	1393	1393	1395	1395	1398	1398	1399	1399	1399	1399	1399	1399	1399	1402	1402	1405	1405	1407	1407	1408	1408	1409	1409	1411	1411	1413	1413	1415	1415	1415	1416	1416	1419	1419	1421	1421	1424	1424	1427	1427	1431	1431	1434	1434	1437	1437	1438	1438	1437	1436	1436	1435	1435	1435	1435	1434	1434	1434	1434	1435	1435	1438	1438	1445	1445	1452	1452	1454	1454	1457	1457	0	0	0	0	0	0	0	0	0	0	0	2177	2177	2178	2178	0	0	0	0	0	0	0	0	0	0	0	0	0	0	1996	1996	2104	2104	1973	1973	0	0	0	0	1971	1971	2093	2093	2094	2094	2091	2091	2074	2074	2068	2068	2051	2051	2041	2041	2028	2028	2022	2022	1916	1916	1915	1915	1918	1918	1924	1924	1934	1934	1943	1943	1950	1950	1950	1950	1951	1951	1666	1666	1666	1666	1644	1644	1610	1610	1605	1605	1603	1603	1502	1502	1502	1502	1503	1503	1504	1504	1508	1508	1513	1513	1518	1518	1524	1524	1527	1527	1527	1527	1525	1525	1522	1522	1521	1521	1522	1522	1527	1527	1533	1533	1540	1540	1545	1545	1548	1548	1549	1549	1550	1550	1550	1550	1553	1553	1555	1555	1556	1556	0	0	0	0	0	0	0	0	0	0	0	0	0	0	0	0	0	0	0	0	0	0	0	0	0	0	0	0	0	0	0	0	0	0	0	0	0	0	0	0	0	0	0	0	0	0	0	0	0	0	2209	2209	2218	2224	2224	2229	2229	2224	2224	2218	2218	2182	2182	2188	2188	2182	2182	2174	2174	2157	2135	2135	2102	2102	2092	2092	2049	2049	2040	2040	2027	2027	2021	2021	2015	2004	2004	1993	1993	1980	1980	1968	1965	1946	1946	1925	1925	1914	1914	1901	1892	1892	1899	1899	1882	1882	1874	1874	1861	1861	1846	1846	1833	1820	1820	1809	1809	0	0	0	0	0	0	0	0	0	0	0	0	0	0	0	0	0	0	0	0	0	0	0	0	0	0	0	0	1618	1618	1612	1612	1608	1608	1601	1601	1593	1593	1585	1585	1577	1577	1570	1570	1565	1565	1562	1562	1562	1563	1563	1565	1565	1567	1567	1569	1569	1569	1569	1569	1569	1568	1568	1566	1566	1566	1566	1565	1565	1565	1565	1564	1564	1564	1564	1565	1565	1567	1567	1569	1569	1570	1570	0	0	0	0	0	0	0	0	0	0	0	0	0	0	0	0	0	0	0	0	0	0	0	0	0	0	0	0	0	0	0	0	0	0	0	0
0	0	0	0	0	0	0	0	0	0	1297	1297	1295	1295	1295	1290	1290	1290	1290	1290	1290	1290	1293	1293	1296	1296	1296	1300	1300	1303	1303	1305	1305	1307	1307	1307	1309	1309	1311	1311	1313	1313	1314	1314	1314	1316	1316	1317	1317	1318	1318	1318	1318	1316	1316	1316	1315	1315	1317	1317	1324	1324	1333	1333	1342	1342	1351	1351	1357	1357	1364	1364	1364	1373	1373	1379	1379	1388	1388	1394	1394	1399	1399	1405	1405	1410	1410	1416	1416	1424	1424	1427	1427	1436	1436	1672	1672	1672	1672	1728	1728	1734	1734	1736	1736	1741	1741	1744	1744	1747	1747	1749	1749	1751	1751	1751	1751	1750	1750	1747	1747	1744	1743	1743	1772	1772	1778	1778	1783	1783	1784	1784	1791	1791	1793	1793	1805	1805	1943	1943	1953	1953	2167	2167	2172	2173	2173	2175	2175	2173	2173	2180	2180	2147	2147	2208	2208	2161	2161	2063	0	0	0	0	0	0	0	0	0	0	0	0	0	0	0	0	0	1378	1378	1378	1378	1380	1380	1381	1381	1384	1384	1387	1387	1389	1391	1391	1392	1392	1393	1393	1396	1396	1398	1398	1399	1399	1399	1399	1397	1398	1398	1400	1400	1403	1403	1404	1404	1404	1404	1404	1404	1406	1406	1409	1409	1412	1412	1414	1415	1415	1418	1418	1421	1421	1424	1424	1427	1427	1431	1431	1435	1435	1438	1438	1439	1439	1438	1437	1437	1436	1436	1435	1435	1434	1434	1434	1434	1434	1434	1437	1437	1444	1444	1450	1450	1453	1453	1454	1454	0	0	0	0	0	0	0	0	0	0	0	0	0	0	0	0	0	0	0	0	0	0	0	1924	1924	2021	2021	2004	2004	1996	1996	1973	1973	1973	1973	1964	1964	1948	1948	1971	1971	2021	2021	2020	2020	2063	2063	2048	2048	2048	2048	2044	2044	2023	2023	2028	2028	2020	2020	1911	1911	1909	1909	1911	1911	1922	1922	1928	1928	1936	1936	1945	1945	1947	1947	1949	1949	1676	1676	1676	1676	1669	1669	1614	1614	1608	1608	1606	1606	1499	1499	1499	1499	1501	1501	1503	1503	1506	1506	1511	1511	1517	1517	1522	1522	1525	1525	1525	1525	1524	1524	1521	1521	1520	1520	1522	1522	1526	1526	1531	1531	1536	1536	1540	1540	1544	1544	1546	1546	1549	1549	1551	1551	1554	1554	1556	1556	1557	1557	0	0	0	0	0	0	0	0	0	0	0	2131	2131	2133	2133	2133	2133	2017	2017	1987	1987	0	0	0	0	0	0	0	0	0	0	0	0	2044	2049	2049	2048	2048	2027	2027	0	0	0	0	0	0	0	0	2009	2009	2014	2014	2012	2012	2012	1989	1989	1938	1938	1961	1961	2146	2146	2163	2163	2161	2161	2025	2025	2120	2054	2054	2036	2036	2035	2035	2020	2020	2031	2031	2027	2027	2021	2021	2015	2004	2004	1993	1993	1980	1980	1965	1965	1946	1946	1925	1925	1914	1914	1901	1892	1892	1899	1899	1882	1882	1874	1874	1861	1861	1846	1846	1833	1820	1820	1809	1809	0	0	0	0	0	0	0	0	0	0	0	0	0	0	0	0	0	0	0	0	0	0	0	0	0	0	0	0	1618	1618	1612	1612	1608	1608	1601	1601	1593	1593	1585	1585	1577	1577	1570	1570	1565	1565	1562	1562	1562	1563	1563	1565	1565	1567	1567	1569	1569	1569	1569	1569	1569	1568	1568	1566	1566	1566	1566	1565	1565	1565	1565	1564	1564	1564	1564	1565	1565	1567	1567	1569	1569	1570	1570	0	0	0	0	0	0	0	0	0	0	0	0	0	0	0	0	0	0	0	0	0	0	0	0	0	0	0	0	0	0	0	0	0	0	0	0
0	0	0	0	0	0	0	0	0	0	1297	1297	1295	1295	1295	1292	1292	1290	1290	1290	1292	1292	1296	1296	1301	1301	1301	1305	1305	1309	1309	1310	1310	1311	1311	1311	1311	1311	1311	1311	1311	1311	1311	1311	1311	1311	1311	1312	1312	1315	1315	1316	1316	1316	1316	1316	1315	1315	1317	1317	1323	1323	1332	1332	1342	1342	1352	1352	1361	1361	1368	1368	1368	1374	1374	1380	1380	1390	1390	1395	1395	1401	1401	1406	1406	1412	1412	1418	1418	1424	1424	1431	1431	1436	1436	1691	1691	1691	1691	1739	1739	1740	1740	1744	1744	1743	1743	1744	1744	1746	1746	1749	1749	1751	1751	1752	1752	1750	1750	1745	1745	1747	1747	1747	1765	1765	1776	1776	1777	1777	1781	1781	1785	1785	1788	1788	1838	1838	1943	1943	1953	1953	1945	1945	1958	1959	1959	1881	1881	2152	2152	2167	2167	2147	2147	2086	2086	2066	2066	2063	0	0	0	0	0	0	0	0	0	0	0	0	0	0	0	0	0	1376	1376	1376	1376	1377	1377	1379	1379	1382	1382	1385	1385	1388	1390	1390	1392	1392	1394	1394	1397	1396	1398	1398	1399	1399	1399	1399	1397	1397	1398	1400	1400	1403	1403	1404	1404	1404	1404	1404	1404	1406	1406	1409	1409	1412	1412	1414	1415	1415	1418	1418	1421	1421	1424	1424	1427	1427	1431	1431	1435	1435	1438	1438	1439	1439	1438	1438	1437	1436	1436	1435	1435	1434	1434	1434	1434	1434	1434	1437	1437	1444	1444	1450	1450	1453	1453	1454	1454	0	0	0	0	0	0	0	0	0	0	0	0	0	0	0	0	0	0	0	0	0	0	0	1924	1924	2021	2021	2004	2004	1996	1996	1973	1973	1973	1973	1964	1964	1948	1948	1971	1971	2021	2021	2020	2020	2063	2063	2048	2048	2048	2048	2044	2044	2023	2023	2028	2028	2020	2020	1911	1911	1909	1909	1911	1911	1922	1922	1928	1928	1936	1936	1945	1945	1947	1947	1949	1949	1676	1676	1676	1676	1669	1669	1614	1614	1608	1608	1606	1606	1499	1499	1499	1499	1501	1501	1503	1503	1506	1506	1511	1511	1517	1517	1522	1522	1525	1525	1525	1525	1524	1524	1521	1521	1520	1520	1522	1522	1526	1526	1531	1531	1536	1536	1540	1540	1544	1544	1546	1546	1549	1549	1551	1551	1554	1554	1556	1556	1557	1557	0	0	0	0	0	0	0	0	0	0	0	2131	2131	2133	2133	2133	2133	2017	2017	1987	1987	0	0	0	0	0	0	0	0	0	0	0	0	2044	2049	2049	2048	2048	2027	2027	0	0	0	0	0	0	0	0	2009	2009	2014	2014	2012	2012	2012	1989	1989	1938	1938	1961	1961	2146	2146	2163	2163	2161	2161	2025	2025	2120	2054	2054	2036	2036	2035	2035	2020	2020	2031	2031	2027	2027	2021	2021	2015	2004	2004	1993	1993	1975	1975	1958	1958	1931	1931	1906	1906	1892	1892	1892	1889	1889	1884	1884	1876	1876	1872	1872	1858	1858	1844	1844	1828	1816	1816	1809	1809	1796	1796	1784	1784	1773	1773	1765	1765	1761	1761	1755	1621	1621	1619	1619	1621	1621	0	0	0	0	0	0	0	0	0	0	0	1618	1618	1613	1613	1610	1610	1603	1603	1597	1597	1589	1589	1581	1581	1574	1574	1568	1568	1565	1563	1563	1563	1563	1566	1566	1567	1567	1568	1568	1567	1567	1567	1567	1563	1563	1563	1563	1565	1565	1565	1565	1565	1565	1565	1565	1564	1564	1565	1565	1566	1566	1568	1568	1570	1570	0	0	0	0	0	0	0	0	0	0	0	0	0	0	0	0	0	0	0	0	0	0	0	0	0	0	0	0	0	0	0	0	0	0	0	0
