0	0	0	0	0	0	0	0	0	0	0	0	0	0	0	0	0	0	0	0	0	0	0	0	0	0	0	0	0	0	0	0	0	0	0	0	0	0	0	0	0	0	0	0	0	0	0	0	0	0	0	0	0	0	0	0	0	0	0	0	0	0	0	0	0	0	0	0	0	0	0	0	0	0	0	0	0	0	0	0	0	0	0	0	0	0	0	0	0	0	0	0	0	1470	1477	1475	1481	1489	1502	1506	1495	1484	1484	1484	1493	1496	1478	1467	1461	1459	1456	1470	1481	1492	1496	1482	1458	1448	1448	1452	1461	1465	1466	1474	1481	1482	1483	1478	1476	1474	1469	1469	1462	1459	1457	1456	1449	1435	1431	1439	1460	1457	1461	1459	1469	1483	1492	1496	1485	1488	1483	1485	1484	1472	1471	1478	1485	1490	1502	1521	1522	1519	1506	1482	1454	1454	1456	1461	1467	1472	1485	1493	1496	1504	1511	1514	1495	1457	1453	1451	1445	1452	1473	1500	1503	1490	1463	1447	1451	1450	1458	1469	1488	1488	1468	1452	1438	1439	1453	1463	1460	1451	1446	1446	1457	1458	1455	1454	1278	1255	1224	1221	1209	1194	1177	1171	1162	1160	1169	1179	0	0	0	0	0	0	0	0	1040	1027	1028	1024	1033	1027	1019	1002	991	980	974	960	951	949	950	955	969	958	952	961	969	982	0	0	1037	0	0	0	0	0	0	0	0	0	0	0	0	0	1285	1405	1440	1436	1443	1450	1453	1450	1451	1453	1462	1467	1471	1477	1478	1480	1481	1489	1497	1499	1484	1470	1464	1472	1486	1490	1497	1497	1507	1509	1507	1499	1504	1501	1497	1488	1481	1478	1482	1484	1487	1489	1501	1522	1531	1522	1499	1492	1501	1506	1505	1502	1495	1503	1493	1487	1493	1482	1463	1457	1462	1477	1490	1496	1492	1480	1466	1461	1468	1473	1473	1474	1477	1483	1481	1474	1472	1470	1474	1482	1490	1491	1490	1490	1502	1508	1509	1503	1496	1491	1490	1496	1495	1489	1495	1509	1525	1542	1538	1509	1507	1503	1504	1511	1507	1497	1483	1485	1487	1484	1482	1475	1466	1469	1482	1508	1523	1521	1515	1496	1485	1479	1473	1482	1479	1474	1472	1461	1467	1477	1490	1483	1482	1483	1490	1487	1478	1462	1457	1471	0	0	0	0	0	0	0	0	0	0	0	0	0	0	0	0	923	916	918	927	933	936	940	0	0	0	0	0	977	989	993	996	982	972	965	968	973	982	994	1006	1009	1011	985	954	926	926	928	936	947	954	960	961	956	958	968	979	996	1013	1024	1034	1037	1033	1048	1172	1341	1375	1423	1444	1456	1461	1463	1466	1467	1469	1467	1474	1477	1480	1482	1475	1464	1454	1453	1479	1475	1460	1450	1443	1451	1452	1464	1468	1486	1491	1496	1512	1508	1493	1476	1473	1472	1483	1500	1506	1509	1496	1481	1467	1477	1504	1514	1510	1492	1460	1456	1461	1470	1480	1482	1483	1485	1489	1481	1464	1467	1482	1510	1517	1506	1486	1481	1486	1487	1501	1507	1506	1493	1477	1472	1466	1466	1474	1481	1483	1482	1485	1485	1483	1489	1491	1487	1476	1480	1474	1466	1454	1450	1462	1483	1494	1488	1487	1491	1493	1493	1487	1473	1475	1470	1464	1450	1437	1434	1449	1467	1470	1462	1464	1470	1490	1496	1488	1484	1490	1502	1502	1496	1486	1479	1485	1477	1474	1464	1454	1447	1438	1443	1453	1459	1465	1476	1486	1495	1495	1496	1478	1464	1448	1434	1428	1436	1449	1455	1453	1445	1444	1445	1435	1429	1429	1433	1443	1437	1446	1445	1447	1436	0	0	0	0	0	0	0
0	0	0	0	0	0	0	0	0	0	0	0	0	0	0	0	0	0	0	0	0	0	0	0	0	0	0	0	0	0	0	0	0	0	0	0	0	0	0	0	0	0	0	0	0	0	0	0	0	0	0	0	0	0	0	0	0	0	0	0	0	0	0	0	0	0	0	0	0	0	0	0	0	0	0	0	0	0	0	0	0	0	0	0	0	0	0	0	0	0	0	0	0	1483	1488	1488	1487	1498	1512	1515	1510	1499	1482	1489	1495	1486	1470	1465	1458	1463	1473	1473	1468	1479	1487	1473	1453	1439	1446	1450	1460	1457	1463	1466	1477	1480	1482	1485	1478	1465	1459	1450	1453	1456	1456	1450	1438	1434	1443	1468	1469	1474	1468	1464	1469	1491	1485	1473	1471	1469	1479	1484	1480	1482	1481	1480	1493	1497	1506	1525	1524	1518	1500	1477	1455	1455	1450	1453	1457	1457	1468	1478	1486	1504	1515	1511	1493	1449	1452	1464	1479	1490	1507	1517	1521	1497	1469	1451	1448	1438	1441	1445	1464	1484	1469	1457	1449	1447	1442	1444	1442	1434	1429	1430	1424	1388	1329	1267	1167	1163	1167	1168	1162	1136	1121	1108	1106	1115	1129	1147	0	0	0	0	0	0	0	0	1011	1000	988	988	998	993	980	967	959	956	953	939	933	932	935	944	944	941	937	942	949	960	984	1018	1041	0	0	0	0	0	0	0	0	0	0	0	0	0	1392	1413	1451	1439	1454	1457	1469	1468	1465	1471	1475	1480	1477	1478	1473	1475	1474	1488	1501	1510	1501	1493	1487	1477	1482	1488	1485	1484	1489	1501	1498	1504	1508	1511	1497	1488	1479	1483	1489	1497	1499	1458	1470	1501	1511	1507	1454	1454	1488	1497	1500	1488	1489	1475	1469	1473	1479	1475	1468	1468	1477	1486	1488	1492	1487	1483	1472	1468	1467	1476	1473	1467	1460	1462	1476	1478	1483	1487	1509	1507	1501	1492	1485	1483	1493	1499	1507	1492	1482	1473	1471	1476	1479	1471	1471	1494	1530	1540	1531	1521	1502	1494	1490	1494	1488	1481	1471	1466	1473	1476	1475	1471	1459	1459	1469	1495	1504	1505	1501	1483	1465	1458	1460	1466	1464	1463	1461	1449	1452	1450	1479	1476	1472	1484	1498	1497	1480	1463	1448	1443	1436	0	0	0	0	0	0	0	0	0	0	0	0	0	0	909	897	895	901	911	918	918	918	0	0	0	0	942	955	966	969	956	952	950	945	940	949	961	981	993	1008	994	966	924	914	910	910	912	926	944	952	953	943	937	942	943	956	979	989	993	999	1002	969	966	994	1096	1239	1394	1416	1434	1446	1451	1462	1471	1471	1469	1469	1473	1464	1456	1447	1445	1452	1468	1466	1458	1458	1461	1458	1454	1448	1448	1469	1481	1485	1492	1498	1490	1484	1479	1481	1488	1495	1502	1495	1492	1479	1461	1473	1494	1519	1522	1499	1472	1462	1470	1482	1483	1480	1485	1482	1484	1489	1481	1478	1492	1495	1496	1487	1485	1492	1493	1490	1496	1502	1502	1502	1490	1479	1471	1471	1479	1488	1499	1494	1479	1478	1470	1474	1483	1476	1466	1464	1477	1468	1458	1457	1466	1485	1497	1498	1491	1492	1483	1482	1476	1466	1455	1444	1453	1461	1469	1463	1474	1482	1492	1478	1476	1490	1507	1514	1499	1493	1496	1508	1489	1490	1467	1455	1453	1461	1465	1466	1453	1441	1438	1441	1450	1453	1456	1458	1476	1487	1487	1490	1484	1469	1456	1451	1440	1443	1450	1456	1453	1447	1449	1454	1450	1445	1445	1446	1448	1445	1442	1437	1444	1447	0	0	0	0	0	0	0
0	0	0	0	0	0	0	0	0	0	0	0	0	0	0	0	0	0	0	0	0	0	0	0	0	0	0	0	0	0	0	0	0	0	0	0	0	0	0	0	0	0	0	0	0	0	0	0	0	0	0	0	0	0	0	0	0	0	0	0	0	0	0	0	0	0	0	0	0	0	0	0	0	0	0	0	0	0	0	0	0	0	0	0	0	0	0	0	0	0	0	0	0	1468	1487	1485	1486	1493	1504	1508	1505	1484	1483	1484	1486	1474	1465	1455	1461	1489	1461	1459	1456	1461	1468	1461	1440	1436	1442	1449	1458	1462	1460	1462	1469	1479	1478	1479	1468	1453	1445	1441	1461	1464	1455	1449	1440	1435	1453	1478	1493	1486	1476	1464	1469	1488	1478	1458	1446	1453	1475	1483	1473	1474	1475	1478	1479	1477	1476	1480	1483	1479	1488	1477	1466	1450	1440	1443	1439	1441	1447	1457	1473	1492	1506	1504	1481	1450	1442	1469	1484	1491	1508	1517	1511	1494	1470	1452	1442	1419	1417	1430	1453	1476	1466	1458	1458	1446	1435	1431	1432	1420	1410	1332	1246	1173	1129	1116	1112	1112	1118	1116	1106	1077	1064	1062	1058	1073	1090	1114	0	0	0	0	0	0	0	993	987	980	966	959	950	947	944	940	937	936	934	924	917	918	929	944	944	941	936	935	934	948	983	1021	0	0	0	0	0	0	0	0	0	0	0	0	0	1381	1414	1425	1462	1454	1462	1475	1484	1485	1475	1482	1490	1488	1481	1477	1464	1464	1462	1473	1468	1505	1527	1534	1484	1478	1488	1488	1482	1476	1477	1490	1502	1510	1522	1519	1505	1489	1487	1492	1501	1508	1471	1468	1481	1503	1508	1499	1478	1458	1456	1490	1494	1492	1482	1467	1467	1476	1481	1474	1468	1473	1488	1487	1483	1478	1477	1477	1468	1470	1473	1472	1464	1456	1455	1465	1472	1485	1499	1519	1526	1527	1511	1486	1476	1483	1482	1488	1492	1481	1471	1469	1469	1476	1466	1459	1463	1483	1506	1518	1519	1514	1516	1503	1495	1489	1477	1471	1462	1462	1469	1473	1478	1472	1460	1450	1463	1479	1492	1499	1493	1483	1482	1463	1461	1464	1462	1454	1447	1442	1439	1455	1467	1466	1475	1486	1501	1496	1480	1462	1450	1441	1440	0	0	0	0	0	0	0	0	0	0	0	0	0	0	902	887	879	881	887	890	891	899	0	0	0	906	912	922	929	933	918	925	927	931	929	930	938	953	972	985	967	943	916	902	897	888	890	907	926	936	943	936	926	918	919	928	947	961	970	975	965	938	936	950	973	991	1034	1224	1347	1393	1430	1444	1459	1466	1466	1468	1475	1469	1464	1451	1447	1455	1473	1474	1477	1484	1483	1481	1463	1449	1442	1450	1471	1477	1474	1478	1487	1483	1486	1488	1487	1491	1486	1486	1487	1478	1470	1466	1485	1500	1499	1453	1449	1463	1489	1516	1528	1508	1487	1477	1479	1494	1492	1501	1506	1497	1495	1481	1479	1482	1482	1488	1485	1495	1504	1507	1495	1481	1481	1475	1479	1479	1484	1481	1475	1466	1452	1456	1464	1462	1453	1456	1466	1472	1472	1470	1477	1485	1500	1492	1489	1493	1491	1490	1475	1454	1440	1438	1449	1460	1470	1478	1479	1487	1499	1510	1503	1495	1501	1494	1483	1490	1494	1497	1484	1472	1449	1442	1441	1449	1461	1464	1459	1447	1433	1432	1440	1445	1441	1452	1459	1474	1474	1487	1490	1481	1472	1461	1454	1453	1455	1455	1447	1443	1444	1452	1461	1457	1457	1460	1461	1455	1442	1438	1440	1455	0	0	0	0	0	0	0
0	0	0	0	0	0	0	0	0	0	0	0	0	0	0	0	0	0	0	0	0	0	0	0	0	0	0	0	0	0	0	0	0	0	0	0	0	0	0	0	0	0	0	0	0	0	0	0	0	0	0	0	0	0	0	0	0	0	0	0	0	0	0	0	0	0	0	0	0	0	0	0	0	0	0	0	0	0	0	0	0	0	0	0	0	0	0	0	0	0	0	0	0	1436	1475	1471	1478	1482	1486	1493	1489	1478	1467	1480	1480	1470	1471	1471	1485	1477	1448	1436	1445	1456	1454	1451	1439	1437	1447	1454	1464	1468	1467	1463	1459	1462	1469	1463	1458	1447	1447	1447	1470	1476	1461	1447	1439	1433	1446	1473	1487	1485	1466	1462	1464	1478	1481	1455	1433	1443	1471	1477	1474	1468	1469	1476	1471	1465	1460	1456	1461	1459	1458	1470	1478	1461	1450	1450	1435	1438	1439	1445	1467	1481	1488	1488	1469	1451	1446	1468	1477	1482	1498	1495	1491	1481	1467	1451	1442	1421	1412	1424	1455	1461	1452	1458	1463	1459	1420	1384	1347	1320	1165	1104	1090	1076	1062	1069	1074	1073	1076	1078	1075	1056	1046	1039	1036	1043	1060	1082	1099	0	0	0	1022	1007	987	975	973	956	946	940	932	932	928	931	933	932	920	907	904	915	931	943	947	944	936	935	933	947	0	0	0	0	0	0	0	0	0	0	0	0	1352	1409	1395	1421	1419	1410	1433	1473	1476	1488	1498	1490	1484	1487	1490	1484	1482	1481	1472	1456	1451	1456	1499	1527	1555	1531	1511	1458	1487	1487	1482	1478	1483	1493	1508	1524	1531	1524	1510	1499	1493	1497	1509	1492	1495	1477	1483	1477	1470	1490	1482	1482	1477	1479	1486	1486	1473	1457	1464	1490	1497	1488	1487	1488	1493	1496	1486	1472	1471	1471	1473	1476	1478	1457	1450	1447	1451	1458	1482	1498	1517	1530	1533	1523	1505	1480	1474	1485	1499	1504	1496	1486	1483	1477	1486	1486	1479	1473	1468	1481	1493	1498	1497	1510	1517	1519	1507	1496	1485	1469	1464	1467	1471	1483	1485	1477	1466	1448	1457	1478	1498	1499	1499	1494	1500	1500	1491	1492	1486	1461	1448	1440	1437	1454	1462	1468	1477	1491	1498	1496	1480	1459	1461	1451	1442	1405	0	0	0	0	0	0	0	0	0	0	0	0	0	906	884	867	859	858	859	866	874	893	893	892	888	878	888	894	901	899	894	897	904	907	906	908	911	925	936	936	918	904	893	885	880	876	883	905	921	928	921	916	907	901	905	918	932	945	948	941	921	916	922	935	946	966	1013	1094	1192	1311	1390	1428	1456	1479	1489	1488	1485	1478	1473	1474	1484	1493	1497	1498	1495	1495	1483	1474	1461	1456	1450	1472	1474	1459	1474	1483	1479	1472	1476	1475	1476	1473	1472	1478	1475	1480	1484	1472	1472	1456	1447	1452	1468	1492	1520	1531	1511	1491	1477	1473	1494	1501	1498	1494	1489	1484	1480	1480	1473	1471	1469	1475	1492	1499	1506	1504	1496	1490	1475	1466	1463	1446	1471	1465	1452	1449	1451	1459	1455	1456	1452	1458	1468	1476	1481	1483	1480	1483	1482	1481	1490	1501	1498	1484	1461	1453	1437	1449	1452	1470	1480	1486	1487	1498	1501	1487	1462	1457	1465	1471	1478	1473	1470	1459	1452	1443	1442	1441	1452	1472	1472	1460	1439	1426	1421	1428	1432	1437	1443	1454	1471	1471	1484	1493	1495	1484	1476	1466	1458	1461	1456	1446	1441	1451	1466	1467	1465	1465	1472	1472	1467	1455	1445	1446	0	0	0	0	0	0	0	0
0	0	0	0	0	0	0	0	0	0	0	0	0	0	0	0	0	0	0	0	0	0	0	0	0	0	0	0	0	0	0	0	0	0	0	0	0	0	0	0	0	0	0	0	0	0	0	0	0	0	0	0	0	0	0	0	0	0	0	0	0	0	0	0	0	0	0	0	0	0	0	0	0	0	0	0	0	0	0	0	0	0	0	0	0	0	0	0	0	0	0	0	0	1419	1463	1472	1470	1469	1468	1474	1482	1473	1474	1470	1472	1471	1471	1478	1489	1472	1452	1442	1437	1453	1455	1449	1440	1440	1449	1460	1472	1487	1481	1475	1463	1467	1463	1454	1454	1453	1457	1471	1482	1482	1472	1447	1433	1423	1432	1457	1471	1471	1455	1452	1456	1473	1468	1445	1417	1437	1465	1474	1465	1460	1475	1477	1472	1469	1463	1455	1451	1443	1446	1452	1462	1466	1461	1458	1461	1460	1461	1462	1456	1453	1453	1464	1463	1454	1452	1468	1471	1469	1474	1479	1480	1473	1470	1457	1445	1434	1439	1447	1453	1429	1424	1436	1458	1404	1338	1223	1151	1084	1064	1065	1067	1055	1053	1056	1058	1049	1055	1061	1060	1052	1045	1039	1032	1036	1049	1064	1076	0	0	1037	1020	1002	982	978	963	947	940	938	930	925	922	931	937	930	909	901	899	909	930	941	941	932	917	932	0	0	0	0	0	0	0	0	0	0	0	0	0	1372	1439	1438	1442	1448	1425	1418	1439	1458	1488	1497	1502	1491	1482	1474	1477	1476	1479	1482	1478	1458	1459	1468	1509	1534	1555	1524	1498	1453	1478	1488	1490	1490	1493	1505	1515	1527	1535	1527	1510	1498	1498	1499	1503	1503	1498	1504	1509	1509	1475	1461	1476	1484	1479	1478	1484	1487	1466	1461	1460	1505	1508	1501	1497	1499	1504	1501	1493	1469	1462	1472	1478	1488	1482	1457	1455	1451	1456	1470	1485	1503	1514	1523	1518	1506	1486	1474	1483	1500	1515	1514	1503	1506	1496	1502	1499	1501	1500	1500	1496	1500	1497	1494	1495	1498	1513	1519	1514	1507	1494	1483	1472	1474	1482	1489	1492	1483	1462	1449	1471	1495	1511	1513	1510	1504	1500	1508	1500	1499	1487	1465	1453	1451	1457	1455	1465	1474	1485	1499	1503	1496	1481	1474	1464	1461	1453	1438	1369	0	0	0	0	0	0	0	0	0	0	0	0	917	891	864	846	839	833	837	844	876	873	870	869	865	869	877	882	881	872	870	873	881	883	885	885	896	904	905	895	885	876	871	867	867	879	894	907	910	906	907	896	887	886	894	910	920	924	918	907	903	903	904	910	926	959	1000	1040	1061	1225	1361	1430	1444	1471	1480	1473	1474	1480	1488	1488	1503	1508	1516	1513	1504	1491	1481	1475	1466	1462	1476	1472	1472	1478	1478	1472	1458	1456	1470	1473	1456	1453	1461	1466	1480	1490	1483	1473	1467	1459	1459	1475	1496	1511	1516	1504	1493	1483	1486	1491	1491	1482	1466	1461	1459	1471	1475	1474	1471	1459	1463	1473	1492	1504	1511	1506	1501	1481	1473	1461	1453	1470	1462	1461	1453	1452	1459	1460	1455	1454	1460	1466	1475	1479	1477	1470	1466	1467	1460	1469	1477	1491	1484	1473	1461	1451	1448	1451	1460	1469	1473	1475	1478	1481	1474	1463	1456	1462	1473	1479	1479	1476	1463	1454	1445	1437	1451	1473	1476	1482	1459	1446	1423	1419	1422	1424	1433	1438	1454	1469	1469	1488	1498	1492	1492	1478	1461	1461	1457	1454	1451	1450	1458	1469	1472	1472	1476	1476	1476	1469	1460	1456	1454	0	0	0	0	0	0	0	0
0	0	0	0	0	0	0	0	0	0	0	0	0	0	0	0	0	0	0	0	0	0	0	0	0	0	0	0	0	0	0	0	0	0	0	0	0	0	0	0	0	0	0	0	0	0	0	0	0	0	0	0	0	0	0	0	0	0	0	0	0	0	0	0	0	0	0	0	0	0	0	0	0	0	0	0	0	0	0	0	0	0	0	0	0	0	0	0	0	0	0	0	0	1433	1466	1472	1469	1467	1466	1463	1475	1479	1478	1472	1469	1464	1474	1474	1481	1478	1462	1453	1434	1442	1455	1451	1443	1444	1451	1464	1483	1494	1500	1490	1483	1472	1467	1461	1458	1460	1458	1477	1492	1491	1484	1459	1436	1423	1439	1452	1460	1452	1451	1444	1451	1460	1460	1441	1412	1427	1456	1473	1476	1473	1476	1482	1481	1479	1475	1466	1455	1443	1442	1448	1458	1465	1456	1456	1457	1466	1465	1471	1466	1464	1464	1467	1464	1464	1468	1480	1475	1466	1458	1472	1465	1469	1461	1451	1442	1442	1445	1439	1436	1399	1396	1385	1312	1210	1149	1112	1081	1067	1062	1065	1070	1071	1064	1065	1057	1057	1059	1066	1066	1059	1052	1046	1036	1035	1040	1055	1066	1066	1047	1025	1018	1003	996	988	969	954	957	959	950	936	0	927	936	922	901	891	887	900	927	941	942	925	0	0	0	0	0	0	0	0	0	0	0	0	0	0	1383	1445	1449	1444	1453	1453	1453	1457	1442	1454	1489	1504	1506	1499	1485	1475	1466	1466	1476	1483	1479	1473	1474	1473	1522	1530	1517	1502	1493	1461	1473	1492	1496	1506	1504	1506	1510	1516	1526	1512	1506	1500	1496	1493	1504	1511	1511	1514	1514	1515	1507	1465	1467	1460	1486	1489	1498	1504	1465	1469	1477	1503	1510	1507	1500	1500	1493	1483	1478	1476	1472	1484	1489	1487	1476	1467	1462	1468	1471	1478	1490	1490	1500	1506	1505	1497	1490	1492	1502	1521	1527	1523	1514	1516	1511	1520	1512	1510	1507	1509	1506	1500	1492	1488	1495	1502	1518	1525	1521	1507	1507	1497	1484	1483	1485	1487	1486	1475	1460	1451	1460	1494	1507	1511	1508	1510	1502	1504	1500	1482	1471	1460	1458	1461	1470	1462	1459	1464	1486	1507	1504	1499	1487	1481	1471	1463	1459	1448	1458	1459	0	0	0	0	0	0	0	0	0	0	0	930	907	874	847	830	823	808	832	844	849	858	859	863	871	879	879	872	863	852	854	856	869	869	872	876	885	883	870	860	859	861	859	865	877	891	896	894	886	883	885	882	876	881	890	898	900	900	902	897	891	887	887	900	918	941	965	990	996	1039	1147	1345	1398	1439	1449	1458	1468	1479	1490	1505	1514	1527	1522	1505	1494	1488	1483	1473	1470	1472	1479	1479	1486	1481	1457	1449	1466	1483	1490	1470	1457	1453	1459	1472	1499	1495	1482	1472	1475	1476	1488	1497	1496	1500	1494	1493	1483	1493	1498	1488	1464	1457	1452	1456	1470	1485	1478	1479	1457	1450	1455	1473	1486	1498	1501	1500	1491	1487	1485	1490	1480	1469	1455	1456	1454	1460	1459	1460	1454	1455	1463	1470	1468	1465	1469	1462	1467	1464	1469	1472	1477	1484	1482	1469	1459	1441	1444	1455	1469	1467	1466	1465	1475	1478	1476	1469	1471	1472	1476	1477	1476	1466	1462	1447	1431	1441	1478	1501	1502	1489	1458	1438	1429	1428	1433	1439	1441	1454	1454	1483	1501	1506	1495	1489	1462	1451	1449	1450	1454	1453	1458	1466	1460	1470	1470	1478	1479	1474	1461	1450	1450	1460	0	0	0	0	0	0	0	0
0	0	0	0	0	0	0	0	0	0	0	0	0	0	0	0	0	0	0	0	0	0	0	0	0	0	0	0	0	0	0	0	0	0	0	0	0	0	0	0	0	0	0	0	0	0	0	0	0	0	0	0	0	0	0	0	0	0	0	0	0	0	0	0	0	0	0	0	0	0	0	0	0	0	0	0	0	0	0	0	0	0	0	0	0	0	0	0	0	0	0	0	0	1468	1483	1479	1475	1471	1464	1462	1478	1487	1483	1475	1473	1468	1468	1464	1458	1452	1459	1440	1429	1442	1456	1464	1453	1448	1453	1467	1477	1487	1487	1481	1482	1472	1465	1469	1466	1462	1460	1473	1506	1508	1495	1476	1455	1456	1463	1459	1449	1448	1446	1447	1451	1462	1454	1444	1434	1431	1454	1472	1472	1469	1469	1479	1474	1475	1478	1474	1468	1453	1447	1455	1472	1477	1466	1455	1458	1462	1475	1482	1488	1485	1483	1476	1474	1473	1475	1491	1486	1477	1466	1455	1464	1451	1452	1441	1429	1429	1418	1398	1386	1371	1259	1181	1128	1124	1121	1107	1095	1089	0	1088	1093	1096	1100	1093	1091	1083	1086	1089	1087	1073	1067	1056	1049	1048	1058	0	0	0	0	1032	1023	1018	0	0	0	0	0	0	0	0	0	0	0	0	0	0	900	0	0	0	0	0	0	0	0	0	0	0	0	0	0	0	0	0	0	1381	1434	1457	1461	1460	1451	1447	1448	1461	1463	1480	1490	1506	1509	1510	1500	1487	1477	1471	1478	1484	1487	1478	1496	1498	1497	1533	1530	1497	1492	1496	1509	1494	1501	1499	1505	1503	1499	1498	1506	1506	1504	1506	1504	1503	1513	1522	1522	1524	1520	1521	1508	1484	1477	1460	1484	1498	1503	1503	1478	1487	1489	1504	1506	1499	1492	1491	1473	1467	1467	1478	1483	1496	1495	1487	1477	1473	1475	1474	1481	1491	1488	1486	1478	1488	1497	1495	1499	1508	1515	1522	1525	1518	1516	1521	1525	1527	1521	1518	1514	1509	1508	1508	1500	1495	1492	1502	1504	1516	1515	1508	1500	1497	1481	1473	1479	1479	1478	1475	1461	1459	1472	1481	1494	1506	1504	1497	1483	1472	1464	1473	1471	1468	1471	1478	1472	1458	1454	1469	1483	1487	1498	1498	1494	1479	1464	1455	1459	1470	1481	1484	1471	0	0	0	0	0	0	0	0	0	0	0	0	912	870	843	819	802	803	820	830	842	850	857	871	875	878	872	863	854	850	853	854	862	862	862	868	863	849	840	852	855	856	860	874	887	891	888	883	876	875	875	866	866	875	881	888	901	902	891	877	868	868	878	891	904	916	930	940	956	986	1032	1102	1362	1393	1422	1444	1459	1476	1487	1498	1514	1512	1500	1502	1485	1482	1473	1454	1461	1475	1481	1490	1482	1459	1461	1476	1498	1505	1492	1464	1450	1448	1467	1489	1503	1495	1492	1496	1498	1505	1512	1494	1488	1482	1478	1478	1488	1496	1495	1474	1466	1464	1459	1478	1498	1499	1487	1459	1443	1444	1459	1475	1481	1481	1488	1491	1501	1509	1512	1497	1473	1452	1447	1452	1462	1461	1463	1458	1462	1461	1462	1458	1460	1467	1468	1482	1487	1487	1474	1478	1484	1493	1486	1465	1443	1444	1455	1469	1474	1472	1470	1480	1485	1474	1468	1461	1461	1462	1466	1464	1460	1459	1449	1432	1433	1473	1506	1505	1504	1494	1483	1474	1436	1451	1442	1436	1444	1444	1468	1500	1503	1495	1471	1449	1445	1445	1444	1449	1461	1461	1466	1459	1459	1459	1475	1480	1478	1460	1440	1435	1453	0	0	0	0	0	0	0	0
0	0	0	0	0	0	0	0	0	0	0	0	0	0	0	0	0	0	0	0	0	0	0	0	0	0	0	0	0	0	0	0	0	0	0	0	0	0	0	0	0	0	0	0	0	0	0	0	0	0	0	0	0	0	0	0	0	0	0	0	0	0	0	0	0	0	0	0	0	0	0	0	0	0	0	0	0	0	0	0	0	0	0	0	0	0	0	0	0	0	0	0	0	1511	1518	1506	1500	1494	1483	1480	1476	1480	1479	1475	1474	1470	1466	1460	1448	1437	1417	1429	1433	1454	1476	1478	1468	1460	1460	1465	1472	1470	1466	1457	1446	1450	1461	1473	1472	1468	1467	1478	1522	1517	1515	1498	1483	1484	1479	1462	1448	1442	1448	1457	1461	1463	1461	1461	1456	1456	1460	1463	1458	1462	1466	1466	1456	1454	1465	1470	1469	1460	1456	1466	1486	1498	1481	1468	1471	1479	1487	1495	1498	1496	1485	1472	1470	1461	1452	1483	1488	1478	1457	1448	1450	1444	1434	1428	1412	1395	1372	1344	1296	1164	0	0	0	1107	1111	1109	1109	0	0	0	0	0	1146	1150	1149	1136	1134	1126	1110	1101	1093	1087	1082	0	0	0	0	0	0	0	0	0	0	0	0	0	0	0	0	0	0	0	0	0	0	0	0	0	0	0	0	0	0	0	0	0	0	0	0	0	0	0	0	0	1388	1439	1471	1471	1471	1470	1448	1437	1437	1461	1467	1481	1492	1504	1517	1519	1517	1504	1491	1484	1484	1491	1496	1498	1506	1512	1508	1501	1516	1485	1478	1524	1525	1493	1490	1501	1501	1498	1495	1497	1502	1504	1507	1511	1513	1519	1528	1528	1531	1530	1533	1519	1499	1496	1504	1520	1492	1500	1500	1498	1490	1499	1502	1496	1488	1487	1476	1470	1466	1466	1476	1487	1493	1502	1495	1488	1483	1484	1492	1485	1491	1496	1493	1481	1473	1485	1493	1499	1504	1506	1506	1504	1502	1511	1509	1517	1525	1524	1518	1518	1513	1506	1502	1503	1495	1490	1490	1491	1504	1509	1506	1500	1489	1481	1465	1468	1470	1472	1472	1473	1468	1476	1472	1480	1489	1500	1499	1487	1470	1465	1461	1470	1483	1479	1480	1485	1469	1453	1453	1481	1487	1490	1495	1501	1497	1480	1458	1457	1469	1484	1496	1498	1509	1538	0	0	0	0	0	0	0	0	0	0	0	0	0	876	836	819	804	807	810	830	844	853	860	868	866	867	864	856	852	851	854	858	857	858	855	846	831	825	849	856	854	853	857	870	872	869	868	860	869	866	864	863	865	868	875	897	896	881	870	859	857	868	873	881	881	876	882	897	914	939	980	1078	1204	1347	1387	1425	1445	1457	1471	1481	1481	1486	1456	1444	1428	1430	1453	1462	1468	1466	1470	1473	1470	1477	1490	1516	1518	1503	1487	1461	1450	1448	1475	1504	1510	1503	1503	1512	1516	1511	1491	1480	1479	1468	1465	1470	1481	1490	1482	1479	1475	1466	1480	1494	1503	1486	1463	1449	1444	1463	1473	1471	1480	1483	1489	1496	1506	1514	1509	1475	1454	1440	1451	1464	1465	1464	1468	1465	1462	1469	1470	1470	1478	1491	1495	1500	1498	1487	1485	1500	1504	1500	1463	1443	1439	1464	1485	1488	1487	1484	1491	1488	1480	1468	1450	1447	1446	1449	1456	1453	1454	1448	1445	1448	1467	1497	1502	1506	1510	1514	1501	1495	1495	1478	1446	1449	1449	1465	1483	1492	1477	1457	1446	1445	1446	1451	1458	1466	1469	1467	1457	1454	1454	1459	1478	1478	1455	1444	1436	1456	0	0	0	0	0	0	0	0
0	0	0	0	0	0	0	0	0	0	0	0	0	0	0	0	0	0	0	0	0	0	0	0	0	0	0	0	0	0	0	0	0	0	0	0	0	0	0	0	0	0	0	0	0	0	0	0	0	0	0	0	0	0	0	0	0	0	0	0	0	0	0	0	0	0	0	0	0	0	0	0	0	0	0	0	0	0	0	0	0	0	0	0	0	0	0	0	0	0	0	0	0	1551	1545	1529	1513	1503	1491	1485	1478	1462	1460	1466	1468	1477	1470	1458	1444	1433	1419	1428	1451	1479	1500	1497	1484	1475	1472	1470	1467	1471	1459	1446	1435	1441	1457	1469	1474	1476	1476	1497	1522	1530	1520	1511	1506	1500	1489	1462	1443	1439	1446	1456	1463	1472	1475	1476	1473	1471	1468	1464	1456	1458	1464	1461	1448	1447	1456	1468	1468	1463	1465	1474	1499	1503	1496	1494	1492	1501	1503	1506	1494	1486	1478	1465	1457	1442	1446	1470	1477	1466	1448	1436	1420	1412	1386	1407	1384	1357	1302	1230	1126	0	0	0	0	0	1102	1111	1115	0	0	0	0	0	0	1194	1199	1180	1171	1158	1149	1133	1137	1124	0	0	0	0	0	0	0	0	0	0	0	0	0	0	0	0	0	0	0	0	0	0	0	0	0	0	0	0	0	0	0	0	0	0	0	0	0	0	0	0	0	1374	1458	1494	1489	1483	1484	1474	1460	1430	1434	1453	1481	1484	1492	1530	1489	1511	1513	1520	1523	1516	1499	1494	1500	1509	1519	1518	1507	1503	1505	1463	1465	1516	1516	1486	1485	1493	1466	1460	1464	1477	1497	1511	1514	1507	1508	1526	1532	1531	1529	1529	1520	1501	1489	1502	1535	1518	1498	1500	1501	1497	1500	1506	1499	1482	1468	1470	1462	1461	1465	1471	1483	1489	1496	1497	1492	1491	1495	1500	1510	1507	1502	1500	1494	1484	1474	1484	1490	1499	1500	1491	1485	1490	1495	1500	1502	1505	1509	1513	1511	1507	1503	1492	1488	1495	1494	1489	1487	1488	1500	1507	1504	1495	1484	1466	1464	1468	1472	1472	1475	1478	1482	1485	1482	1478	1489	1490	1488	1482	1475	1472	1469	1475	1485	1489	1482	1484	1478	1465	1476	1495	1503	1494	1497	1502	1496	1483	1472	1470	1480	1498	1505	1505	1509	1545	0	0	0	0	0	0	0	0	0	0	0	0	0	0	870	838	813	812	809	808	827	838	844	849	855	855	849	846	842	848	847	851	851	851	850	836	819	824	844	852	845	841	840	837	843	845	847	842	849	852	852	855	859	863	868	881	888	874	861	855	858	861	863	871	861	853	848	854	871	877	895	955	997	1038	1172	1334	1366	1393	1314	1376	1431	1428	1419	1413	1413	1428	1456	1462	1467	1466	1475	1478	1470	1472	1488	1501	1509	1494	1479	1471	1455	1454	1471	1493	1497	1498	1497	1499	1506	1486	1478	1469	1470	1472	1466	1455	1461	1478	1483	1480	1480	1475	1474	1482	1490	1485	1470	1455	1455	1468	1473	1480	1485	1495	1499	1496	1497	1509	1514	1495	1459	1454	1459	1473	1481	1480	1477	1473	1478	1474	1480	1484	1495	1496	1502	1501	1483	1483	1483	1501	1508	1505	1469	1454	1450	1470	1482	1492	1488	1487	1499	1503	1491	1475	1459	1441	1437	1451	1460	1460	1458	1453	1447	1453	1469	1491	1502	1500	1510	1515	1514	1509	1507	1495	1480	1474	1460	1469	1486	1483	1466	1456	1448	1452	1458	1461	1466	1474	1482	1476	1462	1433	1433	1434	1459	1458	1449	1439	1437	1460	0	0	0	0	0	0	0	0
0	0	0	0	0	0	0	0	0	0	0	0	0	0	0	0	0	0	0	0	0	0	0	0	0	0	0	0	0	0	0	0	0	0	0	0	0	0	0	0	0	0	0	0	0	0	0	0	0	0	0	0	0	0	0	0	0	0	0	0	0	0	0	0	0	0	0	0	0	0	0	0	0	0	0	0	0	0	0	0	0	0	0	0	0	0	0	0	0	0	0	0	0	1534	1550	1522	1514	1505	1502	1491	1484	1471	1455	1460	1473	1478	1471	1456	1446	1439	1439	1442	1474	1500	1510	1499	1486	1480	1486	1481	1477	1470	1458	1445	1443	1451	1462	1470	1479	1479	1480	1488	1515	1519	1518	1512	1511	1507	1492	1460	1440	1439	1436	1441	1450	1467	1482	1480	1485	1480	1476	1469	1465	1461	1468	1465	1455	1444	1451	1460	1467	1473	1471	1480	1497	1499	1502	1504	1510	1514	1511	1507	1490	1462	1456	1460	1461	1455	1452	1461	1464	1443	1409	1380	1292	1250	1167	0	0	0	0	1086	0	0	0	0	0	0	0	1110	0	0	0	0	0	0	1212	1222	1224	1223	1202	1193	1175	1171	1174	1159	0	0	0	0	0	0	0	0	0	0	0	0	0	0	0	0	0	0	0	0	0	0	0	0	0	0	0	0	0	0	0	0	0	0	0	0	0	0	0	0	1335	1453	1486	1489	1487	1482	1469	1450	1469	1455	1424	1442	1475	1508	1511	1518	1483	1465	1456	1464	1479	1483	1454	1445	1474	1507	1515	1514	1508	1498	1484	1445	1445	1489	1498	1478	1479	1465	1462	1512	1512	1518	1531	1535	1522	1472	1496	1496	1517	1521	1520	1515	1506	1492	1490	1519	1516	1494	1494	1499	1499	1494	1500	1504	1500	1485	1473	1457	1451	1461	1468	1478	1485	1490	1496	1487	1493	1494	1503	1519	1525	1511	1507	1503	1497	1479	1466	1471	1490	1496	1486	1479	1474	1476	1487	1495	1497	1495	1506	1507	1503	1500	1497	1485	1482	1488	1489	1500	1494	1491	1499	1512	1508	1491	1472	1471	1477	1484	1484	1479	1477	1487	1500	1502	1491	1486	1482	1480	1480	1478	1482	1481	1484	1484	1483	1477	1474	1480	1480	1475	1486	1500	1504	1501	1501	1502	1496	1489	1483	1481	1497	1507	1499	1490	1485	1495	1522	0	0	0	0	0	0	0	0	0	0	0	0	0	0	851	833	823	811	807	810	822	829	836	836	834	826	821	819	825	838	846	848	852	844	832	814	816	826	828	829	816	814	812	816	826	831	828	827	830	833	837	846	854	855	867	867	864	855	854	853	859	864	859	848	836	831	835	843	843	851	886	910	926	951	890	934	980	1094	1221	1266	1320	1341	1356	1394	1424	1449	1454	1462	1476	1487	1487	1480	1477	1474	1478	1481	1466	1474	1475	1465	1472	1473	1484	1491	1486	1485	1479	1478	1471	1471	1470	1475	1479	1478	1464	1458	1470	1479	1481	1479	1472	1470	1474	1492	1488	1477	1463	1465	1472	1464	1481	1487	1501	1507	1494	1488	1495	1501	1493	1475	1476	1491	1496	1498	1498	1490	1481	1487	1492	1496	1502	1505	1502	1490	1483	1472	1469	1480	1492	1490	1483	1477	1477	1473	1477	1477	1481	1476	1476	1493	1499	1494	1486	1469	1452	1451	1457	1471	1469	1463	1455	1457	1460	1470	1487	1492	1493	1501	1507	1503	1504	1495	1483	1477	1477	1472	1478	1475	1477	1466	1461	1459	1463	1460	1465	1465	1473	1479	1485	1457	1457	1435	1432	1440	1439	1434	1430	1428	1437	0	0	0	0	0	0	0	0
0	0	0	0	0	0	0	0	0	0	0	0	0	0	0	0	0	0	0	0	0	0	0	0	0	0	0	0	0	0	0	0	0	0	0	0	0	0	0	0	0	0	0	0	0	0	0	0	0	0	0	0	0	0	0	0	0	0	0	0	0	0	0	0	0	0	0	0	0	0	0	0	0	0	0	0	0	0	0	0	0	0	0	0	0	0	0	0	0	0	0	0	0	1519	1515	1492	1475	1492	1499	1492	1492	1482	1461	1461	1466	1470	1466	1458	1444	1444	1447	1455	1480	1507	1502	1476	1466	1474	1493	1493	1482	1464	1460	1451	1451	1460	1474	1483	1487	1476	1468	1468	1494	1505	1502	1504	1506	1493	1478	1453	1443	1439	1434	1437	1440	1458	1474	1465	1469	1482	1484	1473	1471	1466	1468	1462	1455	1449	1448	1458	1468	1471	1465	1471	1489	1486	1496	1503	1510	1509	1502	1489	1465	1451	1446	1446	1449	1446	1441	1445	1431	1378	1301	1193	0	0	0	0	0	0	0	0	0	0	0	0	0	0	0	0	0	0	0	0	0	1217	1216	1225	1230	1232	1211	1200	1193	1193	1193	0	0	0	0	0	0	0	0	0	0	0	0	0	0	0	0	0	0	0	0	0	0	0	0	0	0	0	0	0	0	0	0	0	0	0	0	0	0	0	0	1322	1448	1471	1475	1481	1461	1437	1437	1430	1433	1458	1437	1435	1451	1497	1501	1498	1490	1465	1468	1477	1481	1481	1457	1447	1457	1468	1504	1509	1501	1493	1464	1430	1435	1487	1493	1481	1474	1466	1460	1506	1504	1511	1522	1536	1518	1473	1493	1483	1489	1496	1467	1480	1499	1495	1498	1500	1493	1490	1488	1491	1494	1489	1488	1497	1505	1491	1478	1467	1459	1464	1467	1479	1486	1482	1482	1485	1490	1502	1520	1522	1515	1506	1495	1488	1483	1484	1499	1499	1496	1494	1491	1485	1472	1486	1494	1496	1489	1478	1465	1483	1483	1478	1465	1471	1474	1486	1503	1514	1508	1500	1496	1491	1485	1478	1483	1490	1496	1502	1507	1509	1505	1503	1499	1502	1501	1490	1479	1475	1481	1486	1505	1501	1500	1492	1487	1479	1475	1477	1478	1478	1479	1489	1489	1479	1486	1487	1496	1492	1485	1482	1484	1477	1475	1473	1469	1469	1485	0	0	0	0	0	0	0	0	0	0	0	0	0	0	0	859	839	825	809	807	816	823	824	824	814	801	796	802	812	826	834	842	846	843	827	812	808	808	808	806	804	797	799	812	821	823	820	818	818	821	826	830	834	836	839	840	848	838	835	839	848	856	849	834	826	826	831	833	837	837	840	821	810	813	833	858	895	926	1014	1110	1158	1217	1275	1337	1390	1442	1458	1471	1488	1500	1499	1491	1487	1480	1477	1474	1461	1461	1473	1483	1489	1499	1498	1493	1486	1480	1483	1472	1473	1475	1478	1485	1488	1497	1486	1478	1473	1461	1475	1475	1475	1470	1480	1493	1499	1476	1452	1451	1463	1454	1474	1490	1498	1493	1470	1462	1475	1490	1482	1478	1491	1496	1506	1513	1508	1499	1494	1496	1503	1504	1512	1511	1498	1482	1467	1463	1463	1471	1481	1481	1479	1477	1482	1485	1479	1475	1465	1460	1463	1472	1485	1491	1492	1484	1462	1457	1463	1479	1482	1477	1469	1467	1474	1475	1487	1495	1482	1477	1477	1483	1484	1477	1470	1467	1467	1462	1465	1455	1453	1449	1455	1460	1463	1460	1455	1458	1467	1479	1477	1463	1463	1443	1434	1435	1432	1427	1428	1422	1415	0	0	0	0	0	0	0	0
0	0	0	0	0	0	0	0	0	0	0	0	0	0	0	0	0	0	0	0	0	0	0	0	0	0	0	0	0	0	0	0	0	0	0	0	0	0	0	0	0	0	0	0	0	0	0	0	0	0	0	0	0	0	0	0	0	0	0	0	0	0	0	0	0	0	0	0	0	0	0	0	0	0	0	0	0	0	0	0	0	0	0	0	0	0	0	0	0	0	0	0	0	1502	1491	1456	1447	1467	1486	1493	1492	1472	1463	1463	1459	1456	1453	1450	1444	1444	1445	1451	1458	1467	1451	1453	1455	1482	1496	1500	1485	1457	1435	1431	1444	1465	1483	1499	1494	1482	1471	1466	1482	1485	1486	1489	1488	1477	1459	1441	1437	1438	1439	1444	1447	1455	1458	1460	1460	1479	1472	1465	1464	1464	1465	1464	1456	1450	1450	1455	1464	1465	1467	1472	1473	1477	1487	1496	1494	1488	1484	1473	1463	1453	1429	1422	1404	1403	1408	1389	1152	1090	0	0	0	0	0	0	0	0	0	0	0	0	0	0	0	0	0	0	0	0	0	0	0	1215	1212	1210	1219	1225	1211	1199	1194	1192	1192	0	0	0	0	0	0	0	0	0	0	0	0	0	0	0	0	0	0	0	0	0	0	0	0	0	0	0	0	0	0	0	0	0	0	0	0	0	0	0	1227	1392	1461	1450	1453	1471	1448	1427	1414	1414	1443	1447	1439	1437	1438	1480	1482	1467	1463	1473	1494	1506	1516	1506	1499	1470	1452	1490	1491	1498	1499	1497	1464	1443	1443	1503	1502	1481	1481	1480	1466	1459	1468	1495	1514	1523	1517	1503	1490	1468	1467	1425	1434	1464	1491	1507	1497	1494	1489	1484	1475	1477	1486	1483	1487	1490	1494	1499	1487	1475	1466	1474	1479	1482	1479	1477	1476	1480	1498	1524	1533	1527	1505	1486	1470	1472	1484	1496	1497	1497	1499	1493	1504	1498	1483	1482	1497	1493	1485	1475	1465	1462	1477	1486	1478	1477	1477	1490	1503	1512	1515	1506	1501	1491	1483	1485	1494	1493	1489	1495	1497	1498	1499	1506	1511	1516	1508	1497	1485	1492	1498	1510	1514	1514	1508	1506	1494	1486	1483	1484	1488	1484	1477	1469	1461	1462	1464	1471	1485	1490	1488	1485	1483	1483	1476	1484	1473	1474	1481	1504	0	0	0	0	0	0	0	0	0	0	0	0	0	0	0	871	845	828	821	815	817	822	815	800	788	784	790	804	815	827	836	838	829	817	805	803	803	802	799	797	798	803	812	823	824	824	822	824	826	826	824	819	817	819	822	826	823	816	817	827	835	834	824	819	823	829	831	834	835	825	815	803	795	808	821	844	862	882	933	1004	1070	1164	1249	1316	1415	1441	1455	1472	1497	1508	1503	1491	1485	1478	1471	1465	1460	1473	1491	1505	1503	1500	1500	1494	1489	1481	1473	1470	1478	1483	1489	1498	1501	1500	1501	1487	1461	1464	1480	1474	1474	1487	1499	1499	1469	1447	1448	1448	1462	1467	1483	1490	1473	1445	1437	1448	1479	1473	1485	1489	1487	1498	1495	1509	1505	1510	1507	1508	1511	1508	1506	1489	1476	1468	1466	1465	1470	1480	1481	1478	1483	1483	1488	1478	1465	1460	1455	1458	1469	1485	1499	1507	1494	1475	1461	1463	1480	1490	1491	1478	1476	1478	1489	1496	1501	1482	1476	1468	1455	1460	1463	1462	1464	1464	1464	1461	1452	1448	1449	1458	1460	1459	1451	1442	1448	1460	1470	1478	1468	1468	1455	1440	1436	1430	1424	1418	1415	1409	1411	0	0	0	0	0	0	0
0	0	0	0	0	0	0	0	0	0	0	0	0	0	0	0	0	0	0	0	0	0	0	0	0	0	0	0	0	0	0	0	0	0	0	0	0	0	0	0	0	0	0	0	0	0	0	0	0	0	0	0	0	0	0	0	0	0	0	0	0	0	0	0	0	0	0	0	0	0	0	0	0	0	0	0	0	0	0	0	0	0	0	0	0	0	0	0	0	0	0	0	0	1497	1467	1443	1446	1460	1476	1482	1481	1476	1477	1473	1452	1443	1440	1446	1438	1440	1445	1451	1456	1456	1448	1452	1460	1482	1506	1513	1501	1456	1430	1423	1429	1455	1477	1494	1494	1492	1486	1489	1481	1473	1473	1474	1484	1474	1449	1435	1433	1444	1450	1454	1457	1449	1445	1443	1452	1471	1461	1459	1459	1470	1473	1472	1465	1463	1463	1463	1468	1468	1473	1466	1458	1462	1469	1474	1474	1467	1465	1470	1467	1448	1422	1377	1349	1283	1190	1081	0	0	0	0	0	0	0	0	0	0	0	0	0	0	0	0	0	0	0	0	0	0	0	0	0	1202	1190	1199	1211	1208	1200	1197	1186	1180	0	0	0	0	0	0	0	0	0	0	0	0	0	0	0	0	0	0	0	0	0	0	0	0	0	0	0	0	0	0	0	0	0	0	0	0	0	0	0	0	1285	1415	1453	1453	1461	1470	1432	1440	1429	1428	1438	1429	1432	1446	1475	1483	1471	1463	1463	1472	1487	1500	1508	1506	1500	1494	1493	1490	1493	1491	1492	1500	1486	1480	1477	1509	1494	1488	1488	1493	1500	1507	1506	1497	1491	1489	1489	1489	1485	1468	1465	1411	1437	1452	1480	1487	1491	1496	1499	1500	1494	1483	1482	1484	1478	1489	1498	1496	1482	1475	1468	1466	1467	1467	1463	1467	1469	1482	1512	1520	1508	1496	1486	1472	1449	1481	1506	1511	1509	1496	1499	1508	1505	1507	1515	1504	1505	1497	1490	1479	1467	1465	1485	1493	1487	1483	1480	1482	1491	1500	1505	1506	1496	1489	1484	1484	1484	1482	1474	1477	1480	1484	1494	1500	1507	1514	1501	1495	1487	1491	1508	1517	1523	1521	1511	1508	1506	1494	1492	1498	1495	1493	1477	1473	1465	1462	1461	1465	1472	1482	1485	1484	1494	1503	1503	1499	1497	1495	1494	1502	1506	0	0	0	0	0	0	0	0	0	0	0	0	0	0	0	0	854	831	820	817	815	804	791	780	780	782	786	800	816	819	818	809	802	793	799	801	802	806	804	805	812	815	817	818	822	836	841	841	837	824	814	810	808	804	801	800	795	793	804	808	812	813	815	808	811	813	814	822	820	818	810	805	798	800	813	821	820	817	859	898	945	972	1128	1189	1277	1331	1400	1443	1471	1468	1474	1477	1475	1476	1471	1467	1480	1491	1495	1499	1493	1498	1497	1493	1481	1468	1461	1475	1482	1483	1488	1490	1492	1485	1468	1456	1458	1466	1479	1480	1483	1493	1486	1459	1452	1455	1455	1463	1471	1478	1479	1465	1438	1422	1434	1467	1476	1482	1480	1474	1477	1482	1501	1513	1517	1516	1516	1501	1501	1501	1493	1489	1480	1480	1488	1490	1487	1481	1476	1475	1476	1484	1477	1473	1460	1464	1473	1480	1497	1516	1518	1506	1481	1459	1456	1474	1485	1487	1488	1481	1481	1494	1499	1501	1487	1468	1454	1451	1448	1463	1468	1468	1474	1472	1465	1456	1450	1453	1466	1469	1465	1445	1436	1441	1457	1473	1481	1474	1474	1458	1447	1435	1425	1424	1422	1414	1415	1405	0	0	0	0	0	0	0
0	0	0	0	0	0	0	0	0	0	0	0	0	0	0	0	0	0	0	0	0	0	0	0	0	0	0	0	0	0	0	0	0	0	0	0	0	0	0	0	0	0	0	0	0	0	0	0	0	0	0	0	0	0	0	0	0	0	0	0	0	0	0	0	0	0	0	0	0	0	0	0	0	0	0	0	0	0	0	0	0	0	0	0	0	0	0	0	0	0	0	0	0	1482	1444	1441	1451	1461	1476	1478	1482	1487	1496	1478	1454	1447	1451	1457	1460	1456	1461	1463	1462	1458	1455	1462	1473	1487	1508	1515	1507	1478	1442	1431	1427	1442	1463	1481	1491	1499	1501	1512	1492	1475	1467	1470	1475	1469	1447	1428	1430	1437	1455	1467	1471	1456	1445	1441	1450	1468	1465	1455	1458	1469	1471	1463	1472	1476	1477	1484	1483	1486	1480	1467	1458	1448	1455	1461	1455	1444	1440	1447	1446	1423	1380	1327	1235	1073	972	0	0	0	0	0	0	0	0	0	0	0	0	0	0	0	0	0	0	0	1074	1081	1093	1121	1194	1204	1202	1189	1174	1184	1195	1193	1177	0	0	0	0	0	0	0	0	0	0	0	0	0	0	0	0	0	0	0	0	0	0	0	0	0	0	0	0	0	0	0	873	872	0	0	0	0	0	0	0	0	0	1271	1411	1430	1437	1449	1457	1460	1459	1417	1419	1424	1430	1437	1438	1489	1491	1474	1470	1459	1460	1460	1474	1497	1503	1504	1501	1499	1501	1497	1497	1491	1486	1499	1505	1512	1510	1506	1485	1486	1487	1498	1504	1502	1508	1496	1491	1481	1479	1476	1483	1488	1468	1416	1424	1453	1459	1460	1471	1475	1480	1497	1491	1492	1490	1491	1490	1499	1505	1494	1478	1468	1467	1461	1462	1464	1465	1465	1470	1482	1507	1508	1500	1487	1484	1484	1453	1446	1507	1512	1508	1498	1501	1510	1515	1509	1512	1504	1505	1500	1493	1486	1479	1481	1485	1489	1485	1480	1476	1475	1482	1492	1500	1510	1513	1500	1483	1475	1480	1470	1463	1466	1475	1491	1494	1493	1499	1504	1494	1490	1486	1499	1510	1518	1527	1520	1509	1508	1504	1487	1482	1460	1474	1484	1486	1478	1470	1469	1464	1469	1473	1477	1473	1474	1491	1507	1521	1522	1518	1512	1507	1509	1499	1509	0	0	0	0	0	0	0	0	0	0	0	0	0	0	0	0	0	820	813	804	792	781	776	777	776	769	776	788	799	802	800	788	779	786	795	807	810	809	805	805	807	799	803	815	834	842	848	839	822	810	809	806	794	784	780	783	784	784	785	765	775	785	789	792	792	793	797	806	815	813	801	791	785	786	795	789	783	783	793	811	840	946	1035	1118	1191	1258	1331	1392	1415	1431	1446	1460	1466	1466	1473	1481	1485	1480	1483	1491	1499	1504	1493	1469	1448	1459	1464	1472	1477	1483	1477	1471	1467	1465	1453	1444	1453	1465	1474	1474	1466	1463	1457	1456	1470	1471	1474	1468	1471	1469	1455	1433	1418	1425	1481	1482	1482	1474	1467	1459	1474	1493	1508	1513	1521	1511	1502	1493	1486	1493	1496	1505	1508	1512	1504	1497	1488	1476	1464	1465	1470	1481	1481	1476	1477	1486	1499	1514	1526	1525	1504	1473	1458	1450	1461	1471	1473	1484	1492	1492	1496	1501	1502	1482	1465	1452	1445	1449	1471	1484	1484	1483	1477	1463	1460	1454	1460	1467	1473	1476	1463	1460	1447	1456	1468	1474	1475	1475	1462	1448	1440	1429	1430	1431	1435	1433	1435	0	0	0	0	0	0	0
0	0	0	0	0	0	0	0	0	0	0	0	0	0	0	0	0	0	0	0	0	0	0	0	0	0	0	0	0	0	0	0	0	0	0	0	0	0	0	0	0	0	0	0	0	0	0	0	0	0	0	0	0	0	0	0	0	0	0	0	0	0	0	0	0	0	0	0	0	0	0	0	0	0	0	0	0	0	0	0	0	0	0	0	0	0	0	0	0	0	0	0	0	1482	1427	1435	1450	1467	1482	1485	1489	1496	1504	1484	1470	1462	1467	1472	1471	1472	1478	1481	1471	1457	1465	1472	1481	1489	1503	1506	1501	1489	1466	1449	1442	1444	1453	1467	1493	1510	1518	1523	1514	1490	1474	1463	1466	1460	1444	1421	1433	1443	1455	1471	1467	1456	1444	1452	1460	1476	1466	1445	1441	1447	1463	1447	1450	1458	1479	1487	1493	1496	1488	1481	1463	1439	1446	1448	1441	1423	1418	1405	1320	1214	1133	1041	960	0	0	0	0	0	0	0	0	0	0	0	0	0	0	0	0	0	0	1023	1021	0	1044	1047	1049	1068	1114	1146	1136	1156	1155	1158	1170	1171	1163	0	0	0	0	0	0	0	0	0	0	0	0	0	0	0	0	0	0	0	0	0	0	0	0	0	0	0	0	0	0	0	887	880	0	0	0	0	0	0	0	1274	1390	1409	1428	1442	1444	1444	1454	1455	1467	1461	1445	1425	1418	1426	1475	1495	1475	1467	1460	1457	1461	1467	1482	1487	1494	1496	1497	1499	1498	1495	1495	1488	1478	1478	1497	1510	1502	1478	1468	1477	1486	1499	1511	1519	1517	1503	1490	1477	1471	1474	1489	1494	1486	1467	1422	1432	1446	1455	1460	1464	1480	1499	1497	1503	1498	1500	1501	1498	1490	1489	1478	1473	1470	1468	1467	1467	1483	1489	1496	1483	1479	1491	1499	1513	1509	1500	1493	1491	1506	1510	1509	1511	1498	1489	1481	1480	1479	1489	1489	1490	1494	1494	1495	1492	1489	1476	1468	1462	1476	1485	1502	1507	1512	1513	1510	1502	1491	1470	1468	1456	1453	1463	1483	1495	1497	1494	1493	1497	1493	1482	1488	1492	1501	1513	1523	1520	1512	1505	1484	1461	1446	1445	1452	1471	1484	1484	1478	1477	1473	1472	1466	1466	1463	1459	1472	1503	1521	1529	1522	1517	1509	1500	1493	1496	0	0	0	0	0	0	0	0	0	0	0	0	0	0	0	0	0	0	806	794	780	772	769	764	760	754	757	762	770	781	788	780	763	776	787	799	801	797	792	790	784	784	789	802	815	824	831	821	809	803	806	800	786	773	769	779	774	763	746	749	759	770	771	769	775	774	776	787	797	797	785	770	761	762	770	769	768	764	768	775	790	838	896	954	1018	1106	1189	1305	1345	1379	1402	1429	1446	1454	1466	1476	1485	1477	1479	1486	1502	1510	1497	1474	1452	1448	1457	1465	1478	1478	1464	1458	1447	1454	1447	1443	1442	1457	1467	1468	1465	1463	1471	1478	1487	1485	1481	1476	1475	1468	1454	1438	1427	1444	1495	1503	1487	1471	1460	1456	1472	1493	1510	1517	1509	1509	1497	1483	1482	1492	1514	1526	1511	1517	1512	1503	1499	1475	1463	1459	1465	1479	1490	1496	1498	1507	1516	1524	1524	1516	1489	1470	1450	1445	1445	1454	1461	1484	1498	1508	1507	1499	1494	1486	1467	1452	1444	1449	1472	1491	1491	1490	1482	1468	1461	1463	1469	1477	1478	1482	1476	1469	1464	1470	1471	1472	1472	1468	1458	1450	1447	1445	1445	1451	1455	1451	1443	0	0	0	0	0	0	0
0	0	0	0	0	0	0	0	0	0	0	0	0	0	0	0	0	0	0	0	0	0	0	0	0	0	0	0	0	0	0	0	0	0	0	0	0	0	0	0	0	0	0	0	0	0	0	0	0	0	0	0	0	0	0	0	0	0	0	0	0	0	0	0	0	0	0	0	0	0	0	0	0	0	0	0	0	0	0	0	0	0	0	0	0	0	0	0	0	0	0	0	0	0	1418	1427	1456	1471	1488	1498	1497	1502	1501	1484	1475	1472	1476	1480	1480	1474	1472	1471	1464	1445	1453	1467	1478	1486	1490	1490	1487	1478	1470	1464	1452	1454	1450	1459	1489	1509	1519	1528	1523	1502	1479	1460	1454	1452	1437	1428	1430	1443	1454	1455	1456	1455	1453	1462	1478	1486	1476	1448	1431	1428	1430	1430	1434	1449	1462	1469	1472	1474	1472	1471	1459	1444	1432	1430	1392	1379	1294	0	0	0	0	0	0	0	0	0	0	0	0	0	0	0	0	0	0	0	0	0	0	0	0	1011	0	0	0	1013	1018	1036	1073	1102	1105	1081	1064	1119	1138	1144	1133	1120	0	0	0	0	0	0	0	0	0	0	0	0	0	0	0	0	0	0	0	0	0	0	0	0	0	0	0	0	0	0	892	888	897	0	0	0	0	0	0	1426	1471	1471	1464	1452	1452	1454	1457	1458	1474	1485	1492	1481	1479	1470	1470	1472	1472	1465	1459	1460	1457	1475	1485	1494	1496	1495	1493	1494	1493	1493	1488	1486	1472	1463	1455	1486	1477	1460	1462	1473	1487	1507	1520	1524	1523	1511	1497	1482	1473	1475	1486	1493	1487	1479	1478	1471	1470	1477	1494	1506	1524	1533	1519	1514	1506	1500	1504	1495	1481	1476	1479	1477	1475	1471	1472	1476	1485	1506	1505	1500	1489	1483	1488	1497	1500	1496	1510	1518	1500	1488	1485	1487	1479	1468	1466	1465	1472	1476	1468	1473	1492	1506	1500	1488	1477	1476	1472	1477	1491	1498	1507	1506	1507	1505	1504	1495	1494	1480	1461	1451	1451	1461	1480	1493	1501	1499	1493	1494	1490	1493	1491	1493	1494	1497	1511	1503	1497	1471	1466	1458	1447	1440	1447	1472	1489	1492	1484	1478	1471	1459	1464	1458	1459	1460	1468	1493	1511	1518	1522	1514	1505	1495	1481	1473	1508	0	0	0	0	0	0	0	0	0	0	0	0	0	0	0	0	0	820	794	773	762	756	757	753	752	748	746	751	759	767	767	763	762	776	778	780	777	771	769	764	760	760	768	780	791	786	779	776	787	794	792	777	761	740	738	744	742	738	737	750	760	766	757	757	761	758	763	769	767	758	748	738	736	743	752	756	755	749	752	751	760	787	819	856	925	989	1045	1097	1224	1344	1376	1405	1433	1446	1459	1467	1471	1481	1493	1498	1509	1500	1487	1455	1454	1453	1457	1480	1482	1465	1450	1441	1448	1446	1444	1454	1463	1472	1467	1467	1473	1481	1494	1497	1490	1474	1472	1466	1466	1454	1449	1457	1471	1510	1504	1486	1469	1452	1455	1469	1492	1507	1506	1505	1490	1489	1486	1483	1500	1514	1527	1522	1504	1501	1499	1495	1490	1477	1461	1455	1469	1483	1502	1509	1513	1516	1513	1507	1492	1474	1456	1448	1443	1447	1447	1460	1477	1496	1519	1514	1506	1499	1486	1474	1456	1445	1453	1469	1486	1486	1487	1484	1474	1472	1464	1470	1472	1473	1471	1472	1472	1472	1475	1472	1472	1472	1466	1455	1457	1458	1455	1461	1469	1473	1464	1451	1451	0	0	0	0	0	0
0	0	0	0	0	0	0	0	0	0	0	0	0	0	0	0	0	0	0	0	0	0	0	0	0	0	0	0	0	0	0	0	0	0	0	0	0	0	0	0	0	0	0	0	0	0	0	0	0	0	0	0	0	0	0	0	0	0	0	0	0	0	0	0	0	0	0	0	0	0	0	0	0	0	0	0	0	0	0	0	0	0	0	0	0	0	0	0	0	0	0	0	0	0	1428	1429	1443	1464	1484	1498	1493	1480	1476	1483	1479	1474	1471	1475	1474	1459	1459	1454	1436	1430	1434	1454	1466	1478	1478	1465	1461	1464	1472	1468	1465	1449	1445	1456	1484	1501	1507	1507	1513	1498	1474	1463	1457	1452	1443	1435	1434	1442	1447	1454	1454	1457	1463	1469	1480	1484	1466	1452	1436	1427	1426	1426	1425	1447	1452	1453	1449	1444	1453	1452	1445	1422	1347	1298	1202	1098	0	0	0	0	0	0	0	0	0	0	0	0	0	0	0	0	0	0	0	0	0	0	0	0	0	0	0	0	0	0	997	1019	1045	1068	1059	1038	1029	1043	1072	1086	1104	1080	0	0	0	0	0	0	0	0	0	0	0	0	0	0	0	0	0	0	0	0	0	0	0	0	0	0	0	0	0	0	891	891	903	0	0	0	0	0	1295	1460	1462	1463	1461	1460	1463	1461	1464	1471	1482	1492	1498	1496	1483	1477	1474	1473	1471	1465	1458	1458	1473	1494	1501	1502	1499	1495	1491	1487	1478	1479	1475	1478	1468	1463	1456	1441	1442	1452	1458	1468	1488	1504	1522	1527	1529	1520	1508	1500	1476	1470	1479	1481	1477	1475	1471	1474	1478	1480	1494	1506	1521	1532	1514	1506	1504	1490	1485	1484	1478	1469	1474	1468	1471	1472	1475	1480	1488	1504	1511	1504	1500	1493	1492	1485	1487	1493	1504	1516	1508	1498	1489	1478	1472	1460	1454	1456	1463	1468	1467	1471	1489	1501	1500	1481	1471	1476	1482	1489	1492	1487	1495	1499	1497	1492	1492	1499	1493	1480	1459	1451	1449	1458	1472	1486	1496	1493	1497	1495	1495	1498	1495	1492	1486	1482	1478	1466	1469	1473	1477	1472	1459	1444	1453	1482	1497	1498	1486	1483	1461	1454	1452	1458	1460	1469	1474	1488	1500	1509	1508	1502	1490	1484	1481	1484	1513	0	0	0	0	0	0	0	0	0	0	0	0	0	0	0	0	0	0	807	778	760	750	754	751	752	744	730	728	736	745	756	759	762	759	759	760	757	755	755	753	751	742	742	748	753	754	751	746	767	779	767	762	745	731	726	728	729	731	733	744	756	758	754	752	747	744	742	744	738	735	726	719	722	726	735	739	742	739	739	731	724	729	745	750	764	785	836	878	923	1028	1194	1308	1378	1409	1430	1449	1468	1479	1493	1500	1510	1502	1491	1473	1455	1452	1467	1490	1483	1469	1455	1450	1449	1453	1461	1470	1484	1482	1483	1474	1476	1490	1495	1493	1480	1463	1456	1461	1460	1453	1458	1459	1475	1488	1483	1472	1459	1452	1454	1465	1489	1501	1500	1498	1484	1483	1484	1479	1487	1496	1502	1497	1495	1491	1487	1495	1494	1497	1486	1468	1463	1461	1484	1506	1516	1519	1508	1493	1471	1459	1448	1446	1452	1452	1454	1470	1480	1491	1506	1506	1505	1499	1493	1485	1470	1461	1460	1472	1472	1489	1486	1487	1476	1477	1469	1464	1467	1460	1465	1467	1482	1483	1473	1468	1470	1469	1460	1459	1458	1476	1488	1503	1494	1467	1444	1433	1433	0	0	0	0	0	0
0	0	0	0	0	0	0	0	0	0	0	0	0	0	0	0	0	0	0	0	0	0	0	0	0	0	0	0	0	0	0	0	0	0	0	0	0	0	0	0	0	0	0	0	0	0	0	0	0	0	0	0	0	0	0	0	0	0	0	0	0	0	0	0	0	0	0	0	0	0	0	0	0	0	0	0	0	0	0	0	0	0	0	0	0	0	0	0	0	0	0	0	0	0	1429	1430	1438	1443	1470	1477	1475	1456	1471	1487	1485	1474	1465	1470	1470	1468	1437	1426	1436	1456	1453	1452	1456	1461	1462	1454	1450	1457	1470	1477	1469	1452	1446	1450	1479	1495	1488	1481	1483	1486	1474	1470	1469	1461	1451	1441	1442	1441	1445	1449	1451	1456	1458	1466	1471	1468	1467	1430	1423	1425	1424	1424	1432	1442	1447	1443	1435	1427	1434	1429	1417	1376	1094	0	0	0	0	0	0	0	0	0	0	0	0	0	0	0	0	0	0	0	0	0	0	0	0	0	0	0	0	0	0	0	0	0	988	1010	1028	1042	1034	1021	1015	1034	1057	1070	1068	1035	1038	0	0	0	0	0	0	0	0	0	0	0	0	0	0	0	0	0	0	0	0	0	0	0	0	0	0	0	0	0	882	891	918	0	0	0	0	1300	1446	1468	1465	1466	1470	1493	1515	1522	1509	1502	1494	1500	1506	1520	1524	1512	1491	1485	1479	1475	1472	1468	1472	1482	1491	1489	1484	1486	1482	1478	1473	1467	1462	1463	1466	1471	1482	1473	1457	1464	1470	1473	1479	1482	1482	1510	1513	1509	1510	1509	1498	1487	1481	1482	1476	1476	1474	1475	1478	1480	1499	1500	1506	1507	1507	1498	1494	1481	1470	1476	1477	1472	1473	1466	1459	1465	1474	1483	1487	1501	1510	1508	1505	1501	1494	1483	1481	1485	1499	1512	1512	1512	1502	1483	1468	1463	1455	1456	1460	1468	1479	1494	1502	1500	1492	1480	1478	1483	1496	1497	1490	1491	1493	1497	1490	1488	1490	1503	1501	1484	1455	1454	1448	1455	1469	1491	1496	1498	1500	1497	1499	1499	1496	1493	1486	1479	1464	1464	1468	1480	1487	1480	1463	1450	1460	1486	1504	1500	1498	1484	1465	1454	1453	1461	1468	1475	1479	1483	1490	1494	1492	1476	1474	1473	1482	1494	1520	1520	0	0	0	0	0	0	0	0	0	0	0	0	0	0	0	0	0	0	0	0	770	760	753	746	733	722	719	724	725	744	750	748	743	743	741	741	741	743	744	744	732	727	728	735	735	734	729	724	735	748	748	739	728	720	717	716	718	720	730	742	748	754	746	745	735	727	728	723	720	716	717	717	724	725	733	735	739	734	723	713	712	714	723	732	738	750	781	806	853	928	1048	1174	1272	1326	1403	1439	1461	1487	1497	1507	1500	1481	1467	1450	1447	1463	1486	1485	1470	1455	1448	1449	1457	1461	1473	1488	1490	1490	1479	1466	1480	1489	1485	1462	1439	1440	1455	1467	1458	1452	1448	1457	1467	1467	1465	1466	1466	1453	1461	1479	1493	1499	1495	1488	1483	1481	1477	1471	1469	1476	1478	1478	1481	1491	1495	1503	1500	1501	1487	1462	1453	1474	1502	1514	1518	1504	1485	1475	1453	1454	1456	1457	1463	1468	1472	1477	1491	1494	1493	1487	1485	1491	1492	1488	1478	1464	1471	1471	1485	1493	1486	1472	1469	1475	1475	1484	1496	1501	1514	1511	1503	1485	1480	1481	1481	1459	1458	1477	1490	1499	1502	1490	1465	1439	1434	1434	0	0	0	0	0	0
0	0	0	0	0	0	0	0	0	0	0	0	0	0	0	0	0	0	0	0	0	0	0	0	0	0	0	0	0	0	0	0	0	0	0	0	0	0	0	0	0	0	0	0	0	0	0	0	0	0	0	0	0	0	0	0	0	0	0	0	0	0	0	0	0	0	0	0	0	0	0	0	0	0	0	0	0	0	0	0	0	0	0	0	0	0	0	0	0	0	0	0	0	0	1435	1438	1438	1441	1445	1451	1445	1440	1474	1488	1482	1471	1457	1461	1470	1475	1436	1453	0	1480	1473	1440	1446	1452	1451	1452	1457	1461	1473	1474	1466	1455	1454	1454	1473	1482	1482	1482	1473	1469	1473	1478	1486	1481	1465	1459	1452	1445	1452	1453	1451	1442	1445	1460	1467	1462	1448	1431	1430	1429	1430	1424	1429	1443	1442	1436	1420	1409	1390	1259	1182	0	0	0	0	0	0	0	0	0	0	0	0	0	0	0	0	0	0	0	0	0	0	0	0	0	0	0	0	0	0	0	0	0	0	0	0	0	0	1041	1043	1032	1037	1045	1064	1073	1069	1058	1016	1002	0	0	0	0	0	0	0	0	0	0	0	0	0	0	0	0	0	0	0	0	0	0	0	0	0	0	0	0	877	888	926	982	0	1122	1279	1452	1476	1479	1479	1466	1474	1493	1516	1523	1516	1503	1502	1496	1501	1519	1523	1517	1498	1488	1480	1477	1471	1466	1469	1473	1486	1483	1478	1472	1473	1475	1474	1472	1466	1475	1484	1474	1484	1485	1472	1475	1475	1472	1467	1466	1465	1462	1467	1479	1494	1510	1521	1529	1529	1502	1496	1496	1495	1490	1481	1482	1499	1496	1499	1504	1512	1506	1490	1468	1461	1469	1476	1477	1471	1468	1467	1467	1476	1486	1491	1495	1506	1502	1502	1503	1496	1485	1479	1485	1497	1514	1524	1525	1514	1491	1470	1460	1457	1455	1464	1478	1497	1509	1514	1501	1485	1479	1483	1487	1501	1496	1493	1488	1495	1492	1489	1493	1497	1502	1495	1479	1462	1455	1455	1465	1478	1494	1503	1501	1503	1501	1504	1502	1494	1479	1481	1480	1467	1457	1471	1477	1483	1481	1476	1463	1477	1494	1505	1511	1505	1496	1476	1464	1458	1466	1473	1479	1479	1472	1475	1481	1481	1466	1460	1477	1478	1502	1513	1528	1531	0	0	0	0	0	0	0	0	0	0	0	0	0	0	0	0	0	0	0	0	784	766	748	732	722	718	720	722	725	729	728	727	728	728	726	721	726	731	735	727	719	716	725	718	716	714	716	714	717	722	726	724	713	705	702	696	693	708	718	732	736	742	740	731	723	715	714	713	715	716	720	720	722	722	722	722	725	715	710	704	701	704	707	709	708	714	732	757	797	858	934	1011	1134	1304	1332	1362	1413	1458	1478	1471	1468	1447	1443	1444	1456	1483	1482	1467	1447	1436	1437	1446	1452	1461	1468	1469	1465	1452	1444	1446	1452	1446	1424	1412	1432	1462	1480	1464	1444	1430	1434	1458	1466	1468	1475	1478	1491	1486	1494	1495	1488	1486	1488	1482	1484	1479	1458	1448	1448	1453	1463	1475	1494	1506	1500	1495	1498	1494	1481	1471	1493	1498	1504	1507	1499	1492	1485	1492	1492	1487	1489	1493	1500	1487	1472	1472	1478	1478	1476	1471	1478	1483	1483	1477	1467	1467	1467	1471	1468	1460	1459	1470	1469	1486	1489	1496	1505	1504	1505	1489	1479	1478	1478	1475	1477	1495	1502	1503	1498	1495	1488	1464	1445	1440	1440	0	0	0	0	0	0
0	0	0	0	0	0	0	0	0	0	0	0	0	0	0	0	0	0	0	0	0	0	0	0	0	0	0	0	0	0	0	0	0	0	0	0	0	0	0	0	0	0	0	0	0	0	0	0	0	0	0	0	0	0	0	0	0	0	0	0	0	0	0	0	0	0	0	0	0	0	0	0	0	0	0	0	0	0	0	0	0	0	0	0	0	0	0	0	0	0	0	0	0	0	1451	1450	1442	1448	1445	1442	1436	1455	1471	1479	1471	1465	1457	1458	1475	1483	1452	1457	0	1477	1465	1437	1437	1444	1457	1464	1466	1467	1465	1467	1464	1462	1460	1461	1457	1462	1479	1483	1478	1467	1469	1478	1487	1480	1485	1480	1471	1465	1468	1463	1452	1431	1433	1444	1471	1479	1455	1450	1440	1439	1442	1430	1427	1429	1422	1369	1325	1297	0	0	0	0	0	0	0	0	0	0	0	0	0	0	0	0	0	0	0	0	0	0	0	0	0	0	0	0	0	0	0	0	0	0	0	0	0	0	0	0	0	0	1077	1071	1069	1091	0	0	0	0	1029	0	0	0	0	0	0	0	0	0	0	0	0	0	0	0	0	0	0	0	0	0	0	0	0	0	0	0	0	0	875	898	948	1011	1074	1256	1458	1469	1480	1485	1494	1482	1480	1502	1519	1518	1510	1504	1496	1492	1496	1511	1519	1513	1499	1490	1483	1478	1483	1474	1473	1473	1479	1478	1470	1471	1468	1467	1469	1469	1475	1496	1498	1487	1480	1488	1486	1485	1491	1482	1475	1467	1457	1455	1455	1467	1487	1504	1517	1525	1528	1524	1509	1499	1487	1480	1478	1485	1494	1492	1495	1504	1517	1509	1484	1466	1461	1465	1473	1479	1475	1475	1486	1489	1501	1492	1493	1486	1496	1502	1505	1502	1496	1488	1482	1492	1505	1516	1527	1521	1512	1486	1464	1458	1460	1458	1474	1479	1497	1512	1519	1505	1483	1474	1484	1492	1496	1494	1489	1480	1483	1485	1493	1498	1502	1502	1491	1475	1458	1456	1466	1474	1489	1493	1504	1507	1505	1505	1490	1478	1473	1475	1481	1486	1473	1463	1495	1495	1495	1493	1497	1502	1503	1507	1515	1518	1527	1522	1509	1498	1494	1494	1487	1484	1474	1461	1455	1451	1457	1472	1474	1493	1499	1505	1513	1523	1515	0	0	0	0	0	0	0	0	0	0	0	0	0	0	0	0	0	0	0	0	0	789	768	745	723	712	714	715	712	712	712	710	713	715	711	705	705	712	718	717	715	707	711	711	711	714	711	706	706	705	708	706	700	689	681	674	674	679	698	709	722	724	729	722	712	709	705	706	710	715	715	716	713	714	709	709	707	705	702	697	689	690	693	696	692	691	697	709	725	771	821	868	918	1088	1138	1201	1272	1324	1372	1388	1410	1414	1413	1420	1446	1490	1518	1494	1457	1442	1451	1466	1473	1469	1473	1468	1462	1455	1447	1451	1446	1438	1422	1417	1442	1482	1489	1469	1442	1433	1444	1455	1460	1465	1474	1490	1492	1496	1506	1504	1490	1477	1481	1489	1493	1494	1480	1458	1448	1453	1464	1482	1494	1501	1492	1481	1486	1489	1477	1470	1477	1481	1484	1493	1488	1477	1479	1484	1484	1488	1490	1496	1508	1494	1481	1473	1474	1478	1469	1461	1459	1465	1472	1475	1476	1476	1475	1465	1455	1439	1444	1470	1468	1485	1482	1485	1480	1477	1460	1457	1460	1458	1458	1461	1465	1483	1513	1516	1512	1505	1489	1474	1454	1445	1445	0	0	0	0	0	0
0	0	0	0	0	0	0	0	0	0	0	0	0	0	0	0	0	0	0	0	0	0	0	0	0	0	0	0	0	0	0	0	0	0	0	0	0	0	0	0	0	0	0	0	0	0	0	0	0	0	0	0	0	0	0	0	0	0	0	0	0	0	0	0	0	0	0	0	0	0	0	0	0	0	0	0	0	0	0	0	0	0	0	0	0	0	0	0	0	0	0	0	0	0	1476	1469	1473	1469	1457	1446	1436	1460	1473	1472	1471	1465	1458	1455	1475	1482	1472	1464	1463	1465	1431	1423	1423	1436	1453	1468	1474	1471	1464	1466	1464	1460	1461	1452	1446	1453	1474	1478	1478	1463	1462	1472	1481	1483	1485	1486	1488	1475	1474	1466	1450	1429	1425	1452	1482	1497	1493	1450	1441	1442	1444	1442	1427	1390	1333	1196	0	0	0	0	0	0	0	0	0	0	0	0	0	0	0	0	0	0	0	0	0	0	0	0	0	0	0	0	0	0	0	0	0	0	0	0	0	0	0	0	0	0	0	0	0	0	0	0	0	0	0	0	0	0	0	0	0	0	0	0	0	0	0	0	0	0	0	0	0	0	0	0	0	0	0	0	0	0	0	0	0	0	895	926	973	1039	1200	1424	1452	1471	1465	1466	1484	1485	1493	1506	1505	1496	1488	1491	1492	1485	1476	1477	1477	1469	1462	1469	1474	1483	1486	1479	1473	1465	1463	1473	1479	1477	1490	1500	1524	1538	1536	1526	1507	1487	1472	1469	1460	1474	1491	1496	1503	1503	1496	1481	1483	1490	1481	1497	1502	1514	1518	1519	1511	1494	1478	1466	1459	1462	1470	1487	1507	1523	1537	1536	1507	1497	1482	1474	1482	1482	1479	1478	1489	1511	1516	1500	1495	1491	1501	1509	1512	1515	1518	1523	1533	1527	1521	1519	1511	1508	1494	1474	1467	1468	1458	1464	1489	1508	1520	1521	1509	1495	1480	1460	1439	1458	1469	1495	1500	1493	1480	1488	1476	1466	1474	1477	1483	1479	1468	1456	1469	1478	1477	1465	1456	1438	1460	1486	1491	1484	1484	1495	1507	1512	1498	1486	1491	1495	1491	1494	1501	1509	1515	1519	1513	1524	1528	1524	1511	1497	1488	1485	1480	1479	1463	1461	1462	1457	1454	1471	1474	1493	1497	1501	1511	1513	1502	0	0	0	0	0	0	0	0	0	0	0	0	0	0	0	0	0	0	0	0	0	0	793	770	737	710	700	703	705	703	698	697	701	699	693	691	688	691	698	690	698	705	709	706	707	709	700	693	683	682	684	684	679	671	666	663	667	671	674	674	687	697	714	710	699	692	691	693	699	705	704	707	704	698	698	696	692	687	695	693	689	684	689	688	694	697	697	696	699	719	749	771	791	883	959	1043	1120	1213	1299	1341	1381	1403	1402	1414	1444	1494	1522	1513	1488	1463	1464	1485	1489	1476	1478	1476	1468	1461	1459	1461	1456	1440	1425	1422	1446	1480	1490	1472	1454	1454	1456	1448	1447	1457	1467	1483	1494	1504	1505	1503	1485	1466	1472	1491	1511	1510	1492	1469	1460	1460	1464	1483	1493	1493	1480	1470	1481	1486	1480	1467	1455	1457	1469	1481	1473	1455	1438	1448	1454	1454	1469	1479	1490	1479	1473	1472	1470	1473	1457	1446	1447	1456	1469	1492	1491	1491	1491	1467	1446	1436	1436	1453	1463	1471	1470	1467	1462	1447	1436	1436	1432	1432	1432	1438	1447	1443	1448	1485	1522	1519	1503	1480	1466	1466	1455	0	0	0	0	0	0
0	0	0	0	0	0	0	0	0	0	0	0	0	0	0	0	0	0	0	0	0	0	0	0	0	0	0	0	0	0	0	0	0	0	0	0	0	0	0	0	0	0	0	0	0	0	0	0	0	0	0	0	0	0	0	0	0	0	0	0	0	0	0	0	0	0	0	0	0	0	0	0	0	0	0	0	0	0	0	0	0	0	0	0	0	0	0	0	0	0	0	0	0	0	1493	1484	1489	1487	1471	1456	1462	1465	1469	1473	1469	1463	1462	1459	1465	1466	1463	1455	1450	1441	1441	1432	1433	1436	1447	1463	1462	1466	1462	1460	1454	1459	1471	1466	1455	1446	1460	1469	1469	1452	1453	1458	1464	1476	1474	1482	1485	1481	1471	1455	1440	1427	1431	1459	1488	1501	1502	1453	1431	1427	1412	1367	0	0	0	0	0	0	0	0	0	0	0	0	0	0	0	0	0	0	0	0	0	0	0	0	0	0	0	0	0	0	0	0	0	0	0	0	0	0	0	0	0	0	0	0	0	0	0	0	0	0	0	0	0	0	0	0	0	0	0	0	0	0	0	0	0	0	0	0	0	0	0	0	0	0	0	0	0	0	0	0	0	0	0	0	0	0	926	965	1008	1168	1381	1424	1447	1453	1459	1454	1470	1488	1494	1496	1493	1484	1476	1470	1465	1460	1457	1464	1469	1460	1452	1460	1475	1479	1480	1469	1462	1458	1477	1514	1524	1500	1505	1517	1535	1545	1542	1530	1509	1484	1468	1465	1460	1471	1491	1498	1506	1506	1497	1483	1486	1492	1489	1478	1455	1460	1477	1496	1502	1493	1478	1470	1475	1489	1503	1514	1532	1541	1539	1536	1523	1511	1499	1494	1501	1500	1487	1491	1498	1516	1525	1517	1503	1493	1491	1496	1500	1505	1504	1511	1519	1523	1520	1508	1489	1485	1471	1465	1463	1471	1469	1467	1487	1509	1523	1520	1516	1504	1485	1467	1459	1463	1483	1505	1504	1489	1481	1475	1477	1469	1472	1480	1499	1496	1474	1467	1482	1483	1477	1480	1464	1452	1464	1493	1510	1500	1495	1503	1522	1528	1510	1467	1464	1478	1490	1494	1498	1506	1515	1524	1521	1524	1523	1520	1510	1494	1478	1473	1476	1475	1473	1474	1474	1470	1468	1478	1487	1493	1501	1507	1507	1504	1503	1489	0	0	0	0	0	0	0	0	0	0	0	0	0	0	0	0	0	0	0	0	0	0	801	754	710	697	695	692	685	690	691	692	693	690	685	679	674	677	685	695	706	707	707	701	691	684	677	670	663	662	664	665	661	660	663	667	671	666	662	661	690	703	703	691	678	670	677	687	691	693	691	692	689	689	682	677	672	687	696	686	678	678	685	693	704	706	699	695	699	717	725	731	781	830	891	940	999	1031	1116	1247	1337	1370	1400	1425	1464	1514	1524	1511	1490	1474	1473	1468	1465	1470	1469	1465	1456	1448	1448	1449	1447	1435	1424	1437	1455	1454	1445	1439	1451	1450	1432	1434	1442	1462	1490	1489	1500	1497	1484	1469	1450	1445	1458	1472	1486	1489	1478	1468	1453	1446	1444	1450	1455	1465	1469	1487	1497	1485	1468	1457	1465	1478	1485	1468	1443	1432	1434	1439	1447	1456	1468	1466	1464	1462	1472	1471	1461	1442	1437	1449	1465	1476	1494	1492	1492	1485	1474	1459	1459	1452	1454	1463	1464	1467	1467	1459	1449	1440	1437	1436	1435	1435	1430	1432	1433	1440	1454	1483	1511	1496	1480	1462	1462	1455	0	0	0	0	0	0
0	0	0	0	0	0	0	0	0	0	0	0	0	0	0	0	0	0	0	0	0	0	0	0	0	0	0	0	0	0	0	0	0	0	0	0	0	0	0	0	0	0	0	0	0	0	0	0	0	0	0	0	0	0	0	0	0	0	0	0	0	0	0	0	0	0	0	0	0	0	0	0	0	0	0	0	0	0	0	0	0	0	0	0	0	0	0	0	0	0	0	0	0	0	1512	1500	1497	1491	1470	1461	1467	1470	1471	1474	1473	1473	1472	1475	1473	1469	1463	1446	1440	1436	1437	1435	1441	1436	1448	1448	1453	1458	1460	1451	1445	1466	1486	1493	1475	1454	1454	1444	1449	1445	1442	1444	1446	1453	1465	1470	1469	1463	1459	1450	1441	1433	1436	1449	1475	1481	1461	1388	1337	0	0	0	0	0	0	0	0	0	0	0	0	0	0	0	0	0	0	0	0	0	0	0	0	0	0	0	0	0	0	0	0	0	0	0	0	0	0	0	0	0	0	0	0	0	0	0	0	0	0	0	0	0	0	0	0	0	0	0	0	0	0	0	0	0	0	0	0	0	0	0	0	0	0	0	0	0	0	0	0	0	0	0	0	0	0	0	0	0	960	1021	1170	1384	1423	1444	1459	1459	1448	1450	1458	1482	1484	1478	1474	1470	1471	1464	1456	1453	1457	1468	1463	1456	1451	1458	1467	1480	1473	1463	1455	1455	1483	1517	1534	1508	1507	1527	1550	1554	1542	1527	1502	1485	1475	1478	1493	1500	1515	1521	1519	1517	1495	1480	1459	1452	1450	1454	1456	1464	1477	1495	1505	1496	1478	1471	1478	1495	1508	1523	1536	1540	1538	1532	1524	1508	1498	1503	1512	1511	1502	1498	1506	1521	1532	1524	1510	1492	1486	1485	1495	1495	1498	1501	1502	1500	1500	1503	1483	1462	1455	1453	1461	1473	1474	1480	1488	1506	1518	1525	1525	1519	1498	1483	1481	1486	1503	1507	1495	1481	1471	1480	1480	1480	1488	1502	1518	1517	1488	1478	1491	1508	1508	1503	1479	1472	1484	1505	1517	1510	1499	1494	1502	1496	1468	1466	1469	1483	1488	1499	1499	1505	1517	1522	1538	1535	1525	1506	1486	1484	1483	1472	1467	1474	1486	1489	1480	1470	1471	1481	1490	1496	1497	1500	1505	1501	1496	1491	1496	0	0	0	0	0	0	0	0	0	0	0	0	0	0	0	0	0	0	0	0	0	0	782	731	697	677	677	671	676	690	700	702	693	679	670	672	674	683	696	704	706	708	697	677	670	667	663	657	653	654	654	655	655	660	666	668	662	657	660	680	695	690	678	663	656	660	670	679	684	688	685	681	679	670	666	666	669	686	673	664	670	682	690	709	710	699	686	680	687	694	702	717	741	774	806	840	875	930	1020	1121	1213	1301	1350	1402	1452	1481	1499	1491	1481	1477	1474	1467	1466	1467	1453	1433	1428	1428	1438	1451	1443	1432	1428	1439	1443	1444	1435	1434	1435	1438	1442	1459	1480	1501	1498	1495	1486	1472	1452	1432	1423	1434	1447	1474	1481	1479	1469	1457	1450	1448	1446	1456	1473	1475	1482	1495	1480	1463	1463	1474	1483	1489	1478	1455	1437	1434	1440	1443	1447	1451	1451	1455	1460	1466	1465	1459	1443	1446	1456	1466	1471	1477	1477	1484	1475	1469	1472	1462	1461	1467	1466	1470	1469	1463	1457	1442	1436	1436	1435	1435	1430	1431	1425	1426	1428	1445	1469	1487	1479	1464	1455	1455	1455	0	0	0	0	0	0
0	0	0	0	0	0	0	0	0	0	0	0	0	0	0	0	0	0	0	0	0	0	0	0	0	0	0	0	0	0	0	0	0	0	0	0	0	0	0	0	0	0	0	0	0	0	0	0	0	0	0	0	0	0	0	0	0	0	0	0	0	0	0	0	0	0	0	0	0	0	0	0	0	0	0	0	0	0	0	0	0	0	0	0	0	0	0	0	0	0	0	0	0	0	1524	1509	1494	1479	1470	1468	1473	1472	1470	1474	1484	1488	1489	1488	1483	1480	1468	1451	1434	1422	1424	1442	1459	1465	1469	1462	1471	1482	1478	1463	1468	1485	1512	1509	1499	1481	1466	1455	1440	1438	1440	1432	1441	1455	1457	1459	1463	1466	1465	1465	1454	1439	1431	1436	1430	1418	1346	0	0	0	0	0	0	0	0	0	0	0	0	0	0	0	0	0	0	0	0	0	0	0	0	0	0	0	0	0	0	0	0	0	0	0	0	0	0	0	0	0	0	0	0	0	0	0	0	0	0	0	0	0	0	0	0	0	0	0	0	0	0	0	0	0	0	0	0	0	0	0	0	0	0	0	0	0	0	0	0	0	0	0	0	0	0	0	0	0	0	978	1056	1221	1428	1480	1482	1480	1486	1488	1485	1470	1475	1489	1487	1478	1473	1480	1481	1484	1484	1486	1495	1502	1493	1480	1467	1464	1473	1472	1473	1461	1455	1460	1475	1485	1489	1487	1497	1506	1523	1528	1522	1510	1494	1489	1484	1497	1509	1520	1523	1523	1514	1507	1502	1489	1469	1445	1436	1445	1459	1469	1470	1474	1499	1501	1494	1496	1483	1480	1498	1521	1532	1537	1535	1529	1521	1518	1518	1522	1530	1525	1514	1507	1513	1526	1539	1532	1515	1506	1499	1508	1510	1506	1496	1496	1489	1494	1500	1505	1487	1473	1459	1461	1470	1483	1485	1488	1498	1503	1501	1497	1507	1503	1496	1485	1483	1500	1507	1514	1502	1487	1470	1466	1486	1499	1508	1527	1537	1519	1504	1499	1500	1503	1510	1515	1502	1492	1493	1498	1508	1505	1494	1492	1500	1492	1460	1457	1473	1481	1490	1494	1492	1496	1513	1521	1534	1525	1515	1499	1489	1490	1490	1483	1474	1482	1486	1487	1475	1470	1472	1475	1489	1498	1497	1496	1492	1489	1474	1482	1496	1526	0	0	0	0	0	0	0	0	0	0	0	0	0	0	0	0	0	0	0	0	0	0	758	686	670	665	671	673	685	691	695	687	678	668	665	671	679	694	699	707	705	693	670	669	670	673	656	652	653	655	653	651	653	663	669	664	658	660	671	678	678	664	651	647	647	655	667	679	683	685	676	670	666	663	662	659	656	647	650	658	667	688	698	703	686	671	664	662	666	681	692	701	715	727	751	777	829	906	1003	1117	1205	1270	1329	1386	1443	1471	1480	1476	1476	1474	1475	1474	1476	1464	1440	1425	1424	1429	1439	1443	1436	1442	1436	1442	1450	1441	1438	1429	1432	1455	1475	1495	1508	1507	1489	1479	1457	1441	1426	1419	1426	1436	1466	1475	1480	1474	1466	1455	1447	1446	1456	1478	1481	1486	1494	1480	1467	1464	1474	1485	1485	1475	1456	1441	1452	1459	1453	1442	1438	1438	1448	1457	1462	1470	1469	1464	1463	1463	1460	1454	1457	1457	1462	1465	1473	1494	1512	1538	1589	1774	1566	1524	1489	1452	1419	1415	1431	1444	1444	1448	0	0	0	0	0	0	0	1465	1452	1452	1452	1458	0	0	0	0	0	0
0	0	0	0	0	0	0	0	0	0	0	0	0	0	0	0	0	0	0	0	0	0	0	0	0	0	0	0	0	0	0	0	0	0	0	0	0	0	0	0	0	0	0	0	0	0	0	0	0	0	0	0	0	0	0	0	0	0	0	0	0	0	0	0	0	0	0	0	0	0	0	0	0	0	0	0	0	0	0	0	0	0	0	0	0	0	0	0	0	0	0	0	0	0	1524	1489	1464	1449	1454	1458	1470	1477	1474	1471	1476	1480	1476	1474	1470	1470	1462	1444	1431	1418	1428	1458	1477	1482	1488	1481	1491	1500	1499	1478	1475	1483	1511	1509	1503	1478	1471	1457	1450	1442	1437	1439	1451	1462	1467	1459	1445	1447	1447	1427	1404	1375	1340	1189	0	1289	0	0	0	0	0	0	0	0	0	0	0	0	0	0	0	0	0	0	0	0	0	0	0	0	0	0	0	0	0	0	0	0	0	0	0	0	0	0	0	0	0	0	0	0	0	0	0	0	0	0	0	0	0	0	0	0	0	0	0	0	0	0	0	0	0	0	0	0	0	0	0	0	0	0	0	0	0	0	0	0	0	0	0	0	0	0	0	0	0	0	990	1040	1235	1429	1467	1484	1475	1484	1494	1500	1498	1488	1488	1492	1498	1484	1484	1485	1484	1484	1482	1492	1510	1515	1501	1489	1477	1474	1476	1478	1480	1470	1465	1464	1477	1486	1489	1483	1483	1498	1507	1513	1511	1501	1492	1480	1490	1502	1517	1526	1526	1515	1507	1502	1498	1493	1476	1447	1434	1447	1460	1467	1468	1463	1473	1486	1485	1484	1472	1481	1502	1523	1542	1541	1541	1527	1519	1511	1514	1520	1532	1527	1514	1505	1510	1521	1521	1509	1496	1507	1512	1519	1523	1514	1495	1486	1488	1497	1505	1513	1498	1472	1482	1482	1499	1514	1509	1528	1523	1488	1481	1481	1481	1492	1483	1472	1473	1481	1500	1511	1501	1483	1461	1456	1484	1516	1533	1540	1527	1514	1506	1499	1501	1505	1514	1512	1514	1501	1490	1493	1497	1497	1490	1495	1499	1480	1462	1453	1466	1479	1477	1482	1482	1486	1499	1512	1518	1512	1494	1479	1488	1500	1501	1499	1492	1493	1502	1509	1498	1489	1485	1486	1493	1499	1494	1489	1477	1467	1471	1475	1512	1498	0	0	0	0	0	0	0	0	0	0	0	0	0	0	0	0	0	0	0	0	0	0	0	704	677	668	665	676	684	688	687	677	670	662	657	660	670	683	690	697	691	667	662	667	670	670	659	654	656	657	651	647	652	657	663	659	656	656	663	667	670	668	657	646	638	644	657	667	675	676	671	662	658	665	657	648	644	638	637	647	663	679	693	684	671	658	653	649	653	671	681	690	691	690	694	706	730	768	814	904	1059	1142	1234	1315	1366	1373	1450	1450	1444	1443	1450	1481	1512	1510	1479	1428	1416	1427	1441	1449	1456	1450	1448	1433	1437	1454	1460	1448	1445	1467	1484	1529	1558	0	0	1514	1460	1424	1414	1421	1443	1453	1449	1460	1476	1490	1499	1477	1422	1388	1385	1431	0	0	0	1414	1399	0	0	0	0	0	0	0	0	0	0	0	0	0	0	0	0	0	0	0	0	0	0	0	0	0	0	0	0	0	0	0	0	0	0	0	0	0	0	0	0	0	0	0	0	0	0	0	0	0	0	0	0	0	0	0	0	0	0	0	0	0
0	0	0	0	0	0	0	0	0	0	0	0	0	0	0	0	0	0	0	0	0	0	0	0	0	0	0	0	0	0	0	0	0	0	0	0	0	0	0	0	0	0	0	0	0	0	0	0	0	0	0	0	0	0	0	0	0	0	0	0	0	0	0	0	0	0	0	0	0	0	0	0	0	0	0	0	0	0	0	0	0	0	0	0	0	0	0	0	0	0	0	0	0	1509	1460	1437	1432	1433	1430	1432	1438	1446	1451	1457	1462	1469	1466	1460	1461	1462	1451	1439	1434	1429	1451	1479	1494	1498	1492	1491	1501	1512	1499	1485	1476	1496	1499	1495	1486	1473	1460	1461	1458	1457	1451	1452	1467	1475	1469	1461	1448	1438	1412	1348	1244	1116	0	0	0	0	0	0	0	0	0	0	0	0	0	0	0	0	0	0	0	0	0	0	0	0	0	0	0	0	0	0	0	0	0	0	0	0	0	0	0	0	0	0	0	0	0	0	0	0	0	0	0	0	0	0	0	0	0	0	0	0	0	0	0	0	0	0	0	0	0	0	0	0	0	0	0	0	0	0	0	0	0	0	0	0	0	0	0	0	0	0	0	0	0	0	1057	1254	1337	1433	1461	1477	1473	1477	1495	1507	1511	1503	1501	1503	1509	1506	1492	1486	1479	1479	1483	1504	1530	1542	1512	1496	1482	1479	1479	1492	1497	1483	1471	1469	1479	1484	1480	1472	1469	1481	1492	1501	1496	1486	1479	1478	1494	1505	1507	1503	1496	1500	1496	1493	1488	1482	1470	1446	1446	1460	1461	1446	1433	1431	1443	1447	1452	1461	1476	1496	1517	1526	1531	1524	1522	1537	1522	1506	1509	1517	1530	1525	1511	1505	1506	1514	1502	1492	1492	1503	1510	1519	1521	1514	1494	1490	1492	1497	1505	1510	1515	1476	1479	1483	1500	1516	1509	1530	1528	1487	1475	1471	1475	1482	1479	1474	1473	1479	1490	1513	1498	1496	1467	1459	1467	1475	1486	1465	1460	1460	1475	1479	1490	1501	1504	1504	0	0	1467	1448	1450	1459	0	0	0	1461	1434	1422	1422	1398	1404	1410	1442	1458	1462	1434	1396	1370	1376	1402	0	0	0	0	0	0	0	0	1531	1506	1469	1446	1452	1475	1495	0	0	0	1429	1434	1467	0	0	0	0	0	0	0	0	0	0	0	0	0	0	0	0	0	0	0	0	0	0	0	0	0	711	722	694	671	666	668	666	664	659	656	653	654	669	674	680	680	673	656	659	667	670	671	658	653	656	658	653	646	643	645	648	647	644	648	661	662	661	661	658	645	636	635	639	649	656	657	660	653	651	651	639	629	631	631	635	639	651	666	674	671	659	651	644	638	635	656	673	685	683	674	662	666	666	681	701	728	749	791	810	829	838	0	0	0	0	0	0	0	0	0	0	0	0	0	0	0	0	0	0	0	0	0	0	0	0	0	0	0	0	0	0	0	0	0	0	0	0	0	0	0	0	0	0	0	0	0	0	0	0	0	0	0	0	0	0	0	0	0	0	0	0	0	0	0	0	0	0	0	0	0	0	0	0	0	0	0	0	0	0	0	0	0	0	0	0	0	0	0	0	0	0	0	0	0	0	0	0	0	0	0	0	0	0	0	0	0	0	0	0	0	0	0	0	0
0	0	0	0	0	0	0	0	0	0	0	0	0	0	0	0	0	0	0	0	0	0	0	0	0	0	0	0	0	0	0	0	0	0	0	0	0	0	0	0	0	0	0	0	0	0	0	0	0	0	0	0	0	0	0	0	0	0	0	0	0	0	0	0	0	0	0	0	0	0	0	0	0	0	0	0	0	0	0	0	0	0	0	0	0	0	0	0	0	0	0	0	0	1482	1439	1435	1442	1448	1436	1429	1422	1434	1456	1462	1472	1473	1464	1459	1463	1460	1453	1451	1446	1454	1474	1498	1504	1496	1490	1499	1502	1506	1496	1470	1469	1465	1473	1466	1463	1458	1453	1465	1498	1522	1491	1474	1465	1464	1460	1433	1389	1298	1186	0	0	0	0	0	0	0	0	0	0	0	0	0	0	0	0	0	0	0	0	0	0	0	0	0	0	0	0	0	0	0	0	0	0	0	0	0	0	0	0	0	0	0	0	0	0	0	0	0	0	0	0	0	0	0	0	0	0	0	0	0	0	0	0	0	0	0	0	0	0	0	0	0	0	0	0	0	0	0	0	0	0	0	0	0	0	0	0	0	0	0	0	0	0	0	0	0	0	1150	1378	1454	1491	1491	1472	1460	1469	1493	1509	1525	1523	1512	1496	1503	1500	1477	1456	1435	1438	1460	1500	1527	1539	1534	1521	1496	1475	1456	1457	1442	1432	1429	1428	1436	1436	1468	1498	1498	1503	1498	1493	1467	1440	1435	1453	1453	1454	1446	0	0	1476	1455	1436	0	0	0	0	0	0	0	0	0	0	0	0	0	0	0	0	0	0	0	0	0	0	0	0	1524	1534	1507	1486	1481	1483	1464	1423	1400	1413	1439	1481	1510	1517	1514	1514	1520	1520	1508	1493	1481	1455	1452	1463	1497	1503	1536	1521	1500	1518	1530	1512	1470	1446	1435	1433	1448	0	0	0	0	0	0	0	0	0	0	0	0	0	0	0	0	0	0	0	0	0	0	0	0	0	0	0	0	0	0	0	0	0	0	0	0	0	0	0	0	0	0	0	0	0	0	0	0	0	0	0	0	0	0	0	0	0	0	0	0	0	0	0	0	0	0	0	0	0	0	0	0	0	0	0	0	0	0	0	0	0	0	0	0	0	0	0	0	0	0	0	0	712	675	647	642	645	644	646	648	655	660	667	672	671	671	661	653	655	663	667	668	664	648	652	651	648	637	631	628	626	624	628	647	655	658	653	646	644	638	629	624	623	630	634	642	647	646	644	629	618	618	625	631	635	634	637	647	657	660	649	636	626	622	616	626	652	665	667	661	647	636	636	645	659	673	683	648	644	647	655	661	0	0	0	0	0	0	0	0	0	0	0	0	0	0	0	0	0	0	0	0	0	0	0	0	0	0	0	0	0	0	0	0	0	0	0	0	0	0	0	0	0	0	0	0	0	0	0	0	0	0	0	0	0	0	0	0	0	0	0	0	0	0	0	0	0	0	0	0	0	0	0	0	0	0	0	0	0	0	0	0	0	0	0	0	0	0	0	0	0	0	0	0	0	0	0	0	0	0	0	0	0	0	0	0	0	0	0	0	0	0	0	0
0	0	0	0	0	0	0	0	0	0	0	0	0	0	0	0	0	0	0	0	0	0	0	0	0	0	0	0	0	0	0	0	0	0	0	0	0	0	0	0	0	0	0	0	0	0	0	0	0	0	0	0	0	0	0	0	0	0	0	0	0	0	0	0	0	0	0	0	0	0	0	0	0	0	0	0	0	0	0	0	0	0	0	0	0	0	0	0	0	0	0	0	0	1442	1446	1446	1452	1462	1457	1445	1428	1441	1463	1477	1487	1490	1477	1468	1468	1469	1471	1464	1463	1464	1475	1489	1499	1492	1490	1501	1509	1495	1466	1442	1442	1450	1452	1447	1443	0	0	0	0	0	0	0	0	0	0	0	0	0	0	0	0	0	0	0	0	0	0	0	0	0	0	0	0	0	0	0	0	0	0	0	0	0	0	0	0	0	0	0	0	0	0	0	0	0	0	0	0	0	0	0	0	0	0	0	0	0	0	0	0	0	0	0	0	0	0	0	0	0	0	0	0	0	0	0	0	0	0	0	0	0	0	0	0	0	0	0	0	0	0	0	0	0	0	0	0	0	0	0	0	0	0	0	0	0	0	0	0	0	0	0	0	0	0	0	0	0	0	0	0	0	0	0	0	0	0	0	0	0	0	0	0	0	0	0	0	0	0	0	0	0	0	0	0	0	0	0	0	0	0	0	0	0	0	0	0	0	0	0	0	0	0	0	0	0	0	0	0	0	0	0	0	0	0	0	0	0	0	0	0	0	0	0	0	0	0	0	0	0	0	0	0	0	0	0	0	0	0	0	0	0	0	0	0	0	0	0	0	0	0	0	0	0	0	0	0	0	0	0	0	0	0	0	0	0	0	0	0	0	0	0	0	0	0	0	0	0	0	0	0	0	0	0	0	0	0	0	0	0	0	0	0	0	0	0	0	0	0	0	0	0	0	0	0	0	0	0	0	0	0	0	0	0	0	0	0	0	0	0	0	0	0	0	0	0	0	0	0	0	0	0	0	0	0	0	0	0	0	0	0	0	0	0	0	0	0	0	0	0	0	0	0	0	0	0	0	695	653	628	624	628	638	645	650	653	661	666	669	665	659	651	650	654	657	664	656	644	638	638	633	623	613	609	616	618	629	640	647	651	646	637	632	630	621	614	612	617	625	633	639	640	639	613	611	616	625	633	633	628	623	628	640	644	634	622	612	608	607	612	624	633	636	639	639	624	618	617	617	618	614	608	606	606	612	616	608	643	0	0	0	0	0	0	0	0	0	0	0	0	0	0	0	0	0	0	0	0	0	0	0	0	0	0	0	0	0	0	0	0	0	0	0	0	0	0	0	0	0	0	0	0	0	0	0	0	0	0	0	0	0	0	0	0	0	0	0	0	0	0	0	0	0	0	0	0	0	0	0	0	0	0	0	0	0	0	0	0	0	0	0	0	0	0	0	0	0	0	0	0	0	0	0	0	0	0	0	0	0	0	0	0	0	0	0	0	0	0
0	0	0	0	0	0	0	0	0	0	0	0	0	0	0	0	0	0	0	0	0	0	0	0	0	0	0	0	0	0	0	0	0	0	0	0	0	0	0	0	0	0	0	0	0	0	0	0	0	0	0	0	0	0	0	0	0	0	0	0	0	0	0	0	0	0	0	0	0	0	0	0	0	0	0	0	0	0	0	0	0	0	0	0	0	0	0	0	0	0	0	0	0	1447	1460	1459	1461	1466	1465	1467	1465	1460	1475	1494	1507	1504	1493	1480	1477	1478	1478	1474	1470	1467	1463	1466	1464	1473	1480	1496	1499	1475	1461	1451	1466	1468	0	0	0	0	0	0	0	0	0	0	0	0	0	0	0	0	0	0	0	0	0	0	0	0	0	0	0	0	0	0	0	0	0	0	0	0	0	0	0	0	0	0	0	0	0	0	0	0	0	0	0	0	0	0	0	0	0	0	0	0	0	0	0	0	0	0	0	0	0	0	0	0	0	0	0	0	0	0	0	0	0	0	0	0	0	0	0	0	0	0	0	0	0	0	0	0	0	0	0	0	0	0	0	0	0	0	0	0	0	0	0	0	0	0	0	0	0	0	0	0	0	0	0	0	0	0	0	0	0	0	0	0	0	0	0	0	0	0	0	0	0	0	0	0	0	0	0	0	0	0	0	0	0	0	0	0	0	0	0	0	0	0	0	0	0	0	0	0	0	0	0	0	0	0	0	0	0	0	0	0	0	0	0	0	0	0	0	0	0	0	0	0	0	0	0	0	0	0	0	0	0	0	0	0	0	0	0	0	0	0	0	0	0	0	0	0	0	0	0	0	0	0	0	0	0	0	0	0	0	0	0	0	0	0	0	0	0	0	0	0	0	0	0	0	0	0	0	0	0	0	0	0	0	0	0	0	0	0	0	0	0	0	0	0	0	0	0	0	0	0	0	0	0	0	0	0	0	0	0	0	0	0	0	0	0	0	0	0	0	0	0	0	0	0	0	0	0	0	0	0	0	0	0	0	0	0	0	0	0	0	0	0	0	0	0	0	0	0	0	0	0	0	0	0	704	661	636	621	617	629	640	642	648	650	658	663	657	648	643	641	643	643	644	640	636	629	623	610	601	600	609	622	630	632	639	646	643	636	628	627	623	610	606	613	617	626	630	635	636	614	611	616	627	630	625	617	613	614	623	626	613	607	600	601	607	609	604	597	598	608	613	619	621	621	620	618	616	616	615	615	620	617	603	594	603	622	642	0	0	0	0	0	0	0	0	0	0	0	0	0	0	0	0	0	0	0	0	0	0	0	0	0	0	0	0	0	0	0	0	0	0	0	0	0	0	0	0	0	0	0	0	0	0	0	0	0	0	0	0	0	0	0	0	0	0	0	0	0	0	0	0	0	0	0	0	0	0	0	0	0	0	0	0	0	0	0	0	0	0	0	0	0	0	0	0	0	0	0	0	0	0	0	0	0	0	0	0	0	0	0	0	0	0	0
0	0	0	0	0	0	0	0	0	0	0	0	0	0	0	0	0	0	0	0	0	0	0	0	0	0	0	0	0	0	0	0	0	0	0	0	0	0	0	0	0	0	0	0	0	0	0	0	0	0	0	0	0	0	0	0	0	0	0	0	0	0	0	0	0	0	0	0	0	0	0	0	0	0	0	0	0	0	0	0	0	0	0	0	0	0	0	0	0	0	0	0	0	1459	1472	1472	1462	1456	1453	1462	1465	1472	1481	1498	1509	1515	1503	1489	1479	1471	1462	1462	1461	1455	1449	1438	1436	1443	1454	1473	1484	1472	1458	1460	0	0	0	0	0	0	0	0	0	0	0	0	0	0	0	0	0	0	0	0	0	0	0	0	0	0	0	0	0	0	0	0	0	0	0	0	0	0	0	0	0	0	0	0	0	0	0	0	0	0	0	0	0	0	0	0	0	0	0	0	0	0	0	0	0	0	0	0	0	0	0	0	0	0	0	0	0	0	0	0	0	0	0	0	0	0	0	0	0	0	0	0	0	0	0	0	0	0	0	0	0	0	0	0	0	0	0	0	0	0	0	0	0	0	0	0	0	0	0	0	0	0	0	0	0	0	0	0	0	0	0	0	0	0	0	0	0	0	0	0	0	0	0	0	0	0	0	0	0	0	0	0	0	0	0	0	0	0	0	0	0	0	0	0	0	0	0	0	0	0	0	0	0	0	0	0	0	0	0	0	0	0	0	0	0	0	0	0	0	0	0	0	0	0	0	0	0	0	0	0	0	0	0	0	0	0	0	0	0	0	0	0	0	0	0	0	0	0	0	0	0	0	0	0	0	0	0	0	0	0	0	0	0	0	0	0	0	0	0	0	0	0	0	0	0	0	0	0	0	0	0	0	0	0	0	0	0	0	0	0	0	0	0	0	0	0	0	0	0	0	0	0	0	0	0	0	0	0	0	0	0	0	0	0	0	0	0	0	0	0	0	0	0	0	0	0	0	0	0	0	0	0	0	0	0	0	0	0	0	0	0	0	0	0	0	0	0	0	0	0	0	0	0	0	0	0	0	0	700	649	625	620	630	634	636	644	651	660	657	646	634	622	622	627	626	627	621	617	613	605	594	596	606	620	626	628	639	648	648	641	629	625	621	612	609	605	607	608	616	625	627	618	613	617	625	624	618	609	608	610	613	605	597	591	588	597	609	605	595	591	587	590	598	611	623	626	616	613	615	616	617	618	620	616	598	594	594	602	600	585	578	0	0	0	0	0	0	0	0	0	0	0	0	0	0	0	0	0	0	0	0	0	0	0	0	0	0	0	0	0	0	0	0	0	0	0	0	0	0	0	0	0	0	0	0	0	0	0	0	0	0	0	0	0	0	0	0	0	0	0	0	0	0	0	0	0	0	0	0	0	0	0	0	0	0	0	0	0	0	0	0	0	0	0	0	0	0	0	0	0	0	0	0	0	0	0	0	0	0	0	0	0	0	0	0	0
0	0	0	0	0	0	0	0	0	0	0	0	0	0	0	0	0	0	0	0	0	0	0	0	0	0	0	0	0	0	0	0	0	0	0	0	0	0	0	0	0	0	0	0	0	0	0	0	0	0	0	0	0	0	0	0	0	0	0	0	0	0	0	0	0	0	0	0	0	0	0	0	0	0	0	0	0	0	0	0	0	0	0	0	0	0	0	0	0	0	0	0	0	1473	1486	1478	1470	1458	1449	1451	1454	1459	1469	1487	1499	1502	1497	1486	1471	1450	1439	1447	1447	1446	1435	1428	1431	1432	1444	1457	1482	1473	1453	0	0	0	0	0	0	0	0	0	0	0	0	0	0	0	0	0	0	0	0	0	0	0	0	0	0	0	0	0	0	0	0	0	0	0	0	0	0	0	0	0	0	0	0	0	0	0	0	0	0	0	0	0	0	0	0	0	0	0	0	0	0	0	0	0	0	0	0	0	0	0	0	0	0	0	0	0	0	0	0	0	0	0	0	0	0	0	0	0	0	0	0	0	0	0	0	0	0	0	0	0	0	0	0	0	0	0	0	0	0	0	0	0	0	0	0	0	0	0	0	0	0	0	0	0	0	0	0	0	0	0	0	0	0	0	0	0	0	0	0	0	0	0	0	0	0	0	0	0	0	0	0	0	0	0	0	0	0	0	0	0	0	0	0	0	0	0	0	0	0	0	0	0	0	0	0	0	0	0	0	0	0	0	0	0	0	0	0	0	0	0	0	0	0	0	0	0	0	0	0	0	0	0	0	0	0	0	0	0	0	0	0	0	0	0	0	0	0	0	0	0	0	0	0	0	0	0	0	0	0	0	0	0	0	0	0	0	0	0	0	0	0	0	0	0	0	0	0	0	0	0	0	0	0	0	0	0	0	0	0	0	0	0	0	0	0	0	0	0	0	0	0	0	0	0	0	0	0	0	0	0	0	0	0	0	0	0	0	0	0	0	0	0	0	0	0	0	0	0	0	0	0	0	0	0	0	0	0	0	0	0	0	0	0	0	0	0	0	0	0	0	0	0	0	0	0	0	0	0	0	696	646	623	622	629	633	639	642	650	648	631	614	606	605	605	606	606	604	602	600	598	596	596	608	618	620	624	636	648	654	650	634	625	626	625	617	605	592	589	600	612	623	618	610	607	615	619	613	605	602	601	590	580	574	580	586	592	604	602	597	585	576	578	585	602	613	612	608	604	608	610	615	617	609	606	592	591	599	598	591	577	563	558	578	0	0	0	0	0	0	0	0	0	0	0	0	0	0	0	0	0	0	0	0	0	0	0	0	0	0	0	0	0	0	0	0	0	0	0	0	0	0	0	0	0	0	0	0	0	0	0	0	0	0	0	0	0	0	0	0	0	0	0	0	0	0	0	0	0	0	0	0	0	0	0	0	0	0	0	0	0	0	0	0	0	0	0	0	0	0	0	0	0	0	0	0	0	0	0	0	0	0	0	0	0	0	0
0	0	0	0	0	0	0	0	0	0	0	0	0	0	0	0	0	0	0	0	0	0	0	0	0	0	0	0	0	0	0	0	0	0	0	0	0	0	0	0	0	0	0	0	0	0	0	0	0	0	0	0	0	0	0	0	0	0	0	0	0	0	0	0	0	0	0	0	0	0	0	0	0	0	0	0	0	0	0	0	0	0	0	0	0	0	0	0	0	0	0	0	0	1492	1496	1479	1467	1455	1442	1445	1452	1454	1462	1473	1483	1492	1491	1487	1465	1440	1432	1453	1451	1441	1431	1421	1426	1430	1436	1441	1461	1458	1425	0	0	0	0	0	0	0	0	0	0	0	0	0	0	0	0	0	0	0	0	0	0	0	0	0	0	0	0	0	0	0	0	0	0	0	0	0	0	0	0	0	0	0	0	0	0	0	0	0	0	0	0	0	0	0	0	0	0	0	0	0	0	0	0	0	0	0	0	0	0	0	0	0	0	0	0	0	0	0	0	0	0	0	0	0	0	0	0	0	0	0	0	0	0	0	0	0	0	0	0	0	0	0	0	0	0	0	0	0	0	0	0	0	0	0	0	0	0	0	0	0	0	0	0	0	0	0	0	0	0	0	0	0	0	0	0	0	0	0	0	0	0	0	0	0	0	0	0	0	0	0	0	0	0	0	0	0	0	0	0	0	0	0	0	0	0	0	0	0	0	0	0	0	0	0	0	0	0	0	0	0	0	0	0	0	0	0	0	0	0	0	0	0	0	0	0	0	0	0	0	0	0	0	0	0	0	0	0	0	0	0	0	0	0	0	0	0	0	0	0	0	0	0	0	0	0	0	0	0	0	0	0	0	0	0	0	0	0	0	0	0	0	0	0	0	0	0	0	0	0	0	0	0	0	0	0	0	0	0	0	0	0	0	0	0	0	0	0	0	0	0	0	0	0	0	0	0	0	0	0	0	0	0	0	0	0	0	0	0	0	0	0	0	0	0	0	0	0	0	0	0	0	0	0	0	0	0	0	0	0	0	0	0	0	0	0	0	0	0	0	0	0	0	0	0	0	0	0	0	0	0	0	632	618	620	615	618	626	628	621	610	596	588	588	592	593	586	579	578	582	585	590	598	609	618	618	622	629	641	648	646	639	629	629	631	620	599	581	573	581	592	610	607	600	597	599	607	595	591	589	593	594	586	582	582	587	587	590	593	594	586	583	578	581	592	597	599	595	592	597	603	604	602	596	595	586	586	590	588	577	567	553	556	555	562	572	0	0	0	0	0	0	0	0	0	0	0	0	0	0	0	0	0	0	0	0	0	0	0	0	0	0	0	0	0	0	0	0	0	0	0	0	0	0	0	0	0	0	0	0	0	0	0	0	0	0	0	0	0	0	0	0	0	0	0	0	0	0	0	0	0	0	0	0	0	0	0	0	0	0	0	0	0	0	0	0	0	0	0	0	0	0	0	0	0	0	0	0	0	0	0	0	0	0	0	0	0
0	0	0	0	0	0	0	0	0	0	0	0	0	0	0	0	0	0	0	0	0	0	0	0	0	0	0	0	0	0	0	0	0	0	0	0	0	0	0	0	0	0	0	0	0	0	0	0	0	0	0	0	0	0	0	0	0	0	0	0	0	0	0	0	0	0	0	0	0	0	0	0	0	0	0	0	0	0	0	0	0	0	0	0	0	0	0	0	0	0	0	0	0	1501	1490	1469	1454	1440	1439	1444	1448	1451	1458	1469	1476	1477	1486	1478	1471	1451	1453	1462	1453	1441	1424	1429	1438	1445	1449	1443	1439	1402	1343	1294	0	0	0	0	0	0	0	0	0	0	0	0	0	0	0	0	0	0	0	0	0	0	0	0	0	0	0	0	0	0	0	0	0	0	0	0	0	0	0	0	0	0	0	0	0	0	0	0	0	0	0	0	0	0	0	0	0	0	0	0	0	0	0	0	0	0	0	0	0	0	0	0	0	0	0	0	0	0	0	0	0	0	0	0	0	0	0	0	0	0	0	0	0	0	0	0	0	0	0	0	0	0	0	0	0	0	0	0	0	0	0	0	0	0	0	0	0	0	0	0	0	0	0	0	0	0	0	0	0	0	0	0	0	0	0	0	0	0	0	0	0	0	0	0	0	0	0	0	0	0	0	0	0	0	0	0	0	0	0	0	0	0	0	0	0	0	0	0	0	0	0	0	0	0	0	0	0	0	0	0	0	0	0	0	0	0	0	0	0	0	0	0	0	0	0	0	0	0	0	0	0	0	0	0	0	0	0	0	0	0	0	0	0	0	0	0	0	0	0	0	0	0	0	0	0	0	0	0	0	0	0	0	0	0	0	0	0	0	0	0	0	0	0	0	0	0	0	0	0	0	0	0	0	0	0	0	0	0	0	0	0	0	0	0	0	0	0	0	0	0	0	0	0	0	0	0	0	0	0	0	0	0	0	0	0	0	0	0	0	0	0	0	0	0	0	0	0	0	0	0	0	0	0	0	0	0	0	0	0	0	0	0	0	0	0	0	0	0	0	0	0	0	0	0	0	0	0	0	0	0	0	0	620	602	604	603	604	601	601	604	595	586	577	579	583	584	585	589	585	579	577	582	598	620	622	630	626	629	636	638	633	625	621	616	607	595	582	572	574	583	597	591	573	568	572	581	587	586	590	596	601	597	593	592	588	582	577	582	584	583	584	578	582	582	584	584	587	590	594	600	600	588	578	574	579	579	581	579	573	567	562	562	561	555	557	565	573	0	0	0	0	0	0	0	0	0	0	0	0	0	0	0	0	0	0	0	0	0	0	0	0	0	0	0	0	0	0	0	0	0	0	0	0	0	0	0	0	0	0	0	0	0	0	0	0	0	0	0	0	0	0	0	0	0	0	0	0	0	0	0	0	0	0	0	0	0	0	0	0	0	0	0	0	0	0	0	0	0	0	0	0	0	0	0	0	0	0	0	0	0	0	0	0	0	0	0
0	0	0	0	0	0	0	0	0	0	0	0	0	0	0	0	0	0	0	0	0	0	0	0	0	0	0	0	0	0	0	0	0	0	0	0	0	0	0	0	0	0	0	0	0	0	0	0	0	0	0	0	0	0	0	0	0	0	0	0	0	0	0	0	0	0	0	0	0	0	0	0	0	0	0	0	0	0	0	0	0	0	0	0	0	0	0	0	0	0	0	0	0	1478	1455	1436	1434	1430	1431	1446	1451	1453	1459	1469	1473	1478	1486	1486	1475	1464	1462	1468	1453	1453	1443	1443	1446	1456	1450	1435	1410	1327	1221	1166	0	0	0	0	0	0	0	0	0	0	0	0	0	0	0	0	0	0	0	0	0	0	0	0	0	0	0	0	0	0	0	0	0	0	0	0	0	0	0	0	0	0	0	0	0	0	0	0	0	0	0	0	0	0	0	0	0	0	0	0	0	0	0	0	0	0	0	0	0	0	0	0	0	0	0	0	0	0	0	0	0	0	0	0	0	0	0	0	0	0	0	0	0	0	0	0	0	0	0	0	0	0	0	0	0	0	0	0	0	0	0	0	0	0	0	0	0	0	0	0	0	0	0	0	0	0	0	0	0	0	0	0	0	0	0	0	0	0	0	0	0	0	0	0	0	0	0	0	0	0	0	0	0	0	0	0	0	0	0	0	0	0	0	0	0	0	0	0	0	0	0	0	0	0	0	0	0	0	0	0	0	0	0	0	0	0	0	0	0	0	0	0	0	0	0	0	0	0	0	0	0	0	0	0	0	0	0	0	0	0	0	0	0	0	0	0	0	0	0	0	0	0	0	0	0	0	0	0	0	0	0	0	0	0	0	0	0	0	0	0	0	0	0	0	0	0	0	0	0	0	0	0	0	0	0	0	0	0	0	0	0	0	0	0	0	0	0	0	0	0	0	0	0	0	0	0	0	0	0	0	0	0	0	0	0	0	0	0	0	0	0	0	0	0	0	0	0	0	0	0	0	0	0	0	0	0	0	0	0	0	0	0	0	0	0	0	0	0	0	662	0	0	0	0	0	0	0	0	0	0	0	0	0	638	597	595	591	589	594	602	600	589	577	573	578	586	591	588	586	576	573	574	578	595	632	632	628	621	615	619	614	607	604	601	596	592	585	581	588	603	598	578	567	560	563	570	578	581	583	593	600	600	597	591	584	574	566	574	577	570	563	563	569	571	575	576	578	581	582	583	583	575	567	567	567	568	573	573	573	571	568	569	563	557	546	552	563	573	0	0	0	0	0	0	0	0	0	0	0	0	0	0	0	0	0	0	0	0	0	0	0	0	0	0	0	0	0	0	0	0	0	0	0	0	0	0	0	0	0	0	0	0	0	0	0	0	0	0	0	0	0	0	0	0	0	0	0	0	0	0	0	0	0	0	0	0	0	0	0	0	0	0	0	0	0	0	0	0	0	0	0	0	0	0	0	0	0	0	0	0	0	0	0	0	0	0
0	0	0	0	0	0	0	0	0	0	0	0	0	0	0	0	0	0	0	0	0	0	0	0	0	0	0	0	0	0	0	0	0	0	0	0	0	0	0	0	0	0	0	0	0	0	0	0	0	0	0	0	0	0	0	0	0	0	0	0	0	0	0	0	0	0	0	0	0	0	0	0	0	0	0	0	0	0	0	0	0	0	0	0	0	0	0	0	0	0	0	0	0	1466	1434	1432	1431	1429	1438	1447	1452	1457	1455	1473	1477	1485	1493	1493	1480	1466	1461	1465	1465	1460	1454	1456	1462	1463	1437	1401	1262	1202	1093	1036	0	0	0	0	0	0	0	0	0	0	0	0	0	0	0	0	0	0	0	0	0	0	0	0	0	0	0	0	0	0	0	0	0	0	0	0	0	0	0	0	0	0	0	0	0	0	0	0	0	0	0	0	0	0	0	0	0	0	0	0	0	0	0	0	0	0	0	0	0	0	0	0	0	0	0	0	0	0	0	0	0	0	0	0	0	0	0	0	0	0	0	0	0	0	0	0	0	0	0	0	0	0	0	0	0	0	0	0	0	0	0	0	0	0	0	0	0	0	0	0	0	0	0	0	0	0	0	0	0	0	0	0	0	0	0	0	0	0	0	0	0	0	0	0	0	0	0	0	0	0	0	0	0	0	0	0	0	0	0	0	0	0	0	0	0	0	0	0	0	0	0	0	0	0	0	0	0	0	0	0	0	0	0	0	0	0	0	0	0	0	0	0	0	0	0	0	0	0	0	0	0	0	0	0	0	0	0	0	0	0	0	0	0	0	0	0	0	0	0	0	0	0	0	0	0	0	0	0	0	0	0	0	0	0	0	0	0	0	0	0	0	0	0	0	0	0	0	0	0	0	0	0	0	0	0	0	0	0	0	0	0	0	0	0	0	0	0	0	0	0	0	0	0	0	0	0	0	0	0	0	0	0	0	0	0	0	0	0	0	0	0	0	0	0	0	0	0	0	0	0	0	0	0	0	0	0	0	0	0	0	0	0	0	0	0	0	0	0	685	667	661	0	0	0	0	0	0	0	0	0	0	0	0	0	657	627	603	580	591	599	599	589	579	574	577	583	586	584	579	575	569	569	569	595	612	627	618	606	599	600	595	589	589	592	596	593	590	590	596	603	592	581	570	563	563	567	572	573	578	584	595	594	592	586	576	567	560	568	567	560	546	537	543	552	562	567	568	566	566	565	561	560	557	558	556	551	560	567	572	572	569	565	559	553	551	555	564	571	579	577	567	558	0	0	0	0	0	0	0	0	0	0	0	0	0	0	0	0	0	0	0	0	0	0	0	0	0	0	0	0	0	0	0	0	0	0	0	0	0	0	0	0	0	0	0	0	0	0	0	0	0	0	0	0	0	0	0	0	0	0	0	0	0	0	0	0	0	0	0	0	0	0	0	0	0	0	0	0	0	0	0	0	0	0	0	0	0	0	0	0	0	0	0	0	0	0
0	0	0	0	0	0	0	0	0	0	0	0	0	0	0	0	0	0	0	0	0	0	0	0	0	0	0	0	0	0	0	0	0	0	0	0	0	0	0	0	0	0	0	0	0	0	0	0	0	0	0	0	0	0	0	0	0	0	0	0	0	0	0	0	0	0	0	0	0	0	0	0	0	0	0	0	0	0	0	0	0	0	0	0	0	0	0	0	0	0	0	0	0	1482	1440	1437	1442	1445	1451	1450	1460	1468	1464	1472	1483	1500	1499	1494	1480	1462	1454	1459	1462	1463	1460	1458	1450	1406	1319	1252	1158	1034	917	0	0	0	0	0	0	0	0	0	0	0	0	0	0	0	0	0	0	0	0	0	0	0	0	0	0	0	0	0	0	0	0	0	0	0	0	0	0	0	0	0	0	0	0	0	0	0	0	0	0	0	0	0	0	0	0	0	0	0	0	0	0	0	0	0	0	0	0	0	0	0	0	0	0	0	0	0	0	0	0	0	0	0	0	0	0	0	0	0	0	0	0	0	0	0	0	0	0	0	0	692	695	0	0	0	0	0	0	0	0	0	0	0	0	0	0	0	0	0	0	0	0	0	0	0	0	0	0	0	0	0	0	0	0	0	0	0	0	0	0	0	0	0	0	0	0	0	0	0	0	0	0	0	0	0	0	0	0	0	0	0	0	0	0	0	0	0	0	0	0	0	0	0	0	0	0	0	0	0	0	0	0	0	0	0	0	0	0	0	0	0	0	0	0	0	0	0	0	0	0	0	0	0	0	0	0	0	0	0	0	0	0	0	0	0	0	0	0	0	0	0	0	0	0	0	0	0	0	0	0	0	0	0	0	0	0	0	0	0	0	0	0	0	0	0	0	0	0	0	0	0	0	0	0	0	0	0	0	0	0	0	0	0	0	0	0	0	0	0	0	0	0	0	0	0	0	0	0	0	0	0	0	0	0	0	0	0	0	0	0	0	0	0	0	0	0	0	0	0	0	0	0	0	0	0	0	0	0	0	0	0	0	0	0	0	0	0	0	0	706	687	681	679	0	0	0	0	0	0	0	0	0	0	0	0	0	0	629	605	577	595	593	588	584	579	576	578	581	583	578	572	567	564	564	579	589	589	583	583	584	584	576	572	578	571	579	584	586	583	579	582	586	580	574	568	565	563	567	565	567	570	579	587	589	581	572	559	562	567	561	548	534	523	526	539	549	551	550	545	545	549	550	548	550	547	538	535	539	549	555	558	561	557	552	550	557	561	563	565	563	553	539	541	546	545	536	0	0	0	0	0	0	0	0	0	0	0	0	0	0	0	0	0	0	0	0	0	0	0	0	0	0	0	0	0	0	0	0	0	0	0	0	0	0	0	0	0	0	0	0	0	0	0	0	0	0	0	0	0	0	0	0	0	0	0	0	0	0	0	0	0	0	0	0	0	0	0	0	0	0	0	0	0	0	0	0	0	0	0	0	0	0	0	0	0	0	0
0	0	0	0	0	0	0	0	0	0	0	0	0	0	0	0	0	0	0	0	0	0	0	0	0	0	0	0	0	0	0	0	0	0	0	0	0	0	0	0	0	0	0	0	0	0	0	0	0	0	0	0	0	0	0	0	0	0	0	0	0	0	0	0	0	0	0	0	0	0	0	0	0	0	0	0	0	0	0	0	0	0	0	0	0	0	0	0	0	0	0	0	0	1481	1450	1450	1454	1462	1465	1462	1470	1473	1478	1485	1497	1504	1505	1499	1482	1459	1447	1446	1450	1444	1439	1424	1371	1250	1127	1026	902	0	0	0	0	0	0	0	0	0	0	0	0	0	0	0	0	0	0	0	0	0	0	0	0	0	0	0	0	0	0	0	0	0	0	0	0	0	0	0	0	0	0	0	0	0	0	0	0	0	0	0	0	0	0	0	0	0	0	0	0	0	0	0	0	0	0	0	0	0	0	0	0	0	0	0	0	0	0	0	0	0	0	0	0	0	0	0	0	0	0	0	0	0	0	0	0	0	0	0	0	0	0	678	675	0	0	0	0	0	0	0	0	0	0	0	0	0	0	0	0	0	0	0	0	0	0	0	0	0	0	0	0	0	0	0	0	0	0	0	0	0	0	0	0	0	0	0	0	0	0	0	0	0	0	0	0	0	0	0	0	0	0	0	0	0	0	0	0	0	0	0	0	0	0	0	0	0	0	0	0	0	0	0	0	0	0	0	0	0	0	0	0	0	0	0	0	0	0	0	0	0	0	0	0	0	0	0	0	0	0	0	0	0	0	0	0	0	0	0	0	0	0	0	0	0	0	0	0	0	0	0	0	0	0	0	0	0	0	0	0	0	0	0	0	0	0	0	0	0	0	0	0	0	0	0	0	0	0	0	0	0	0	0	0	0	0	0	0	0	0	0	0	0	0	0	0	0	0	0	0	0	0	0	0	0	0	0	0	0	0	0	0	0	0	0	0	0	0	0	0	0	0	0	0	0	0	0	0	0	0	0	0	0	0	0	0	0	0	0	0	0	720	709	706	699	0	0	0	0	0	0	0	0	0	0	0	0	0	0	0	607	596	578	584	588	587	580	574	574	578	581	576	569	563	558	555	568	574	573	579	586	586	576	560	555	555	562	568	574	577	573	569	579	585	581	573	568	563	560	557	554	556	562	567	577	585	582	570	559	565	561	552	540	527	522	528	536	542	539	534	529	532	535	535	538	537	533	529	526	524	524	524	530	538	542	541	548	554	553	554	557	558	554	542	530	526	525	522	525	538	0	0	0	0	0	0	0	0	0	0	0	0	0	0	0	0	0	0	0	0	0	0	0	0	0	0	0	0	0	0	0	0	0	0	0	0	0	0	0	0	0	0	0	0	0	0	0	0	0	0	0	0	0	0	0	0	0	0	0	0	0	0	0	0	0	0	0	0	0	0	0	0	0	0	0	0	0	0	0	0	0	0	0	0	0	0	0	0	0
0	0	0	0	0	0	0	0	0	0	0	0	0	0	0	0	0	0	0	0	0	0	0	0	0	0	0	0	0	0	0	0	0	0	0	0	0	0	0	0	0	0	0	0	0	0	0	0	0	0	0	0	0	0	0	0	0	0	0	0	0	0	0	0	0	0	0	0	0	0	0	0	0	0	0	0	0	0	0	0	0	0	0	0	0	0	0	0	0	0	0	0	0	1463	1450	1454	1465	1471	1478	1478	1474	1470	1470	1484	1498	1505	1504	1493	1478	1454	1435	1415	1383	1319	1240	1139	1037	0	0	0	0	0	0	0	0	0	0	0	0	0	0	0	0	0	0	0	0	0	0	0	0	0	0	0	0	0	0	0	0	0	0	0	0	0	0	0	0	0	0	0	0	0	0	0	0	0	0	0	0	0	0	0	0	0	0	0	0	0	0	0	0	0	0	0	0	0	0	0	0	0	0	0	0	0	0	0	0	0	0	0	0	0	0	0	0	0	0	0	0	0	0	0	0	0	0	0	0	0	0	0	0	0	0	0	0	0	0	0	0	0	0	0	0	0	0	0	0	0	0	0	0	0	0	0	0	0	0	0	0	0	0	0	0	0	0	0	0	0	0	0	0	0	0	0	0	0	0	0	0	0	0	0	0	0	0	0	0	0	0	0	0	0	0	0	0	0	0	0	0	0	0	0	0	0	0	0	0	0	0	0	0	0	0	0	0	0	0	0	0	0	0	0	0	0	0	0	0	0	0	0	0	0	0	0	0	0	0	0	0	0	0	0	0	0	0	0	0	0	0	0	0	0	0	0	0	0	0	0	0	0	0	0	0	0	0	0	0	0	0	0	0	0	0	0	0	0	0	0	0	0	0	0	0	0	0	0	0	0	0	0	0	0	0	0	0	0	0	0	0	0	0	0	0	0	0	0	0	0	0	0	0	0	0	0	0	0	0	0	0	0	0	0	0	0	0	0	0	0	0	0	0	0	0	0	0	0	0	0	0	0	0	0	0	0	0	0	0	0	0	0	0	0	724	716	715	704	0	0	0	0	0	0	0	0	0	0	0	0	0	0	0	618	606	607	587	589	589	580	574	575	576	577	572	565	559	555	555	564	568	569	577	584	581	572	552	548	551	558	563	568	566	566	563	580	586	585	576	567	561	556	548	541	546	552	560	569	576	573	568	557	557	553	545	535	526	524	532	538	540	532	526	524	528	532	530	527	529	528	529	531	524	520	518	516	513	507	520	536	547	547	546	548	553	552	544	534	527	525	523	524	526	546	572	0	0	0	0	0	0	0	0	0	0	0	0	0	0	0	0	0	0	0	0	0	0	0	0	0	0	0	0	0	0	0	0	0	0	0	0	0	0	0	0	0	0	0	0	0	0	0	0	0	0	0	0	0	0	0	0	0	0	0	0	0	0	0	0	0	0	0	0	0	0	0	0	0	0	0	0	0	0	0	0	0	0	0	0	0	0	0
0	0	0	0	0	0	0	0	0	0	0	0	0	0	0	0	0	0	0	0	0	0	0	0	0	0	0	0	0	0	0	0	0	0	0	0	0	0	0	0	0	0	0	0	0	0	0	0	0	0	0	0	0	0	0	0	0	0	0	0	0	0	0	0	0	0	0	0	0	0	0	0	0	0	0	0	0	0	0	0	0	0	0	0	0	0	0	0	0	0	0	0	0	1410	1439	1453	1466	1473	1480	1473	1459	1453	1459	1469	1485	1490	1489	1478	1450	1408	1344	1265	1173	1061	0	0	0	0	0	0	0	0	0	0	0	0	0	0	0	0	0	0	0	0	0	0	0	0	0	0	0	0	0	0	0	0	0	0	0	0	0	0	0	0	0	0	0	0	0	0	0	0	0	0	0	0	0	0	0	0	0	0	0	0	0	0	0	0	0	0	0	0	0	0	0	0	0	0	0	0	0	0	0	0	0	0	0	0	0	0	0	0	0	0	0	0	0	0	0	0	0	0	0	0	0	0	0	0	0	0	0	0	0	0	0	0	0	0	0	0	0	0	0	0	0	0	0	0	0	0	0	0	0	0	0	0	0	0	0	0	0	0	0	0	0	0	0	0	0	0	0	0	0	0	0	0	0	0	0	0	0	0	0	0	0	0	0	0	0	0	0	0	0	0	0	0	0	0	0	0	0	0	0	0	0	0	0	0	0	0	0	0	0	0	0	0	0	0	0	0	0	0	0	0	0	0	0	0	0	0	0	0	0	0	0	0	0	0	0	0	0	0	0	0	0	0	0	0	0	0	0	0	0	0	0	0	0	0	0	0	0	0	0	0	0	0	0	0	0	0	0	0	0	0	0	0	0	0	0	0	0	0	0	0	0	0	0	0	0	0	0	0	0	0	0	0	0	0	0	0	0	0	0	0	0	0	0	0	0	0	0	0	0	0	0	0	0	0	0	0	0	0	0	0	0	0	0	0	0	0	0	0	0	0	0	0	0	0	0	0	0	0	0	0	0	0	0	0	0	0	0	0	0	705	703	0	0	0	0	0	0	0	0	0	0	0	0	0	0	0	0	628	621	0	624	605	587	585	582	576	577	570	563	562	559	561	563	569	569	577	583	585	578	567	556	549	547	557	567	572	568	561	558	577	585	585	576	566	558	548	541	536	540	548	554	557	559	560	557	552	550	543	535	527	524	524	530	535	539	532	524	522	525	530	525	521	521	516	521	522	520	519	518	512	509	507	516	530	541	543	542	541	544	545	541	533	530	528	524	520	522	526	528	529	540	0	0	0	0	0	0	0	0	0	0	0	0	0	0	0	0	0	0	0	0	0	0	0	0	0	0	0	0	0	0	0	0	0	0	0	0	0	0	0	0	0	0	0	0	0	0	0	0	0	0	0	0	0	0	0	0	0	0	0	0	0	0	0	0	0	0	0	0	0	0	0	0	0	0	0	0	0	0	0	0	0	0	0	0	0
0	0	0	0	0	0	0	0	0	0	0	0	0	0	0	0	0	0	0	0	0	0	0	0	0	0	0	0	0	0	0	0	0	0	0	0	0	0	0	0	0	0	0	0	0	0	0	0	0	0	0	0	0	0	0	0	0	0	0	0	0	0	0	0	0	0	0	0	0	0	0	0	0	0	0	0	0	0	0	0	0	0	0	0	0	0	0	0	0	0	0	0	0	1369	1429	1453	1471	1476	1473	1462	1442	1432	1437	1451	1461	1466	1453	1424	1349	1272	1147	1035	957	0	0	0	0	0	0	0	0	0	0	0	0	0	0	0	0	0	0	0	0	0	0	0	0	0	0	0	0	0	0	0	0	0	0	0	0	0	0	0	0	0	0	0	0	0	0	0	0	0	0	0	0	0	0	0	0	0	0	0	0	0	0	0	0	0	0	0	0	0	0	0	0	0	0	0	0	0	0	0	0	0	0	0	0	0	0	0	0	0	0	0	0	0	0	0	0	0	0	0	0	0	0	0	0	0	0	0	0	0	0	0	0	0	0	0	0	0	0	0	0	0	0	0	0	0	0	0	0	0	0	0	0	0	0	0	0	0	0	0	0	0	0	0	0	0	0	0	0	0	0	0	0	0	0	0	0	0	0	0	0	0	0	0	0	0	0	0	0	0	0	0	0	0	0	0	0	0	0	0	0	0	0	0	0	0	0	0	0	0	0	0	0	0	0	0	0	0	0	0	0	0	0	0	0	0	0	0	0	0	0	0	0	0	0	0	0	0	0	0	0	0	0	0	0	0	0	0	0	0	0	0	0	0	0	0	0	0	0	0	0	0	0	0	0	0	0	0	0	0	0	0	0	0	0	0	0	0	0	0	0	0	0	0	0	0	0	0	0	0	0	0	0	0	0	0	0	0	0	0	0	0	0	0	0	0	0	0	0	0	0	0	0	0	0	0	0	0	0	0	0	0	0	0	0	0	0	0	0	0	0	0	0	0	0	0	0	0	0	0	0	0	0	0	0	0	0	0	0	0	0	0	0	0	0	0	0	0	0	0	0	0	0	0	0	0	0	0	0	0	0	0	0	0	616	603	598	590	580	570	563	565	562	564	566	570	571	574	585	585	579	567	558	552	557	569	580	578	572	562	554	565	570	570	566	556	549	544	539	536	542	546	549	547	543	544	543	547	543	537	527	521	519	521	523	524	524	526	526	528	529	528	524	519	516	506	510	513	512	513	511	518	512	514	522	534	542	540	537	533	534	532	531	528	529	527	524	521	519	520	518	515	516	517	526	0	0	0	0	0	0	0	0	0	0	0	0	0	0	0	0	0	0	0	0	0	0	0	0	0	0	0	0	0	0	0	0	0	0	0	0	0	0	0	0	0	0	0	0	0	0	0	0	0	0	0	0	0	0	0	0	0	0	0	0	0	0	0	0	0	0	0	0	0	0	0	0	0	0	0	0	0	0	0	0	0	0	0
0	0	0	0	0	0	0	0	0	0	0	0	0	0	0	0	0	0	0	0	0	0	0	0	0	0	0	0	0	0	0	0	0	0	0	0	0	0	0	0	0	0	0	0	0	0	0	0	0	0	0	0	0	0	0	0	0	0	0	0	0	0	0	0	0	0	0	0	0	0	0	0	0	0	0	0	0	0	0	0	0	0	0	0	0	0	0	0	0	0	0	0	0	1350	1433	1458	1482	1481	1468	1455	1423	1408	1415	1429	1435	1404	1310	1213	1126	1024	0	0	0	0	0	0	0	0	0	0	0	0	0	0	0	0	0	0	0	0	0	0	0	0	0	0	0	0	0	0	0	0	0	0	0	0	0	0	0	0	0	0	0	0	0	0	0	0	0	0	0	0	0	0	0	0	0	0	0	0	0	0	0	0	0	0	0	0	0	0	0	0	0	0	0	0	0	0	0	0	0	0	0	0	0	0	0	0	0	0	0	0	0	0	0	0	0	0	0	0	0	0	0	0	0	0	0	0	0	0	0	0	0	0	0	0	0	0	0	0	0	0	0	0	0	0	0	0	0	0	0	0	0	0	0	0	0	0	0	0	0	0	0	0	0	0	0	0	0	0	0	0	0	0	0	0	0	0	0	0	0	0	0	0	0	0	0	0	0	0	0	0	0	0	0	0	0	0	0	0	0	0	0	0	0	0	0	0	0	0	0	0	0	0	0	0	0	0	0	0	0	0	0	0	0	0	0	0	0	0	0	0	0	0	0	0	0	0	0	0	0	0	0	0	0	0	0	0	0	0	0	0	0	0	0	0	0	0	0	0	0	0	0	0	0	0	0	0	0	0	0	0	0	0	0	0	0	0	0	0	0	0	0	0	0	0	0	0	0	0	0	0	0	0	0	0	0	0	0	0	0	0	0	0	0	0	0	0	0	0	0	0	0	0	0	0	0	0	0	0	0	0	0	0	0	0	0	0	0	0	0	0	0	0	0	0	0	0	0	0	0	0	0	0	0	0	0	0	0	0	0	0	0	0	0	0	0	0	0	0	0	0	0	0	0	0	0	0	0	0	0	0	0	0	0	0	0	617	604	595	581	571	567	576	571	567	570	577	584	585	586	581	575	563	555	555	567	574	583	581	570	557	552	555	560	560	556	556	547	543	539	541	543	545	543	537	534	531	537	541	535	531	523	519	514	515	519	518	519	523	525	527	528	527	521	516	509	500	501	506	509	513	515	526	526	526	526	534	538	538	533	528	522	519	520	524	528	524	521	519	519	520	511	512	511	514	520	525	532	528	0	0	0	0	0	0	0	0	0	0	0	0	0	0	0	0	0	0	0	0	0	0	0	0	0	0	0	0	0	0	0	0	0	0	0	0	0	0	0	0	0	0	0	0	0	0	0	0	0	0	0	0	0	0	0	0	0	0	0	0	0	0	0	0	0	0	0	0	0	0	0	0	0	0	0	0	0	0	0	0
0	0	0	0	0	0	0	0	0	0	0	0	0	0	0	0	0	0	0	0	0	0	0	0	0	0	0	0	0	0	0	0	0	0	0	0	0	0	0	0	0	0	0	0	0	0	0	0	0	0	0	0	0	0	0	0	0	0	0	0	0	0	0	0	0	0	0	0	0	0	0	0	0	0	0	0	0	0	0	0	0	0	0	0	0	0	0	0	0	0	0	0	1348	1408	1446	1461	1481	1477	1450	1413	1398	1380	1389	1353	1273	1132	0	0	0	0	0	0	0	0	0	0	0	0	0	0	0	0	0	0	0	0	0	0	0	0	0	0	0	0	0	0	0	0	0	0	0	0	0	0	0	0	0	0	0	0	0	0	0	0	0	0	0	0	0	0	0	0	0	0	0	0	0	0	0	0	0	0	0	0	0	0	0	0	0	0	0	0	0	0	0	0	0	0	0	0	0	0	0	0	0	0	0	0	0	0	0	0	0	0	0	0	0	0	0	0	0	0	0	0	0	0	0	0	0	0	0	0	0	0	0	0	0	0	0	0	0	0	0	0	0	0	0	0	0	0	0	0	0	0	0	0	0	0	0	0	0	0	0	0	0	0	0	0	0	0	0	0	0	0	0	0	0	0	0	0	0	0	0	0	0	0	0	0	0	0	0	0	0	0	0	0	0	0	0	0	0	0	0	0	0	0	0	0	0	0	0	0	0	0	0	0	0	0	0	0	0	0	0	0	0	0	0	0	0	0	0	0	0	0	0	0	0	0	0	0	0	0	0	0	0	0	0	0	0	0	0	0	0	0	0	0	0	0	0	0	0	0	0	0	0	0	0	0	0	0	0	0	0	0	0	0	0	0	0	0	0	0	0	0	0	0	0	0	0	0	0	0	0	0	0	0	0	0	0	0	0	0	0	0	0	0	0	0	0	0	0	0	0	0	0	0	0	0	0	0	0	0	0	0	0	0	0	0	0	0	0	0	0	0	0	0	0	0	0	0	0	0	0	0	0	0	0	0	0	0	0	0	0	0	0	0	0	0	0	0	0	0	0	0	0	0	0	0	0	0	0	0	0	0	0	0	0	0	614	594	581	572	579	584	587	583	581	593	601	596	581	576	567	565	562	566	577	583	585	579	564	547	544	548	550	554	556	554	548	545	541	541	545	546	540	529	530	533	540	534	529	521	518	516	508	506	512	509	515	517	520	524	524	523	516	510	506	499	500	502	506	516	525	534	532	524	515	524	533	531	528	519	514	511	517	521	522	520	518	516	514	514	506	506	506	509	515	528	538	542	535	525	0	0	0	0	0	0	0	0	0	0	0	0	0	0	0	0	0	0	0	0	0	0	0	0	0	0	0	0	0	0	0	0	0	0	0	0	0	0	0	0	0	0	0	0	0	0	0	0	0	0	0	0	0	0	0	0	0	0	0	0	0	0	0	0	0	0	0	0	0	0	0	0	0	0	0	0	0	0
0	0	0	0	0	0	0	0	0	0	0	0	0	0	0	0	0	0	0	0	0	0	0	0	0	0	0	0	0	0	0	0	0	0	0	0	0	0	0	0	0	0	0	0	0	0	0	0	0	0	0	0	0	0	0	0	0	0	0	0	0	0	0	0	0	0	0	0	0	0	0	0	0	0	0	0	0	0	0	0	0	0	0	0	0	0	0	0	0	0	0	0	1439	1424	1428	1426	1415	1393	1387	1380	1360	1351	1272	1095	0	0	0	0	0	0	0	0	0	0	0	0	0	0	0	0	0	0	0	0	0	0	0	0	0	0	0	0	0	0	0	0	0	0	0	0	0	0	0	0	0	0	0	0	0	0	0	0	0	0	0	0	0	0	0	0	0	0	0	0	0	0	0	0	0	0	0	0	0	0	0	0	0	0	0	0	0	0	0	0	0	0	0	0	0	0	0	0	0	0	0	0	0	0	0	0	0	0	0	0	0	0	0	0	0	0	0	0	0	0	0	671	672	0	0	0	0	0	0	0	0	0	0	0	0	0	0	0	0	0	0	0	0	0	0	0	0	0	0	0	0	0	0	0	0	0	0	0	0	0	0	0	0	0	0	0	0	0	0	0	0	0	0	0	0	0	0	0	0	0	0	0	0	0	0	0	0	0	0	0	0	0	0	0	0	0	0	0	0	0	0	0	0	0	0	0	0	0	0	0	0	0	0	0	0	0	0	0	0	0	0	0	0	0	0	0	0	0	0	0	0	0	0	0	0	0	0	0	0	0	0	0	0	0	0	0	0	0	0	0	0	0	0	0	0	0	0	0	0	0	0	0	0	0	0	0	0	0	0	0	0	0	0	0	0	0	0	0	0	0	0	0	0	0	0	0	0	0	0	0	0	0	0	0	0	0	0	0	0	0	0	0	0	0	0	0	0	0	0	0	0	0	0	0	0	0	0	0	0	0	0	0	0	0	0	0	0	0	0	0	0	0	0	0	0	0	0	0	0	0	0	0	0	0	0	0	0	0	0	0	0	0	0	0	0	0	0	0	0	0	0	0	0	0	0	0	0	0	0	0	0	0	0	0	0	0	0	0	563	569	587	589	592	597	597	591	578	562	561	568	569	584	598	602	592	575	555	541	539	539	543	549	548	544	541	542	539	539	543	541	535	527	525	535	539	532	522	510	506	505	500	501	504	505	509	512	517	523	523	521	516	508	505	499	499	503	509	519	527	533	527	510	495	489	494	498	502	506	505	509	516	519	519	514	511	512	511	512	503	501	500	502	510	523	535	538	534	528	532	535	0	0	0	0	0	0	0	0	0	0	0	0	0	0	0	0	0	0	0	0	0	0	0	0	0	0	0	0	0	0	0	0	0	0	0	0	0	0	0	0	0	0	0	0	0	0	0	0	0	0	0	0	0	0	0	0	0	0	0	0	0	0	0	0	0	0	0	0	0	0	0	0	0	0	0	0
0	0	0	0	0	0	0	0	0	0	0	0	0	0	0	0	0	0	0	0	0	0	0	0	0	0	0	0	0	0	0	0	0	0	0	0	0	0	0	0	0	0	0	0	0	0	0	0	0	0	0	0	0	0	0	0	0	0	0	0	0	0	0	0	0	0	0	0	0	0	0	0	0	0	0	0	0	0	0	0	0	0	0	0	0	0	0	0	0	0	0	0	1430	1418	1414	1406	1401	1371	1352	1299	1146	1027	990	0	0	0	0	0	0	0	0	0	0	0	0	0	0	0	0	0	0	0	0	0	0	0	0	0	0	0	0	0	0	0	0	0	0	0	0	0	0	0	0	0	0	0	0	0	0	0	0	0	0	0	0	0	0	0	0	0	0	0	0	0	0	0	0	0	0	0	0	0	0	0	0	0	0	0	0	0	0	0	0	0	0	0	0	0	0	0	0	0	0	0	0	0	0	0	0	0	0	0	0	0	0	0	0	0	0	0	0	0	0	0	665	667	668	668	0	0	0	0	0	0	0	0	0	0	0	0	0	0	0	0	0	0	0	0	0	0	0	0	0	0	0	0	0	0	0	0	0	0	0	0	0	0	0	0	0	0	0	0	0	0	0	0	0	0	0	0	0	0	0	0	0	0	0	0	0	0	0	0	0	0	0	0	0	0	0	0	0	0	0	0	0	0	0	0	0	0	0	0	0	0	0	0	0	0	0	0	0	0	0	0	0	0	0	0	0	0	0	0	0	0	0	0	0	0	0	0	0	0	0	0	0	0	0	0	0	0	0	0	0	0	0	0	0	0	0	0	0	0	0	0	0	0	0	0	0	0	0	0	0	0	0	0	0	0	0	0	0	0	0	0	0	0	0	0	0	0	0	0	0	0	0	0	0	0	0	0	0	0	0	0	0	0	0	0	0	0	0	0	0	0	0	0	0	0	0	0	0	0	0	0	0	0	0	0	0	0	0	0	0	0	0	0	0	0	0	0	0	0	0	0	0	0	0	0	0	0	0	0	0	0	0	0	0	0	0	0	0	0	0	0	0	0	0	0	0	0	0	0	0	0	0	0	0	0	0	0	0	0	0	0	573	588	592	590	582	567	552	546	551	565	576	590	605	614	612	599	562	530	528	532	536	535	537	534	533	532	534	531	531	531	525	522	523	535	543	534	519	500	495	498	497	497	498	501	505	509	515	521	521	519	521	515	502	500	503	506	509	514	520	525	516	501	486	479	481	486	492	499	501	508	515	521	516	510	505	504	506	507	507	503	497	495	505	519	528	530	522	517	515	515	518	507	0	0	0	0	0	0	0	0	0	0	0	0	0	0	0	0	0	0	0	0	0	0	0	0	0	0	0	0	0	0	0	0	0	0	0	0	0	0	0	0	0	0	0	0	0	0	0	0	0	0	0	0	0	0	0	0	0	0	0	0	0	0	0	0	0	0	0	0	0	0	0	0	0	0
