0	0	0	0	0	0	0	0	0	0	0	0	0	0	0	0	0	0	0	0	0	0	0	0	0	0	0	0	0	0	0	0	0	0	0	0	0	0	0	0	0	0	0	0	0	0	0	0	0	0	0	0	0	0	0	0	0	0	0	0	0	0	0	0	0	0	0	0	0	0	0	0	0	0	0	0	0	0	0	0	0	0	0	0	0	0	0	0	0	0	0	0	0	1464	1477	1479	1478	1472	1463	1448	1451	1466	1482	1497	1509	1510	1491	1475	1465	1461	1458	1461	1458	1448	1459	1468	1457	1455	1454	1469	1490	1495	1490	1482	1481	1472	1461	1440	1447	1446	1452	1448	1441	1463	1470	1481	1502	1511	1506	1483	1462	1459	1470	1482	1491	1492	1492	1482	1471	1450	1444	1465	1475	1480	1476	1470	1458	1459	1469	1469	1472	1461	1454	1456	1478	1479	1483	1478	1483	1467	1457	1457	1466	1469	1464	1453	1451	1452	1462	1450	1439	1434	1449	1471	1482	1483	1469	1451	1443	1440	1442	1447	1462	1463	1469	1478	1491	1489	1488	1475	1457	1466	1482	1489	1482	1472	1454	1463	1482	1478	1463	1463	1469	1477	1480	1482	1475	1461	1433	1413	1342	1254	1192	1151	1108	1101	1101	1090	1070	1056	1046	1039	1042	1051	1052	1045	1035	1018	994	986	985	983	972	976	984	991	995	1009	1039	1051	1061	1058	1048	1035	1027	1012	1005	1008	1024	1050	1062	1070	1065	1068	1083	1123	0	0	0	0	1330	1445	1469	1477	1480	1482	1488	1496	1497	1480	1463	1465	1477	1499	1518	1517	1507	1495	1497	1504	1509	1501	1501	1510	1517	1525	1521	1518	1513	1508	1506	1505	1501	1501	1505	1512	1503	1488	1470	1462	1468	1479	1492	1497	1492	1489	1494	1496	1503	1499	1504	1505	1489	1481	1487	1483	1477	1471	1474	1493	1495	1493	1480	1462	1458	1454	1442	1441	1450	1478	1496	1506	1502	1503	1483	1481	1515	1512	1475	1478	1472	1471	1463	1462	1472	1479	1486	1489	1484	1473	1465	1454	1449	1445	1450	1462	1471	1481	1483	1479	1469	1463	1464	1471	1475	1478	1488	1497	1494	1493	1477	1464	1461	1463	1466	1467	1459	1464	1469	1474	1472	1469	1477	1492	1496	1488	1489	1485	1508	1508	1499	1481	1467	0	0	0	0	0	0	0	0	0	0	0	0	1027	0	0	0	0	0	1033	1020	1013	1002	994	990	985	976	992	1018	1049	1042	1035	1033	1022	1007	1001	1006	1021	1035	0	0	0	0	0	0	0	0	0	0	0	1058	1047	1032	1037	1057	1087	1190	1284	1363	1386	1401	1384	1397	1423	1459	1468	1466	1465	1469	1478	1486	1471	1451	1434	1430	1446	1462	1474	1488	1510	1515	1505	1496	1466	1443	1427	1444	1477	1483	1477	1475	1470	1465	1462	1465	1474	1474	1480	1479	1487	1493	1490	1476	1483	1487	1486	1478	1470	1477	1486	1489	1482	1464	1470	1473	1467	1461	1453	1451	1453	1460	1460	1467	1469	1475	1477	1463	1453	1454	1459	1464	1469	1482	1483	1475	1464	1461	1462	1467	1476	1482	1485	1486	1477	1477	1469	1466	1484	1501	1499	1482	1481	1485	1496	1498	1510	1521	1533	1527	1516	1498	1484	1478	1467	1454	1452	1463	1467	1466	1465	1458	1449	1446	1448	1447	1460	1477	1481	1464	1444	1457	1468	1490	1505	1501	1484	1478	1479	1473	1466	1457	1452	1460	1474	1492	1502	1484	1455	1444	1436	1438	1441	1443	1436	1437	1446	1463	1462	1462	1464	1466	1476	1480	1478	1484	1489	1487	1477	1464	1452	1447	1452	1456	1461	1461	1456	1455	1451	1443	1437	1447	0	0	0	0	0	0	0
0	0	0	0	0	0	0	0	0	0	0	0	0	0	0	0	0	0	0	0	0	0	0	0	0	0	0	0	0	0	0	0	0	0	0	0	0	0	0	0	0	0	0	0	0	0	0	0	0	0	0	0	0	0	0	0	0	0	0	0	0	0	0	0	0	0	0	0	0	0	0	0	0	0	0	0	0	0	0	0	0	0	0	0	0	0	0	0	0	0	0	0	0	1433	1457	1464	1467	1464	1457	1444	1444	1455	1474	1485	1499	1506	1487	1480	1480	1471	1469	1481	1479	1477	1474	1468	1459	1448	1456	1475	1487	1490	1487	1476	1470	1470	1467	1455	1456	1446	1446	1444	1455	1472	1477	1487	1494	1503	1495	1479	1461	1453	1463	1475	1492	1507	1505	1491	1476	1439	1443	1456	1472	1481	1476	1469	1455	1456	1458	1461	1463	1465	1458	1467	1473	1471	1472	1467	1477	1469	1462	1467	1473	1472	1466	1457	1449	1453	1458	1454	1434	1418	1437	1466	1486	1487	1473	1454	1451	1447	1456	1456	1467	1462	1460	1479	1493	1505	1495	1483	1467	1470	1489	1494	1486	1465	1440	1469	1485	1485	1471	1454	1468	1481	1481	1478	1477	1406	1290	1208	1147	1133	1123	1108	1094	1090	1085	1076	1064	1060	1056	1058	1057	1059	1052	1045	1026	1005	988	976	970	976	981	984	985	982	988	1004	1015	1024	1048	1042	1030	1018	999	990	990	992	1009	1032	1060	1067	1063	1069	0	0	0	0	0	0	1353	1444	1467	1480	1481	1480	1475	1480	1486	1478	1470	1471	1479	1501	1518	1520	1509	1495	1490	1495	1494	1494	1493	1504	1516	1520	1518	1509	1504	1503	1509	1502	1493	1490	1498	1501	1491	1481	1469	1460	1464	1475	1482	1481	1481	1485	1492	1499	1498	1492	1495	1491	1490	1490	1490	1486	1476	1468	1472	1476	1483	1480	1473	1465	1466	1455	1444	1437	1439	1462	1494	1505	1502	1494	1472	1479	1516	1515	1483	1485	1475	1474	1461	1460	1470	1477	1488	1494	1488	1477	1470	1462	1459	1451	1461	1466	1476	1480	1480	1473	1464	1458	1459	1465	1470	1475	1479	1490	1500	1485	1468	1460	1462	1468	1472	1468	1467	1467	1475	1476	1470	1461	1467	1489	1498	1493	1483	1481	1503	1506	1499	1481	1468	0	0	0	0	0	0	0	0	0	0	0	0	0	0	0	0	0	0	0	0	995	991	985	0	0	0	0	1009	1039	1026	1022	1018	1010	999	997	1005	1016	1015	1009	1018	1032	0	0	0	0	0	0	0	0	0	1047	1027	1026	1034	1036	1045	1072	1101	1143	1230	1335	1388	1421	1463	1477	1477	1482	1486	1507	1492	1477	1461	1442	1439	1454	1462	1471	1483	1495	1499	1493	1487	1457	1435	1429	1444	1476	1496	1491	1482	1478	1472	1468	1466	1479	1488	1491	1502	1495	1506	1498	1480	1475	1483	1488	1475	1472	1471	1475	1482	1478	1472	1475	1478	1472	1464	1461	1453	1453	1457	1461	1466	1467	1466	1450	1445	1448	1452	1449	1453	1470	1484	1494	1482	1468	1461	1455	1459	1472	1478	1480	1476	1474	1474	1471	1469	1478	1487	1487	1476	1479	1493	1504	1510	1513	1526	1534	1533	1507	1485	1464	1462	1450	1444	1448	1455	1467	1468	1461	1457	1454	1459	1454	1456	1468	1478	1481	1463	1450	1449	1458	1489	1511	1507	1491	1486	1492	1488	1481	1469	1465	1465	1480	1504	1510	1495	1455	1442	1436	1438	1442	1441	1429	1430	1443	1466	1479	1479	1478	1479	1476	1476	1473	1475	1487	1481	1475	1470	1461	1457	1454	1454	1454	1454	1451	1457	1472	1466	1440	1425	0	0	0	0	0	0	0
0	0	0	0	0	0	0	0	0	0	0	0	0	0	0	0	0	0	0	0	0	0	0	0	0	0	0	0	0	0	0	0	0	0	0	0	0	0	0	0	0	0	0	0	0	0	0	0	0	0	0	0	0	0	0	0	0	0	0	0	0	0	0	0	0	0	0	0	0	0	0	0	0	0	0	0	0	0	0	0	0	0	0	0	0	0	0	0	0	0	0	0	0	1409	1433	1446	1453	1453	1450	1451	1457	1461	1466	1480	1484	1486	1466	1461	1472	1481	1480	1496	1500	1488	1471	1464	1445	1438	1456	1479	1490	1490	1484	1471	1463	1468	1468	1465	1461	1453	1450	1445	1466	1470	1468	1472	1473	1475	1482	1459	1446	1444	1453	1467	1499	1521	1521	1514	1495	1450	1448	1459	1474	1492	1485	1477	1464	1456	1452	1452	1455	1455	1461	1462	1461	1458	1461	1467	1467	1476	1475	1477	1482	1479	1472	1457	1451	1448	1464	1450	1430	1423	1436	1460	1476	1482	1470	1458	1454	1462	1463	1466	1463	1458	1453	1460	1490	1496	1493	1479	1470	1474	1493	1507	1494	1467	1445	1462	1494	1495	1471	1447	1446	1445	1403	1369	1344	1252	1174	1141	1130	0	0	0	1109	1087	1082	1073	1061	1064	1067	1070	1066	1065	1059	1043	1024	1006	984	976	969	982	995	1003	1001	992	991	1001	1011	1014	1007	998	1009	995	981	983	978	992	1009	1032	1057	1069	1073	0	0	0	0	0	0	1334	1419	1456	1470	1480	1484	1482	1470	1473	1477	1479	1474	1479	1484	1493	1507	1511	1500	1492	1488	1485	1482	1481	1489	1505	1519	1523	1514	1499	1495	1498	1504	1499	1488	1485	1485	1485	1484	1473	1469	1468	1472	1481	1483	1475	1474	1478	1490	1496	1490	1481	1478	1479	1484	1491	1494	1485	1469	1460	1464	1462	1469	1465	1460	1458	1458	1450	1443	1439	1440	1454	1483	1486	1480	1461	1448	1455	1464	1479	1481	1482	1476	1463	1454	1453	1457	1464	1487	1494	1497	1484	1476	1476	1472	1472	1474	1475	1476	1487	1481	1468	1460	1454	1462	1467	1469	1463	1461	1472	1481	1475	1465	1465	1475	1477	1471	1469	1464	1469	1472	1481	1477	1470	1480	1498	1501	1487	1476	1478	1491	1496	1493	1490	1476	1443	0	0	0	0	0	0	0	0	0	0	0	0	0	0	0	0	0	0	0	0	0	0	0	0	0	0	0	0	0	0	0	0	0	0	0	1016	1001	1001	1006	1023	0	0	0	0	0	0	0	0	0	0	1038	1040	1040	1040	1041	1049	1060	1071	1082	1147	1235	1308	1439	1452	1455	1469	1489	1505	1498	1480	1471	1463	1458	1457	1460	1468	1470	1475	1471	1469	1466	1450	1438	1439	1455	1488	1500	1503	1492	1486	1477	1469	1463	1472	1483	1498	1494	1499	1508	1504	1485	1478	1477	1484	1476	1466	1461	1471	1472	1476	1475	1474	1472	1472	1472	1467	1465	1456	1447	1450	1462	1456	1442	1438	1439	1449	1450	1442	1453	1465	1481	1490	1495	1479	1460	1452	1461	1467	1467	1475	1474	1476	1479	1475	1474	1472	1480	1473	1470	1472	1484	1499	1500	1504	1511	1516	1519	1504	1477	1464	1459	1449	1450	1453	1465	1470	1471	1458	1460	1457	1462	1459	1463	1476	1486	1486	1468	1454	1453	1470	1494	1507	1498	1497	1487	1490	1489	1484	1478	1475	1474	1482	1504	1506	1485	1455	1437	1442	1446	1450	1444	1434	1429	1448	1464	1475	1475	1480	1474	1465	1468	1469	1482	1488	1492	1473	1462	1458	1459	1457	1447	1447	1444	1461	1481	1488	1479	1453	1432	0	0	0	0	0	0	0
0	0	0	0	0	0	0	0	0	0	0	0	0	0	0	0	0	0	0	0	0	0	0	0	0	0	0	0	0	0	0	0	0	0	0	0	0	0	0	0	0	0	0	0	0	0	0	0	0	0	0	0	0	0	0	0	0	0	0	0	0	0	0	0	0	0	0	0	0	0	0	0	0	0	0	0	0	0	0	0	0	0	0	0	0	0	0	0	0	0	0	0	0	1401	1429	1431	1436	1447	1458	1464	1464	1469	1475	1478	1477	1467	1446	1445	1458	1472	1473	1473	1472	1477	1465	1452	1440	1442	1463	1481	1492	1488	1474	1477	1477	1480	1477	1467	1459	1458	1453	1463	1469	1465	1460	1450	1447	1455	1460	1452	1449	1447	1454	1463	1496	1520	1535	1531	1523	1473	1464	1473	1485	1490	1495	1485	1478	1465	1460	1453	1451	1451	1455	1448	1453	1456	1454	1466	1473	1484	1487	1495	1495	1484	1468	1454	1449	1448	1464	1456	1446	1440	1445	1455	1462	1467	1455	1453	1460	1470	1480	1479	1467	1461	1453	1466	1485	1488	1491	1483	1481	1486	1495	1499	1498	1472	1446	1437	1481	1487	1465	1438	1413	1364	1296	1250	1232	1200	1160	1134	0	0	0	0	0	1082	1075	1069	1057	1059	1063	1063	1069	1068	1066	1049	1029	1012	995	986	986	999	1009	1020	1026	1024	1024	1015	1009	997	993	0	0	0	977	977	988	1004	1021	1046	1068	0	0	0	0	0	0	0	1306	1398	1439	1468	1465	1469	1470	1456	1454	1462	1463	1475	1490	1497	1496	1492	1481	1477	1473	1477	1491	1496	1501	1494	1493	1496	1506	1514	1506	1493	1484	1482	1483	1481	1482	1485	1483	1478	1479	1489	1496	1513	1521	1525	1499	1493	1490	1490	1481	1479	1478	1467	1466	1472	1494	1504	1502	1490	1467	1462	1465	1468	1464	1471	1470	1471	1468	1459	1453	1455	1464	1473	1484	1482	1478	1468	1467	1461	1464	1478	1491	1497	1488	1476	1462	1453	1452	1458	1486	1502	1501	1484	1475	1476	1476	1480	1483	1482	1483	1483	1489	1470	1461	1459	1466	1471	1463	1453	1439	1447	1451	1455	1469	1482	1487	1489	1472	1466	1459	1470	1487	1489	1488	1485	1476	1484	1482	1478	1469	1465	1473	1490	1498	1500	1503	1458	0	0	0	0	0	0	0	0	0	0	0	0	0	0	0	0	0	0	0	0	0	0	0	0	0	0	0	0	0	0	0	0	0	0	0	0	0	0	0	0	0	0	0	0	0	0	0	0	0	0	0	1037	1044	1041	1041	1040	1037	1030	1030	1041	1057	1085	1191	1354	1372	1455	1466	1473	1482	1480	1477	1475	1475	1465	1456	1450	1443	1450	1449	1453	1461	1459	1451	1455	1470	1491	1507	1510	1501	1495	1485	1474	1465	1471	1475	1472	1487	1493	1492	1491	1476	1473	1480	1483	1485	1471	1461	1457	1460	1476	1490	1475	1469	1465	1465	1464	1472	1461	1464	1466	1465	1461	1443	1429	1433	1448	1455	1450	1456	1459	1469	1490	1500	1499	1483	1473	1472	1470	1467	1468	1469	1478	1483	1480	1481	1482	1483	1471	1469	1471	1480	1491	1489	1487	1490	1502	1498	1487	1477	1468	1460	1455	1461	1460	1458	1459	1463	1466	1467	1464	1470	1464	1468	1476	1485	1493	1479	1467	1466	1483	1507	1510	1505	1493	1484	1481	1482	1482	1481	1475	1469	1473	1491	1494	1480	1459	1443	1447	1451	1450	1448	1439	1435	1445	1462	1472	1472	1469	1463	1455	1451	1461	1480	1491	1490	1453	1445	1447	1451	1453	1449	1449	1449	1459	1485	1490	1473	1461	1441	0	0	0	0	0	0	0
0	0	0	0	0	0	0	0	0	0	0	0	0	0	0	0	0	0	0	0	0	0	0	0	0	0	0	0	0	0	0	0	0	0	0	0	0	0	0	0	0	0	0	0	0	0	0	0	0	0	0	0	0	0	0	0	0	0	0	0	0	0	0	0	0	0	0	0	0	0	0	0	0	0	0	0	0	0	0	0	0	0	0	0	0	0	0	0	0	0	0	0	0	1409	1436	1448	1445	1449	1466	1482	1484	1478	1470	1468	1477	1470	1446	1454	1470	1474	1468	1457	1459	1456	1457	1447	1449	1462	1477	1475	1482	1487	1494	1500	1513	1494	1478	1458	1448	1454	1465	1477	1480	1476	1467	1459	1461	1463	1462	1463	1459	1452	1455	1459	1486	1505	1526	1526	1523	1488	1487	1490	1490	1492	1490	1490	1480	1473	1463	1457	1455	1461	1452	1447	1451	1459	1462	1470	1484	1488	1489	1492	1494	1481	1466	1449	1445	1446	1460	1464	1465	1465	1457	1461	1457	1455	1450	1447	1452	1469	1486	1488	1478	1469	1472	1471	1485	1471	1475	1484	1484	1486	1491	1494	1489	1478	1452	1439	1474	1443	1385	1341	1312	1272	1242	1233	1221	1202	1170	0	0	0	0	0	0	1068	1066	1067	1055	1049	1046	1045	1050	1057	1051	1044	1024	1004	1003	998	1000	1002	1009	1015	1020	1022	1018	1007	997	984	0	0	0	0	0	0	0	0	0	0	0	0	0	0	0	0	0	1282	1393	1456	1472	1468	1452	1456	1451	1450	1454	1460	1461	1471	1484	1492	1494	1488	1476	1476	1476	1481	1492	1502	1502	1503	1505	1505	1507	1508	1502	1501	1494	1500	1494	1484	1481	1482	1482	1480	1483	1492	1499	1513	1531	1527	1509	1501	1502	1494	1489	1476	1468	1467	1460	1470	1499	1508	1508	1497	1483	1473	1474	1473	1478	1471	1476	1483	1481	1477	1473	1475	1480	1483	1484	1483	1484	1478	1472	1464	1469	1488	1493	1491	1482	1476	1465	1459	1463	1480	1480	1485	1487	1472	1470	1471	1474	1477	1477	1485	1492	1497	1506	1511	1495	1486	1480	1478	1463	1449	1434	1434	1441	1452	1475	1491	1500	1494	1470	1472	1472	1485	1495	1494	1487	1477	1476	1480	1481	1473	1471	1452	1465	1479	1502	1521	1509	1496	1449	0	0	0	0	0	0	0	0	0	0	0	0	0	0	963	933	923	924	924	925	927	938	946	950	956	963	960	949	954	0	0	0	0	0	0	0	0	0	0	0	0	0	0	0	0	0	0	0	0	1020	1008	1022	1028	1020	1018	1010	1000	1002	1009	1021	1042	1063	1102	1184	1406	1428	1451	1470	1475	1476	1475	1468	1457	1442	1435	1436	1435	1436	1444	1459	1462	1470	1472	1488	1502	1508	1516	1510	1501	1493	1479	1478	1486	1487	1470	1471	1485	1485	1478	1469	1471	1481	1496	1500	1484	1465	1461	1466	1474	1493	1478	1467	1458	1457	1464	1462	1475	1478	1482	1482	1472	1451	1438	1442	1468	1462	1453	1452	1451	1458	1480	1507	1511	1503	1489	1484	1483	1472	1465	1468	1478	1480	1486	1488	1490	1496	1488	1478	1474	1480	1488	1486	1484	1479	1472	1476	1472	1473	1469	1462	1462	1461	1459	1449	1454	1454	1459	1460	1466	1468	1460	1464	1472	1491	1495	1487	1482	1485	1504	1518	1518	1509	1496	1482	1470	1469	1476	1475	1475	1471	1474	1485	1496	1479	1468	1457	1456	1454	1444	1439	1437	1442	1452	1458	1463	1463	1456	1454	1448	1449	1450	1465	1483	1479	1454	1448	1443	1448	1449	1446	1446	1442	1453	1469	1471	1470	1459	1445	0	0	0	0	0	0	0
0	0	0	0	0	0	0	0	0	0	0	0	0	0	0	0	0	0	0	0	0	0	0	0	0	0	0	0	0	0	0	0	0	0	0	0	0	0	0	0	0	0	0	0	0	0	0	0	0	0	0	0	0	0	0	0	0	0	0	0	0	0	0	0	0	0	0	0	0	0	0	0	0	0	0	0	0	0	0	0	0	0	0	0	0	0	0	0	0	0	0	0	0	1426	1445	1449	1445	1453	1466	1485	1484	1484	1482	1478	1490	1488	1469	1466	1472	1469	1464	1458	1463	1468	1466	1461	1463	1473	1493	1487	1483	1479	1487	1490	1491	1480	1462	1447	1441	1447	1454	1453	1460	1466	1475	1476	1483	1484	1467	1459	1455	1456	1468	1470	1469	1469	1480	1483	1476	1484	1486	1492	1490	1479	1473	1467	1458	1460	1457	1467	1464	1470	1472	1465	1470	1467	1470	1467	1476	1472	1479	1484	1477	1470	1458	1450	1441	1442	1459	1471	1478	1494	1486	1473	1463	1460	1448	1443	1442	1455	1481	1488	1479	1470	1472	1465	1453	1458	1465	1484	1484	1480	1476	1478	1482	1474	1452	1434	1326	1276	1274	1272	1255	1237	1215	1201	1195	1180	1162	0	0	0	0	0	1051	1052	1056	1053	1049	1034	1028	1008	1006	1014	1023	1019	1010	990	997	994	999	997	998	1003	1006	1007	1007	992	978	966	0	0	0	0	0	0	0	0	0	0	0	0	0	0	0	0	1289	1398	1446	1472	1472	1463	1460	1451	1451	1457	1466	1469	1469	1467	1484	1491	1486	1478	1473	1466	1480	1498	1508	1512	1516	1510	1512	1511	1503	1497	1494	1499	1508	1512	1502	1488	1478	1474	1474	1484	1492	1501	1495	1503	1521	1535	1527	1508	1504	1501	1492	1483	1464	1468	1468	1475	1488	1500	1504	1503	1490	1487	1484	1486	1482	1489	1493	1490	1490	1480	1481	1484	1490	1490	1481	1485	1487	1485	1479	1477	1489	1496	1498	1490	1479	1468	1457	1456	1470	1478	1481	1481	1477	1467	1463	1464	1468	1470	1473	1474	1491	1505	1516	1522	1517	1497	1487	1484	1467	1451	1439	1441	1444	1453	1468	1485	1495	1489	1480	1480	1489	1498	1497	1493	1481	1471	1474	1472	1487	1491	1466	1453	1456	1466	1498	1514	1506	1501	1483	1445	0	0	0	0	0	0	0	0	0	0	0	0	0	0	0	893	890	896	904	919	925	929	933	936	955	956	944	939	931	926	923	930	928	927	915	911	921	948	974	977	957	951	0	0	0	942	953	962	967	952	950	975	981	977	977	976	976	976	986	1004	1022	1030	1045	1122	1340	1415	1437	1454	1467	1464	1448	1438	1432	1425	1430	1438	1438	1441	1459	1478	1490	1497	1500	1510	1509	1505	1511	1504	1499	1495	1501	1489	1494	1470	1477	1490	1485	1481	1471	1470	1481	1499	1506	1492	1476	1467	1465	1480	1493	1484	1469	1466	1466	1462	1475	1483	1490	1500	1498	1486	1472	1476	1495	1492	1461	1453	1451	1447	1452	1465	1484	1487	1480	1480	1483	1489	1490	1480	1475	1470	1471	1476	1476	1488	1492	1493	1481	1476	1481	1486	1486	1477	1466	1446	1441	1449	1460	1470	1478	1502	1504	1488	1472	1460	1452	1438	1426	1448	1458	1458	1461	1473	1486	1495	1496	1499	1513	1533	1534	1527	1508	1499	1490	1476	1473	1477	1481	1477	1472	1475	1488	1492	1484	1477	1476	1472	1459	1440	1433	1433	1441	1451	1450	1450	1454	1451	1452	1447	1446	1449	1460	1474	1472	1466	1452	1445	1448	1445	1442	1442	1441	1439	1437	1450	1459	1457	1462	0	0	0	0	0	0	0
0	0	0	0	0	0	0	0	0	0	0	0	0	0	0	0	0	0	0	0	0	0	0	0	0	0	0	0	0	0	0	0	0	0	0	0	0	0	0	0	0	0	0	0	0	0	0	0	0	0	0	0	0	0	0	0	0	0	0	0	0	0	0	0	0	0	0	0	0	0	0	0	0	0	0	0	0	0	0	0	0	0	0	0	0	0	0	0	0	0	0	0	0	1415	1426	1432	1441	1456	1468	1487	1490	1497	1489	1494	1503	1494	1495	1480	1470	1466	1456	1466	1473	1476	1476	1467	1468	1482	1498	1496	1481	1472	1476	1484	1483	1471	1460	1442	1438	1439	1443	1437	1434	1446	1468	1486	1492	1483	1463	1449	1442	1461	1478	1481	1467	1461	1457	1450	1452	1451	1460	1477	1479	1461	1443	1422	1445	1450	1462	1471	1475	1476	1478	1470	1475	1472	1455	1453	1455	1454	1463	1468	1465	1464	1453	1441	1441	1442	1464	1474	1485	1491	1488	1488	1479	1472	1459	1447	1453	1463	1478	1482	1477	1473	1470	1469	1460	1462	1466	1475	1472	1464	1455	1447	1428	1387	1239	1216	1197	1200	1211	1205	1203	1184	1173	1155	1144	1144	1144	0	0	0	0	1036	1023	1021	1032	1037	1020	1008	980	952	942	955	964	967	957	960	975	981	982	986	991	989	987	983	988	976	958	952	959	0	0	0	0	0	0	0	0	0	0	0	0	0	0	0	1336	1410	1450	1456	1460	1450	1463	1467	1472	1478	1474	1484	1490	1483	1488	1491	1481	1470	1454	1453	1446	1455	1477	1505	1508	1515	1518	1510	1499	1486	1484	1492	1509	1514	1504	1495	1478	1475	1477	1487	1501	1438	1450	1487	1517	1547	1514	1502	1500	1497	1495	1481	1474	1458	1456	1473	1474	1483	1494	1495	1494	1492	1490	1490	1494	1500	1504	1499	1486	1484	1484	1488	1481	1477	1480	1484	1493	1495	1498	1500	1502	1501	1499	1486	1476	1464	1462	1458	1470	1482	1483	1481	1471	1462	1449	1447	1463	1464	1457	1468	1487	1505	1515	1522	1517	1501	1488	1471	1468	1455	1452	1453	1456	1463	1456	1469	1469	1469	1472	1481	1492	1498	1493	1485	1479	1473	1477	1482	1500	1500	1477	1464	1453	1451	1465	1492	1495	1492	1481	1468	1452	0	0	0	0	0	0	0	0	0	0	0	0	0	0	0	872	872	890	903	916	915	916	934	953	963	957	940	924	909	903	897	905	909	906	902	910	931	952	945	941	935	932	927	922	918	931	942	941	930	921	912	915	931	944	943	943	945	953	962	976	990	1020	1033	1045	1175	1265	1378	1408	1427	1429	1427	1426	1430	1432	1439	1450	1461	1465	1483	1502	1509	1514	1513	1502	1497	1509	1523	1521	1514	1497	1486	1487	1477	1482	1492	1498	1486	1477	1476	1486	1494	1504	1492	1478	1470	1466	1472	1497	1486	1477	1474	1473	1468	1472	1487	1499	1503	1504	1499	1507	1515	1508	1495	1456	1446	1453	1454	1449	1456	1472	1475	1467	1465	1467	1464	1480	1476	1469	1462	1459	1460	1470	1479	1489	1478	1475	1474	1484	1485	1485	1464	1450	1439	1428	1430	1453	1482	1506	1516	1520	1504	1485	1464	1447	1433	1422	1414	1424	1447	1474	1502	1505	1499	1501	1510	1532	1549	1552	1537	1523	1509	1499	1495	1493	1480	1490	1482	1481	1486	1489	1487	1480	1472	1476	1473	1459	1438	1431	1432	1439	1443	1441	1441	1441	1444	1450	1446	1446	1445	1458	1466	1470	1461	1448	1439	1446	1445	1446	1446	1437	1431	1431	1436	1440	1458	1461	0	0	0	0	0	0	0
0	0	0	0	0	0	0	0	0	0	0	0	0	0	0	0	0	0	0	0	0	0	0	0	0	0	0	0	0	0	0	0	0	0	0	0	0	0	0	0	0	0	0	0	0	0	0	0	0	0	0	0	0	0	0	0	0	0	0	0	0	0	0	0	0	0	0	0	0	0	0	0	0	0	0	0	0	0	0	0	0	0	0	0	0	0	0	0	0	0	0	0	0	1426	1425	1424	1442	1451	1470	1477	1485	1489	1498	1504	1505	1503	1493	1477	1472	1458	1461	1471	1478	1476	1465	1461	1470	1479	1494	1486	1478	1472	1470	1472	1471	1470	1464	1454	1443	1444	1432	1427	1433	1442	1456	1474	1478	1475	1459	1450	1454	1471	1482	1475	1459	1445	1445	1443	1447	1439	1462	1474	1476	1464	1431	1409	1409	1425	1446	1455	1451	1456	1459	1456	1464	1453	1440	1437	1427	1440	1448	1458	1457	1451	1451	1455	1456	1465	1477	1480	1471	1464	1466	1474	1480	1478	1466	1451	1450	1455	1466	1474	1474	1472	1467	1459	1450	1439	1453	1453	1445	1422	1392	1298	1220	1132	1095	1106	1124	1135	1137	1141	1134	1122	1110	1101	1087	1090	1113	1116	0	0	1047	1020	995	994	1007	1015	1002	975	946	922	913	920	929	937	943	949	960	970	972	980	986	978	969	966	969	960	949	944	953	0	0	0	0	0	0	0	0	0	0	0	0	0	0	1336	1378	1424	1462	1458	1455	1458	1467	1480	1488	1493	1496	1498	1498	1498	1498	1498	1489	1473	1446	1440	1446	1446	1462	1473	1500	1514	1515	1508	1494	1483	1479	1488	1499	1506	1507	1501	1501	1497	1493	1480	1446	1464	1490	1512	1516	1522	1505	1484	1493	1500	1501	1500	1482	1467	1476	1482	1473	1469	1475	1479	1481	1479	1488	1500	1504	1515	1512	1493	1485	1484	1488	1493	1486	1482	1475	1479	1487	1496	1504	1506	1505	1491	1497	1501	1494	1468	1462	1462	1467	1479	1481	1478	1464	1451	1446	1445	1446	1452	1458	1467	1494	1505	1516	1516	1511	1502	1491	1480	1468	1461	1465	1475	1476	1461	1449	1445	1443	1445	1459	1476	1497	1491	1488	1479	1480	1481	1485	1499	1510	1504	1490	1477	1461	1453	1459	1477	1479	1478	1477	1474	1457	0	0	0	0	0	0	0	0	0	0	0	0	0	0	0	866	867	878	889	897	895	902	932	950	952	951	934	917	901	890	878	888	896	899	898	894	914	931	927	923	923	923	924	911	904	911	924	931	927	914	903	896	903	916	920	919	918	921	932	938	944	978	991	996	988	991	1033	1137	1300	1393	1404	1413	1417	1426	1439	1463	1480	1470	1482	1490	1504	1504	1505	1496	1497	1512	1530	1531	1520	1494	1478	1469	1473	1485	1490	1490	1495	1488	1486	1489	1491	1497	1492	1484	1470	1456	1459	1488	1494	1488	1478	1463	1464	1468	1475	1484	1487	1486	1491	1500	1504	1497	1475	1454	1454	1452	1444	1443	1447	1467	1471	1473	1450	1439	1442	1452	1462	1453	1446	1443	1453	1467	1482	1488	1476	1472	1475	1487	1482	1477	1454	1441	1426	1422	1433	1451	1485	1505	1518	1514	1500	1486	1466	1454	1441	1416	1412	1422	1444	1478	1514	1520	1509	1506	1511	1523	1529	1516	1517	1510	1501	1508	1514	1510	1507	1494	1486	1483	1489	1490	1493	1478	1463	1466	1463	1464	1461	1445	1432	1440	1435	1429	1429	1432	1433	1435	1435	1434	1444	1454	1464	1461	1445	1426	1428	1435	1444	1443	1443	1442	1430	1426	1426	1434	1452	1462	0	0	0	0	0	0	0
0	0	0	0	0	0	0	0	0	0	0	0	0	0	0	0	0	0	0	0	0	0	0	0	0	0	0	0	0	0	0	0	0	0	0	0	0	0	0	0	0	0	0	0	0	0	0	0	0	0	0	0	0	0	0	0	0	0	0	0	0	0	0	0	0	0	0	0	0	0	0	0	0	0	0	0	0	0	0	0	0	0	0	0	0	0	0	0	0	0	0	0	0	1457	1442	1448	1454	1464	1467	1467	1467	1474	1489	1504	1504	1487	1479	1469	1468	1466	1509	1488	1469	1452	1449	1453	1459	1468	1478	1480	1481	1475	1469	1464	1461	1467	1472	1473	1466	1461	1442	1435	1441	1443	1449	1457	1463	1464	1456	1463	1470	1482	1483	1467	1452	1446	1449	1459	1461	1447	1467	1475	1478	1460	1428	1400	1398	1416	1433	1445	1454	1455	1453	1451	1453	1448	1446	1439	1425	1434	1444	1447	1450	1445	1451	1462	1470	1473	1483	1471	1432	1427	1446	1458	1469	1472	1468	1450	1456	1456	1469	1472	1470	1467	1461	1442	1426	1414	1414	1392	1275	1211	1125	1078	1068	1058	1059	1059	1081	1089	1095	1099	1098	1090	1072	1054	1037	1057	1078	1098	1089	1067	1032	1000	968	957	990	999	993	964	936	915	913	920	926	927	938	952	962	960	969	978	974	971	954	943	946	950	942	946	0	0	0	0	0	0	0	0	0	0	0	0	1359	1403	1358	1401	1416	1442	1456	1487	1467	1467	1476	1485	1497	1497	1494	1492	1491	1498	1501	1502	1506	1481	1474	1474	1464	1446	1451	1483	1501	1514	1510	1504	1495	1486	1489	1489	1492	1496	1504	1513	1517	1518	1505	1463	1481	1500	1516	1512	1503	1482	1454	1440	1479	1500	1501	1500	1489	1476	1490	1490	1482	1473	1473	1475	1478	1482	1494	1505	1510	1516	1513	1493	1486	1475	1488	1496	1485	1468	1466	1477	1493	1511	1509	1498	1495	1492	1507	1515	1521	1492	1474	1467	1467	1472	1475	1465	1455	1452	1445	1451	1456	1458	1462	1474	1492	1503	1507	1504	1502	1499	1493	1482	1480	1477	1479	1487	1479	1455	1441	1430	1436	1436	1451	1475	1493	1496	1496	1490	1487	1484	1486	1495	1504	1505	1495	1482	1468	1460	1466	1473	1477	1479	1485	1490	1474	1470	0	0	0	0	0	0	0	0	0	0	0	0	0	0	889	870	872	878	879	882	895	923	928	934	932	925	920	900	886	875	876	886	889	887	891	896	904	893	901	912	916	918	910	892	895	906	912	916	915	903	894	894	895	900	901	904	904	909	911	917	944	951	952	939	938	947	960	994	1054	1279	1373	1378	1400	1432	1463	1479	1468	1469	1475	1486	1492	1495	1495	1499	1512	1521	1520	1505	1489	1469	1455	1463	1478	1472	1487	1491	1484	1486	1493	1499	1500	1506	1498	1487	1480	1464	1499	1494	1485	1472	1472	1469	1474	1479	1485	1479	1466	1477	1488	1495	1488	1470	1451	1451	1453	1449	1444	1452	1464	1480	1473	1447	1430	1420	1434	1443	1440	1438	1433	1446	1467	1488	1497	1472	1474	1486	1488	1478	1464	1452	1439	1426	1424	1439	1461	1490	1505	1506	1499	1488	1481	1477	1475	1462	1433	1432	1434	1455	1489	1511	1520	1513	1512	1515	1511	1509	1495	1496	1496	1495	1499	1503	1511	1501	1492	1486	1490	1503	1511	1508	1485	1470	1458	1450	1456	1463	1447	1435	1436	1432	1424	1424	1423	1429	1431	1428	1433	1446	1457	1461	1448	1426	1411	1419	1431	1440	1447	1447	1449	1437	1432	1434	1438	1453	1462	0	0	0	0	0	0	0
0	0	0	0	0	0	0	0	0	0	0	0	0	0	0	0	0	0	0	0	0	0	0	0	0	0	0	0	0	0	0	0	0	0	0	0	0	0	0	0	0	0	0	0	0	0	0	0	0	0	0	0	0	0	0	0	0	0	0	0	0	0	0	0	0	0	0	0	0	0	0	0	0	0	0	0	0	0	0	0	0	0	0	0	0	0	0	0	0	0	0	0	0	1478	1463	1474	1489	1504	1485	1457	1451	1463	1485	1492	1498	1479	1461	1455	1463	1494	1514	1501	1445	1447	1443	1449	1453	1454	1468	1479	1483	1482	1474	1475	1475	1483	1484	1477	1469	1462	1455	1452	1454	1449	1457	1456	1458	1461	1460	1462	1474	1489	1488	1467	1446	1441	1447	1462	1466	1460	1471	1480	1474	1445	1417	1397	1395	1410	1431	1447	1466	1474	1463	1454	1445	1455	1456	1448	1437	1437	1450	1450	1436	1441	1450	1468	1474	1480	1479	1461	1441	1422	1445	1461	1465	1469	1463	1458	1460	1471	1476	1471	1472	1459	1449	1423	1396	1378	1354	1168	1113	1093	1072	1063	1058	1049	1046	1050	1063	1076	1081	1093	1091	1073	1051	1030	1027	1046	1069	1082	1074	1049	1009	973	945	943	974	990	989	969	946	938	940	949	947	935	933	946	951	962	969	974	974	956	939	930	932	955	958	0	0	0	0	0	0	0	0	0	0	0	0	1421	1437	1446	1433	1429	1451	1469	1472	1499	1484	1477	1476	1480	1491	1490	1480	1481	1482	1488	1498	1502	1521	1502	1505	1488	1475	1478	1472	1487	1500	1513	1511	1503	1500	1504	1503	1498	1489	1493	1508	1524	1533	1535	1526	1514	1473	1528	1532	1507	1491	1481	1449	1447	1483	1494	1490	1495	1493	1489	1490	1493	1481	1467	1465	1471	1479	1490	1507	1501	1501	1515	1514	1507	1496	1483	1497	1493	1481	1463	1462	1472	1490	1504	1500	1489	1477	1479	1486	1513	1522	1503	1489	1484	1473	1476	1468	1460	1448	1447	1459	1472	1477	1479	1478	1483	1489	1497	1496	1498	1494	1497	1495	1493	1488	1494	1494	1493	1475	1453	1450	1445	1446	1445	1458	1486	1505	1511	1500	1499	1490	1488	1485	1485	1482	1495	1496	1488	1481	1478	1480	1484	1487	1486	1495	1497	1502	1487	0	0	0	0	0	0	0	0	0	0	0	0	0	0	936	888	872	861	853	863	880	902	899	892	896	908	914	902	885	874	876	881	887	885	887	891	893	890	884	891	898	897	890	884	880	885	894	900	901	896	887	886	886	887	892	896	899	900	896	894	921	925	923	909	900	906	920	948	975	1004	1205	1295	1343	1387	1435	1467	1455	1449	1465	1474	1483	1496	1497	1502	1499	1504	1504	1488	1472	1456	1444	1458	1472	1483	1486	1481	1481	1485	1492	1501	1510	1510	1510	1505	1481	1479	1493	1482	1470	1480	1480	1485	1484	1486	1473	1456	1454	1467	1479	1484	1481	1470	1448	1455	1455	1459	1464	1463	1473	1481	1469	1448	1429	1428	1436	1447	1452	1459	1457	1464	1477	1489	1490	1485	1488	1486	1484	1475	1464	1456	1444	1438	1435	1448	1470	1494	1500	1501	1490	1477	1475	1480	1483	1482	1471	1464	1463	1476	1489	1505	1517	1525	1515	1507	1492	1484	1480	1481	1485	1489	1486	1484	1489	1486	1480	1485	1489	1500	1495	1502	1485	1464	1455	1435	1420	1414	1421	1436	1433	1426	1417	1417	1426	1436	1434	1437	1437	1446	1466	1465	1451	1429	1426	1425	1436	1450	1450	1460	1456	1456	1455	1448	1449	1464	0	0	0	0	0	0	0	0
0	0	0	0	0	0	0	0	0	0	0	0	0	0	0	0	0	0	0	0	0	0	0	0	0	0	0	0	0	0	0	0	0	0	0	0	0	0	0	0	0	0	0	0	0	0	0	0	0	0	0	0	0	0	0	0	0	0	0	0	0	0	0	0	0	0	0	0	0	0	0	0	0	0	0	0	0	0	0	0	0	0	0	0	0	0	0	0	0	0	0	0	0	1467	1461	1472	1485	1496	1487	1460	1446	1461	1478	1481	1487	1472	1461	1453	1452	1467	1467	1419	1422	1445	1456	1450	1450	1452	1467	1480	1483	1478	1474	1478	1479	1483	1489	1480	1463	1449	1440	1456	1459	1463	1466	1464	1463	1459	1457	1455	1471	1486	1487	1475	1447	1442	1442	1450	1460	1461	1469	1476	1469	1449	1417	1404	1407	1423	1437	1458	1478	1484	1466	1453	1441	1447	1452	1455	1458	1480	1478	1467	1463	1468	1477	1482	1489	1487	1481	1452	1442	1441	1442	1465	1460	1460	1458	1458	1465	1472	1466	1458	1458	1449	1386	1284	1235	1196	1133	1106	1093	1082	1066	1062	1054	1053	1059	1066	1081	1094	1095	1103	1093	1068	1049	1033	1038	1051	1068	1071	1058	1036	996	956	939	932	969	988	0	0	0	0	0	0	0	0	935	930	945	959	974	987	981	967	958	949	953	963	0	0	0	0	0	0	0	0	0	0	0	0	1447	1468	1471	1461	1453	1471	1493	1506	1484	1500	1485	1478	1471	1473	1474	1471	1472	1467	1469	1478	1487	1489	1497	1507	1517	1526	1506	1498	1500	1475	1482	1505	1507	1513	1509	1513	1510	1496	1488	1486	1504	1520	1527	1526	1532	1531	1526	1519	1512	1505	1495	1477	1464	1462	1479	1485	1482	1488	1491	1486	1486	1488	1476	1462	1453	1463	1471	1475	1486	1495	1496	1510	1517	1509	1497	1488	1492	1487	1474	1465	1461	1469	1486	1493	1490	1482	1470	1472	1478	1499	1511	1504	1501	1496	1484	1479	1470	1467	1456	1462	1480	1489	1486	1483	1490	1491	1494	1490	1492	1483	1492	1497	1492	1495	1498	1506	1509	1499	1484	1462	1455	1456	1451	1457	1471	1489	1512	1516	1511	1509	1499	1485	1479	1471	1477	1485	1490	1493	1494	1492	1490	1496	1496	1493	1497	1510	1525	1520	1514	1484	0	0	0	0	0	0	0	0	0	0	0	0	0	905	877	855	835	811	823	854	845	848	866	888	901	900	888	878	875	876	881	880	892	891	891	879	867	859	866	866	870	870	868	865	869	875	878	870	868	867	879	886	891	894	894	886	884	882	902	912	908	900	897	894	905	921	936	949	969	1064	1188	1268	1367	1455	1442	1444	1456	1479	1493	1507	1513	1504	1501	1495	1489	1477	1458	1446	1448	1464	1479	1485	1471	1469	1470	1478	1491	1493	1501	1500	1497	1485	1483	1482	1495	1481	1471	1472	1496	1497	1492	1483	1454	1437	1438	1462	1472	1492	1496	1489	1461	1460	1467	1470	1477	1480	1474	1486	1463	1446	1436	1436	1456	1470	1477	1478	1482	1487	1485	1488	1481	1489	1497	1501	1493	1484	1477	1473	1462	1454	1453	1459	1471	1487	1499	1492	1492	1475	1472	1473	1482	1495	1495	1487	1481	1480	1485	1504	1522	1523	1515	1494	1480	1467	1468	1474	1480	1485	1475	1466	1470	1469	1469	1468	1465	1464	1459	1459	1448	1446	1448	1439	1417	1409	1418	1432	1431	1424	1424	1415	1426	1445	1457	1464	1445	1451	1464	1462	1460	1456	1452	1452	1451	1461	1461	1466	1463	1466	1466	1457	1457	1480	0	0	0	0	0	0	0	0
0	0	0	0	0	0	0	0	0	0	0	0	0	0	0	0	0	0	0	0	0	0	0	0	0	0	0	0	0	0	0	0	0	0	0	0	0	0	0	0	0	0	0	0	0	0	0	0	0	0	0	0	0	0	0	0	0	0	0	0	0	0	0	0	0	0	0	0	0	0	0	0	0	0	0	0	0	0	0	0	0	0	0	0	0	0	0	0	0	0	0	0	0	1460	1454	1460	1466	1470	1465	1458	1448	1457	1464	1471	1478	1476	1463	1448	1446	1442	1416	1407	1411	1442	1459	1469	1459	1458	1468	1480	1483	1477	1472	1476	1484	1490	1487	1464	1448	1438	1436	1444	1464	1463	1467	1469	1468	1460	1451	1455	1466	1482	1486	1473	1455	1444	1437	1440	1445	1465	1464	1463	1460	1447	1425	1425	1425	1429	1441	1460	1474	1479	1463	1452	1441	1446	1454	1468	1488	1496	1497	1488	1475	1481	1480	1480	1482	1487	1489	1468	1448	1446	1456	1458	1458	1447	1447	1443	1452	1452	1446	1427	1408	1377	1195	1145	1114	1102	1107	1107	1103	1089	1074	1060	1057	1058	1071	1086	1117	1116	1106	1107	1094	1074	1058	1058	1064	0	0	1071	0	0	0	0	952	949	0	0	0	0	0	0	0	0	0	0	0	0	0	0	0	0	0	0	0	0	0	0	0	0	0	0	0	0	0	0	0	0	0	1417	1455	1479	1479	1486	1486	1502	1509	1518	1524	1511	1494	1483	1474	1471	1466	1458	1459	1457	1462	1464	1474	1475	1478	1483	1502	1519	1532	1498	1499	1468	1476	1483	1496	1500	1514	1520	1514	1493	1479	1486	1501	1515	1515	1508	1507	1510	1515	1512	1507	1493	1495	1494	1486	1493	1480	1470	1468	1475	1481	1484	1485	1484	1472	1462	1448	1451	1448	1456	1467	1484	1491	1512	1515	1502	1490	1479	1477	1471	1467	1472	1474	1480	1480	1486	1480	1470	1465	1469	1479	1488	1496	1498	1500	1501	1489	1482	1476	1481	1488	1492	1496	1509	1500	1492	1485	1484	1482	1487	1481	1480	1486	1496	1501	1503	1511	1515	1519	1516	1499	1489	1475	1460	1452	1465	1479	1489	1501	1497	1497	1498	1495	1487	1476	1469	1466	1481	1496	1504	1506	1487	1484	1490	1501	1505	1508	1521	1531	1522	1510	1495	1495	0	0	0	0	0	0	0	0	0	0	0	0	0	877	853	830	805	817	831	830	830	845	864	880	882	882	875	875	874	877	883	884	889	873	857	842	831	831	842	860	852	850	849	852	857	855	857	861	860	869	885	891	888	884	876	873	883	894	896	896	893	893	896	901	908	915	924	935	967	997	1028	1073	1364	1403	1419	1447	1480	1504	1523	1517	1510	1505	1502	1502	1482	1465	1454	1479	1482	1485	1468	1465	1465	1466	1473	1474	1473	1473	1481	1475	1465	1463	1484	1483	1484	1470	1487	1500	1506	1493	1479	1448	1426	1427	1452	1489	1507	1515	1513	1483	1476	1482	1487	1489	1493	1488	1480	1456	1438	1431	1436	1476	1484	1484	1487	1491	1491	1484	1471	1475	1494	1519	1523	1513	1504	1499	1491	1483	1477	1465	1460	1461	1471	1485	1493	1492	1475	1469	1470	1485	1488	1493	1486	1471	1468	1470	1489	1509	1511	1503	1480	1466	1462	1462	1468	1472	1471	1469	1467	1469	1474	1464	1457	1440	1437	1447	1452	1445	1450	1457	1451	1433	1408	1419	1426	1423	1411	1411	1412	1417	1441	1472	1467	1457	1449	1459	1466	1469	1473	1479	1478	1469	1460	1460	1464	1463	1466	1471	1460	1451	1466	0	0	0	0	0	0	0	0
0	0	0	0	0	0	0	0	0	0	0	0	0	0	0	0	0	0	0	0	0	0	0	0	0	0	0	0	0	0	0	0	0	0	0	0	0	0	0	0	0	0	0	0	0	0	0	0	0	0	0	0	0	0	0	0	0	0	0	0	0	0	0	0	0	0	0	0	0	0	0	0	0	0	0	0	0	0	0	0	0	0	0	0	0	0	0	0	0	0	0	0	0	1446	1443	1449	1452	1459	1456	1455	1442	1438	1447	1458	1471	1476	1465	1458	1451	1456	1438	1416	1415	1439	1461	1475	1477	1470	1474	1475	1479	1470	1469	1476	1484	1499	1491	1475	1456	1434	1427	1437	1459	1461	1460	1463	1462	1465	1460	1470	1483	1491	1490	1483	1467	1449	1439	1430	1440	1456	1466	1458	1450	1443	1447	1446	1443	1435	1442	1454	1465	1471	1458	1449	1448	1455	1459	1479	1505	1510	1507	1489	1481	1483	1480	1477	1479	1484	1487	1473	1464	1460	1454	1452	1453	1437	1432	1429	1427	1428	1408	1384	1345	1252	1126	1093	1089	1098	1114	1114	1111	1107	1095	1079	1072	1076	1097	1137	1158	1137	1118	1105	1101	1086	1097	1103	0	0	0	0	0	0	0	0	0	0	0	0	0	0	0	0	0	0	0	0	0	0	0	0	0	0	0	0	0	0	0	0	0	0	0	0	0	0	0	0	0	0	1390	1422	1440	1469	1489	1514	1515	1535	1536	1522	1527	1543	1541	1507	1485	1468	1456	1450	1452	1456	1460	1461	1464	1473	1470	1467	1478	1494	1502	1490	1490	1465	1473	1463	1469	1490	1508	1517	1514	1501	1483	1481	1495	1497	1487	1489	1488	1495	1504	1506	1499	1508	1510	1507	1508	1520	1483	1472	1465	1470	1478	1489	1487	1481	1474	1468	1458	1460	1457	1459	1470	1485	1503	1521	1514	1503	1483	1478	1477	1468	1477	1482	1490	1494	1493	1494	1481	1470	1466	1477	1486	1496	1490	1491	1494	1502	1495	1485	1482	1495	1513	1519	1517	1516	1490	1466	1464	1464	1470	1472	1472	1480	1486	1500	1506	1508	1507	1516	1524	1528	1522	1501	1464	1449	1446	1459	1476	1486	1485	1485	1486	1489	1490	1481	1478	1461	1460	1475	1495	1513	1505	1487	1477	1483	1500	1515	1518	1522	1521	1512	1503	1496	1497	1490	0	0	0	0	0	0	0	0	0	0	0	0	0	869	842	814	819	826	823	815	818	834	847	855	857	861	867	871	873	873	878	878	863	838	820	809	812	829	854	847	837	836	841	844	842	841	851	854	872	880	886	884	876	863	862	875	883	880	881	878	877	882	889	888	895	889	895	917	925	935	955	1035	1166	1321	1420	1455	1491	1506	1507	1507	1507	1508	1506	1502	1485	1473	1495	1500	1480	1464	1458	1469	1471	1468	1462	1457	1450	1462	1473	1464	1466	1472	1480	1480	1479	1478	1488	1492	1491	1480	1453	1433	1437	1471	1517	1536	1545	1540	1515	1510	1520	1519	1517	1510	1495	1467	1447	1428	1419	1425	1460	1482	1487	1480	1483	1476	1461	1455	1470	1489	1510	1524	1522	1513	1504	1505	1498	1486	1473	1458	1453	1457	1477	1490	1491	1476	1470	1469	1475	1479	1475	1465	1442	1441	1448	1468	1482	1483	1480	1469	1460	1459	1465	1472	1470	1473	1463	1469	1469	1467	1459	1446	1432	1430	1436	1444	1454	1460	1464	1467	1459	1451	1445	1439	1423	1417	1417	1414	1423	1437	1453	1461	1457	1450	1456	1467	1480	1497	1491	1482	1467	1462	1462	1457	1461	1471	1475	1473	1460	1462	0	0	0	0	0	0	0	0
0	0	0	0	0	0	0	0	0	0	0	0	0	0	0	0	0	0	0	0	0	0	0	0	0	0	0	0	0	0	0	0	0	0	0	0	0	0	0	0	0	0	0	0	0	0	0	0	0	0	0	0	0	0	0	0	0	0	0	0	0	0	0	0	0	0	0	0	0	0	0	0	0	0	0	0	0	0	0	0	0	0	0	0	0	0	0	0	0	0	0	0	0	1432	1437	1444	1452	1454	1457	1447	1426	1413	1418	1440	1454	1473	1471	1466	1462	1464	1450	1430	1425	1433	1453	1477	1485	1486	1481	1474	1471	1468	1469	1474	1494	1506	1516	1497	1472	1452	1435	1441	1466	1467	1463	1461	1464	1464	1470	1481	1493	1501	1494	1484	1473	1464	1457	1450	1451	1459	1467	1463	1454	1454	1459	1462	1461	1449	1453	1459	1463	1459	1444	1436	1448	1457	1470	1487	1509	1518	1513	1495	1484	1483	1492	1492	1486	1472	1481	1466	1457	1448	1439	1432	1412	1402	1353	1402	1399	1372	1287	1204	1151	1136	1088	1075	1088	0	0	0	1117	1118	1115	1105	1104	1130	1158	1180	1185	1146	1128	1119	1125	1135	1150	0	0	0	0	0	0	0	0	0	0	0	0	0	0	0	0	0	0	0	0	0	0	0	0	0	0	0	0	0	0	0	0	0	0	0	0	0	0	0	0	0	0	1379	1417	1431	1441	1446	1462	1493	1552	1572	1555	1530	1495	1531	1538	1527	1505	1505	1483	1465	1457	1464	1462	1459	1462	1471	1477	1470	1463	1474	1456	1474	1476	1474	1481	1464	1457	1471	1498	1499	1498	1493	1477	1472	1476	1487	1489	1468	1475	1481	1491	1491	1516	1534	1521	1514	1520	1513	1488	1481	1473	1476	1485	1488	1482	1481	1471	1479	1476	1485	1480	1476	1479	1488	1508	1517	1511	1502	1487	1479	1480	1482	1487	1495	1509	1510	1503	1494	1479	1471	1475	1486	1497	1501	1493	1481	1483	1487	1495	1492	1486	1496	1513	1518	1515	1500	1473	1450	1448	1450	1461	1468	1474	1484	1499	1504	1508	1504	1510	1513	1520	1521	1520	1495	1455	1437	1438	1453	1474	1487	1489	1489	1485	1487	1485	1482	1477	1464	1461	1471	1499	1516	1509	1487	1477	1486	1512	1520	1521	1514	1507	1499	1501	1493	1493	1496	0	0	0	0	0	0	0	0	0	0	0	0	0	0	862	844	823	823	815	801	797	805	818	824	828	837	851	863	865	865	865	863	854	831	814	804	804	834	848	844	831	830	832	834	832	833	839	843	857	864	873	872	867	857	855	861	864	863	855	852	852	859	868	877	872	872	867	873	881	882	888	948	978	1042	1188	1380	1421	1458	1408	1407	1416	1438	1457	1473	1475	1477	1495	1504	1492	1478	1479	1477	1470	1458	1450	1447	1444	1447	1459	1469	1470	1474	1477	1463	1466	1465	1468	1474	1478	1480	1466	1451	1455	1493	1526	1537	1550	1559	1538	1528	1523	1521	1511	1500	1478	1460	1441	1423	1414	1421	1445	1474	1477	1474	1473	1460	1457	1455	1469	1488	1493	1495	1495	1494	1499	1496	1495	1486	1478	1464	1452	1455	1476	1496	1491	1481	1462	1468	1473	1468	1459	1439	1427	1432	1441	1456	1461	1462	1456	1456	1453	1463	1467	1476	1476	1471	1459	1460	1462	1462	1455	1437	1418	1418	1433	1449	1460	1472	1475	1473	1469	1464	1460	1440	1431	1426	1424	1426	1439	1441	1447	1455	1460	1458	1466	1474	1489	1491	1491	1486	1475	1461	1461	1458	1463	1473	1477	1482	1481	1467	0	0	0	0	0	0	0	0
0	0	0	0	0	0	0	0	0	0	0	0	0	0	0	0	0	0	0	0	0	0	0	0	0	0	0	0	0	0	0	0	0	0	0	0	0	0	0	0	0	0	0	0	0	0	0	0	0	0	0	0	0	0	0	0	0	0	0	0	0	0	0	0	0	0	0	0	0	0	0	0	0	0	0	0	0	0	0	0	0	0	0	0	0	0	0	0	0	0	0	0	0	1415	1442	1447	1457	1459	1460	1441	1421	1399	1407	1432	1462	1467	1467	1466	1469	1466	1450	1433	1423	1430	1445	1461	1477	1483	1483	1471	1466	1467	1468	1478	1507	1524	1529	1513	1488	1470	1455	1448	1465	1470	1468	1461	1463	1464	1470	1481	1495	1503	1492	1487	1479	1478	1479	1470	1464	1457	1475	1472	1471	1464	1465	1478	1478	1462	1450	1452	1457	1455	1437	1436	1439	1449	1464	1484	1503	1514	1511	1497	1488	1489	1492	1504	1491	1478	1464	1456	1431	1422	1409	1403	1283	1247	0	0	0	1100	1092	1097	0	0	0	0	0	0	0	0	0	0	0	0	0	0	0	1195	1196	1180	1143	1136	1146	1158	1179	0	0	0	0	0	0	0	0	0	0	0	0	0	0	0	0	0	0	0	0	0	0	0	0	0	0	0	0	0	0	0	0	0	0	0	0	0	0	0	0	0	1378	1421	1429	1430	1438	1445	1454	1458	1480	1508	1543	1506	1474	1500	1511	1505	1491	1466	1448	1438	1429	1429	1428	1455	1493	1484	1485	1478	1472	1459	1421	1450	1457	1479	1490	1474	1473	1485	1488	1467	1438	1448	1461	1481	1499	1510	1489	1485	1458	1460	1466	1511	1534	1533	1530	1517	1509	1500	1494	1491	1487	1474	1477	1480	1482	1486	1483	1478	1483	1504	1507	1497	1492	1497	1511	1513	1514	1504	1491	1485	1483	1490	1498	1506	1513	1512	1498	1485	1475	1472	1478	1496	1508	1503	1492	1479	1480	1488	1496	1498	1490	1496	1510	1508	1498	1482	1461	1451	1448	1450	1460	1468	1478	1490	1496	1501	1507	1503	1500	1502	1503	1504	1502	1481	1449	1437	1436	1451	1472	1485	1498	1488	1493	1492	1483	1486	1479	1462	1467	1473	1500	1518	1510	1501	1488	1499	1499	1499	1500	1496	1496	1492	1492	1492	1494	1486	1497	0	0	0	0	0	0	0	0	0	0	0	0	0	0	846	828	820	800	786	782	792	802	802	803	813	830	842	846	848	850	852	850	834	820	805	799	821	833	833	828	825	822	822	820	820	828	828	831	841	848	856	863	861	853	847	844	842	835	832	831	848	867	876	865	853	844	842	840	840	846	882	907	939	968	913	930	972	1061	1272	1297	1323	1372	1408	1437	1458	1475	1489	1493	1495	1497	1487	1475	1459	1451	1448	1453	1454	1462	1472	1473	1466	1454	1438	1434	1446	1459	1465	1469	1475	1470	1464	1470	1498	1531	1532	1541	1557	1546	1531	1511	1500	1497	1479	1471	1460	1449	1443	1434	1434	1435	1459	1468	1469	1467	1457	1456	1463	1470	1482	1470	1466	1480	1482	1480	1480	1475	1478	1476	1469	1462	1461	1475	1490	1489	1484	1470	1471	1471	1462	1442	1428	1426	1446	1454	1452	1451	1448	1448	1448	1460	1473	1479	1475	1467	1459	1446	1444	1450	1449	1442	1423	1419	1415	1428	1450	1462	1474	1471	1471	1460	1460	1448	1432	1414	1414	1414	1431	1447	1451	1452	1466	1473	1475	1472	1480	1481	1474	1473	1474	1474	1474	1469	1467	1476	1480	1479	1478	1478	1452	0	0	0	0	0	0	0	0
0	0	0	0	0	0	0	0	0	0	0	0	0	0	0	0	0	0	0	0	0	0	0	0	0	0	0	0	0	0	0	0	0	0	0	0	0	0	0	0	0	0	0	0	0	0	0	0	0	0	0	0	0	0	0	0	0	0	0	0	0	0	0	0	0	0	0	0	0	0	0	0	0	0	0	0	0	0	0	0	0	0	0	0	0	0	0	0	0	0	0	0	0	0	1449	1453	1467	1470	1470	1456	1433	1411	1408	1430	1456	1461	1465	1467	1467	1459	1447	1443	1434	1429	1437	1450	1453	1471	1480	1469	1455	1454	1475	1488	1505	1517	1522	1507	1495	1480	1464	1453	1457	1463	1461	1466	1466	1462	1463	1477	1494	1502	1497	1493	1487	1492	1491	1479	1469	1467	1486	1491	1484	1475	1471	1479	1486	1479	1460	1453	1453	1452	1432	1424	1433	1445	1454	1469	1486	1500	1502	1491	1485	1485	1484	1485	1478	1461	1444	1436	1406	1374	1288	0	0	0	0	0	0	0	0	0	0	0	0	0	0	0	0	0	0	0	0	0	0	0	0	1203	1200	1195	1162	1157	1164	1170	1183	0	0	0	0	0	0	0	0	0	0	0	0	0	0	0	0	0	0	0	0	0	0	0	0	0	0	0	0	0	0	0	0	0	0	0	0	0	0	0	0	1375	1426	1441	1440	1437	1457	1475	1469	1437	1461	1476	1470	1455	1460	1480	1491	1480	1469	1468	1474	1491	1501	1433	1443	1469	1511	1485	1498	1497	1481	1460	1410	1437	1449	1485	1493	1488	1484	1481	1471	1454	1432	1444	1455	1474	1487	1508	1480	1478	1456	1447	1488	1525	1528	1523	1501	1496	1493	1498	1497	1494	1479	1470	1464	1462	1479	1493	1490	1481	1478	1501	1509	1506	1505	1510	1510	1516	1517	1513	1502	1490	1483	1480	1492	1488	1492	1490	1494	1493	1494	1497	1519	1514	1488	1493	1486	1482	1478	1480	1482	1489	1487	1479	1479	1484	1477	1471	1466	1456	1455	1456	1466	1479	1488	1489	1493	1494	1493	1492	1490	1484	1485	1483	1472	1460	1454	1442	1440	1452	1470	1486	1505	1500	1494	1487	1483	1483	1470	1467	1472	1486	1504	1506	1514	1509	1500	1490	1474	1475	1479	1478	1470	1473	1484	1498	1502	1500	1490	1500	0	0	0	0	0	0	0	0	0	0	0	0	0	0	853	819	800	781	779	789	802	799	797	796	803	815	825	827	832	836	840	833	819	806	799	813	821	823	819	817	817	813	814	815	816	816	814	816	827	840	857	860	854	836	827	827	814	810	816	837	867	877	860	840	825	817	820	821	818	832	823	831	839	857	867	879	908	972	1111	1185	1252	1310	1368	1401	1448	1471	1484	1494	1491	1491	1480	1473	1468	1468	1473	1476	1475	1481	1484	1457	1443	1432	1425	1437	1452	1463	1462	1468	1471	1470	1479	1497	1523	1530	1533	1537	1523	1510	1496	1481	1478	1481	1468	1461	1456	1456	1455	1460	1449	1461	1469	1466	1465	1467	1467	1473	1483	1479	1468	1467	1463	1471	1470	1461	1463	1472	1472	1472	1460	1462	1468	1486	1492	1488	1481	1477	1470	1462	1443	1430	1434	1446	1461	1465	1464	1456	1448	1442	1457	1476	1485	1479	1465	1446	1437	1435	1446	1442	1438	1426	1423	1434	1439	1457	1470	1476	1471	1451	1436	1433	1435	1421	1410	1410	1413	1432	1447	1454	1455	1466	1478	1479	1476	1470	1464	1452	1452	1455	1469	1469	1482	1477	1478	1477	1474	1471	1458	1434	0	0	0	0	0	0	0	0
0	0	0	0	0	0	0	0	0	0	0	0	0	0	0	0	0	0	0	0	0	0	0	0	0	0	0	0	0	0	0	0	0	0	0	0	0	0	0	0	0	0	0	0	0	0	0	0	0	0	0	0	0	0	0	0	0	0	0	0	0	0	0	0	0	0	0	0	0	0	0	0	0	0	0	0	0	0	0	0	0	0	0	0	0	0	0	0	0	0	0	0	0	0	1470	1466	1466	1477	1477	1469	1447	1427	1427	1441	1461	1459	1456	1463	1463	1462	1452	1452	1454	1445	1436	1443	1452	1474	1475	1459	1444	1446	1459	1483	1492	1497	1493	1491	1485	1480	1470	1454	1431	1437	1440	1460	1465	1467	1469	1478	1492	1496	1493	1491	1497	1499	1497	1490	1478	1479	1499	1506	1501	1481	1473	1481	1486	1484	1469	1453	1446	1439	1434	1428	1436	1448	1448	1456	1465	1480	1483	1482	1472	1469	1456	1455	1444	1424	1400	1288	1114	1077	0	0	0	0	0	0	0	0	0	0	0	0	0	0	0	0	0	0	0	0	0	0	0	0	0	1211	1209	1207	1184	1185	1185	1179	1171	0	0	0	0	0	0	0	0	0	0	0	0	0	0	0	0	0	0	0	0	0	0	0	0	0	0	0	0	0	0	0	0	0	0	0	0	0	0	0	0	1413	1442	1452	1456	1461	1462	1460	1475	1467	1471	1467	1463	1448	1449	1468	1483	1491	1499	1508	1518	1523	1531	1537	1532	1538	1500	1491	1499	1503	1493	1472	1419	1448	1453	1488	1498	1496	1497	1499	1465	1455	1454	1459	1463	1460	1456	1457	1469	1466	1453	1467	1511	1510	1515	1509	1488	1491	1487	1489	1488	1476	1473	1464	1463	1463	1466	1504	1497	1482	1457	1472	1493	1507	1514	1517	1523	1521	1528	1517	1503	1495	1488	1483	1469	1447	1468	1484	1491	1493	1494	1494	1507	1520	1496	1488	1490	1489	1483	1485	1485	1478	1477	1481	1471	1470	1469	1473	1472	1473	1478	1472	1476	1485	1491	1502	1504	1498	1494	1493	1483	1475	1466	1464	1462	1464	1458	1458	1456	1461	1464	1476	1484	1487	1486	1480	1480	1480	1475	1473	1483	1497	1504	1499	1497	1494	1488	1479	1474	1475	1472	1469	1464	1467	1479	1502	1509	1509	1501	1503	0	0	0	0	0	0	0	0	0	0	0	0	0	0	0	851	819	792	787	794	804	805	798	787	787	795	805	811	813	819	824	817	807	793	792	813	817	812	805	806	806	805	806	806	811	814	806	804	812	829	843	850	834	821	812	811	808	807	811	828	848	858	847	826	810	809	810	809	799	804	815	818	816	820	816	816	825	845	890	955	1031	1091	1188	1296	1386	1410	1433	1453	1472	1480	1487	1481	1485	1490	1485	1489	1488	1501	1498	1469	1455	1437	1440	1452	1471	1470	1465	1465	1471	1476	1484	1500	1517	1521	1526	1517	1506	1505	1488	1478	1480	1483	1468	1454	1453	1461	1470	1462	1470	1469	1473	1477	1472	1462	1467	1476	1489	1479	1477	1465	1459	1462	1455	1458	1455	1461	1469	1461	1450	1448	1460	1480	1497	1493	1486	1482	1475	1465	1454	1443	1449	1456	1480	1479	1471	1464	1455	1452	1471	1487	1498	1482	1461	1445	1438	1436	1450	1448	1445	1438	1442	1454	1465	1472	1478	1476	1466	1450	1430	1428	1422	1420	1417	1417	1422	1435	1447	1449	1448	1449	1461	1471	1463	1454	1442	1442	1440	1452	1460	1460	1470	1474	1473	1465	1457	1448	1442	1426	0	0	0	0	0	0	0	0
0	0	0	0	0	0	0	0	0	0	0	0	0	0	0	0	0	0	0	0	0	0	0	0	0	0	0	0	0	0	0	0	0	0	0	0	0	0	0	0	0	0	0	0	0	0	0	0	0	0	0	0	0	0	0	0	0	0	0	0	0	0	0	0	0	0	0	0	0	0	0	0	0	0	0	0	0	0	0	0	0	0	0	0	0	0	0	0	0	0	0	0	0	0	1475	1469	1460	1466	1467	1467	1458	1432	1443	1451	1463	1463	1460	1460	1466	1469	1459	1457	1457	1452	1449	1449	1455	1474	1474	1465	1448	1452	1450	1460	1464	1469	1470	1478	1480	1478	1470	1461	1416	1415	1425	1443	1470	1478	1478	1486	1485	1489	1482	1480	1477	1473	1476	1481	1485	1477	1492	1505	1501	1489	1482	1470	1476	1477	1467	1460	1449	1434	1427	1421	1432	1455	1447	1445	1452	1460	1467	1468	1455	1451	1444	1424	1417	1312	1102	0	0	0	0	0	0	0	0	0	0	0	0	0	0	0	0	0	0	0	0	0	0	0	0	0	0	0	1212	1208	1206	1199	0	1198	1189	1182	1159	0	0	0	0	0	0	0	0	0	0	0	0	0	0	0	0	0	0	0	0	0	0	0	0	0	0	0	0	0	0	0	0	0	0	0	0	0	0	0	1301	1428	1459	1467	1473	1471	1449	1451	1427	1475	1482	1467	1459	1450	1457	1488	1497	1508	1517	1522	1516	1515	1521	1526	1520	1512	1502	1499	1500	1503	1505	1488	1451	1474	1478	1490	1497	1494	1490	1494	1501	1499	1500	1500	1499	1488	1483	1486	1494	1481	1465	1458	1482	1490	1495	1512	1475	1462	1448	1446	1468	1478	1473	1471	1457	1462	1464	1500	1490	1478	1463	1459	1476	1496	1510	1519	1517	1505	1505	1507	1516	1514	1502	1468	1447	1453	1499	1500	1501	1495	1505	1506	1523	1522	1509	1505	1495	1490	1487	1483	1478	1475	1477	1477	1475	1470	1464	1462	1462	1475	1484	1485	1479	1482	1495	1501	1505	1501	1494	1487	1480	1472	1468	1462	1462	1460	1459	1471	1468	1463	1465	1461	1467	1467	1463	1469	1476	1481	1485	1487	1484	1482	1480	1484	1482	1480	1479	1474	1476	1476	1471	1464	1464	1471	1486	1499	1513	1509	1497	1495	1496	0	0	0	0	0	0	0	0	0	0	0	0	0	0	0	0	814	796	796	801	801	795	788	782	785	792	793	793	799	794	787	774	775	801	810	809	797	787	786	793	794	796	803	810	815	815	807	806	820	829	830	816	804	801	802	800	800	801	813	827	831	828	817	802	807	811	807	791	798	807	811	812	803	790	780	778	788	800	832	869	903	952	1154	1240	1325	1354	1384	1412	1445	1476	1484	1489	1495	1499	1503	1510	1517	1503	1475	1464	1455	1457	1469	1486	1483	1474	1467	1465	1471	1475	1488	1501	1507	1504	1500	1496	1496	1494	1488	1492	1475	1460	1446	1441	1451	1462	1455	1466	1468	1477	1490	1483	1472	1474	1477	1475	1477	1470	1459	1450	1449	1443	1445	1452	1461	1469	1465	1447	1448	1463	1492	1510	1501	1486	1475	1475	1472	1467	1459	1459	1472	1485	1489	1483	1472	1467	1475	1496	1507	1500	1481	1461	1445	1446	1452	1455	1455	1457	1458	1463	1471	1479	1483	1484	1478	1466	1449	1438	1428	1423	1424	1424	1428	1437	1447	1446	1445	1441	1447	1454	1461	1458	1444	1431	1436	1447	1457	1462	1462	1463	1467	1458	1454	1440	1435	1437	1451	1430	0	0	0	0	0	0	0
0	0	0	0	0	0	0	0	0	0	0	0	0	0	0	0	0	0	0	0	0	0	0	0	0	0	0	0	0	0	0	0	0	0	0	0	0	0	0	0	0	0	0	0	0	0	0	0	0	0	0	0	0	0	0	0	0	0	0	0	0	0	0	0	0	0	0	0	0	0	0	0	0	0	0	0	0	0	0	0	0	0	0	0	0	0	0	0	0	0	0	0	0	0	1478	1460	1455	1455	1458	1456	1456	1457	1454	1469	1468	1473	1471	1474	1484	1482	1471	1456	1455	1454	1450	1453	1464	1478	1480	1475	1464	1461	1459	1455	1449	1455	1465	1479	1483	1476	1463	1461	1431	1416	1425	1442	1472	1483	1481	1477	1480	1481	1473	1463	1460	1448	1455	1471	1478	1471	1481	1491	1487	1485	1475	1462	1458	1466	1469	1467	1453	1441	1418	1421	1432	1452	1448	1441	1449	1452	1447	1436	1395	1355	1284	1192	1129	1025	0	0	0	0	0	0	0	0	0	0	0	0	0	0	0	0	0	0	0	0	0	0	0	0	0	0	0	0	1185	1177	1183	1184	0	0	0	0	0	0	0	0	0	0	0	0	0	0	0	0	0	0	0	0	0	0	0	0	0	0	0	0	0	0	0	0	0	0	0	0	0	0	0	0	0	0	1206	1275	1442	1466	1474	1482	1483	1484	1476	1454	1448	1465	1477	1481	1465	1464	1478	1492	1515	1523	1526	1515	1509	1509	1508	1514	1512	1507	1499	1493	1490	1495	1498	1501	1478	1481	1492	1500	1496	1488	1488	1492	1496	1487	1493	1498	1495	1479	1472	1472	1479	1488	1471	1443	1447	1480	1491	1456	1472	1472	1464	1447	1450	1476	1484	1488	1482	1489	1491	1494	1487	1471	1462	1454	1465	1485	1504	1507	1508	1507	1503	1504	1517	1515	1513	1504	1471	1446	1500	1501	1499	1496	1508	1527	1522	1505	1506	1500	1504	1495	1481	1471	1473	1480	1479	1479	1475	1471	1467	1459	1463	1486	1491	1488	1482	1480	1490	1496	1504	1494	1484	1478	1470	1470	1470	1469	1463	1466	1467	1480	1480	1473	1462	1458	1458	1455	1450	1460	1476	1483	1481	1474	1471	1466	1465	1469	1468	1471	1470	1473	1473	1471	1470	1461	1466	1475	1491	1505	1505	1498	1486	1478	1468	1427	0	0	0	0	0	0	0	0	0	0	0	0	0	0	0	0	806	797	799	796	785	779	774	781	779	780	778	771	769	764	759	764	801	808	806	791	774	770	775	783	790	800	812	821	822	812	809	809	811	810	802	797	790	794	793	794	789	797	810	793	795	789	788	797	801	800	789	788	794	803	805	796	780	762	755	762	773	790	816	839	853	931	1000	1111	1214	1278	1322	1368	1405	1441	1460	1483	1495	1500	1522	1537	1510	1472	1465	1458	1469	1483	1500	1488	1473	1466	1465	1463	1466	1473	1477	1485	1490	1489	1496	1499	1498	1498	1486	1457	1440	1429	1431	1442	1452	1450	1448	1459	1470	1486	1484	1472	1466	1467	1468	1463	1468	1464	1449	1442	1434	1437	1447	1463	1480	1480	1466	1464	1477	1505	1518	1507	1488	1475	1473	1473	1478	1474	1473	1476	1481	1488	1476	1471	1474	1486	1502	1504	1499	1473	1457	1453	1462	1462	1465	1460	1466	1477	1481	1484	1484	1487	1492	1477	1466	1455	1449	1443	1436	1436	1436	1444	1456	1452	1445	1432	1432	1439	1450	1457	1455	1449	1441	1439	1458	1466	1473	1473	1475	1466	1457	1442	1425	1423	1432	1454	1468	0	0	0	0	0	0	0
0	0	0	0	0	0	0	0	0	0	0	0	0	0	0	0	0	0	0	0	0	0	0	0	0	0	0	0	0	0	0	0	0	0	0	0	0	0	0	0	0	0	0	0	0	0	0	0	0	0	0	0	0	0	0	0	0	0	0	0	0	0	0	0	0	0	0	0	0	0	0	0	0	0	0	0	0	0	0	0	0	0	0	0	0	0	0	0	0	0	0	0	0	0	1475	1462	1462	1455	1456	1457	1459	1451	1455	1467	1471	1469	1477	1482	1488	1481	1468	1457	1447	1442	1450	1455	1477	1485	1486	1482	1470	1459	1459	1453	1449	1450	1467	1474	1483	1475	1462	1454	1448	1439	1445	1455	1470	1480	1480	1465	1471	1473	1464	1452	1438	1424	1426	1452	1471	1468	1472	1465	1466	1467	1469	1447	1444	1450	1458	1463	1450	1433	1421	1428	1435	1447	1447	1443	1441	1425	1399	1366	1326	1222	1034	0	0	0	0	0	0	0	0	0	0	0	0	0	0	0	0	0	0	0	0	1046	1016	1032	0	0	0	0	1099	0	0	1169	1157	1150	1145	1150	1149	0	0	0	0	0	0	0	0	0	0	0	0	0	0	0	0	0	0	0	0	0	0	0	0	0	0	0	0	0	0	0	0	0	0	0	0	0	0	0	1173	1327	1483	1485	1468	1475	1485	1487	1496	1493	1491	1488	1491	1507	1506	1490	1476	1481	1489	1496	1517	1525	1522	1513	1500	1490	1496	1503	1505	1504	1496	1488	1486	1493	1496	1500	1496	1492	1497	1489	1488	1489	1491	1494	1492	1488	1486	1496	1492	1478	1466	1464	1472	1476	1472	1472	1424	1415	1426	1445	1461	1478	1475	1458	1483	1496	1506	1512	1504	1490	1485	1493	1485	1474	1464	1458	1470	1482	1495	1494	1485	1481	1481	1466	1448	1451	1451	1444	1437	1444	1462	1466	1469	1481	1485	1493	1488	1486	1489	1500	1505	1501	1483	1468	1473	1479	1481	1481	1480	1469	1463	1457	1478	1489	1494	1491	1483	1480	1480	1477	1480	1475	1466	1458	1456	1459	1468	1473	1473	1476	1479	1479	1477	1476	1467	1464	1456	1460	1463	1469	1491	1493	1489	1467	1459	1457	1456	1463	1464	1465	1465	1470	1467	1464	1466	1466	1472	1482	1500	1507	1501	1492	1477	1463	1460	1442	0	0	0	0	0	0	0	0	0	0	0	0	0	0	0	0	0	796	796	786	770	763	763	764	762	760	763	758	749	749	750	760	791	809	809	794	778	766	768	775	785	801	817	826	821	814	806	802	799	795	791	783	776	776	781	781	767	766	767	774	779	773	769	771	785	788	781	782	785	792	796	790	775	758	751	753	758	769	789	802	809	838	858	877	923	1108	1204	1244	1302	1354	1405	1443	1460	1481	1509	1521	1503	1470	1458	1462	1472	1492	1509	1499	1472	1466	1464	1469	1469	1468	1462	1475	1469	1479	1473	1486	1493	1494	1470	1453	1440	1437	1445	1449	1452	1453	1449	1450	1462	1471	1470	1468	1465	1469	1452	1454	1460	1465	1461	1450	1438	1438	1451	1469	1479	1477	1475	1466	1482	1507	1525	1506	1475	1469	1472	1484	1490	1489	1484	1480	1479	1472	1467	1464	1471	1478	1492	1497	1485	1474	1468	1473	1476	1477	1464	1463	1466	1483	1482	1484	1490	1488	1487	1473	1465	1461	1464	1461	1454	1451	1451	1453	1461	1464	1451	1435	1429	1437	1448	1451	1454	1457	1458	1466	1473	1480	1480	1489	1483	1473	1458	1442	1425	1425	1438	1450	1459	0	0	0	0	0	0	0
0	0	0	0	0	0	0	0	0	0	0	0	0	0	0	0	0	0	0	0	0	0	0	0	0	0	0	0	0	0	0	0	0	0	0	0	0	0	0	0	0	0	0	0	0	0	0	0	0	0	0	0	0	0	0	0	0	0	0	0	0	0	0	0	0	0	0	0	0	0	0	0	0	0	0	0	0	0	0	0	0	0	0	0	0	0	0	0	0	0	0	0	0	0	1479	1480	1472	1460	1462	1464	1463	1455	1458	1463	1463	1466	1473	1479	1490	1483	1473	1463	1449	1435	1449	1458	1478	1492	1492	1484	1457	1450	1446	1446	1440	1449	1460	1471	1482	1479	1465	1462	1467	1460	1464	1469	1485	1489	1474	1458	1452	1458	1463	1450	1423	1415	1415	1445	1466	1476	1468	1461	1462	1461	1452	1448	1441	1450	1461	1466	1459	1444	1435	1436	1442	1440	1415	1414	1397	1355	1204	1092	1038	0	0	0	0	0	0	0	0	0	0	0	0	0	0	0	0	0	0	0	0	0	0	1025	999	1006	0	0	0	1036	1052	1072	0	0	1119	1129	1117	1117	1106	0	0	0	0	0	0	0	0	0	0	0	0	0	0	0	0	0	0	0	0	0	0	0	0	0	0	0	0	0	0	0	909	900	0	0	0	0	0	0	1215	1488	1502	1476	1462	1467	1480	1494	1506	1497	1487	1480	1482	1472	1473	1466	1474	1484	1499	1511	1519	1517	1505	1509	1497	1490	1490	1498	1503	1506	1497	1491	1485	1491	1494	1498	1495	1494	1491	1481	1487	1493	1499	1500	1495	1484	1481	1484	1482	1477	1468	1466	1471	1474	1471	1456	1447	1442	1454	1473	1488	1497	1501	1499	1498	1510	1517	1526	1506	1485	1479	1488	1485	1476	1469	1466	1471	1479	1488	1492	1482	1479	1475	1457	1443	1447	1459	1463	1473	1479	1476	1477	1472	1476	1479	1488	1496	1501	1497	1507	1505	1493	1492	1484	1481	1481	1481	1481	1476	1463	1463	1467	1485	1493	1495	1494	1484	1478	1473	1476	1469	1463	1459	1448	1443	1448	1464	1477	1487	1484	1485	1479	1478	1474	1481	1485	1488	1479	1478	1484	1485	1484	1480	1464	1453	1450	1456	1462	1460	1466	1469	1463	1465	1465	1466	1467	1472	1486	1502	1511	1505	1499	1484	1470	1462	1456	1439	0	0	0	0	0	0	0	0	0	0	0	0	0	0	0	0	808	798	792	776	753	753	752	750	748	747	747	746	748	750	762	785	793	802	794	779	762	760	768	784	796	809	818	816	808	801	796	794	791	775	766	757	763	754	754	755	755	756	761	759	754	750	753	762	772	765	765	772	783	788	786	769	753	747	743	746	754	767	781	787	786	789	797	822	847	969	1099	1182	1243	1297	1342	1380	1424	1460	1491	1483	1468	1467	1470	1479	1492	1500	1488	1465	1459	1470	1481	1484	1475	1461	1456	1462	1456	1454	1456	1465	1467	1453	1454	1457	1465	1466	1469	1466	1454	1452	1452	1450	1454	1447	1449	1462	1473	1471	1464	1462	1466	1458	1456	1455	1456	1462	1469	1473	1464	1469	1471	1486	1507	1515	1503	1481	1464	1469	1483	1504	1504	1489	1477	1466	1453	1448	1458	1467	1476	1481	1478	1476	1473	1474	1485	1491	1492	1485	1460	1457	1464	1474	1482	1491	1495	1493	1485	1472	1470	1480	1471	1466	1460	1460	1458	1473	1476	1462	1436	1431	1431	1441	1448	1453	1454	1462	1467	1469	1486	1486	1485	1480	1475	1464	1448	1435	1435	1446	1462	1464	1464	0	0	0	0	0	0
0	0	0	0	0	0	0	0	0	0	0	0	0	0	0	0	0	0	0	0	0	0	0	0	0	0	0	0	0	0	0	0	0	0	0	0	0	0	0	0	0	0	0	0	0	0	0	0	0	0	0	0	0	0	0	0	0	0	0	0	0	0	0	0	0	0	0	0	0	0	0	0	0	0	0	0	0	0	0	0	0	0	0	0	0	0	0	0	0	0	0	0	0	0	1473	1482	1483	1469	1469	1469	1468	1465	1469	1472	1469	1458	1454	1463	1481	1486	1490	1480	1448	1441	1446	1466	1473	1487	1483	1460	1440	1432	1441	1443	1439	1440	1450	1469	1478	1483	1477	1477	1479	1477	1479	1486	1496	1484	1465	1450	1445	1463	1468	1453	1433	1414	1414	1435	1465	1475	1472	1468	1474	1473	1465	1455	1454	1462	1469	1473	1470	1465	1454	1452	1438	1428	1337	1237	1124	1063	0	0	0	0	0	0	0	0	0	0	0	0	0	0	0	0	0	0	0	0	0	0	0	0	0	0	993	1003	0	0	0	0	1011	0	0	0	0	1098	1085	1066	1069	0	0	0	0	0	0	0	0	0	0	0	0	0	0	0	0	0	0	0	0	0	0	0	0	0	0	0	0	0	0	0	902	895	899	0	0	0	0	0	1378	1498	1482	1469	1454	1459	1474	1493	1503	1496	1484	1477	1480	1478	1473	1472	1478	1495	1509	1514	1510	1500	1501	1503	1498	1487	1491	1502	1512	1510	1501	1482	1469	1457	1461	1471	1484	1509	1512	1485	1491	1494	1500	1498	1491	1482	1476	1480	1482	1483	1474	1468	1473	1476	1468	1461	1453	1456	1464	1476	1488	1495	1497	1498	1491	1499	1522	1499	1490	1479	1479	1483	1489	1480	1471	1470	1472	1477	1480	1485	1488	1479	1477	1467	1458	1458	1473	1486	1499	1500	1491	1487	1484	1485	1490	1499	1501	1496	1494	1494	1499	1494	1491	1485	1491	1485	1486	1483	1478	1461	1461	1461	1489	1499	1503	1502	1494	1483	1475	1472	1471	1469	1462	1456	1452	1448	1464	1481	1494	1494	1491	1481	1479	1480	1482	1485	1492	1475	1483	1488	1487	1480	1470	1455	1447	1453	1460	1461	1455	1461	1464	1474	1471	1468	1467	1469	1476	1481	1497	1511	1516	1509	1494	1488	1474	1462	1453	0	0	0	0	0	0	0	0	0	0	0	0	0	0	0	0	0	0	819	796	772	753	754	752	741	731	721	722	728	739	753	762	768	769	774	765	754	755	759	769	782	794	800	804	796	792	788	790	778	764	734	731	736	741	745	743	743	743	742	741	736	735	738	747	744	745	749	756	767	770	761	751	744	738	731	726	733	746	757	762	751	745	752	756	770	818	867	905	972	1093	1192	1257	1326	1396	1447	1466	1474	1479	1482	1474	1481	1479	1464	1450	1449	1468	1497	1499	1484	1463	1455	1455	1454	1449	1444	1444	1443	1439	1455	1462	1478	1480	1476	1466	1461	1451	1453	1451	1445	1437	1441	1466	1484	1484	1471	1462	1459	1462	1465	1463	1467	1464	1464	1461	1458	1458	1467	1481	1499	1507	1499	1480	1467	1465	1487	1499	1498	1488	1469	1454	1438	1433	1448	1467	1481	1485	1479	1481	1480	1479	1478	1490	1497	1495	1474	1461	1456	1455	1472	1484	1496	1501	1494	1488	1484	1489	1480	1469	1469	1463	1468	1475	1485	1475	1455	1437	1440	1449	1454	1452	1452	1461	1464	1463	1473	1472	1470	1475	1464	1464	1461	1460	1461	1472	1479	1481	1481	0	0	0	0	0	0
0	0	0	0	0	0	0	0	0	0	0	0	0	0	0	0	0	0	0	0	0	0	0	0	0	0	0	0	0	0	0	0	0	0	0	0	0	0	0	0	0	0	0	0	0	0	0	0	0	0	0	0	0	0	0	0	0	0	0	0	0	0	0	0	0	0	0	0	0	0	0	0	0	0	0	0	0	0	0	0	0	0	0	0	0	0	0	0	0	0	0	0	0	0	1465	1485	1487	1477	1459	1465	1466	1471	1482	1480	1475	1468	1462	1468	1489	1515	1499	1485	1491	1498	1485	1476	1480	1481	1475	1446	1435	1435	1442	1448	1451	1446	1446	1457	1481	1495	1488	1480	1481	1483	1484	1492	1494	1482	1462	1451	1453	1466	1470	1461	1443	1421	1420	1439	1461	1468	1470	1458	1460	1475	1473	1465	1468	1469	1480	1498	1510	1505	1477	1450	1413	1339	1075	0	0	0	0	0	0	0	0	0	0	0	0	0	0	0	0	0	0	0	0	0	0	0	0	0	0	0	0	0	0	0	0	0	0	0	0	0	0	0	0	1072	1065	1049	1029	991	0	0	0	0	0	0	0	0	0	0	0	0	0	0	0	0	0	0	0	0	0	0	0	0	0	0	0	0	0	0	889	891	908	0	0	0	0	1381	1505	1500	1476	1462	1454	1459	1478	1478	1476	1475	1475	1486	1487	1495	1486	1486	1485	1491	1495	1485	1480	1480	1482	1479	1489	1501	1512	1524	1522	1496	1473	1463	1456	1451	1453	1493	1524	1525	1512	1509	1501	1499	1494	1484	1480	1474	1477	1480	1481	1482	1484	1484	1478	1480	1489	1501	1500	1493	1494	1490	1498	1492	1503	1496	1471	1463	1475	1481	1482	1480	1484	1491	1495	1491	1473	1465	1468	1473	1479	1489	1495	1493	1476	1470	1471	1481	1496	1504	1507	1501	1492	1504	1502	1492	1494	1504	1506	1495	1482	1479	1488	1503	1497	1492	1496	1501	1496	1490	1475	1464	1458	1469	1485	1497	1500	1498	1494	1494	1479	1475	1475	1484	1478	1471	1461	1461	1473	1492	1498	1492	1481	1479	1474	1480	1483	1478	1469	1471	1478	1488	1486	1473	1460	1448	1448	1456	1464	1455	1451	1451	1461	1477	1478	1473	1472	1473	1471	1480	1496	1510	1517	1509	1515	1497	1476	1463	1451	1426	0	0	0	0	0	0	0	0	0	0	0	0	0	0	0	0	0	0	0	796	770	761	753	736	722	714	709	714	719	733	729	732	737	744	747	745	745	748	754	759	767	772	771	773	774	775	777	744	726	713	714	719	724	727	729	722	718	720	721	722	724	732	728	720	719	727	737	744	744	742	739	733	726	717	713	718	731	737	740	729	725	731	740	750	764	785	808	836	899	996	1085	1177	1228	1310	1404	1429	1452	1469	1467	1470	1459	1437	1431	1438	1471	1503	1503	1492	1471	1457	1457	1460	1451	1442	1443	1437	1439	1449	1461	1466	1479	1471	1460	1454	1448	1456	1456	1442	1437	1443	1471	1488	1489	1476	1461	1457	1462	1463	1470	1467	1464	1449	1444	1443	1456	1468	1484	1495	1503	1501	1490	1480	1473	1478	1474	1471	1472	1459	1439	1419	1423	1448	1465	1480	1485	1490	1483	1481	1457	1444	1450	1457	1480	1468	1465	1448	1456	1455	1465	1469	1479	1478	1479	1471	1470	1464	1453	1453	1458	1464	1480	1482	1485	1477	1481	1475	1474	1467	1465	1458	1462	1468	1463	1463	1463	1464	1467	1465	1464	1464	1456	1454	1470	1486	1490	1490	0	0	0	0	0	0
0	0	0	0	0	0	0	0	0	0	0	0	0	0	0	0	0	0	0	0	0	0	0	0	0	0	0	0	0	0	0	0	0	0	0	0	0	0	0	0	0	0	0	0	0	0	0	0	0	0	0	0	0	0	0	0	0	0	0	0	0	0	0	0	0	0	0	0	0	0	0	0	0	0	0	0	0	0	0	0	0	0	0	0	0	0	0	0	0	0	0	0	0	0	1467	1483	1488	1484	1471	1449	1455	1458	1478	1485	1478	1474	1470	1477	1497	1520	1494	1504	0	1523	1497	1483	1477	1480	1474	1443	1439	1443	1450	1457	1461	1455	1451	1455	1479	1496	1494	1487	1474	1479	1488	1496	1494	1483	1468	1462	1469	1476	1481	1465	1457	1436	1430	1440	1452	1458	1471	1471	1475	1474	1476	1471	1475	1474	1480	1488	1481	1472	1435	1281	1117	0	0	0	0	0	0	0	0	0	0	0	0	0	0	0	0	0	0	0	0	0	0	0	0	0	0	0	0	0	0	0	0	0	0	0	0	0	0	0	0	0	1058	1060	1056	1042	1033	1017	992	0	0	0	0	0	0	0	0	0	0	0	0	0	0	0	0	0	0	0	0	0	0	0	0	0	0	0	0	0	882	885	0	0	0	1143	1356	1479	1505	1511	1478	1464	1464	1475	1486	1496	1489	1483	1482	1483	1489	1490	1492	1490	1490	1494	1491	1480	1473	1472	1474	1471	1476	1484	1498	1510	1508	1490	1469	1459	1453	1456	1469	1500	1527	1536	1512	1508	1502	1495	1485	1475	1471	1474	1483	1485	1479	1478	1476	1479	1476	1476	1487	1501	1514	1508	1502	1495	1495	1492	1500	1495	1481	1471	1470	1475	1479	1483	1487	1493	1497	1500	1485	1471	1471	1476	1490	1501	1510	1495	1474	1464	1472	1489	1504	1511	1507	1496	1501	1502	1502	1494	1492	1497	1500	1489	1474	1473	1485	1497	1499	1499	1506	1508	1505	1491	1481	1469	1466	1476	1489	1494	1497	1499	1500	1494	1479	1473	1474	1481	1483	1478	1464	1465	1486	1501	1501	1485	1476	1467	1473	1471	1481	1480	1479	1481	1477	1475	1472	1464	1447	1441	1440	1448	1451	1449	1439	1438	1456	1480	1484	1479	1474	1472	1475	1477	1494	1512	1521	1516	1505	1504	1477	1468	1444	1426	1381	0	0	0	0	0	0	0	0	0	0	0	0	0	0	0	0	0	0	0	0	774	749	729	712	703	698	697	705	713	714	715	720	729	734	736	732	736	736	739	736	738	742	745	720	719	724	720	711	701	695	698	701	704	705	699	693	694	703	710	719	718	715	707	708	710	715	721	724	727	727	728	716	713	711	715	724	730	727	718	718	721	732	735	733	731	737	755	778	860	929	998	1078	1155	1277	1317	1360	1405	1430	1430	1414	1419	1430	1449	1482	1501	1502	1497	1486	1468	1468	1473	1470	1459	1466	1494	1482	1465	1454	1465	1465	1461	1458	1455	1454	1456	1451	1443	1442	1454	1468	1490	1479	1464	1460	1464	1470	1484	1479	1473	1470	1458	1444	1447	1457	1467	1476	1482	1497	1505	1497	1472	1453	1447	1443	1437	1446	1447	1440	1428	1434	1444	1461	1477	1485	1484	1474	1455	1429	1416	1417	1430	1448	1457	1456	1455	1448	1438	1438	1450	1456	1463	1459	1456	1451	1439	1436	1436	1437	1450	1464	1478	1484	1476	1476	1476	1482	1489	1487	1475	1470	1468	1458	1458	1448	1447	1445	1463	1460	1460	1447	1451	1467	1495	1504	1504	0	0	0	0	0	0
0	0	0	0	0	0	0	0	0	0	0	0	0	0	0	0	0	0	0	0	0	0	0	0	0	0	0	0	0	0	0	0	0	0	0	0	0	0	0	0	0	0	0	0	0	0	0	0	0	0	0	0	0	0	0	0	0	0	0	0	0	0	0	0	0	0	0	0	0	0	0	0	0	0	0	0	0	0	0	0	0	0	0	0	0	0	0	0	0	0	0	0	0	0	1468	1490	1493	1505	1482	1451	1447	1465	1473	1481	1478	1480	1473	1476	1480	1489	1472	1492	1524	1520	1466	1459	1468	1469	1472	1454	1444	1444	1451	1462	1468	1466	1468	1461	1473	1481	1491	1477	1464	1465	1477	1494	1500	1486	1478	1470	1475	1485	1482	1475	1462	1446	1448	1448	1458	1470	1473	1497	1494	1486	1477	1469	1461	1454	1450	1437	1405	1308	0	0	0	0	0	0	0	0	0	0	0	0	0	0	0	0	0	0	0	0	0	0	0	0	0	0	0	0	0	0	0	0	0	0	0	0	0	0	0	0	0	0	0	0	1060	1063	1060	1056	0	0	0	0	0	0	0	0	0	0	0	0	0	0	0	0	0	0	0	0	0	0	0	0	0	0	0	0	0	0	0	0	883	896	935	0	1113	1363	1451	1469	1496	1508	1485	1474	1477	1493	1510	1505	1496	1486	1480	1477	1481	1498	1498	1501	1496	1496	1489	1479	1472	1469	1467	1463	1465	1475	1486	1499	1494	1474	1460	1460	1462	1460	1473	1501	1520	1528	1513	1510	1516	1501	1488	1472	1483	1503	1488	1491	1480	1471	1459	1459	1464	1472	1483	1506	1522	1525	1516	1501	1497	1496	1501	1506	1497	1476	1468	1473	1475	1483	1489	1504	1513	1510	1510	1494	1487	1488	1504	1510	1523	1508	1474	1454	1461	1486	1503	1511	1508	1492	1488	1490	1492	1482	1482	1491	1493	1470	1470	1467	1483	1493	1502	1504	1507	1506	1507	1497	1484	1481	1480	1479	1489	1489	1489	1497	1507	1503	1484	1466	1467	1476	1478	1471	1466	1470	1482	1493	1485	1466	1435	1439	1475	1501	1521	1526	1517	1507	1487	1475	1467	1460	1462	1457	1454	1452	1452	1455	1460	1470	1472	1470	1471	1474	1474	1479	1487	1495	1510	1511	1504	1510	1497	1501	1486	1473	1454	1425	1396	0	0	0	0	0	0	0	0	0	0	0	0	0	0	0	0	0	0	0	0	0	763	721	704	696	688	687	696	707	706	700	707	722	728	729	727	726	722	719	715	716	710	711	708	708	709	710	702	696	689	687	684	685	682	679	678	677	682	692	704	707	707	708	703	700	701	705	713	716	718	717	712	711	716	720	730	726	718	713	707	713	716	720	715	703	701	708	716	724	755	824	884	942	1072	1133	1196	1272	1342	1373	1374	1392	1423	1450	1467	1475	1483	1503	1515	1521	1514	1492	1489	1502	1517	1521	1506	1497	1482	1469	1466	1458	1457	1471	1477	1470	1457	1442	1442	1474	1487	1485	1455	1440	1438	1456	1475	1481	1481	1491	1498	1490	1479	1465	1458	1455	1457	1464	1489	1503	1493	1469	1443	1436	1434	1429	1439	1446	1440	1445	1448	1448	1459	1474	1489	1476	1459	1445	1422	1410	1415	1424	1443	1456	1470	1470	1455	1435	1431	1437	1447	1453	1458	1454	1448	1442	1442	1438	1433	1444	1458	1470	1478	1468	1470	1474	1490	1505	1511	1492	1477	1464	1451	1451	1441	1427	1429	1438	1452	1448	1446	1448	1474	1500	1519	1519	0	0	0	0	0	0
0	0	0	0	0	0	0	0	0	0	0	0	0	0	0	0	0	0	0	0	0	0	0	0	0	0	0	0	0	0	0	0	0	0	0	0	0	0	0	0	0	0	0	0	0	0	0	0	0	0	0	0	0	0	0	0	0	0	0	0	0	0	0	0	0	0	0	0	0	0	0	0	0	0	0	0	0	0	0	0	0	0	0	0	0	0	0	0	0	0	0	0	0	0	1466	1496	1516	1514	1467	1453	1449	1464	1477	1485	1480	1472	1466	1456	1457	1465	1463	1457	1453	1453	1429	1415	1432	1455	1465	1456	1443	1443	1448	1462	1469	1470	1473	1466	1469	1473	1486	1479	1454	1448	1465	1490	1501	1495	1486	1471	1478	1482	1480	1467	1458	1455	1460	1472	1477	1479	1482	1497	1495	1486	1469	1455	1438	1392	1251	0	0	0	0	0	0	0	0	0	0	0	0	0	0	0	0	0	0	0	0	0	0	0	0	0	0	0	0	0	0	0	0	0	0	0	0	0	0	0	0	0	0	0	0	0	0	0	1072	1071	1077	0	0	0	0	0	0	0	0	0	0	0	0	0	0	0	0	0	0	0	0	0	0	0	0	0	0	0	0	0	0	0	0	890	895	916	946	1042	1229	1397	1446	1474	1487	1498	1510	1507	1516	1526	1532	1531	1504	1487	1476	1476	1482	1501	1515	1517	1508	1499	1492	1481	1467	1453	1459	1475	1483	1482	1480	1481	1485	1485	1494	1497	1488	1488	1486	1486	1489	1488	1475	1509	1547	1544	1527	1503	1492	1491	1496	1486	1479	1460	1444	1450	1453	1459	1474	1490	1506	1511	1510	1499	1487	1488	1496	1501	1506	1497	1482	1466	1463	1476	1495	1510	1516	1510	1504	1507	1502	1500	1515	1517	1514	1503	1473	1443	1443	1458	1476	1483	1488	1489	1477	1484	1481	1471	1477	1493	1492	1493	1498	1501	1490	1493	1495	1496	1485	1473	1464	1479	1480	1484	1468	1447	1433	1427	1428	1445	1482	1507	1512	1496	1456	1437	1445	1452	1455	1457	1451	1443	1440	1432	1432	1441	1474	1499	1515	1519	1508	1506	1504	1495	1488	1486	1485	1481	1470	1471	1468	1461	1463	1466	1473	1470	1479	1473	1481	1486	1486	1497	1508	1502	1490	1492	1478	1480	1484	1480	1465	1451	1425	1416	0	0	0	0	0	0	0	0	0	0	0	0	0	0	0	0	0	0	0	0	0	764	716	691	686	686	711	709	701	688	693	706	718	722	721	718	713	703	699	701	706	709	712	712	711	704	696	689	684	684	683	680	675	674	674	671	670	675	681	686	693	706	703	696	694	694	704	709	703	698	700	705	711	719	724	722	704	697	700	704	705	703	693	686	690	699	702	696	706	742	781	811	894	944	1012	1084	1211	1299	1336	1377	1418	1441	1447	1452	1462	1483	1516	1524	1514	1491	1494	1513	1525	1520	1509	1497	1491	1481	1469	1468	1465	1472	1482	1480	1456	1436	1439	1474	1489	1488	1441	1442	1448	1469	1482	1476	1473	1505	1509	1502	1486	1473	1469	1460	1451	1459	1470	1496	1485	1452	1449	1450	1456	1454	1452	1446	1438	1446	1453	1463	1474	1491	1485	1472	1453	1442	1432	1443	1447	1448	1458	1470	1482	1471	1457	1436	1439	1442	1447	1456	1456	1455	1455	1463	1463	1458	1459	1445	1439	1455	1465	1469	1461	1465	1486	1512	1521	1505	1484	1455	1434	1434	1424	1423	1429	1445	1462	1463	1466	1465	1476	1502	1502	1516	0	0	0	0	0	0
0	0	0	0	0	0	0	0	0	0	0	0	0	0	0	0	0	0	0	0	0	0	0	0	0	0	0	0	0	0	0	0	0	0	0	0	0	0	0	0	0	0	0	0	0	0	0	0	0	0	0	0	0	0	0	0	0	0	0	0	0	0	0	0	0	0	0	0	0	0	0	0	0	0	0	0	0	0	0	0	0	0	0	0	0	0	0	0	0	0	0	0	0	0	1450	1468	1464	1460	1465	1460	1459	1465	1479	1486	1477	1470	1455	1447	1441	1455	1459	1455	1450	1442	1435	1432	1438	1452	1449	1443	1433	1435	1443	1447	1458	1459	1467	1456	1456	1464	1494	1497	1474	1436	1453	1483	1495	1493	1484	1469	1465	1473	1468	1442	1441	1457	1481	1491	1482	1480	1464	1469	1469	1446	1398	1333	1241	0	0	0	0	0	0	0	0	0	0	0	0	0	0	0	0	0	0	0	0	0	0	0	0	0	0	0	0	0	0	0	0	0	0	0	0	0	0	0	0	0	0	0	0	0	0	0	0	0	0	1088	0	0	0	0	0	0	0	0	0	0	0	0	0	0	0	0	0	0	0	0	0	0	0	0	0	0	0	0	0	0	0	0	0	911	920	945	1014	1144	1378	1451	1480	1494	1500	1497	1499	1496	1497	1512	1525	1527	1510	1492	1489	1488	1490	1505	1508	1507	1496	1493	1482	1478	1467	1466	1480	1499	1508	1501	1496	1495	1493	1488	1490	1493	1499	1497	1491	1491	1497	1491	1480	1505	1537	1532	1518	1500	1491	1486	1494	1489	1458	1441	1432	1448	1463	1464	1459	1470	1487	1498	1499	1502	1507	1511	1517	1506	1493	1488	1485	1480	1482	1484	1494	1509	1509	1500	1496	1501	1500	1495	1492	1492	1491	1486	1467	1450	1451	1466	1479	1481	1482	1475	1473	1483	1483	1474	1482	1496	1504	1497	1502	1504	1498	1488	1491	1493	1484	1467	1467	1473	1488	1491	1475	1452	1430	1418	1423	1445	1467	1498	1512	1507	1471	1449	1452	1457	1463	1469	1460	1447	1445	1444	1444	1446	1449	1444	1457	1475	1490	1508	1521	1518	1508	1506	1504	1501	1499	1491	1487	1473	1473	1475	1477	1484	1484	1484	1489	1494	1490	1488	1485	1486	1481	1491	1492	1487	1491	1486	1483	1469	1468	1446	0	0	0	0	0	0	0	0	0	0	0	0	0	0	0	0	0	0	0	0	0	0	774	720	685	684	703	702	688	677	681	691	700	705	707	706	698	696	700	700	703	710	716	716	704	696	689	682	685	686	685	682	680	678	674	668	666	669	674	674	686	696	696	686	679	682	695	699	691	686	684	690	693	703	706	703	688	684	692	693	694	691	685	682	690	693	692	686	687	701	716	721	758	797	844	897	953	1014	1083	1174	1322	1383	1401	1404	1411	1428	1445	1455	1452	1465	1458	1467	1489	1495	1486	1476	1467	1473	1476	1483	1480	1470	1481	1479	1455	1425	1419	1436	1446	1442	1438	1463	1487	1502	1495	1467	1461	1482	1498	1487	1475	1472	1480	1474	1466	1453	1450	1451	1447	1446	1461	1470	1475	1473	1463	1455	1446	1444	1465	1487	1496	1496	1491	1470	1455	1454	1464	1483	1490	1478	1480	1471	1456	1446	1445	1438	1436	1442	1443	1450	1459	1457	1459	1468	1468	1474	1476	1463	1460	1460	1462	1469	1458	1467	1489	1508	1514	1500	1469	1437	1423	1423	1422	1426	1435	1458	1475	1491	1484	1481	1481	1474	1474	1467	0	0	0	0	0	0
0	0	0	0	0	0	0	0	0	0	0	0	0	0	0	0	0	0	0	0	0	0	0	0	0	0	0	0	0	0	0	0	0	0	0	0	0	0	0	0	0	0	0	0	0	0	0	0	0	0	0	0	0	0	0	0	0	0	0	0	0	0	0	0	0	0	0	0	0	0	0	0	0	0	0	0	0	0	0	0	0	0	0	0	0	0	0	0	0	0	0	0	0	0	1422	1439	1453	1461	1462	1462	1457	1463	1470	1478	1475	1466	1459	1447	1443	1451	1460	1453	1442	1439	1444	1454	1470	1453	1445	1426	1429	1437	1443	1443	1442	1449	1452	1454	1454	1461	1483	1493	1477	1446	1466	1491	1488	1480	1476	1464	1464	1462	1449	1440	1443	1465	1492	1497	1489	1469	1439	1392	1363	0	0	0	0	0	0	0	0	0	0	0	0	0	0	0	0	0	0	0	0	0	0	0	0	0	0	0	0	0	0	0	0	0	0	0	0	0	0	0	0	0	0	0	0	0	0	0	0	0	0	0	0	0	0	0	0	0	0	0	0	0	0	0	0	0	0	0	0	0	0	0	0	0	0	0	0	0	0	0	0	0	0	0	0	0	0	0	0	0	965	1010	1178	1378	1421	1472	1503	1511	1508	1502	1500	1486	1481	1495	1510	1517	1510	1497	1492	1498	1500	1505	1503	1499	1493	1482	1480	1477	1475	1487	1497	1516	1526	1517	1517	1514	1513	1497	1483	1485	1490	1491	1487	1486	1488	1489	1486	1483	1504	1508	1502	1498	1501	1514	1512	1496	1472	1455	1457	1473	1495	1502	1462	1470	1481	1490	1495	1505	1513	1511	1514	1504	1489	1487	1492	1491	1488	1486	1491	1498	1500	1491	1490	1490	1492	1489	1481	1479	1476	1469	1463	1461	1463	1477	1488	1487	1474	1464	1463	1480	1492	1497	1496	1490	1489	1490	1487	1475	1446	1436	1449	1490	1482	1472	1474	1475	1496	1498	1484	1456	1437	1430	1432	1441	1468	1484	1514	1521	1496	1471	1484	1488	1477	1467	1453	1447	1460	1464	1457	1444	1439	1440	1445	1467	1493	1505	1518	1522	1522	1520	1516	1515	1505	1483	1481	1473	1480	1483	1484	1490	1496	1499	1500	1491	1493	1488	1481	1482	1490	1502	1503	1497	1488	1481	1484	1491	1495	1485	1463	0	0	0	0	0	0	0	0	0	0	0	0	0	0	0	0	0	0	0	0	0	0	777	703	685	688	689	676	674	683	688	696	684	682	687	699	703	703	699	695	703	712	708	678	674	673	674	679	681	684	683	679	675	666	659	659	662	664	662	668	675	676	669	664	670	679	683	674	672	673	673	673	677	683	682	671	673	681	682	679	680	682	680	690	690	682	670	670	677	687	662	674	703	728	760	817	881	960	1033	1101	1177	1250	1311	1365	1408	1427	1435	1437	1453	1457	1457	1456	1465	1473	1475	1476	1474	1481	1479	1473	1461	1468	1467	1454	1441	1434	1442	1448	1443	1439	1458	1490	1505	1496	1473	1455	1462	1474	1470	1459	1471	1488	1484	1469	1450	1444	1444	1443	1453	1473	1479	1484	1476	1451	1438	1446	1452	1466	1491	1496	1498	1489	1470	1455	1456	1471	1499	1507	1501	1489	1476	1450	1441	1437	1435	1435	1438	1447	1446	1455	1453	1455	1455	1466	1473	1476	1475	1463	1463	1467	1459	1455	1463	1481	1505	1505	1493	1463	1425	1425	1416	1422	1424	1445	1460	1473	1493	1496	1487	1480	1468	1468	1461	0	0	0	0	0	0
0	0	0	0	0	0	0	0	0	0	0	0	0	0	0	0	0	0	0	0	0	0	0	0	0	0	0	0	0	0	0	0	0	0	0	0	0	0	0	0	0	0	0	0	0	0	0	0	0	0	0	0	0	0	0	0	0	0	0	0	0	0	0	0	0	0	0	0	0	0	0	0	0	0	0	0	0	0	0	0	0	0	0	0	0	0	0	0	0	0	0	0	0	0	1413	1434	1452	1464	1478	1470	1455	1448	1459	1468	1476	1479	1472	1460	1453	1452	1446	1448	1445	1447	1454	1464	1472	1470	1465	1448	1442	1443	1446	1429	1438	1444	1445	1437	1437	1454	1481	1492	1482	1478	1488	1499	1499	1497	1482	1476	1470	1460	1456	1443	1444	1463	1483	1489	1484	1438	0	0	0	0	0	0	0	0	0	0	0	0	0	0	0	0	0	0	0	0	0	0	0	0	0	0	0	0	0	0	0	0	0	0	0	0	0	0	0	0	0	0	0	0	0	0	0	0	0	0	0	0	0	0	0	0	0	0	0	0	0	0	0	0	0	0	0	0	0	0	0	0	0	0	0	0	0	0	0	0	0	0	0	0	0	0	0	0	0	0	0	996	1062	1204	1444	1488	1504	1518	1533	1535	1525	1501	1496	1502	1501	1486	1476	1469	1471	1481	1493	1493	1482	1473	1454	1439	1445	1457	1476	1486	1492	1489	1490	1487	1487	1494	1502	1506	1501	1486	1468	1460	1462	1473	1477	1478	1472	1473	1472	1471	1493	1498	1493	1497	1512	1521	1526	1514	1498	1479	1475	1496	1500	1498	1494	1496	1506	1501	1500	1495	1496	1494	1494	1491	1490	1501	1510	1519	1521	1497	1480	1479	1473	1471	1478	1487	1493	1480	1480	1472	1469	1472	1477	1487	1486	1491	1496	1494	1488	1482	1477	1484	1496	1508	1497	1477	1475	1483	1480	1458	1452	1453	1459	1472	1489	1480	1477	1483	1494	1495	1485	1468	1453	1438	1447	1452	1460	1479	1506	1504	1492	1488	1485	1481	1468	1458	1448	1451	1462	1464	1461	1455	1440	1436	1448	1463	1491	1500	1521	1527	1520	1520	1513	1516	1506	1484	1478	1472	1480	1481	1491	1495	1502	1506	1506	1499	1494	1490	1476	1471	1476	1485	1491	1488	1474	1473	1491	1497	1486	1490	1472	1450	0	0	0	0	0	0	0	0	0	0	0	0	0	0	0	0	0	0	0	0	0	0	783	687	682	674	673	670	681	667	676	682	686	698	709	712	706	704	698	701	698	689	656	656	663	672	670	674	675	674	668	659	648	645	645	649	652	654	651	655	656	648	643	645	652	658	659	659	664	666	655	659	666	667	657	657	667	667	666	668	672	681	684	685	672	655	652	659	669	644	643	650	664	669	697	749	823	899	981	1069	1144	1215	1293	1371	1421	1434	1440	1455	1458	1453	1450	1455	1469	1482	1486	1491	1482	1463	1449	1449	1457	1479	1468	1458	1452	1450	1449	1445	1439	1459	1483	1498	1489	1474	1454	1454	1460	1464	1459	1472	1494	1496	1478	1456	1445	1450	1450	1459	1478	1488	1484	1477	1443	1428	1439	1452	1471	1480	1490	1491	1479	1466	1456	1461	1480	1500	1519	1514	1499	1478	1452	1438	1432	1446	1451	1453	1451	1451	1455	1449	1451	1451	1458	1474	1491	1495	1485	1474	1459	1435	1430	1438	1433	1432	1419	1420	1421	1408	1408	1407	1416	1423	0	0	0	0	0	1493	1479	1468	1468	1463	0	0	0	0	0	0
0	0	0	0	0	0	0	0	0	0	0	0	0	0	0	0	0	0	0	0	0	0	0	0	0	0	0	0	0	0	0	0	0	0	0	0	0	0	0	0	0	0	0	0	0	0	0	0	0	0	0	0	0	0	0	0	0	0	0	0	0	0	0	0	0	0	0	0	0	0	0	0	0	0	0	0	0	0	0	0	0	0	0	0	0	0	0	0	0	0	0	0	0	0	1412	1435	1454	1482	1481	1457	1447	1450	1456	1469	1490	1499	1492	1473	1454	1440	1441	1448	1455	1452	1459	1460	1456	1459	1466	1467	1459	1449	1437	1434	1438	1439	1439	1427	1426	1445	1502	1509	1500	1479	1475	1471	1481	1481	1475	1462	1458	1451	1437	1405	1383	1365	1364	0	0	0	0	0	0	0	0	0	0	0	0	0	0	0	0	0	0	0	0	0	0	0	0	0	0	0	0	0	0	0	0	0	0	0	0	0	0	0	0	0	0	0	0	0	0	0	0	0	0	0	0	0	0	0	0	0	0	0	0	0	0	0	0	0	0	0	0	0	0	0	0	0	0	0	0	0	0	0	0	0	0	0	0	0	0	0	0	0	0	0	0	0	0	1072	1245	1453	1508	1519	1521	1535	1542	1544	1533	1508	1498	1496	1498	1481	1474	1463	1458	1469	1480	1485	1480	1461	1447	1431	1437	1453	1470	1481	1484	1487	1490	1482	1476	1477	1481	1486	1482	1476	1463	1455	1460	1470	1486	1479	1479	1468	1465	1464	1475	1496	1489	1488	1506	1521	1529	1525	1506	1492	1491	1500	1500	1487	1478	1495	1513	1519	1509	1508	1504	1501	1500	1499	1500	1501	1510	1508	1500	1488	1486	1480	1478	1474	1483	1488	1488	1470	1459	1473	1487	1498	1506	1510	1508	1504	1506	1514	1516	1507	1489	1501	1485	1513	1493	1513	1503	1478	1485	1470	1467	1471	1477	1489	1490	1484	1480	1490	1500	1502	1490	1474	1464	1459	1461	1451	1448	1471	1490	1490	1481	1479	1476	1464	1448	1440	1451	1460	1463	1471	1482	1484	1457	1447	1451	1484	1501	1513	1537	1538	1512	1514	1523	1522	1509	1489	1474	1464	1468	1472	1488	1494	1493	1500	1511	1513	1505	1494	1471	1457	1466	1476	1481	1479	1474	1482	1497	1507	1504	1489	1461	0	0	0	0	0	0	0	0	0	0	0	0	0	0	0	0	0	0	0	0	0	0	0	0	707	683	670	662	654	651	654	659	673	692	706	716	717	717	710	700	694	688	656	644	652	656	661	661	660	663	663	656	642	635	632	634	637	643	644	640	641	637	628	630	636	642	647	644	649	658	661	655	653	654	652	648	648	654	660	657	656	665	672	675	673	659	647	640	643	656	649	641	637	638	638	647	674	706	746	789	855	978	1060	1138	1177	1249	1292	1407	1475	1489	1466	1448	1457	1487	1519	1532	1530	1500	1460	1427	1421	1438	1465	1500	1491	1485	1472	1446	1435	1434	1444	1449	1465	1479	1501	1521	1526	1503	1473	1456	1462	0	0	1473	1475	0	0	1497	1490	1481	1469	1456	0	0	0	0	0	0	0	0	0	0	0	0	0	0	0	0	0	0	0	0	0	0	0	0	0	0	0	0	0	0	0	0	0	0	0	0	0	0	0	0	0	0	0	0	0	0	0	0	0	0	0	0	0	0	0	0	0	0	0	0	0	0	0	0	0	0	0
0	0	0	0	0	0	0	0	0	0	0	0	0	0	0	0	0	0	0	0	0	0	0	0	0	0	0	0	0	0	0	0	0	0	0	0	0	0	0	0	0	0	0	0	0	0	0	0	0	0	0	0	0	0	0	0	0	0	0	0	0	0	0	0	0	0	0	0	0	0	0	0	0	0	0	0	0	0	0	0	0	0	0	0	0	0	0	0	0	0	0	0	0	1443	1443	1459	1474	1480	1470	1464	1453	1451	1456	1473	1494	1501	1488	1461	1438	1428	1424	1435	1460	1467	1465	1463	1456	1454	1462	1472	1476	1471	1444	1446	1460	1474	1470	1469	1471	1493	1509	1510	1505	1471	1458	1458	1458	1459	1451	1452	1449	1440	1407	1332	1250	1208	0	0	0	0	0	0	0	0	0	0	0	0	0	0	0	0	0	0	0	0	0	0	0	0	0	0	0	0	0	0	0	0	0	0	0	0	0	0	0	0	0	0	0	0	0	0	0	0	0	0	0	0	0	0	0	0	0	0	0	0	0	0	0	0	0	0	0	0	0	0	0	0	0	0	0	0	0	0	0	0	0	0	0	0	0	0	0	0	0	0	0	0	0	0	1057	1212	1330	1453	1515	1529	1538	1539	1545	1549	1542	1519	1500	1495	1497	1492	1473	1459	1451	1458	1471	1478	1473	1460	1441	1429	1437	1455	1472	1476	1476	1478	1487	1491	1482	1466	1460	1464	1471	1477	1460	1455	1459	1476	1504	1509	1492	1468	1445	1447	1462	1500	1490	1477	1481	1490	1486	1478	1475	1481	1517	1514	1458	1431	1440	1474	1500	1514	1509	1501	1491	1482	1476	1472	1479	1506	1506	1506	1497	1487	1487	1489	1481	1477	1480	1489	1488	1484	1467	1480	1493	1509	1515	1522	1520	1515	1515	1526	1527	1527	1510	1503	1494	1514	1496	1516	1508	1479	1490	1483	1481	1502	1510	1510	1497	1489	1482	1487	1500	1504	1492	1465	1449	1436	1428	1404	1392	1380	1387	1374	1371	1378	1385	1389	0	0	0	0	0	0	0	0	0	1410	1391	1406	0	0	0	0	1458	0	0	0	0	0	0	0	0	1406	1413	0	0	0	0	0	0	1424	1405	1401	1412	1426	1453	1484	1471	0	0	0	0	0	0	0	0	0	0	0	0	0	0	0	0	0	0	0	0	0	0	0	0	0	0	0	0	0	0	777	720	702	671	651	646	648	652	655	674	697	709	711	717	712	704	690	676	648	649	656	659	659	652	649	652	660	649	637	623	624	627	635	640	641	638	636	628	625	623	632	639	640	637	645	657	660	654	646	648	641	639	639	647	650	645	650	651	651	655	657	654	643	635	638	645	654	649	646	633	629	634	645	657	671	692	724	763	791	838	886	925	0	0	0	0	0	0	0	0	0	0	0	0	0	0	0	0	0	0	0	0	0	0	0	0	0	0	0	0	0	0	0	0	0	0	0	0	0	0	0	0	0	0	0	0	0	0	0	0	0	0	0	0	0	0	0	0	0	0	0	0	0	0	0	0	0	0	0	0	0	0	0	0	0	0	0	0	0	0	0	0	0	0	0	0	0	0	0	0	0	0	0	0	0	0	0	0	0	0	0	0	0	0	0	0	0	0	0	0	0	0	0	0	0
0	0	0	0	0	0	0	0	0	0	0	0	0	0	0	0	0	0	0	0	0	0	0	0	0	0	0	0	0	0	0	0	0	0	0	0	0	0	0	0	0	0	0	0	0	0	0	0	0	0	0	0	0	0	0	0	0	0	0	0	0	0	0	0	0	0	0	0	0	0	0	0	0	0	0	0	0	0	0	0	0	0	0	0	0	0	0	0	0	0	0	0	0	1475	1490	1491	1486	1481	1468	1461	1453	1453	1462	1471	1486	1493	1465	1432	1419	1408	1412	1424	1447	1481	1484	1478	1466	1455	1460	1475	1477	1483	1494	1503	1499	1495	1504	1505	1493	1490	1494	1491	1491	1450	1422	1410	1412	1418	1426	1458	0	0	0	0	0	0	0	0	0	0	0	0	0	0	0	0	0	0	0	0	0	0	0	0	0	0	0	0	0	0	0	0	0	0	0	0	0	0	0	0	0	0	0	0	0	0	0	0	0	0	0	0	0	0	0	0	0	0	0	0	0	0	0	0	0	0	0	0	0	0	0	0	0	0	0	0	0	0	0	0	0	0	0	0	0	0	0	0	0	0	0	0	0	0	0	0	0	0	0	0	0	1171	1345	1415	1479	1519	1525	1521	1512	1539	1559	1579	1583	1574	1565	1537	1518	1508	1499	1489	1477	1456	1436	1411	1413	1437	1485	1520	1515	1481	1455	1454	1493	1532	1525	1504	1488	1498	1494	1494	0	0	0	0	0	0	0	0	0	0	0	0	0	0	0	0	0	0	0	0	0	0	0	0	0	0	0	0	0	0	0	0	0	0	0	0	0	0	0	1525	1518	1498	1463	1444	1452	1465	1458	1449	1461	1474	1510	1567	1592	1596	1590	1579	1566	1511	1500	1514	1519	1515	1499	1499	1497	1537	1573	1547	1531	1526	1522	1511	1497	1503	1498	1480	0	0	0	0	0	0	0	0	0	0	0	0	0	0	0	0	0	0	0	0	0	0	0	0	0	0	0	0	0	0	0	0	0	0	0	0	0	0	0	0	0	0	0	0	0	0	0	0	0	0	0	0	0	0	0	0	0	0	0	0	0	0	0	0	0	0	0	0	0	0	0	0	0	0	0	0	0	0	0	0	0	0	0	0	0	0	0	0	0	0	0	0	678	662	652	649	643	640	643	671	687	696	707	712	704	689	672	658	658	665	664	653	645	645	650	656	651	636	623	624	629	637	645	638	632	628	625	625	625	627	633	633	631	637	649	657	651	638	638	630	629	637	641	641	641	639	637	635	641	648	651	643	631	631	642	646	643	632	627	627	630	632	636	641	652	664	677	638	633	634	635	630	0	0	0	0	0	0	0	0	0	0	0	0	0	0	0	0	0	0	0	0	0	0	0	0	0	0	0	0	0	0	0	0	0	0	0	0	0	0	0	0	0	0	0	0	0	0	0	0	0	0	0	0	0	0	0	0	0	0	0	0	0	0	0	0	0	0	0	0	0	0	0	0	0	0	0	0	0	0	0	0	0	0	0	0	0	0	0	0	0	0	0	0	0	0	0	0	0	0	0	0	0	0	0	0	0	0	0	0	0	0	0	0
0	0	0	0	0	0	0	0	0	0	0	0	0	0	0	0	0	0	0	0	0	0	0	0	0	0	0	0	0	0	0	0	0	0	0	0	0	0	0	0	0	0	0	0	0	0	0	0	0	0	0	0	0	0	0	0	0	0	0	0	0	0	0	0	0	0	0	0	0	0	0	0	0	0	0	0	0	0	0	0	0	0	0	0	0	0	0	0	0	0	0	0	0	1513	1493	1493	1486	1477	1473	1465	1456	1457	1458	1459	1462	1460	1446	1426	1416	1407	1409	1431	1451	1472	1491	1492	1491	1476	1470	1475	1477	1481	1484	1486	1487	1502	1520	1527	0	0	0	0	0	0	0	0	0	0	0	0	0	0	0	0	0	0	0	0	0	0	0	0	0	0	0	0	0	0	0	0	0	0	0	0	0	0	0	0	0	0	0	0	0	0	0	0	0	0	0	0	0	0	0	0	0	0	0	0	0	0	0	0	0	0	0	0	0	0	0	0	0	0	0	0	0	0	0	0	0	0	0	0	0	0	0	0	0	0	0	0	0	0	0	0	0	0	0	0	0	0	0	0	0	0	0	0	0	0	0	0	0	0	0	0	0	0	0	0	0	0	0	0	0	0	0	0	0	0	0	0	0	0	0	0	0	0	0	0	0	0	0	0	0	0	0	0	0	0	0	0	0	0	0	0	0	0	0	0	0	0	0	0	0	0	0	0	0	0	0	0	0	0	0	0	0	0	0	0	0	0	0	0	0	0	0	0	0	0	0	0	0	0	0	0	0	0	0	0	0	0	0	0	0	0	0	0	0	0	0	0	0	0	0	0	0	0	0	0	0	0	0	0	0	0	0	0	0	0	0	0	0	0	0	0	0	0	0	0	0	0	0	0	0	0	0	0	0	0	0	0	0	0	0	0	0	0	0	0	0	0	0	0	0	0	0	0	0	0	0	0	0	0	0	0	0	0	0	0	0	0	0	0	0	0	0	0	0	0	0	0	0	0	0	0	0	0	0	0	0	0	0	0	0	0	0	0	0	0	0	0	0	0	0	0	0	0	0	0	0	677	659	652	644	631	644	657	667	678	695	704	702	687	673	666	673	679	668	656	647	647	648	648	649	638	630	633	637	644	647	636	627	623	623	623	627	628	627	628	628	635	642	649	640	629	625	614	616	623	638	639	636	631	624	622	632	643	648	639	631	627	631	634	628	622	617	618	614	598	593	598	606	618	629	630	626	621	622	622	590	604	634	0	0	0	0	0	0	0	0	0	0	0	0	0	0	0	0	0	0	0	0	0	0	0	0	0	0	0	0	0	0	0	0	0	0	0	0	0	0	0	0	0	0	0	0	0	0	0	0	0	0	0	0	0	0	0	0	0	0	0	0	0	0	0	0	0	0	0	0	0	0	0	0	0	0	0	0	0	0	0	0	0	0	0	0	0	0	0	0	0	0	0	0	0	0	0	0	0	0	0	0	0	0	0	0	0	0	0	0	0
0	0	0	0	0	0	0	0	0	0	0	0	0	0	0	0	0	0	0	0	0	0	0	0	0	0	0	0	0	0	0	0	0	0	0	0	0	0	0	0	0	0	0	0	0	0	0	0	0	0	0	0	0	0	0	0	0	0	0	0	0	0	0	0	0	0	0	0	0	0	0	0	0	0	0	0	0	0	0	0	0	0	0	0	0	0	0	0	0	0	0	0	0	1486	1475	1483	1487	1483	1484	1474	1472	1457	1454	1441	1437	1442	1446	1451	1451	1446	1444	1444	1455	1472	1493	1496	1496	1498	1491	1489	1478	1456	1442	1436	0	0	0	0	0	0	0	0	0	0	0	0	0	0	0	0	0	0	0	0	0	0	0	0	0	0	0	0	0	0	0	0	0	0	0	0	0	0	0	0	0	0	0	0	0	0	0	0	0	0	0	0	0	0	0	0	0	0	0	0	0	0	0	0	0	0	0	0	0	0	0	0	0	0	0	0	0	0	0	0	0	0	0	0	0	0	0	0	0	0	0	0	0	0	0	0	0	0	0	0	0	0	0	0	0	0	0	0	0	0	0	0	0	0	0	0	0	0	0	0	0	0	0	0	0	0	0	0	0	0	0	0	0	0	0	0	0	0	0	0	0	0	0	0	0	0	0	0	0	0	0	0	0	0	0	0	0	0	0	0	0	0	0	0	0	0	0	0	0	0	0	0	0	0	0	0	0	0	0	0	0	0	0	0	0	0	0	0	0	0	0	0	0	0	0	0	0	0	0	0	0	0	0	0	0	0	0	0	0	0	0	0	0	0	0	0	0	0	0	0	0	0	0	0	0	0	0	0	0	0	0	0	0	0	0	0	0	0	0	0	0	0	0	0	0	0	0	0	0	0	0	0	0	0	0	0	0	0	0	0	0	0	0	0	0	0	0	0	0	0	0	0	0	0	0	0	0	0	0	0	0	0	0	0	0	0	0	0	0	0	0	0	0	0	0	0	0	0	0	0	0	0	0	0	0	0	0	0	0	0	0	0	0	0	0	0	0	0	0	0	0	0	0	0	0	0	682	668	656	652	655	660	662	668	676	686	688	679	666	673	676	674	665	651	648	646	645	643	648	643	639	643	645	649	647	632	624	624	625	626	628	627	628	629	631	636	636	634	625	618	612	599	602	610	626	628	627	623	616	611	619	633	634	633	625	627	624	618	604	609	611	609	599	596	591	590	595	610	623	629	624	619	617	619	606	595	612	620	607	594	0	0	0	0	0	0	0	0	0	0	0	0	0	0	0	0	0	0	0	0	0	0	0	0	0	0	0	0	0	0	0	0	0	0	0	0	0	0	0	0	0	0	0	0	0	0	0	0	0	0	0	0	0	0	0	0	0	0	0	0	0	0	0	0	0	0	0	0	0	0	0	0	0	0	0	0	0	0	0	0	0	0	0	0	0	0	0	0	0	0	0	0	0	0	0	0	0	0	0	0	0	0	0	0	0	0
0	0	0	0	0	0	0	0	0	0	0	0	0	0	0	0	0	0	0	0	0	0	0	0	0	0	0	0	0	0	0	0	0	0	0	0	0	0	0	0	0	0	0	0	0	0	0	0	0	0	0	0	0	0	0	0	0	0	0	0	0	0	0	0	0	0	0	0	0	0	0	0	0	0	0	0	0	0	0	0	0	0	0	0	0	0	0	0	0	0	0	0	0	1448	1461	1476	1484	1490	1493	1486	1469	1469	1455	1439	1440	1447	1456	1469	1480	1484	1474	1463	1464	1470	1487	1485	1490	1495	1486	1482	1470	1436	1403	0	0	0	0	0	0	0	0	0	0	0	0	0	0	0	0	0	0	0	0	0	0	0	0	0	0	0	0	0	0	0	0	0	0	0	0	0	0	0	0	0	0	0	0	0	0	0	0	0	0	0	0	0	0	0	0	0	0	0	0	0	0	0	0	0	0	0	0	0	0	0	0	0	0	0	0	0	0	0	0	0	0	0	0	0	0	0	0	0	0	693	649	0	0	0	0	0	0	0	0	0	0	0	0	0	0	0	0	0	0	0	0	0	0	0	0	0	0	0	0	0	0	0	0	0	0	0	0	0	0	0	0	0	0	0	0	0	0	0	0	0	0	0	0	0	0	0	0	0	0	0	0	0	0	0	0	0	0	0	0	0	0	0	0	0	0	0	0	0	0	0	0	0	0	0	0	0	0	0	0	0	0	0	0	0	0	0	0	0	0	0	0	0	0	0	0	0	0	0	0	0	0	0	0	0	0	0	0	0	0	0	0	0	0	0	0	0	0	0	0	0	0	0	0	0	0	0	0	0	0	0	0	0	0	0	0	0	0	0	0	0	0	0	0	0	0	0	0	0	0	0	0	0	0	0	0	0	0	0	0	0	0	0	0	0	0	0	0	0	0	0	0	0	0	0	0	0	0	0	0	0	0	0	0	0	0	0	0	0	0	0	0	0	0	0	0	0	0	0	0	0	0	0	0	0	0	0	0	0	0	0	0	0	0	0	0	0	0	0	0	0	0	0	0	0	0	0	0	694	693	688	679	672	663	661	656	656	660	662	666	671	680	665	652	640	629	634	635	635	642	643	641	642	645	644	639	623	620	625	625	627	627	628	628	624	626	627	628	619	614	611	599	594	594	601	610	614	611	605	606	607	616	616	618	618	607	617	619	620	618	612	607	603	600	598	589	584	584	600	619	623	620	616	609	610	603	603	606	604	590	569	562	0	0	0	0	0	0	0	0	0	0	0	0	0	0	0	0	0	0	0	0	0	0	0	0	0	0	0	0	0	0	0	0	0	0	0	0	0	0	0	0	0	0	0	0	0	0	0	0	0	0	0	0	0	0	0	0	0	0	0	0	0	0	0	0	0	0	0	0	0	0	0	0	0	0	0	0	0	0	0	0	0	0	0	0	0	0	0	0	0	0	0	0	0	0	0	0	0	0	0	0	0	0	0	0	0
0	0	0	0	0	0	0	0	0	0	0	0	0	0	0	0	0	0	0	0	0	0	0	0	0	0	0	0	0	0	0	0	0	0	0	0	0	0	0	0	0	0	0	0	0	0	0	0	0	0	0	0	0	0	0	0	0	0	0	0	0	0	0	0	0	0	0	0	0	0	0	0	0	0	0	0	0	0	0	0	0	0	0	0	0	0	0	0	0	0	0	0	0	1434	1456	1469	1482	1495	1491	1483	1474	1466	1462	1455	1454	1451	1463	1483	1492	1500	1487	1479	1467	1462	1467	1472	1477	1491	1498	1493	1482	1453	1401	0	0	0	0	0	0	0	0	0	0	0	0	0	0	0	0	0	0	0	0	0	0	0	0	0	0	0	0	0	0	0	0	0	0	0	0	0	0	0	0	0	0	0	0	0	0	0	0	0	0	0	0	0	0	0	0	0	0	0	0	0	0	0	0	0	0	0	0	0	0	0	0	0	0	0	0	0	0	0	0	0	0	0	0	0	0	0	0	0	0	661	648	638	0	0	0	0	0	0	0	0	0	0	0	0	0	0	0	0	0	0	0	0	0	0	0	0	0	0	0	0	0	0	0	0	0	0	0	0	0	0	0	0	0	0	0	0	0	0	0	0	0	0	0	0	0	0	0	0	0	0	0	0	0	0	0	0	0	0	0	0	0	0	0	0	0	0	0	0	0	0	0	0	0	0	0	0	0	0	0	0	0	0	0	0	0	0	0	0	0	0	0	0	0	0	0	0	0	0	0	0	0	0	0	0	0	0	0	0	0	0	0	0	0	0	0	0	0	0	0	0	0	0	0	0	0	0	0	0	0	0	0	0	0	0	0	0	0	0	0	0	0	0	0	0	0	0	0	0	0	0	0	0	0	0	0	0	0	0	0	0	0	0	0	0	0	0	0	0	0	0	0	0	0	0	0	0	0	0	0	0	0	0	0	0	0	0	0	0	0	0	0	0	0	0	0	0	0	0	0	0	0	0	0	0	0	0	0	0	0	0	0	0	0	0	0	0	0	0	0	0	0	0	0	0	0	0	0	0	0	702	681	663	659	649	637	628	626	632	661	667	656	639	628	618	612	616	616	624	628	633	632	628	628	631	630	623	617	618	623	625	626	622	624	625	623	618	615	605	605	604	604	599	594	597	601	601	597	595	595	599	580	578	573	581	592	608	618	620	623	613	602	591	588	589	581	572	576	594	611	618	616	611	602	598	591	596	604	596	581	562	548	557	550	0	0	0	0	0	0	0	0	0	0	0	0	0	0	0	0	0	0	0	0	0	0	0	0	0	0	0	0	0	0	0	0	0	0	0	0	0	0	0	0	0	0	0	0	0	0	0	0	0	0	0	0	0	0	0	0	0	0	0	0	0	0	0	0	0	0	0	0	0	0	0	0	0	0	0	0	0	0	0	0	0	0	0	0	0	0	0	0	0	0	0	0	0	0	0	0	0	0	0	0	0	0	0
0	0	0	0	0	0	0	0	0	0	0	0	0	0	0	0	0	0	0	0	0	0	0	0	0	0	0	0	0	0	0	0	0	0	0	0	0	0	0	0	0	0	0	0	0	0	0	0	0	0	0	0	0	0	0	0	0	0	0	0	0	0	0	0	0	0	0	0	0	0	0	0	0	0	0	0	0	0	0	0	0	0	0	0	0	0	0	0	0	0	0	0	0	1436	1452	1458	1467	1473	1476	1473	1471	1464	1465	1469	1465	1462	1465	1478	1487	1489	1501	1493	1467	1449	1449	1457	1468	1481	1494	1488	1485	1469	1415	0	0	0	0	0	0	0	0	0	0	0	0	0	0	0	0	0	0	0	0	0	0	0	0	0	0	0	0	0	0	0	0	0	0	0	0	0	0	0	0	0	0	0	0	0	0	0	0	0	0	0	0	0	0	0	0	0	0	0	0	0	0	0	0	0	0	0	0	0	0	0	0	0	0	0	0	0	0	0	0	0	0	0	0	0	0	0	0	0	0	632	639	0	0	0	0	0	0	0	0	0	0	0	0	0	0	0	0	0	0	0	0	0	0	0	0	0	0	0	0	0	0	0	0	0	0	0	0	0	0	0	0	0	0	0	0	0	0	0	0	0	0	0	0	0	0	0	0	0	0	0	0	0	0	0	0	0	0	0	0	0	0	0	0	0	0	0	0	0	0	0	0	0	0	0	0	0	0	0	0	0	0	0	0	0	0	0	0	0	0	0	0	0	0	0	0	0	0	0	0	0	0	0	0	0	0	0	0	0	0	0	0	0	0	0	0	0	0	0	0	0	0	0	0	0	0	0	0	0	0	0	0	0	0	0	0	0	0	0	0	0	0	0	0	0	0	0	0	0	0	0	0	0	0	0	0	0	0	0	0	0	0	0	0	0	0	0	0	0	0	0	0	0	0	0	0	0	0	0	0	0	0	0	0	0	0	0	0	0	0	0	0	0	0	0	0	0	0	0	0	0	0	0	0	0	0	0	0	0	0	0	0	0	0	0	0	0	0	0	0	0	0	0	0	0	0	0	0	0	0	0	685	655	646	639	619	605	609	613	631	623	619	610	605	607	605	602	600	602	609	614	616	609	606	616	631	630	629	630	632	627	624	623	622	624	619	613	601	597	596	602	607	605	601	602	601	599	595	591	587	583	574	570	566	570	586	599	610	611	611	605	597	586	575	571	568	563	569	591	607	612	605	598	592	582	577	587	594	590	571	549	539	547	564	568	563	0	0	0	0	0	0	0	0	0	0	0	0	0	0	0	0	0	0	0	0	0	0	0	0	0	0	0	0	0	0	0	0	0	0	0	0	0	0	0	0	0	0	0	0	0	0	0	0	0	0	0	0	0	0	0	0	0	0	0	0	0	0	0	0	0	0	0	0	0	0	0	0	0	0	0	0	0	0	0	0	0	0	0	0	0	0	0	0	0	0	0	0	0	0	0	0	0	0	0	0	0
0	0	0	0	0	0	0	0	0	0	0	0	0	0	0	0	0	0	0	0	0	0	0	0	0	0	0	0	0	0	0	0	0	0	0	0	0	0	0	0	0	0	0	0	0	0	0	0	0	0	0	0	0	0	0	0	0	0	0	0	0	0	0	0	0	0	0	0	0	0	0	0	0	0	0	0	0	0	0	0	0	0	0	0	0	0	0	0	0	0	0	0	0	1450	1447	1450	1453	1452	1455	1458	1463	1468	1475	1476	1478	1472	1464	1463	1471	1475	1501	1488	1461	1444	1433	1454	1474	1491	1496	1486	1476	1457	1389	0	0	0	0	0	0	0	0	0	0	0	0	0	0	0	0	0	0	0	0	0	0	0	0	0	0	0	0	0	0	0	0	0	0	0	0	0	0	0	0	0	0	0	0	0	0	0	0	0	0	0	0	0	0	0	0	0	0	0	0	0	0	0	0	0	0	0	0	0	0	0	0	0	0	0	0	0	0	0	0	0	0	0	0	0	0	0	0	0	0	0	641	0	0	0	0	0	0	0	0	0	0	0	0	0	0	0	0	0	0	0	0	0	0	0	0	0	0	0	0	0	0	0	0	0	0	0	0	0	0	0	0	0	0	0	0	0	0	0	0	0	0	0	0	0	0	0	0	0	0	0	0	0	0	0	0	0	0	0	0	0	0	0	0	0	0	0	0	0	0	0	0	0	0	0	0	0	0	0	0	0	0	0	0	0	0	0	0	0	0	0	0	0	0	0	0	0	0	0	0	0	0	0	0	0	0	0	0	0	0	0	0	0	0	0	0	0	0	0	0	0	0	0	0	0	0	0	0	0	0	0	0	0	0	0	0	0	0	0	0	0	0	0	0	0	0	0	0	0	0	0	0	0	0	0	0	0	0	0	0	0	0	0	0	0	0	0	0	0	0	0	0	0	0	0	0	0	0	0	0	0	0	0	0	0	0	0	0	0	0	0	0	0	0	0	0	0	0	0	0	0	0	0	0	0	0	0	0	0	0	0	0	0	0	0	0	0	0	0	0	0	0	0	0	0	0	0	0	0	0	0	0	661	642	632	613	604	600	599	607	608	606	601	596	596	596	598	595	592	592	593	592	592	594	605	632	635	635	639	642	638	629	623	624	625	621	615	608	609	610	609	610	604	601	603	605	601	595	589	585	579	574	570	571	574	582	591	597	595	587	586	587	584	576	558	552	552	561	578	595	598	587	578	573	566	566	584	589	582	562	546	537	541	555	570	568	565	568	0	0	0	0	0	0	0	0	0	0	0	0	0	0	0	0	0	0	0	0	0	0	0	0	0	0	0	0	0	0	0	0	0	0	0	0	0	0	0	0	0	0	0	0	0	0	0	0	0	0	0	0	0	0	0	0	0	0	0	0	0	0	0	0	0	0	0	0	0	0	0	0	0	0	0	0	0	0	0	0	0	0	0	0	0	0	0	0	0	0	0	0	0	0	0	0	0	0	0
0	0	0	0	0	0	0	0	0	0	0	0	0	0	0	0	0	0	0	0	0	0	0	0	0	0	0	0	0	0	0	0	0	0	0	0	0	0	0	0	0	0	0	0	0	0	0	0	0	0	0	0	0	0	0	0	0	0	0	0	0	0	0	0	0	0	0	0	0	0	0	0	0	0	0	0	0	0	0	0	0	0	0	0	0	0	0	0	0	0	0	0	0	1468	1449	1443	1453	1450	1457	1466	1469	1471	1475	1482	1483	1470	1459	1451	1461	1468	1488	1482	1459	1447	1444	1460	1472	1485	1479	1461	1438	1369	1248	1189	0	0	0	0	0	0	0	0	0	0	0	0	0	0	0	0	0	0	0	0	0	0	0	0	0	0	0	0	0	0	0	0	0	0	0	0	0	0	0	0	0	0	0	0	0	0	0	0	0	0	0	0	0	0	0	0	0	0	0	0	0	0	0	0	0	0	0	0	0	0	0	0	0	0	0	0	0	0	0	0	0	0	0	0	0	0	0	0	0	0	642	647	0	0	0	0	0	0	0	672	672	0	0	0	0	0	0	0	0	0	0	0	0	0	0	0	0	0	0	0	0	0	0	0	0	0	0	0	0	0	0	0	0	0	0	0	0	0	0	0	0	0	0	0	0	0	0	0	0	0	0	0	0	0	0	0	0	0	0	0	0	0	0	0	0	0	0	0	0	0	0	0	0	0	0	0	0	0	0	0	0	0	0	0	0	0	0	0	0	0	0	0	0	0	0	0	0	0	0	0	0	0	0	0	0	0	0	0	0	0	0	0	0	0	0	0	0	0	0	0	0	0	0	0	0	0	0	0	0	0	0	0	0	0	0	0	0	0	0	0	0	0	0	0	0	0	0	0	0	0	0	0	0	0	0	0	0	0	0	0	0	0	0	0	0	0	0	0	0	0	0	0	0	0	0	0	0	0	0	0	0	0	0	0	0	0	0	0	0	0	0	0	0	0	0	0	0	0	0	0	0	0	0	0	0	0	0	0	0	0	0	0	0	0	0	0	0	0	0	0	0	0	0	0	0	0	0	0	0	0	0	0	646	642	625	604	596	592	597	597	597	596	592	590	594	595	593	585	583	581	580	583	584	593	627	632	631	639	650	647	633	623	624	619	616	610	611	612	617	613	600	594	594	598	596	592	588	582	578	577	573	573	576	580	584	586	577	573	569	568	574	579	577	569	556	553	556	567	574	572	571	569	567	552	564	584	591	584	563	545	538	541	549	558	564	559	553	558	567	0	0	0	0	0	0	0	0	0	0	0	0	0	0	0	0	0	0	0	0	0	0	0	0	0	0	0	0	0	0	0	0	0	0	0	0	0	0	0	0	0	0	0	0	0	0	0	0	0	0	0	0	0	0	0	0	0	0	0	0	0	0	0	0	0	0	0	0	0	0	0	0	0	0	0	0	0	0	0	0	0	0	0	0	0	0	0	0	0	0	0	0	0	0	0	0	0
0	0	0	0	0	0	0	0	0	0	0	0	0	0	0	0	0	0	0	0	0	0	0	0	0	0	0	0	0	0	0	0	0	0	0	0	0	0	0	0	0	0	0	0	0	0	0	0	0	0	0	0	0	0	0	0	0	0	0	0	0	0	0	0	0	0	0	0	0	0	0	0	0	0	0	0	0	0	0	0	0	0	0	0	0	0	0	0	0	0	0	0	0	1464	1453	1459	1464	1468	1468	1473	1467	1469	1467	1477	1470	1462	1451	1445	1447	1460	1471	1469	1459	1447	1444	1463	1473	1463	1450	1430	1359	1242	1076	1023	0	0	0	0	0	0	0	0	0	0	0	0	0	0	0	0	0	0	0	0	0	0	0	0	0	0	0	0	0	0	0	0	0	0	0	0	0	0	0	0	0	0	0	0	0	0	0	0	0	0	0	0	0	0	0	0	0	0	0	0	0	0	0	0	0	0	0	0	0	0	0	0	0	0	0	0	0	0	0	0	0	0	0	0	0	0	0	0	0	0	632	642	0	0	0	0	0	0	661	678	682	0	0	0	0	0	0	0	0	0	0	0	0	0	0	0	0	0	0	0	0	0	0	0	0	0	0	0	0	0	0	0	0	0	0	0	0	0	0	0	0	0	0	0	0	0	0	0	0	0	0	0	0	0	0	0	0	0	0	0	0	0	0	0	0	0	0	0	0	0	0	0	0	0	0	0	0	0	0	0	0	0	0	0	0	0	0	0	0	0	0	0	0	0	0	0	0	0	0	0	0	0	0	0	0	0	0	0	0	0	0	0	0	0	0	0	0	0	0	0	0	0	0	0	0	0	0	0	0	0	0	0	0	0	0	0	0	0	0	0	0	0	0	0	0	0	0	0	0	0	0	0	0	0	0	0	0	0	0	0	0	0	0	0	0	0	0	0	0	0	0	0	0	0	0	0	0	0	0	0	0	0	0	0	0	0	0	0	0	0	0	0	0	0	0	0	0	0	0	0	0	0	0	0	0	0	0	0	0	0	0	0	0	0	0	0	0	0	0	0	695	707	0	0	0	0	0	0	0	0	0	0	0	0	652	640	606	583	582	586	589	587	584	588	593	595	590	576	573	572	574	577	578	592	607	617	626	636	650	645	631	625	619	614	606	600	590	590	589	590	581	578	581	583	582	577	575	573	572	573	574	571	576	580	586	583	564	554	551	554	562	569	570	566	556	554	556	565	570	566	562	565	563	565	572	581	583	582	566	547	536	536	543	550	553	551	545	542	542	546	557	568	0	0	0	0	0	0	0	0	0	0	0	0	0	0	0	0	0	0	0	0	0	0	0	0	0	0	0	0	0	0	0	0	0	0	0	0	0	0	0	0	0	0	0	0	0	0	0	0	0	0	0	0	0	0	0	0	0	0	0	0	0	0	0	0	0	0	0	0	0	0	0	0	0	0	0	0	0	0	0	0	0	0	0	0	0	0	0	0	0	0	0	0	0	0
