0	0	0	0	0	0	0	0	0	0	0	0	0	0	0	0	0	0	0	0	0	0	0	0	0	0	0	0	0	0	0	0	0	0	0	0	0	0	0	0	0	0	0	0	0	0	0	0	0	0	0	0	0	0	0	0	0	0	0	0	0	0	0	0	0	0	0	0	0	0	0	0	0	0	0	0	0	0	0	0	0	0	0	0	0	0	0	0	0	0	0	0	1460	1472	1466	1457	1442	1422	1426	1437	1449	1453	1458	1468	1473	1470	1459	1428	1433	1455	1494	1509	1516	1501	1488	1486	1484	1469	1448	1445	1470	1491	1505	1517	0	0	0	0	0	0	0	0	0	0	0	0	0	0	0	0	0	0	0	0	0	0	0	0	0	0	0	0	0	0	0	0	0	0	0	0	0	0	0	0	0	0	0	0	0	0	0	0	0	0	0	0	1435	1433	1425	1407	1394	1394	1394	1404	1422	1430	1432	1424	1413	1427	1438	1446	1444	1437	1419	1411	1408	1411	1402	1403	1403	1412	1423	1426	1431	1459	1458	1446	1427	1404	1405	1407	1408	1418	1427	1438	1433	1432	1449	1445	1433	1442	1461	1471	1486	0	0	0	0	0	0	0	0	0	0	0	1711	1720	1724	1721	1719	1720	1721	1718	1710	1704	1700	1693	1675	1665	1659	1675	1698	1722	1732	1742	1751	0	0	0	0	0	0	0	0	0	0	0	0	0	0	0	0	0	0	0	0	0	0	0	0	0	0	0	0	0	0	0	0	0	0	0	0	0	0	0	0	0	0	0	0	0	0	0	0	0	0	0	0	0	0	1403	1401	1399	1393	1386	1374	1371	1369	1370	1368	1366	1366	1372	1380	1397	1389	1359	1360	1375	1379	1367	1369	1374	1382	1389	1400	1406	1379	1369	1369	1363	1358	1350	1366	1373	1364	1355	1351	1357	1365	1362	1366	1372	1374	1370	1363	1368	1371	1364	1355	1363	1424	1528	1601	1654	0	0	0	0	0	0	0	0	0	0	0	0	0	0	0	0	0	0	0	0	0	0	0	0	0	0	0	0	0	0	0	0	0	0	0	0	0	0	0	0	0	0	0	0	0	0	0	0	0	0	0	0	0	0	0	0	0	0	0	0	0	0	0	0	0	0	0	0	0	0	1683	1730	1731	1691	1666	1657	1647	1638	1636	1653	1669	1645	0	0	0	0	0	0	0	1435	1440	1414	1412	1400	1391	1383	1364	1354	1355	1348	1344	1343	1356	1360	1363	1368	1376	1372	1371	1359	1342	1329	1329	1342	1351	1358	1366	1362	1369	1380	1383	1375	1369	1361	1354	1358	1360	1360	1363	1358	1356	1352	1352	1361	1379	1394	1383	1372	1361	1356	1361	0	0	0	0	0	0	0	0	0	0	0	0	0	0	0	0	0	0	0	0	0	0	0	0	0	0	0	0	0	0	0	0	0	0	0	0	0	0	0	0	0	0	0	0	0	0	0	0	0	0	0	0	0	0	0	0	0	0	0	0	0	0	0	0	0	0	0	0	0	0	0	0	0	0	0	0	0	0	0	0	0	0	0	0	0	0	0	0	0	0	0	0	0	0	0	0	0	0	0	0	0	0	0	0	0	0	0	0	0	0	0	0	0	0	0	0	0	0	0	0	0	0	0	0	0	0	0	0	0	0	0	0	0
0	0	0	0	0	0	0	0	0	0	0	0	0	0	0	0	0	0	0	0	0	0	0	0	0	0	0	0	0	0	0	0	0	0	0	0	0	0	0	0	0	0	0	0	0	0	0	0	0	0	0	0	0	0	0	0	0	0	0	0	0	0	0	0	0	0	0	0	0	0	0	0	0	0	0	0	0	0	0	0	0	0	0	0	0	0	0	0	0	0	0	0	1448	1460	1464	1465	1457	1445	1444	1448	1460	1469	1466	1472	1479	1467	1446	1430	1427	1463	1429	1416	1469	1501	1477	1470	1465	1459	1452	1430	1440	1466	1481	1489	0	0	0	0	0	0	0	0	0	0	0	0	0	0	0	0	0	0	0	0	0	0	0	0	0	0	0	0	0	0	0	0	0	0	0	0	0	0	0	0	0	0	0	0	0	0	0	0	0	0	0	0	1417	1416	1419	1407	1404	1400	1399	1410	1422	1428	1421	1415	1417	1420	1437	1440	1438	1425	1414	1412	1413	1407	1398	1393	1400	1413	1425	1434	1440	1462	1464	1450	1429	1407	1406	1408	1407	1417	1425	1440	1437	1440	1457	1446	1443	1458	1472	1457	1466	0	0	0	0	0	0	0	0	0	0	0	1682	1682	1695	1696	1694	1698	1722	1717	1710	1708	1710	1697	1687	1673	1666	1672	1689	1702	1720	1760	0	0	0	0	0	0	0	0	0	0	0	0	0	0	0	0	0	0	0	0	0	0	0	0	0	0	0	0	0	0	0	0	0	0	0	0	0	0	0	0	0	0	0	0	0	0	0	0	0	0	0	0	0	0	0	1393	1394	1399	1397	1387	1375	1378	1369	1363	1361	1362	1366	1368	1374	1373	1364	1355	1352	1359	1362	1368	1368	1364	1370	1376	1375	1376	1368	1366	1360	1363	1363	1363	1372	1372	1366	1358	1361	1372	1385	1382	1383	1386	1384	1372	1362	1370	1370	1365	1358	1365	1433	1535	1594	1640	0	0	0	0	0	0	0	0	0	0	0	0	0	0	0	0	0	0	0	0	0	0	0	0	0	0	0	0	0	0	0	0	0	0	0	0	0	0	0	0	0	0	0	0	0	0	0	0	0	0	0	0	0	0	0	0	0	0	0	0	0	0	0	0	0	0	0	0	0	0	1674	1715	1691	1662	1656	1654	1633	1623	1627	1640	1657	0	0	0	0	0	0	0	0	1404	1404	1418	1414	1404	1392	1376	1357	1354	1357	1353	1349	1341	1347	1351	1354	1359	1363	1368	1370	1358	1347	1342	1339	1341	1345	1350	1352	1350	1359	1374	1383	1377	1369	1360	1354	1351	1349	1346	1353	1358	1358	1349	1355	1375	1392	1393	1385	1380	1372	1376	1387	1410	0	0	0	0	0	0	0	0	0	0	0	0	0	0	0	0	0	0	0	0	0	0	0	0	0	0	0	0	0	0	0	0	0	0	0	0	0	0	0	0	0	0	0	0	0	0	0	0	0	0	0	0	0	0	0	0	0	0	0	0	0	0	0	0	0	0	0	0	0	0	0	0	0	0	0	0	0	0	0	0	0	0	0	0	0	0	0	0	0	0	0	0	0	0	0	0	0	0	0	0	0	0	0	0	0	0	0	0	0	0	0	0	0	0	0	0	0	0	0	0	0	0	0	0	0	0	0	0	0	0	0	0
0	0	0	0	0	0	0	0	0	0	0	0	0	0	0	0	0	0	0	0	0	0	0	0	0	0	0	0	0	0	0	0	0	0	0	0	0	0	0	0	0	0	0	0	0	0	0	0	0	0	0	0	0	0	0	0	0	0	0	0	0	0	0	0	0	0	0	0	0	0	0	0	0	0	0	0	0	0	0	0	0	0	0	0	0	0	0	0	0	0	0	0	1460	1454	1452	1455	1465	1464	1466	1467	1475	1479	1478	1482	1477	1460	1442	1447	1447	1421	0	0	0	1430	1468	1464	1460	1457	1451	1447	1451	1458	1464	1481	0	0	0	0	0	0	0	0	0	0	0	0	0	0	0	0	0	0	0	0	0	0	0	0	0	0	0	0	0	0	0	0	0	0	0	0	0	0	0	0	0	0	0	0	0	0	0	0	0	0	0	0	1413	1410	1405	1408	1410	1418	1424	1426	1421	1420	1410	1406	1401	1407	1436	1434	1421	1414	1412	1412	1417	1407	1397	1390	1396	1410	1421	1431	1444	1446	1449	1441	1424	1401	1402	1396	1410	1418	1425	1430	1431	1439	1448	1461	1463	1496	1462	1453	1450	0	0	0	0	0	0	0	0	0	0	0	1654	1652	1650	1656	1666	1684	1741	1743	1720	1714	1727	1716	1706	1697	1688	1673	1688	1696	1707	1755	0	0	0	0	0	0	0	0	0	0	0	0	0	0	0	0	0	0	0	0	0	0	0	0	0	0	0	0	0	0	0	0	0	0	0	0	0	0	0	0	0	0	0	0	0	0	0	0	0	0	0	0	0	0	0	1395	1398	1402	1403	1387	1383	1381	1379	1366	1366	1367	1367	1370	1372	1367	1357	1348	1349	1363	1366	1365	1363	1361	1363	1365	1373	1378	1374	1374	1367	1368	1373	1373	1372	1371	1371	1370	1377	1380	1393	1406	1403	1398	1395	1377	1364	1375	1380	1376	1379	1384	1434	1527	1571	1624	0	0	0	0	0	0	0	0	0	0	0	0	0	0	0	0	0	0	0	0	0	0	0	0	0	0	0	0	0	0	0	0	0	0	0	0	0	0	0	0	0	0	0	0	0	0	0	0	0	0	0	0	0	0	0	0	0	0	0	0	0	0	0	0	0	0	0	0	0	0	0	1689	1667	1658	1657	1645	1628	1616	1614	1614	1630	0	0	0	0	0	0	0	0	1373	1379	1394	1414	1409	1393	1373	1354	1352	1355	1352	1349	1335	1350	1354	1359	1353	1344	1354	1362	1352	1351	1341	1335	1335	1341	1352	1357	1357	1365	1371	1383	1378	1370	1362	1357	1354	1351	1342	1340	1353	1359	1361	1363	1378	1394	1387	1383	1382	1388	1391	1406	1425	0	0	0	0	0	0	0	0	0	0	0	0	0	0	0	0	0	0	0	0	0	0	0	0	0	0	0	0	0	0	0	0	0	0	0	0	0	0	0	0	0	0	0	0	0	0	0	0	0	0	0	0	0	0	0	0	0	0	0	0	0	0	0	0	0	0	0	0	0	0	0	0	0	0	0	0	0	0	0	0	0	0	0	0	0	0	0	0	0	0	0	0	0	0	0	0	0	0	0	0	0	0	0	0	0	0	0	0	0	0	0	0	0	0	0	0	0	0	0	0	0	0	0	0	0	0	0	0	0	0	0	0
0	0	0	0	0	0	0	0	0	0	0	0	0	0	0	0	0	0	0	0	0	0	0	0	0	0	0	0	0	0	0	0	0	0	0	0	0	0	0	0	0	0	0	0	0	0	0	0	0	0	0	0	0	0	0	0	0	0	0	0	0	0	0	0	0	0	0	0	0	0	0	0	0	0	0	0	0	0	0	0	0	0	0	0	0	0	0	0	0	0	0	0	1470	1459	1447	1462	1476	1474	1477	1471	1476	1479	1483	1483	1482	1451	1448	1455	1454	1422	0	0	0	1420	1460	1468	1475	1477	1475	1483	1481	1478	1481	1482	0	0	0	0	0	0	0	0	0	0	0	0	0	0	0	0	0	0	0	0	0	0	0	0	0	0	0	0	0	0	0	0	0	0	0	0	0	0	0	0	0	0	0	0	0	0	0	0	0	0	0	0	1426	1415	1404	1402	1410	1425	1437	1425	1418	1400	1392	1390	1396	1402	1418	1419	1414	1408	1410	1412	1410	1414	1403	1398	1401	1412	1420	1439	1444	1428	1421	1419	1410	1398	1399	1400	1414	1420	1426	1427	1426	1426	1421	1459	1482	1506	1466	1454	1451	0	0	0	0	0	0	0	0	0	0	0	0	1622	1625	1626	1628	1674	1751	1743	1730	1730	1770	1790	1776	1739	1712	1709	1699	1690	1720	1733	0	0	0	0	0	0	0	0	0	0	0	0	0	0	0	0	0	0	0	0	0	0	0	0	0	0	0	0	0	0	0	0	0	0	0	0	0	0	0	0	0	0	0	0	0	0	0	0	0	0	0	0	0	0	0	1400	1387	1395	1407	1398	1390	1387	1381	1378	1374	1374	1374	1374	1373	1372	1363	1356	1357	1368	1365	1361	1370	1379	1366	1368	1376	1381	1379	1379	1378	1384	1392	1384	1373	1376	1378	1382	1385	1389	1396	1401	1408	1405	1403	1393	1377	1390	1392	1390	1394	1395	1435	1520	1580	1622	0	0	0	0	0	0	0	0	0	0	0	0	0	0	0	0	0	0	0	0	0	0	0	0	0	0	0	0	0	0	0	0	0	0	0	0	0	0	0	0	0	0	0	0	0	0	0	0	0	0	0	0	0	0	0	0	0	0	0	0	0	0	0	0	0	0	0	0	0	0	0	1701	1673	1660	1664	1665	1636	1602	1590	1595	0	0	0	0	0	0	0	0	0	1355	1365	1386	1407	1402	1388	1366	1357	1356	1353	1350	1342	1341	1366	1369	1366	1342	1333	1336	1350	1355	1345	1343	1335	1339	1349	1362	1370	1367	1374	1379	1381	1371	1364	1363	1362	1364	1362	1347	1346	1359	1368	1374	1378	1378	1384	1379	1382	1384	1393	1392	1406	0	0	0	0	0	0	0	0	0	0	0	0	0	0	0	0	0	0	0	0	0	0	0	0	0	0	0	0	0	0	0	0	0	0	0	0	0	0	0	0	0	0	0	0	0	0	0	0	0	0	0	0	0	0	0	0	0	0	0	0	0	0	0	0	0	0	0	0	0	0	0	0	0	0	0	0	0	0	0	0	0	0	0	0	0	0	0	0	0	0	0	0	0	0	0	0	0	0	0	0	0	0	0	0	0	0	0	0	0	0	0	0	0	0	0	0	0	0	0	0	0	0	0	0	0	0	0	0	0	0	0	0	0
0	0	0	0	0	0	0	0	0	0	0	0	0	0	0	0	0	0	0	0	0	0	0	0	0	0	0	0	0	0	0	0	0	0	0	0	0	0	0	0	0	0	0	0	0	0	0	0	0	0	0	0	0	0	0	0	0	0	0	0	0	0	0	0	0	0	0	0	0	0	0	0	0	0	0	0	0	0	0	0	0	0	0	0	0	0	0	0	0	0	0	0	1468	1457	1447	1459	1477	1472	1460	1451	1452	1477	1491	1494	1498	1498	1500	1486	1466	1464	1462	1464	1458	1459	1470	1485	1497	1500	1490	1497	1498	1497	1481	1483	0	0	0	0	0	0	0	0	0	0	0	0	0	0	0	0	0	0	0	0	0	0	0	0	0	0	0	0	0	0	0	0	0	0	0	0	0	0	0	0	0	0	0	0	0	0	0	0	0	0	0	0	1428	1413	1403	1390	1394	1410	1424	1405	1381	1377	1385	1393	1397	1406	1402	1395	1401	1405	1408	1414	1412	1421	1414	1413	1414	1419	1428	1437	1441	1412	1404	1399	1400	1396	1403	1412	1420	1423	1420	1427	1426	1410	1405	1426	1476	1482	1460	1457	1467	0	0	0	0	0	0	0	0	0	0	0	0	0	0	0	0	0	0	0	1711	1721	0	0	0	0	1713	1707	1707	1697	1722	1750	0	0	0	0	0	0	0	0	0	0	0	0	0	0	0	0	0	0	0	0	0	0	0	0	0	0	0	0	0	0	0	0	0	0	0	0	0	0	0	0	0	0	0	0	0	0	0	0	0	0	0	0	0	0	0	1405	1381	1398	1399	1396	1389	1383	1382	1384	1386	1386	1382	1382	1384	1391	1387	1383	1371	1371	1371	1367	1367	1382	1383	1365	1375	1387	1394	1398	1402	1402	1398	1384	1375	1374	1374	1379	1380	1385	1388	1396	1403	1400	1402	1398	1397	1404	1404	1398	1394	1403	1468	1516	1601	0	0	0	0	0	0	0	0	0	0	0	0	0	0	0	0	0	0	0	0	0	0	0	0	0	0	0	0	0	0	0	0	0	0	0	0	0	0	0	0	0	0	0	0	0	0	0	0	0	0	0	0	0	0	0	0	0	0	0	0	0	0	0	0	0	0	0	0	0	0	0	0	0	1707	1697	1691	0	0	0	0	0	0	0	0	0	0	0	0	0	0	1373	1374	1378	1392	1393	1383	1369	1367	1364	1361	1353	1352	1362	1371	1375	1368	1336	1323	1331	1342	1350	1349	1349	1356	1360	1369	1373	1375	1378	1376	1376	1385	1364	1361	1360	1363	1369	1369	1359	1352	1357	1368	1378	1385	1383	1380	1380	1378	1383	1388	1393	1414	0	0	0	0	0	0	0	0	0	0	0	0	0	0	0	0	0	0	0	0	0	0	0	0	0	0	0	0	0	0	0	0	0	0	0	0	0	0	0	0	0	0	0	0	0	0	0	0	0	0	0	0	0	0	0	0	0	0	0	0	0	0	0	0	0	0	0	0	0	0	0	0	0	0	0	0	0	0	0	0	0	0	0	0	0	0	0	0	0	0	0	0	0	0	0	0	0	0	0	0	0	0	0	0	0	0	0	0	0	0	0	0	0	0	0	0	0	0	0	0	0	0	0	0	0	0	0	0	0	0	0	0	0
0	0	0	0	0	0	0	0	0	0	0	0	0	0	0	0	0	0	0	0	0	0	0	0	0	0	0	0	0	0	0	0	0	0	0	0	0	0	0	0	0	0	0	0	0	0	0	0	0	0	0	0	0	0	0	0	0	0	0	0	0	0	0	0	0	0	0	0	0	0	0	0	0	0	0	0	0	0	0	0	0	0	0	0	0	0	0	0	0	0	0	0	1471	1447	1427	1433	1451	1455	1442	1434	1432	1459	1480	1490	1494	1501	1519	1494	1467	1454	1438	1437	1441	1452	1466	1475	1482	1485	1480	1487	1493	1493	1484	1488	0	0	0	0	0	0	0	0	0	0	0	0	0	0	0	0	0	0	0	0	0	0	0	0	0	0	0	0	0	0	0	0	0	0	0	0	0	0	0	0	0	0	0	0	0	0	0	0	0	0	0	0	1397	1413	1401	1378	1380	1388	1389	1381	1365	1368	1386	1403	1410	1412	1391	1391	1401	1403	1410	1418	1421	1420	1423	1418	1427	1422	1424	1433	1437	1408	1397	1390	1394	1401	1421	1422	1418	1419	1428	1443	1443	1421	1407	1414	1453	1458	1431	1454	1470	0	0	0	0	0	0	0	0	0	0	0	0	0	0	0	0	0	0	0	0	0	0	0	0	0	0	0	1687	1702	1722	0	0	0	0	0	0	0	0	0	0	0	0	0	0	0	0	0	0	0	0	0	0	0	0	0	0	0	0	0	0	0	0	0	0	0	0	0	0	0	0	0	0	0	0	0	0	0	0	0	0	0	0	0	0	0	0	1414	1397	1399	1390	1391	1383	1378	1378	1378	1383	1385	1385	1388	1395	1403	1402	1389	1380	1382	1378	1374	1368	1370	1374	1375	1380	1388	1395	1395	1397	1397	1397	1388	1373	1370	1368	1370	1369	1371	1377	1386	1391	1395	1394	1395	1395	1402	1399	1391	1394	1410	1464	1550	1601	0	0	0	0	0	0	0	0	0	0	0	0	0	0	0	0	0	0	0	0	0	0	0	0	0	0	0	0	0	0	0	0	0	0	0	0	0	0	0	0	0	0	0	0	0	0	0	0	0	0	0	0	0	0	0	0	0	0	0	0	0	0	0	0	0	0	0	0	0	0	0	0	0	0	0	0	0	0	0	0	0	0	0	0	0	0	0	0	0	0	1393	1382	1383	1386	1382	1378	1369	1365	1362	1366	1363	1361	1363	1368	1370	1363	1333	1330	1336	1345	1363	1370	1373	1380	1389	1388	1386	1378	1373	1371	1370	1364	1356	1351	1355	1358	1364	1366	1359	1346	1345	1358	1380	1379	1376	1371	1370	1375	1380	1374	1386	1429	0	0	0	0	0	0	0	0	0	0	0	0	0	0	0	0	0	0	0	0	0	0	0	0	0	0	0	0	0	0	0	0	0	0	0	0	0	0	0	0	0	0	0	0	0	0	0	0	0	0	0	0	0	0	0	0	0	0	0	0	0	0	0	0	0	0	0	0	0	0	0	0	0	0	0	0	0	0	0	0	0	0	0	0	0	0	0	0	0	0	0	0	0	0	0	0	0	0	0	0	0	0	0	0	0	0	0	0	0	0	0	0	0	0	0	0	0	0	0	0	0	0	0	0	0	0	0	0	0	0	0	0	0
0	0	0	0	0	0	0	0	0	0	0	0	0	0	0	0	0	0	0	0	0	0	0	0	0	0	0	0	0	0	0	0	0	0	0	0	0	0	0	0	0	0	0	0	0	0	0	0	0	0	0	0	0	0	0	0	0	0	0	0	0	0	0	0	0	0	0	0	0	0	0	0	0	0	0	0	0	0	0	0	0	0	0	0	0	0	0	0	0	0	0	0	1477	1445	1431	1442	1451	1454	1438	1415	1424	1444	1465	1481	1486	1497	1521	1494	1473	1450	1442	1438	1438	1449	1455	1458	1460	1468	1477	1482	1485	1492	1488	1495	0	0	0	0	0	0	0	0	0	0	0	0	0	0	0	0	0	0	0	0	0	0	0	0	0	0	0	0	0	0	0	0	0	0	0	0	0	0	0	0	0	0	0	0	0	0	0	0	0	0	0	0	1381	1410	1399	1374	1366	1369	1378	1370	1368	1375	1393	1408	1408	1405	1405	1409	1409	1404	1405	1405	1411	1414	1422	1421	1420	1414	1417	1425	1430	1407	1384	1390	1394	1408	1430	1430	1410	1410	1421	1447	1453	1448	1441	1425	1452	1437	1408	1442	0	0	0	0	0	0	0	0	0	0	0	0	0	0	0	0	0	0	0	0	0	0	0	0	0	0	0	0	0	0	0	0	0	0	0	0	0	0	0	0	0	0	0	0	0	0	0	0	0	0	0	0	0	0	0	0	0	0	0	0	0	0	0	0	0	0	0	0	0	0	0	0	0	0	0	0	0	0	0	0	0	0	0	0	0	0	0	1421	1415	1406	1393	1389	1378	1376	1378	1375	1378	1379	1377	1388	1399	1403	1401	1395	1387	1385	1383	1376	1364	1358	1368	1373	1381	1390	1394	1391	1379	1368	1361	1365	1373	1369	1371	1372	1367	1364	1366	1373	1380	1381	1385	1387	1387	1392	1386	1384	1394	1407	1422	1495	1598	0	0	0	0	0	0	0	0	0	0	0	0	0	0	0	0	0	0	0	0	0	0	0	0	0	0	0	0	0	0	0	0	0	0	0	0	0	0	0	0	0	0	0	0	0	0	0	0	0	0	0	0	0	0	0	0	0	0	0	0	0	0	0	0	0	0	0	0	0	0	0	0	0	0	0	0	0	0	0	0	0	0	0	0	0	0	0	0	0	0	1394	1401	1392	1381	1375	1365	1359	1358	1358	1359	1362	1358	1360	1360	1355	1351	1331	1336	1342	1348	1360	1372	1380	1385	1396	1399	1388	1374	1368	1365	1358	1343	1340	1343	1349	1357	1361	1363	1353	1345	1346	1358	1366	1376	1366	1355	1347	1360	1366	1364	1378	1431	0	0	0	0	0	0	0	0	0	0	0	0	0	0	0	0	0	0	0	0	0	0	0	0	0	0	0	0	0	0	0	0	0	0	0	0	0	0	0	0	0	0	0	0	0	0	0	0	0	0	0	0	0	0	0	0	0	0	0	0	0	0	0	0	0	0	0	0	0	0	0	0	0	0	0	0	0	0	0	0	0	0	0	0	0	0	0	0	0	0	0	0	0	0	0	0	0	0	0	0	0	0	0	0	0	0	0	0	0	0	0	0	0	0	0	0	0	0	0	0	0	0	0	0	0	0	0	0	0	0	0	0	0
0	0	0	0	0	0	0	0	0	0	0	0	0	0	0	0	0	0	0	0	0	0	0	0	0	0	0	0	0	0	0	0	0	0	0	0	0	0	0	0	0	0	0	0	0	0	0	0	0	0	0	0	0	0	0	0	0	0	0	0	0	0	0	0	0	0	0	0	0	0	0	0	0	0	0	0	0	0	0	0	0	0	0	0	0	0	0	0	0	0	0	0	0	1460	1436	1446	1456	1457	1436	1418	1423	1443	1459	1467	1471	1487	1507	1497	1477	1452	1445	1446	1441	1436	1438	1441	1450	1462	1480	1482	1487	1492	1495	1489	0	0	0	0	0	0	0	0	0	0	0	0	0	0	0	0	0	0	0	0	0	0	0	0	0	0	0	0	0	0	0	0	0	0	0	0	0	0	0	0	0	0	0	0	0	0	0	0	0	0	0	0	1396	1411	1403	1375	1369	1376	1377	1382	1374	1384	1405	1407	1400	1388	1407	1420	1420	1410	1402	1392	1397	1405	1410	1411	1408	1407	1417	1423	1424	1396	1384	1393	1400	1410	1429	1441	1407	1404	1407	1443	1456	1461	1459	1453	1463	1433	1407	1456	0	0	0	0	0	0	0	0	0	0	0	0	0	0	0	0	0	0	0	0	0	0	0	0	0	0	0	0	0	0	0	0	0	0	0	0	0	0	0	0	0	0	0	0	0	0	0	0	0	0	0	0	0	0	0	0	0	0	0	0	0	0	0	0	0	0	0	0	0	0	0	0	0	0	0	0	0	0	0	0	0	0	0	0	0	0	0	1434	1442	1435	1407	1389	1381	1381	1377	1370	1371	1376	1377	1392	1400	1405	1395	1388	1385	1388	1386	1389	1370	1363	1363	1370	1380	1399	1397	1380	1362	1355	1359	1364	1372	1375	1379	1379	1374	1371	1360	1359	1371	1373	1378	1384	1389	1379	1369	1376	1388	1399	1407	1489	1601	0	0	0	0	0	0	0	0	0	0	0	0	0	0	0	0	0	0	0	0	0	0	0	0	0	0	0	0	0	0	0	0	0	0	0	0	0	0	0	0	0	0	0	0	0	0	0	0	0	0	0	0	0	0	0	0	0	0	0	0	0	0	0	0	0	0	0	0	0	0	0	0	0	0	0	0	0	0	0	0	0	0	0	0	0	0	0	0	0	0	0	1408	1418	1394	1361	1360	1355	1352	1349	1356	1361	1360	1360	1349	1348	1344	1342	1337	1343	1348	1352	1362	1371	1380	1388	1394	1384	1368	1364	1353	1347	1330	1330	1338	1346	1359	1363	1364	1356	1345	1345	1358	1359	1365	1358	1344	1338	1354	1361	1367	1381	1431	0	0	0	0	0	0	0	0	0	0	0	0	0	0	0	0	0	0	0	0	0	0	0	0	0	0	0	0	0	0	0	0	0	0	0	0	0	0	0	0	0	0	0	0	0	0	0	0	0	0	0	0	0	0	0	0	0	0	0	0	0	0	0	0	0	0	0	0	0	0	0	0	0	0	0	0	0	0	0	0	0	0	0	0	0	0	0	0	0	0	0	0	0	0	0	0	0	0	0	0	0	0	0	0	0	0	0	0	0	0	0	0	0	0	0	0	0	0	0	0	0	0	0	0	0	0	0	0	0	0	0	0	0
0	0	0	0	0	0	0	0	0	0	0	0	0	0	0	0	0	0	0	0	0	0	0	0	0	0	0	0	0	0	0	0	0	0	0	0	0	0	0	0	0	0	0	0	0	0	0	0	0	0	0	0	0	0	0	0	0	0	0	0	0	0	0	0	0	0	0	0	0	0	0	0	0	0	0	0	0	0	0	0	0	0	0	0	0	0	0	0	0	0	0	0	0	1451	1424	1437	1451	1447	1440	1439	1441	1448	1459	1462	1462	1477	1488	1493	1463	1456	1446	1442	1439	1439	1437	1439	1439	1460	1480	1475	1480	1482	1490	1477	0	0	0	0	0	0	0	0	0	0	0	0	0	0	0	0	0	0	0	0	0	0	0	0	0	0	0	0	0	0	0	0	0	0	0	0	0	0	0	0	0	0	0	0	0	0	0	0	0	0	0	0	1419	1415	1418	1405	1392	1396	1401	1406	1399	1393	1410	1409	1395	1383	1394	1412	1417	1414	1398	1393	1396	1407	1407	1403	1395	1401	1409	1415	1414	1398	1396	1404	1412	1414	1424	1438	1408	1404	1409	1440	1460	1475	1471	1464	1462	1451	1449	1464	0	0	0	0	0	0	0	0	0	0	0	0	0	0	0	0	0	0	0	0	0	0	0	0	0	0	0	0	0	0	0	0	0	0	0	0	0	0	0	0	0	0	0	0	0	0	0	0	0	0	0	0	0	0	0	0	0	0	0	0	0	0	0	0	0	0	0	0	0	0	0	0	0	0	0	0	0	0	0	0	0	0	0	0	0	0	0	1447	1449	1423	1403	1395	1394	1393	1382	1371	1364	1376	1381	1393	1406	1406	1398	1390	1385	1385	1390	1390	1380	1365	1365	1377	1385	1398	1394	1379	1358	1358	1351	1358	1374	1377	1387	1389	1387	1373	1367	1373	1376	1374	1378	1387	1393	1370	1362	1374	1392	1393	1395	1489	1607	0	0	0	0	0	0	0	0	0	0	0	0	0	0	0	0	0	0	0	0	0	0	0	0	0	0	0	0	0	0	0	0	0	0	0	0	0	0	0	0	0	0	0	0	0	0	0	0	0	0	0	0	0	0	0	0	0	0	0	0	0	0	0	0	0	0	0	0	0	0	0	0	0	0	0	0	0	0	0	0	0	0	0	0	0	0	0	0	0	0	0	1399	1408	1384	1354	1360	1358	1352	1353	1360	1365	1365	1359	1350	1349	1351	1347	1343	1345	1348	1354	1358	1362	1367	1374	1376	1362	1346	1344	1340	1338	1321	1325	1335	1340	1353	1361	1366	1365	1361	1356	1357	1355	1352	1349	1346	1352	1363	1362	1367	1383	1422	0	0	0	0	0	0	0	0	0	0	0	0	0	0	0	0	0	0	0	0	0	0	0	0	0	0	0	0	0	0	0	0	0	0	0	0	0	0	0	0	0	0	0	0	0	0	0	0	0	0	0	0	0	0	0	0	0	0	0	0	0	0	0	0	0	0	0	0	0	0	0	0	0	0	0	0	0	0	0	0	0	0	0	0	0	0	0	0	0	0	0	0	0	0	0	0	0	0	0	0	0	0	0	0	0	0	0	0	0	0	0	0	0	0	0	0	0	0	0	0	0	0	0	0	0	0	0	0	0	0	0	0	0
0	0	0	0	0	0	0	0	0	0	0	0	0	0	0	0	0	0	0	0	0	0	0	0	0	0	0	0	0	0	0	0	0	0	0	0	0	0	0	0	0	0	0	0	0	0	0	0	0	0	0	0	0	0	0	0	0	0	0	0	0	0	0	0	0	0	0	0	0	0	0	0	0	0	0	0	0	0	0	0	0	0	0	0	0	0	0	0	0	0	0	0	0	1466	1446	1441	1441	1445	1447	1447	1458	1463	1463	1453	1449	1459	1470	1461	1460	1461	1454	1440	1440	1436	1438	1436	1436	1443	1469	1472	1468	1477	1480	1459	0	0	0	0	0	0	0	0	0	0	0	0	0	0	0	0	0	0	0	0	0	0	0	0	0	0	0	0	0	0	0	0	0	0	0	0	0	0	0	0	0	0	0	0	0	0	0	0	0	0	0	0	1404	1386	1408	1422	1421	1414	1405	1403	1396	1394	1401	1401	1410	1414	1411	1409	1415	1412	1411	1407	1411	1415	1413	1403	1395	1397	1396	1403	1400	1401	1408	1420	1428	1426	1424	1431	1406	1404	1416	1441	1446	1458	1466	1453	1450	1442	1455	1476	0	0	0	0	0	0	0	0	0	0	0	0	0	0	0	0	0	0	0	0	0	0	0	0	0	0	0	0	0	0	0	0	0	0	0	0	0	0	0	0	0	0	0	0	0	0	0	0	0	0	0	0	0	0	0	0	0	0	0	0	0	0	0	0	0	0	0	0	0	0	0	0	0	0	0	0	0	0	0	0	0	0	0	0	0	0	0	1451	1435	1390	1393	1404	1407	1406	1393	1369	1363	1375	1382	1388	1411	1412	1403	1396	1386	1384	1383	1382	1376	1367	1366	1377	1387	1393	1388	1369	1360	1365	1368	1373	1374	1380	1387	1389	1382	1378	1384	1389	1390	1390	1385	1399	1396	1376	1363	1377	1399	1397	1398	1525	1610	0	0	0	0	0	0	0	0	0	0	0	0	0	0	0	0	0	0	0	0	0	0	0	0	0	0	0	0	0	0	0	0	0	0	0	0	0	0	0	0	0	0	0	0	0	0	0	0	0	0	0	0	0	0	0	0	0	0	0	0	0	0	0	0	0	0	0	0	0	0	0	0	0	0	0	0	0	0	0	0	0	0	0	0	0	0	0	0	0	0	0	1362	1367	1350	1350	1360	1369	1366	1357	1357	1356	1365	1364	1352	1350	1355	1354	1348	1343	1338	1340	1343	1348	1351	1357	1356	1330	1324	1328	1330	1341	1343	1351	1345	1336	1338	1348	1358	1363	1364	1359	1356	1349	1349	1351	1354	1361	1365	1360	1367	1384	1403	0	0	0	0	0	0	0	0	0	0	0	0	0	0	0	0	0	0	0	0	0	0	0	0	0	0	0	0	0	0	0	0	0	0	0	0	0	0	0	0	0	0	0	0	0	0	0	0	0	0	0	0	0	0	0	0	0	0	0	0	0	0	0	0	0	0	0	0	0	0	0	0	0	0	0	0	0	0	0	0	0	0	0	0	0	0	0	0	0	0	0	0	0	0	0	0	0	0	0	0	0	0	0	0	0	0	0	0	0	0	0	0	0	0	0	0	0	0	0	0	0	0	0	0	0	0	0	0	0	0	0	0	0
0	0	0	0	0	0	0	0	0	0	0	0	0	0	0	0	0	0	0	0	0	0	0	0	0	0	0	0	0	0	0	0	0	0	0	0	0	0	0	0	0	0	0	0	0	0	0	0	0	0	0	0	0	0	0	0	0	0	0	0	0	0	0	0	0	0	0	0	0	0	0	0	0	0	0	0	0	0	0	0	0	0	0	0	0	0	0	0	0	0	0	0	0	1485	1471	1456	1449	1446	1450	1458	1471	1467	1460	1448	1439	1441	1451	1450	1463	1467	1470	1458	1449	1445	1440	1434	1433	1437	1450	1475	1472	1466	1482	1474	0	0	0	0	0	0	0	0	0	0	0	0	0	0	0	0	0	0	0	0	0	0	0	0	0	0	0	0	0	0	0	0	0	0	0	0	0	0	0	0	0	0	0	0	0	0	0	0	0	0	0	0	1386	1371	1393	1418	1437	1439	1428	1414	1407	1411	1409	1411	1420	1425	1426	1414	1415	1417	1418	1427	1424	1423	1414	1410	1395	1385	1383	1376	1387	1387	1421	1432	1437	1436	1430	1429	1404	1407	1420	1437	1435	1429	1438	1430	1428	1420	1442	1458	0	0	0	0	0	0	0	0	0	0	0	0	0	0	0	0	0	0	0	0	0	0	0	0	0	0	0	0	0	0	0	0	0	0	0	0	0	0	0	0	0	0	0	0	0	0	0	0	0	0	0	0	0	0	0	0	0	0	0	0	0	0	0	0	0	0	0	0	0	0	0	0	0	0	0	0	0	0	0	0	0	0	0	0	0	0	0	1427	1356	1371	1387	1410	1415	1413	1395	1375	1370	1371	1380	1380	1382	1385	1383	1375	1369	1362	1364	1372	1373	1373	1376	1380	1368	1373	1370	1366	1365	1373	1369	1359	1350	1352	1362	1364	1371	1379	1388	1395	1399	1397	1398	1402	1403	1377	1374	1383	1408	1404	1419	1523	1609	0	0	0	0	0	0	0	0	0	0	0	0	0	0	0	0	0	0	0	0	0	0	0	0	0	0	0	0	0	0	0	0	0	0	0	0	0	0	0	0	0	0	0	0	0	0	0	0	0	0	0	0	0	0	0	0	0	0	0	0	0	0	0	0	0	0	0	0	0	0	0	0	0	0	0	0	0	0	0	0	0	0	0	0	0	0	0	0	0	0	0	1345	1336	1344	1369	1377	1377	1369	1358	1354	1353	1349	1354	1349	1344	1354	1354	1346	1340	1337	1335	1334	1340	1347	1349	1343	1336	1333	1340	1340	1341	1353	1354	1350	1341	1341	1341	1351	1354	1359	1359	1353	1348	1343	1344	1350	1359	1359	1357	1372	1386	1399	0	0	0	0	0	0	0	0	0	0	0	0	0	0	0	0	0	0	0	0	0	0	0	0	0	0	0	0	0	0	0	0	0	0	0	0	0	0	0	0	0	0	0	0	0	0	0	0	0	0	0	0	0	0	0	0	0	0	0	0	0	0	0	0	0	0	0	0	0	0	0	0	0	0	0	0	0	0	0	0	0	0	0	0	0	0	0	0	0	0	0	0	0	0	0	0	0	0	0	0	0	0	0	0	0	0	0	0	0	0	0	0	0	0	0	0	0	0	0	0	0	0	0	0	0	0	0	0	0	0	0	0	0
0	0	0	0	0	0	0	0	0	0	0	0	0	0	0	0	0	0	0	0	0	0	0	0	0	0	0	0	0	0	0	0	0	0	0	0	0	0	0	0	0	0	0	0	0	0	0	0	0	0	0	0	0	0	0	0	0	0	0	0	0	0	0	0	0	0	0	0	0	0	0	0	0	0	0	0	0	0	0	0	0	0	0	0	0	0	0	0	0	0	0	0	0	1502	1491	1480	1469	1459	1455	1469	1474	1470	1458	1445	1436	1439	1444	1455	1469	1481	1483	1475	1466	1452	1442	1438	1435	1441	1463	1482	1478	1476	1485	1493	0	0	0	0	0	0	0	0	0	0	0	0	0	0	0	0	0	0	0	0	0	0	0	0	0	0	0	0	0	0	0	0	0	0	0	0	0	0	0	0	0	0	0	0	0	0	0	0	0	0	0	0	1395	1360	1383	1405	1424	1424	1414	1412	1407	1415	1419	1425	1431	1432	1431	1422	1422	1418	1422	1424	1423	1416	1409	1402	1396	1393	1393	1387	1387	1391	1424	1434	1434	1424	1419	1414	1405	1409	1419	1436	1427	1416	1408	1401	1405	1407	1435	1444	0	0	0	0	0	0	0	0	0	0	0	0	0	0	0	0	0	0	0	0	0	0	0	0	0	0	0	0	0	0	0	0	0	0	0	0	0	0	0	0	0	0	0	0	0	0	0	0	0	0	0	0	0	0	0	0	0	0	0	0	0	0	0	0	0	0	0	0	0	0	0	0	0	0	0	0	0	0	0	0	0	0	0	0	0	0	0	1401	1357	1378	1393	1416	1420	1409	1388	1377	1373	1378	1382	1381	1371	1371	1373	1362	1355	1351	1360	1369	1377	1381	1381	1380	1365	1362	1359	1369	1366	1372	1366	1347	1334	1338	1354	1358	1368	1384	1390	1396	1398	1397	1394	1394	1392	1379	1390	1388	1400	1429	1426	1491	1600	0	0	0	0	0	0	0	0	0	0	0	0	0	0	0	0	0	0	0	0	0	0	0	0	0	0	0	0	0	0	0	0	0	0	0	0	0	0	0	0	0	0	0	0	0	0	0	0	0	0	0	0	0	0	0	0	0	0	0	0	0	0	0	0	0	0	0	0	0	0	0	0	0	0	0	0	0	0	0	0	0	0	0	0	0	0	0	0	0	0	0	1367	1333	1351	1377	1382	1381	1377	1365	1350	1346	1338	1342	1340	1339	1352	1357	1347	1359	1354	1351	1350	1354	1355	1346	1339	1333	1335	1337	1339	1345	1352	1354	1350	1345	1343	1341	1346	1350	1351	1344	1348	1341	1338	1335	1341	1348	1356	1363	1385	1396	1387	0	0	0	0	0	0	0	0	0	0	0	0	0	0	0	0	0	0	0	0	0	0	0	0	0	0	0	0	0	0	0	0	0	0	0	0	0	0	0	0	0	0	0	0	0	0	0	0	0	0	0	0	0	0	0	0	0	0	0	0	0	0	0	0	0	0	0	0	0	0	0	0	0	0	0	0	0	0	0	0	0	0	0	0	0	0	0	0	0	0	0	0	0	0	0	0	0	0	0	0	0	0	0	0	0	0	0	0	0	0	0	0	0	0	0	0	0	0	0	0	0	0	0	0	0	0	0	0	0	0	0	0	0
0	0	0	0	0	0	0	0	0	0	0	0	0	0	0	0	0	0	0	0	0	0	0	0	0	0	0	0	0	0	0	0	0	0	0	0	0	0	0	0	0	0	0	0	0	0	0	0	0	0	0	0	0	0	0	0	0	0	0	0	0	0	0	0	0	0	0	0	0	0	0	0	0	0	0	0	0	0	0	0	0	0	0	0	0	0	0	0	0	0	0	0	0	1509	1496	1485	1475	1467	1462	1471	1473	1465	1454	1447	1443	1449	1449	1467	1466	1485	1489	1482	1469	1453	1447	1448	1457	1465	1475	1486	1489	1490	1502	1516	1514	0	0	0	0	0	0	0	0	0	0	0	0	0	0	0	0	0	0	0	0	0	0	0	0	0	0	0	0	0	0	0	0	0	0	0	0	0	0	0	0	0	0	0	0	0	0	0	0	0	0	0	1400	1374	1377	1387	1398	1403	1392	1398	1399	1413	1424	1429	1431	1432	1432	1433	1430	1428	1420	1412	1412	1410	1408	1405	1403	1404	1410	1412	1409	1420	1427	1419	1407	1414	1405	1403	1405	1413	1424	1434	1427	1417	1409	1392	1393	1414	1437	1448	0	0	0	0	0	0	0	0	0	0	0	0	0	0	0	0	0	0	0	0	0	0	0	0	0	0	0	0	0	0	0	0	0	0	0	0	0	0	0	0	0	0	0	0	0	0	0	0	0	0	0	0	0	0	0	0	0	0	0	0	0	0	0	0	0	0	0	0	0	0	0	0	0	0	0	0	0	0	0	0	0	0	0	0	0	0	0	1378	1367	1390	1411	1417	1416	1394	1376	1373	1380	1390	1396	1390	1387	1383	1358	1352	1345	1352	1363	1366	1377	1382	1381	1380	1376	1361	1357	1366	1371	1370	1352	1345	1334	1340	1359	1367	1374	1377	1384	1390	1392	1391	1387	1382	1378	1383	1397	1397	1404	1424	1424	1463	1596	0	0	0	0	0	0	0	0	0	0	0	0	0	0	0	0	0	0	0	0	0	0	0	0	0	0	0	0	0	0	0	0	0	0	0	0	0	0	0	0	0	0	0	0	0	0	0	0	0	0	0	0	0	0	0	0	0	0	0	0	0	0	0	0	0	0	0	0	0	0	0	0	0	0	0	0	0	0	0	0	0	0	0	0	0	0	0	0	0	0	0	1391	1354	1370	1384	1379	1377	1372	1357	1341	1341	1342	1338	1352	1371	1372	1369	1367	1361	1358	1354	1357	1361	1358	1347	1333	1327	1332	1335	1340	1345	1354	1348	1343	1341	1340	1342	1347	1350	1353	1349	1344	1331	1334	1333	1339	1349	1354	1366	1400	1395	1362	1373	0	0	0	0	0	0	0	0	0	0	0	0	0	0	0	0	0	0	0	0	0	0	0	0	0	0	0	0	0	0	0	0	0	0	0	0	0	0	0	0	0	0	0	0	0	0	0	0	0	0	0	0	0	0	0	0	0	0	0	0	0	0	0	0	0	0	0	0	0	0	0	0	0	0	0	0	0	0	0	0	0	0	0	0	0	0	0	0	0	0	0	0	0	0	0	0	0	0	0	0	0	0	0	0	0	0	0	0	0	0	0	0	0	0	0	0	0	0	0	0	0	0	0	0	0	0	0	0	0	0	0	0
0	0	0	0	0	0	0	0	0	0	0	0	0	0	0	0	0	0	0	0	0	0	0	0	0	0	0	0	0	0	0	0	0	0	0	0	0	0	0	0	0	0	0	0	0	0	0	0	0	0	0	0	0	0	0	0	0	0	0	0	0	0	0	0	0	0	0	0	0	0	0	0	0	0	0	0	0	0	0	0	0	0	0	0	0	0	0	0	0	0	0	0	0	1512	1496	1494	1482	1475	1467	1471	1466	1461	1459	1455	1454	1455	1463	1482	1473	1482	1479	1474	1465	1455	1454	1460	1468	1472	1479	1488	1493	1496	1510	1522	1519	1508	0	0	0	0	0	0	0	0	0	0	0	0	0	0	0	0	0	0	0	0	0	0	0	0	0	0	0	0	0	0	0	0	0	0	0	0	0	0	0	0	0	0	0	0	0	0	0	0	0	0	1378	1380	1376	1377	1377	1381	1382	1387	1395	1410	1419	1419	1418	1418	1423	1438	1437	1433	1424	1406	1403	1412	1410	1407	1406	1403	1399	1398	1406	1417	1424	1414	1404	1406	1404	1399	1398	1409	1424	1429	1426	1424	1415	1399	1400	1438	1456	0	0	0	0	0	0	0	0	0	0	0	0	0	0	0	0	0	0	0	0	0	0	0	0	0	0	0	0	0	0	0	0	0	0	0	0	0	0	0	0	0	0	0	0	0	0	0	0	0	0	0	0	0	0	0	0	0	0	0	0	0	0	0	0	0	0	0	0	0	0	0	0	0	0	0	0	0	0	0	0	0	0	0	0	0	0	0	0	1386	1391	1407	1424	1420	1414	1370	1366	1372	1385	1395	1399	1401	1394	1389	1375	1367	1359	1358	1367	1366	1375	1377	1377	1370	1376	1377	1371	1365	1372	1372	1371	1389	1392	1385	1374	1371	1374	1383	1386	1389	1391	1392	1387	1370	1371	1394	1408	1408	1403	1399	1416	1450	1600	0	0	0	0	0	0	0	0	0	0	0	0	0	0	0	0	0	0	0	0	0	0	0	0	0	0	0	0	0	0	0	0	0	0	0	0	0	0	0	0	0	0	0	0	0	0	0	0	0	0	0	0	0	0	0	0	0	0	0	0	0	0	0	0	0	0	0	0	0	0	0	0	0	0	0	0	0	0	0	0	0	0	0	0	0	0	0	0	0	0	0	0	1367	1386	1379	1374	1371	1364	1332	1321	1323	1329	1336	1351	1368	1361	1355	1351	1348	1352	1354	1358	1363	1357	1344	1331	1323	1325	1327	1337	1351	1362	1357	1346	1345	1346	1351	1354	1356	1351	1358	1353	1347	1339	1337	1339	1349	1355	1379	1414	1406	1367	1357	0	0	0	0	0	0	0	0	0	0	0	0	0	0	0	0	0	0	0	0	0	0	0	0	0	0	0	0	0	0	0	0	0	0	0	0	0	0	0	0	0	0	0	0	0	0	0	0	0	0	0	0	0	0	0	0	0	0	0	0	0	0	0	0	0	0	0	0	0	0	0	0	0	0	0	0	0	0	0	0	0	0	0	0	0	0	0	0	0	0	0	0	0	0	0	0	0	0	0	0	0	0	0	0	0	0	0	0	0	0	0	0	0	0	0	0	0	0	0	0	0	0	0	0	0	0	0	0	0	0	0	0
0	0	0	0	0	0	0	0	0	0	0	0	0	0	0	0	0	0	0	0	0	0	0	0	0	0	0	0	0	0	0	0	0	0	0	0	0	0	0	0	0	0	0	0	0	0	0	0	0	0	0	0	0	0	0	0	0	0	0	0	0	0	0	0	0	0	0	0	0	0	0	0	0	0	0	0	0	0	0	0	0	0	0	0	0	0	0	0	0	0	0	0	0	1498	1495	1492	1489	1486	1478	1464	1455	1460	1460	1468	1469	1461	1470	1475	1474	1466	1468	1478	1494	1468	1457	1459	1464	1454	1468	1472	1489	1493	1499	1511	1510	1492	1482	0	0	0	0	0	0	0	0	0	0	0	0	0	0	0	0	0	0	0	0	0	0	0	0	0	0	0	0	0	0	0	0	0	0	0	0	0	0	0	0	0	0	0	0	0	0	0	0	0	1360	1391	1379	1377	1375	1378	1380	1382	1397	1411	1419	1416	1410	1401	1402	1424	1430	1425	1421	1404	1404	1412	1414	1410	1405	1390	1382	1383	1390	1402	1424	1416	1408	1414	1408	1402	1391	1397	1405	1415	1419	1428	1427	1403	1411	1451	1467	0	0	0	0	0	0	0	0	0	0	0	0	0	0	0	0	0	0	0	0	0	0	0	0	0	0	0	0	0	0	0	0	0	0	0	0	0	0	0	0	0	0	0	0	0	0	0	0	0	0	0	0	0	0	0	0	0	0	0	0	0	0	0	0	0	0	0	0	0	0	0	0	0	0	0	0	0	0	0	0	0	0	0	0	0	0	0	0	1406	1422	1419	1421	1425	1418	1371	1372	1374	1384	1384	1390	1394	1396	1403	1406	1402	1383	1379	1369	1368	1367	1375	1369	1371	1382	1385	1379	1365	1357	1365	1389	1399	1395	1390	1382	1381	1384	1388	1391	1397	1402	1404	1394	1374	1372	1397	1411	1415	1406	1390	1402	1451	1529	0	0	0	0	0	0	0	0	0	0	0	0	0	0	0	0	0	0	0	0	0	0	0	0	0	0	0	0	0	0	0	0	0	0	0	0	0	0	0	0	0	0	0	0	0	0	0	0	0	0	0	0	0	0	0	0	0	0	0	0	0	0	0	0	0	0	0	0	0	0	0	0	0	0	0	0	0	0	0	0	0	0	0	0	0	0	0	0	0	0	0	0	1356	1366	1354	1373	1366	1345	1329	1322	1318	1324	1328	1336	1351	1352	1336	1331	1338	1339	1348	1352	1360	1354	1347	1335	1329	1329	1338	1344	1360	1368	1364	1354	1356	1359	1363	1359	1357	1354	1358	1361	1359	1354	1345	1335	1338	1352	1378	1420	1416	1393	0	0	0	0	0	0	0	0	0	0	0	0	0	0	0	0	0	0	0	0	0	0	0	0	0	0	0	0	0	0	0	0	0	0	0	0	0	0	0	0	0	0	0	0	0	0	0	0	0	0	0	0	0	0	0	0	0	0	0	0	0	0	0	0	0	0	0	0	0	0	0	0	0	0	0	0	0	0	0	0	0	0	0	0	0	0	0	0	0	0	0	0	0	0	0	0	0	0	0	0	0	0	0	0	0	0	0	0	0	0	0	0	0	0	0	0	0	0	0	0	0	0	0	0	0	0	0	0	0	0	0	0	0
0	0	0	0	0	0	0	0	0	0	0	0	0	0	0	0	0	0	0	0	0	0	0	0	0	0	0	0	0	0	0	0	0	0	0	0	0	0	0	0	0	0	0	0	0	0	0	0	0	0	0	0	0	0	0	0	0	0	0	0	0	0	0	0	0	0	0	0	0	0	0	0	0	0	0	0	0	0	0	0	0	0	0	0	0	0	0	0	0	0	0	0	0	1480	1490	1501	1503	1497	1481	1464	1452	1457	1465	1466	1466	1462	1466	1471	1465	1457	1462	1502	1506	1504	1475	1457	1452	1443	1446	1454	1473	1479	1494	1503	1496	1488	1476	0	0	0	0	0	0	0	0	0	0	0	0	0	0	0	0	0	0	0	0	0	0	0	0	0	0	0	0	0	0	0	0	0	0	0	0	0	0	0	0	0	0	0	0	0	0	0	0	0	1357	1408	1402	1392	1392	1391	1388	1394	1400	1408	1414	1415	1403	1388	1388	1397	1400	1411	1413	1409	1409	1413	1411	1406	1402	1391	1375	1375	1385	1394	1409	1413	1414	1418	1424	1409	1393	1390	1395	1405	1414	1435	1441	1420	1415	1444	1471	1459	0	0	0	0	0	0	0	0	0	0	0	0	0	0	0	0	0	0	0	0	0	0	0	0	0	0	0	0	0	0	0	0	0	0	0	0	0	0	0	0	0	0	0	0	0	0	0	0	0	0	0	0	0	0	0	0	0	0	0	0	0	0	0	0	0	0	0	0	0	0	0	0	0	0	0	0	0	0	0	0	0	0	0	0	0	0	0	1437	1438	1423	1420	1421	1421	1406	1386	1382	1382	1376	1380	1383	1388	1394	1399	1395	1395	1389	1388	1368	1361	1361	1363	1376	1387	1391	1389	1375	1355	1352	1387	1396	1397	1395	1391	1390	1391	1391	1388	1398	1408	1406	1399	1382	1374	1398	1405	1411	1404	1402	1416	1463	1540	0	0	0	0	0	0	0	0	0	0	0	0	0	0	0	0	0	0	0	0	0	0	0	0	0	0	0	0	0	0	0	0	0	0	0	0	0	0	0	0	0	0	0	0	0	0	0	0	0	0	0	0	0	0	0	0	0	0	0	0	0	0	0	0	0	0	0	0	0	0	0	0	0	0	0	0	0	0	0	0	0	0	0	0	0	0	0	0	0	0	0	0	1343	1334	1354	1377	1374	1349	1332	1321	1326	1330	1331	1331	1336	1341	1329	1325	1327	1336	1336	1343	1350	1354	1349	1343	1345	1348	1346	1356	1369	1379	1377	1378	1368	1368	1367	1355	1349	1347	1350	1360	1361	1358	1356	1346	1333	1346	1367	1412	1432	1450	0	0	0	0	0	0	0	0	0	0	0	0	0	0	0	0	0	0	0	0	0	0	0	0	0	0	0	0	0	0	0	0	0	0	0	0	0	0	0	0	0	0	0	0	0	0	0	0	0	0	0	0	0	0	0	0	0	0	0	0	0	0	0	0	0	0	0	0	0	0	0	0	0	0	0	0	0	0	0	0	0	0	0	0	0	0	0	0	0	0	0	0	0	0	0	0	0	0	0	0	0	0	0	0	0	0	0	0	0	0	0	0	0	0	0	0	0	0	0	0	0	0	0	0	0	0	0	0	0	0	0	0	0
0	0	0	0	0	0	0	0	0	0	0	0	0	0	0	0	0	0	0	0	0	0	0	0	0	0	0	0	0	0	0	0	0	0	0	0	0	0	0	0	0	0	0	0	0	0	0	0	0	0	0	0	0	0	0	0	0	0	0	0	0	0	0	0	0	0	0	0	0	0	0	0	0	0	0	0	0	0	0	0	0	0	0	0	0	0	0	0	0	0	0	0	0	1470	1492	1506	1505	1500	1491	1467	1461	1460	1459	1456	1456	1458	1466	1468	1464	1465	1480	1509	1520	1517	1493	1463	1447	1438	1438	1449	1460	1468	1480	1487	1495	1486	1491	0	0	0	0	0	0	0	0	0	0	0	0	0	0	0	0	0	0	0	0	0	0	0	0	0	0	0	0	0	0	0	0	0	0	0	0	0	0	0	0	0	0	0	0	0	0	0	0	0	1368	1416	1421	1415	1411	1416	1408	1399	1403	1410	1410	1417	1404	1391	1377	1377	1387	1405	1408	1407	1408	1410	1415	1408	1407	1399	1393	1400	1396	1393	1401	1416	1427	1433	1438	1421	1400	1391	1395	1397	1406	1431	1434	1413	1405	1432	1469	1472	0	0	0	0	0	0	0	0	0	0	0	0	0	0	0	0	0	0	0	0	0	0	0	0	0	0	0	0	0	0	0	0	0	0	0	0	0	0	0	0	0	0	0	0	0	0	0	0	0	0	0	0	0	0	0	0	0	0	0	0	0	0	0	0	0	0	0	0	0	0	0	0	0	0	0	0	0	0	0	0	0	0	0	0	0	0	0	1453	1447	1421	1416	1410	1413	1416	1414	1400	1388	1375	1371	1375	1381	1389	1393	1393	1383	1382	1392	1395	1397	1387	1376	1391	1399	1403	1397	1380	1351	1339	1364	1375	1388	1398	1397	1398	1392	1389	1384	1390	1403	1407	1400	1386	1378	1387	1390	1392	1397	1401	1431	1487	1594	0	0	0	0	0	0	0	0	0	0	0	0	0	0	0	0	0	0	0	0	0	0	0	0	0	0	0	0	0	0	0	0	0	0	0	0	0	0	0	0	0	0	0	0	0	0	0	0	0	0	0	0	0	0	0	0	0	0	0	0	0	0	0	0	0	0	0	0	0	0	0	0	0	0	0	0	0	0	0	0	0	0	0	0	0	0	0	0	0	0	0	1374	1362	1346	1363	1371	1381	1363	1340	1328	1334	1345	1342	1336	1339	1348	1338	1331	1335	1336	1336	1331	1336	1345	1347	1350	1351	1351	1354	1362	1377	1390	1381	1380	1375	1371	1359	1338	1337	1335	1338	1343	1351	1362	1370	1350	1340	1336	1341	1392	1427	1480	0	0	0	0	0	0	0	0	0	0	0	0	0	0	0	0	0	0	0	0	0	0	0	0	0	0	0	0	0	0	0	0	0	0	0	0	0	0	0	0	0	0	0	0	0	0	0	0	0	0	0	0	0	0	0	0	0	0	0	0	0	0	0	0	0	0	0	0	0	0	0	0	0	0	0	0	0	0	0	0	0	0	0	0	0	0	0	0	0	0	0	0	0	0	0	0	0	0	0	0	0	0	0	0	0	0	0	0	0	0	0	0	0	0	0	0	0	0	0	0	0	0	0	0	0	0	0	0	0	0	0	0	0
0	0	0	0	0	0	0	0	0	0	0	0	0	0	0	0	0	0	0	0	0	0	0	0	0	0	0	0	0	0	0	0	0	0	0	0	0	0	0	0	0	0	0	0	0	0	0	0	0	0	0	0	0	0	0	0	0	0	0	0	0	0	0	0	0	0	0	0	0	0	0	0	0	0	0	0	0	0	0	0	0	0	0	0	0	0	0	0	0	0	0	0	0	1453	1475	1490	1497	1492	1479	1469	1459	1459	1453	1440	1441	1449	1476	1487	1478	1476	1482	1509	1520	1510	1490	1462	1442	1432	1435	1435	1448	1468	1473	1481	1480	1484	1488	0	0	0	0	0	0	0	0	0	0	0	0	0	0	0	0	0	0	0	0	0	0	0	0	0	0	0	0	0	0	0	0	0	0	0	0	0	0	0	0	0	0	0	0	0	0	0	0	0	1379	1410	1424	1426	1430	1433	1441	1422	1404	1396	1404	1420	1423	1418	1393	1386	1402	1409	1401	1405	1405	1404	1405	1412	1418	1422	1418	1414	1409	1398	1401	1411	1424	1443	1446	1427	1401	1400	1397	1393	1404	1418	1416	1403	1402	1443	1479	0	0	0	0	0	0	0	0	0	0	0	0	0	0	0	0	0	0	0	0	0	0	0	0	0	0	0	0	0	0	0	0	0	0	0	0	0	0	0	0	0	0	0	0	0	0	0	0	0	0	0	0	0	0	0	0	0	0	0	0	0	0	0	0	0	0	0	0	0	0	0	0	0	0	0	0	0	0	0	0	0	0	0	0	0	0	0	0	1462	1448	1425	1422	1406	1404	1411	1415	1411	1396	1371	1370	1371	1376	1383	1386	1383	1383	1384	1391	1397	1408	1407	1404	1402	1404	1404	1401	1382	1359	1340	1345	1352	1365	1391	1396	1395	1385	1384	1380	1384	1395	1401	1393	1386	1377	1379	1379	1384	1385	1401	1457	1542	1592	1653	0	0	0	0	0	0	0	0	0	0	0	0	0	0	0	0	0	0	0	0	0	0	0	0	0	0	0	0	0	0	0	0	0	0	0	0	0	0	0	0	0	0	0	0	0	0	0	0	0	0	0	0	0	0	0	0	0	0	0	0	0	0	0	0	0	0	0	0	0	0	0	0	0	0	0	0	0	0	0	0	0	0	0	0	0	0	0	0	0	0	1388	1381	1360	1369	1365	1371	1362	1337	1327	1335	1348	1351	1347	1345	1352	1346	1340	1341	1341	1332	1329	1334	1343	1347	1348	1343	1347	1354	1361	1370	1383	1380	1381	1375	1362	1349	1330	1330	1328	1331	1332	1342	1354	1376	1360	1347	1337	1339	1377	1404	1443	1523	0	0	0	0	0	0	0	0	0	0	0	0	0	0	0	0	0	0	0	0	0	0	0	0	0	0	0	0	0	0	0	0	0	0	0	0	0	0	0	0	0	0	0	0	0	0	0	0	0	0	0	0	0	0	0	0	0	0	0	0	0	0	0	0	0	0	0	0	0	0	0	0	0	0	0	0	0	0	0	0	0	0	0	0	0	0	0	0	0	0	0	0	0	0	0	0	0	0	0	0	0	0	0	0	0	0	0	0	0	0	0	0	0	0	0	0	1454	1477	0	0	0	0	1457	1425	1416	0	0	0	0	0	0	0
0	0	0	0	0	0	0	0	0	0	0	0	0	0	0	0	0	0	0	0	0	0	0	0	0	0	0	0	0	0	0	0	0	0	0	0	0	0	0	0	0	0	0	0	0	0	0	0	0	0	0	0	0	0	0	0	0	0	0	0	0	0	0	0	0	0	0	0	0	0	0	0	0	0	0	0	0	0	0	0	0	0	0	0	0	0	0	0	0	0	0	0	0	1429	1462	1471	1479	1482	1479	1472	1462	1449	1438	1429	1432	1460	1497	1496	1482	1479	1481	1498	1503	1498	1479	1454	1434	1435	1430	1428	1434	1472	1477	1473	1471	1463	1468	0	0	0	0	0	0	0	0	0	0	0	0	0	0	0	0	0	0	0	0	0	0	0	0	0	0	0	0	0	0	0	0	0	0	0	0	0	0	0	0	0	0	0	0	0	0	0	0	0	1388	1406	1419	1430	1432	1448	1458	1457	1424	1403	1421	1439	1442	1446	1432	1421	1424	1418	1403	1391	1391	1394	1404	1410	1419	1429	1438	1431	1413	1396	1398	1414	1424	1439	1442	1429	1403	1404	1396	1395	1410	1419	1418	1406	1393	1431	1464	0	0	0	0	0	0	0	0	0	0	0	0	0	0	0	0	0	0	0	0	0	0	0	0	0	0	0	0	0	0	0	0	0	0	0	0	0	0	0	0	0	0	0	0	0	0	0	0	0	0	0	0	0	0	0	0	0	0	0	0	0	0	0	0	0	0	0	0	0	0	0	0	0	0	0	0	0	0	0	0	0	0	0	0	0	0	0	0	1458	1428	1428	1426	1410	1404	1405	1414	1411	1399	1380	1371	1372	1373	1382	1381	1386	1399	1398	1393	1399	1405	1409	1414	1408	1401	1400	1393	1383	1364	1349	1347	1347	1355	1374	1380	1376	1377	1373	1379	1387	1385	1396	1390	1376	1375	1380	1382	1385	1390	1414	1489	1553	1571	1623	0	0	0	0	0	0	0	0	0	0	0	0	0	0	0	0	0	0	0	0	0	0	0	0	0	0	0	0	0	0	0	0	0	0	0	0	0	0	0	0	0	0	0	0	0	0	0	0	0	0	0	0	0	0	0	0	0	0	0	0	0	0	0	0	0	0	0	0	0	0	0	0	0	0	0	0	0	0	0	1170	0	0	1266	1293	1329	0	0	0	0	0	1408	1397	1360	1358	1358	1361	1364	1347	1330	1337	1344	1350	1343	1348	1350	1344	1343	1344	1347	1343	1332	1338	1341	1346	1345	1345	1349	1356	1361	1359	1364	1368	1370	1371	1362	1349	1335	1328	1324	1324	1324	1330	1340	1362	1360	1345	1338	1366	1380	1396	1422	1445	1500	0	0	0	0	0	0	1442	1446	0	0	0	0	0	0	0	0	0	1460	1450	1437	0	0	0	0	0	0	0	0	0	0	1497	1482	1473	1481	1480	1471	1479	0	0	0	0	1511	1436	1412	1400	1400	1401	1407	1426	1448	1429	1428	1428	1429	1448	1453	1460	1465	1470	1449	1417	1416	1428	1458	1485	1493	1488	1481	1485	1484	1477	1469	1462	1458	1454	1460	1466	1464	1460	1454	1460	1466	1467	1470	1474	1464	1478	1468	1453	1453	1473	1486	1485	1473	1456	1451	1472	1488	1485	1476	1476	1479	1490	1490	1485	1474	1464	1466	1462	1459	1458	1466	1464	1447	1435	1441	1449	1460	1460	1471	1470	1475	1475	1466	0	0	0	0	0	0	0
0	0	0	0	0	0	0	0	0	0	0	0	0	0	0	0	0	0	0	0	0	0	0	0	0	0	0	0	0	0	0	0	0	0	0	0	0	0	0	0	0	0	0	0	0	0	0	0	0	0	0	0	0	0	0	0	0	0	0	0	0	0	0	0	0	0	0	0	0	0	0	0	0	0	0	0	0	0	0	0	0	0	0	0	0	0	0	0	0	0	0	0	0	1414	1447	1454	1469	1471	1474	1467	1460	1455	1448	1437	1433	1454	1489	1498	1480	1472	1476	1491	1501	1493	1480	1461	1437	1433	1438	1440	1435	1464	1480	1476	1464	1460	1463	0	0	0	0	0	0	0	0	0	0	0	0	0	0	0	0	0	0	0	0	0	0	0	0	0	0	0	0	0	0	0	0	0	0	0	0	0	0	0	0	0	0	0	0	0	0	0	0	0	1404	1411	1427	1431	1435	1444	1459	1452	1442	1436	1451	1452	1454	1449	1440	1443	1439	1428	1403	1383	1384	1383	1385	1394	1404	1420	1444	1431	1414	1407	1422	1423	1427	1430	1433	1417	1408	1406	1402	1407	1425	1436	1432	1413	1388	1406	1443	0	0	0	0	0	0	0	0	0	0	0	0	0	0	0	0	0	0	0	0	0	0	0	0	0	0	0	0	0	0	0	0	0	0	0	0	0	0	0	0	0	0	0	0	0	0	0	0	0	0	0	0	0	0	0	0	0	0	0	0	0	0	0	0	0	0	0	0	0	0	0	0	0	0	0	0	0	0	0	0	0	0	0	0	0	0	0	1461	1444	1416	1427	1425	1411	1405	1409	1412	1408	1397	1385	1382	1378	1378	1377	1384	1397	1399	1398	1396	1403	1407	1405	1405	1401	1395	1389	1386	1380	1370	1356	1351	1349	1354	1357	1364	1360	1363	1369	1376	1385	1390	1389	1379	1368	1371	1380	1386	1393	1400	1426	1488	1532	1563	1566	0	0	0	0	0	0	0	0	0	0	1535	1534	0	0	1536	1525	1511	1508	1517	1546	1566	1593	1633	0	0	0	0	0	0	1504	0	0	1520	1514	0	0	0	0	0	0	0	0	0	0	0	0	0	0	0	0	0	1153	1156	1142	1111	1075	1077	1074	1091	1103	1114	1112	1120	1119	1113	1099	0	0	0	0	0	0	0	0	0	0	0	1083	1095	1110	1131	1161	1191	1276	1371	1398	1390	0	0	0	0	1408	1348	1344	1351	1359	1357	1350	1338	1343	1348	1347	1341	1339	1340	1338	1335	1345	1349	1351	1348	1342	1346	1347	1342	1347	1355	1364	1362	1351	1355	1359	1369	1370	1362	1349	1344	1331	1328	1331	1324	1322	1326	1338	1355	1348	1354	1373	1381	1386	1411	1433	1468	1515	1538	1546	1539	1519	1495	1474	1487	1497	1488	1465	1465	1481	1497	1493	1486	1479	1482	1480	1477	1458	1456	1463	1462	1467	1462	1468	1465	1466	1466	1461	1463	1464	1480	1488	1486	1482	1489	1505	1518	1515	1510	1484	1490	1478	1458	1441	1442	1449	1461	1470	1466	1466	1471	1469	1473	1478	1480	1470	1454	1427	1421	1425	1440	1455	1459	1454	1457	1462	1475	1480	1480	1477	1474	1472	1472	1472	1473	1477	1479	1478	1466	1447	1442	1431	1431	1439	1439	1431	1431	1439	1471	1477	1468	1448	1442	1443	1455	1464	1466	1475	1488	1488	1491	1498	1476	1460	1447	1445	1449	1454	1457	1449	1428	1434	1444	1455	1467	1467	1469	1477	1477	1474	1467	0	0	0	0	0	0	0
0	0	0	0	0	0	0	0	0	0	0	0	0	0	0	0	0	0	0	0	0	0	0	0	0	0	0	0	0	0	0	0	0	0	0	0	0	0	0	0	0	0	0	0	0	0	0	0	0	0	0	0	0	0	0	0	0	0	0	0	0	0	0	0	0	0	0	0	0	0	0	0	0	0	0	0	0	0	0	0	0	0	0	0	0	0	0	0	0	0	0	0	0	1408	1431	1448	1459	1462	1459	1454	1459	1464	1459	1445	1447	1455	1495	1487	1473	1469	1479	1502	1512	1495	1482	1470	1463	1447	1448	1445	1437	1458	1496	1486	1463	1458	1468	0	0	0	0	0	0	0	0	0	0	0	0	0	0	0	0	0	0	0	0	0	0	0	0	0	0	0	0	0	0	0	0	0	0	0	0	0	0	0	0	0	0	0	0	0	0	0	0	1428	1406	1424	1440	1443	1439	1444	1445	1440	1435	1447	1454	1459	1450	1439	1430	1440	1444	1440	1417	1388	1381	1379	1380	1385	1390	1414	1438	1435	1419	1426	1439	1435	1425	1427	1426	1420	1409	1408	1406	1417	1432	1435	1430	1417	1382	1385	1416	1454	1439	1413	1387	1346	1322	1274	0	0	0	0	0	0	0	0	0	0	0	0	0	0	0	0	0	1168	1153	0	0	0	0	1187	1178	0	0	0	0	0	0	1194	1198	0	0	0	0	0	0	0	0	0	0	1539	1518	1526	1527	1513	1528	1549	1566	1588	1599	1594	1586	1579	1566	1550	1545	1536	1542	1525	1493	1487	1489	1501	1493	1472	1485	1523	1555	1560	1474	1443	1439	1451	1467	1478	1472	1452	1435	1419	1411	1419	1422	1419	1418	1425	1428	1412	1398	1388	1392	1386	1381	1386	1383	1388	1389	1386	1398	1402	1408	1406	1401	1397	1387	1382	1377	1377	1372	1365	1356	1352	1352	1357	1366	1363	1366	1371	1380	1389	1388	1384	1372	1366	1366	1378	1389	1399	1413	1438	1479	1501	1509	1510	1505	1510	1511	1503	1497	1481	1473	1450	1445	1450	1459	1464	1478	1506	1528	1511	1489	1485	1495	1501	1493	1481	1485	1500	1506	1505	1511	1511	1508	1505	1502	1490	1492	1507	1530	1537	1519	1461	0	0	0	1146	0	0	0	0	0	0	0	0	1109	1114	1118	1109	1078	1065	1063	1069	1074	1071	1070	1076	1079	1077	1068	1069	1059	1071	1092	1105	1113	1107	1112	0	1050	1051	1061	1063	1064	1071	1086	1103	1132	1231	1343	1358	1339	0	0	0	0	1420	1392	1348	1340	1346	1354	1350	1350	1353	1357	1353	1340	1335	1335	1337	1339	1346	1350	1363	1360	1352	1337	1341	1343	1347	1359	1367	1362	1350	1352	1358	1364	1364	1359	1353	1340	1324	1324	1329	1338	1328	1327	1338	1353	1360	1363	1368	1374	1372	1398	1421	1459	1489	1509	1527	1528	1524	1509	1503	1498	1492	1478	1466	1472	1479	1485	1483	1475	1473	1469	1469	1467	1450	1448	1459	1472	1484	1490	1487	1488	1482	1478	1470	1467	1471	1484	1485	1482	1471	1472	1469	1474	1488	1486	1500	1495	1486	1455	1442	1438	1449	1461	1468	1465	1454	1442	1449	1458	1464	1472	1475	1459	1439	1425	1431	1435	1443	1444	1445	1447	1452	1457	1472	1479	1479	1476	1484	1483	1476	1477	1472	1474	1477	1465	1460	1452	1425	1428	1441	1445	1438	1436	1439	1454	1467	1461	1444	1438	1449	1459	1463	1466	1472	1485	1485	1493	1491	1478	1453	1447	1443	1448	1459	1461	1453	1440	1446	1454	1465	1465	1476	1477	1473	1480	1480	1460	0	0	0	0	0	0	0
0	0	0	0	0	0	0	0	0	0	0	0	0	0	0	0	0	0	0	0	0	0	0	0	0	0	0	0	0	0	0	0	0	0	0	0	0	0	0	0	0	0	0	0	0	0	0	0	0	0	0	0	0	0	0	0	0	0	0	0	0	0	0	0	0	0	0	0	0	0	0	0	0	0	0	0	0	0	0	0	0	0	0	0	0	0	0	0	0	0	0	0	0	1421	1434	1442	1452	1455	1443	1447	1458	1468	1467	1461	1459	1466	1483	1479	1472	1478	1503	1532	1520	1498	1487	1479	1478	1466	1460	1458	1452	1454	1477	1479	1466	1455	1467	0	0	0	0	0	0	0	0	0	0	0	0	0	0	0	0	0	0	0	0	0	0	0	0	0	0	0	0	0	0	1450	1441	1439	0	0	0	0	0	0	1500	1476	1470	1476	1492	1480	1463	1449	1443	1432	1430	1447	1466	1466	1446	1436	1428	1424	1425	1437	1454	1448	1439	1426	1422	1421	1442	1437	1408	1387	1383	1393	1404	1407	1394	1426	1443	1441	1430	1428	1439	1439	1426	1423	1426	1422	1416	1400	1405	1418	1426	1414	1405	1403	1378	1382	1407	1426	1374	1355	1322	1275	1222	1189	1164	1148	0	0	0	0	0	0	0	0	0	0	0	0	0	0	1127	1104	1090	1085	1114	1130	1121	1114	1122	1128	0	0	0	0	1114	1119	1121	1116	1102	1099	1114	1140	1188	1242	1315	1425	1506	1521	1522	1489	1470	1461	1468	1474	1494	1505	1505	1499	1505	1516	1521	1516	1497	1490	1479	1492	1514	1517	1515	1502	1506	1515	1507	1499	1490	1481	1468	1457	1463	1477	1488	1479	1465	1438	1419	1413	1411	1415	1420	1413	1423	1451	1449	1423	1398	1384	1379	1384	1391	1376	1374	1372	1368	1366	1384	1398	1399	1401	1397	1391	1386	1379	1377	1379	1382	1377	1370	1361	1352	1357	1378	1379	1379	1389	1385	1394	1391	1385	1374	1373	1369	1373	1386	1413	1435	1449	1465	1485	1497	1486	1486	1488	1499	1502	1503	1499	1480	1464	1448	1446	1444	1458	1458	1470	1481	1491	1487	1482	1485	1481	1469	1467	1470	1469	1463	1454	1468	1486	1497	1504	1503	1488	1481	1499	1523	1537	1525	1459	0	0	0	1131	0	0	0	0	0	0	0	0	1082	1089	1092	1088	1069	1055	1053	1054	1061	1059	1057	1050	1054	1060	1051	1052	1041	1043	1050	1055	1053	1016	1017	1021	1022	1035	1039	1039	1041	1041	1050	1062	1068	1070	1121	1169	1225	1273	1318	1386	1405	1408	1395	1370	1361	1348	1354	1360	1357	1363	1375	1361	1344	1335	1342	1348	1346	1353	1362	1366	1363	1361	1354	1348	1342	1347	1348	1356	1348	1340	1348	1354	1358	1357	1349	1342	1338	1331	1322	1327	1347	1357	1350	1355	1358	1362	1369	1369	1366	1377	1392	1414	1439	1459	1471	1491	1511	1519	1526	1516	1506	1493	1482	1469	1473	1488	1489	1489	1481	1471	1461	1462	1450	1449	1453	1475	1489	1503	1517	1513	1512	1507	1497	1481	1474	1479	1491	1480	1471	1466	1467	1461	1456	1452	1465	1500	1496	1475	1454	1436	1436	1440	1446	1452	1456	1439	1447	1450	1457	1467	1471	1476	1469	1454	1436	1436	1440	1442	1438	1438	1443	1442	1446	1467	1475	1480	1481	1487	1485	1480	1473	1472	1470	1475	1471	1464	1448	1435	1431	1437	1447	1450	1450	1447	1451	1449	1440	1433	1441	1449	1458	1461	1457	1464	1473	1473	1462	1465	1463	1458	1456	1455	1460	1467	1452	1451	1455	1467	1477	1480	1480	1484	1477	1474	1483	1474	1459	0	0	0	0	0	0	0
0	0	0	0	0	0	0	0	0	0	0	0	0	0	0	0	0	0	0	0	0	0	0	0	0	0	0	0	0	0	0	0	0	0	0	0	0	0	0	0	0	0	0	0	0	0	0	0	0	0	0	0	0	0	0	0	0	0	0	0	0	0	0	0	0	0	0	0	0	0	0	0	0	0	0	0	0	0	0	0	0	0	0	0	0	0	0	0	0	0	0	0	0	1436	1437	1447	1454	1454	1444	1453	1461	1472	1469	1468	1469	1471	1481	1480	1478	1491	1523	1531	1523	1508	1491	1481	1481	1471	1463	1463	1461	1456	1451	1455	1439	1429	1436	1445	1446	1430	1422	1474	1498	1511	1507	1494	1474	1477	1471	1465	1464	1460	1470	1485	1500	1500	1481	1452	1431	1446	1461	1477	1497	1494	1471	1475	1484	1492	1484	1462	1456	1461	1468	1460	1459	1457	1452	1442	1445	1449	1452	1457	1465	1478	1473	1464	1453	1484	1501	1490	1456	1430	1414	1411	1414	1423	1430	1439	1439	1428	1418	1420	1447	1440	1416	1388	1391	1411	1445	1463	1465	1460	1455	1447	1430	1417	1425	1423	1412	1412	1422	1421	1432	1411	1411	1422	1421	1413	1405	1400	1394	1386	1403	1400	1332	1308	1281	1224	1158	1131	1115	1114	0	0	0	0	1125	1119	0	1134	1129	0	0	0	0	1146	1106	1085	1068	1063	1072	1081	1088	1086	1084	1094	0	0	0	0	0	1081	1081	1081	1078	1083	1105	1134	1165	1213	1293	1457	1491	1525	1526	1509	1493	1473	1466	1478	1490	1488	1490	1492	1497	1520	1528	1526	1509	1490	1478	1488	1507	1513	1501	1502	1503	1506	1500	1505	1511	1501	1480	1465	1464	1483	1484	1476	1456	1451	1428	1411	1397	1402	1410	1422	1441	1459	1466	1440	1405	1380	1370	1362	1359	1351	1364	1358	1353	1348	1356	1375	1392	1391	1391	1389	1385	1379	1387	1388	1394	1399	1387	1379	1370	1369	1384	1395	1393	1390	1396	1404	1390	1386	1386	1383	1377	1398	1425	1446	1446	1442	1455	1487	1492	1488	1489	1487	1484	1485	1488	1489	1479	1472	1465	1458	1455	1465	1471	1475	1479	1481	1489	1482	1481	1467	1463	1464	1464	1451	1451	1456	1466	1483	1496	1507	1507	1496	1484	1489	1507	1523	1486	0	0	0	0	0	0	0	0	0	0	0	0	0	1051	1058	1068	1067	1050	1041	1042	1046	1055	1057	1055	1045	1042	1040	1042	1033	1024	1023	1028	996	990	998	1006	1009	1010	1011	1018	1026	1027	1024	1030	1032	1036	1040	1055	1078	1116	1196	1237	1272	1317	1373	1390	1394	1381	1381	1387	1392	1383	1388	1380	1374	1368	1367	1378	1390	1409	1410	1398	1379	1364	1357	1356	1359	1364	1361	1353	1344	1332	1335	1335	1346	1352	1356	1352	1360	1357	1365	1373	1364	1378	1398	1397	1379	1365	1372	1366	1377	1379	1392	1404	1414	1429	1425	1434	1456	1486	1517	1530	1519	1506	1495	1482	1470	1482	1490	1492	1494	1488	1485	1468	1461	1451	1451	1462	1488	1506	1522	1531	1530	1525	1526	1519	1501	1485	1478	1484	1473	1468	1463	1461	1467	1456	1456	1463	1495	1496	1485	1461	1440	1429	1423	1431	1437	1451	1453	1457	1459	1463	1469	1474	1479	1473	1464	1441	1437	1444	1448	1457	1458	1454	1443	1451	1465	1474	1480	1480	1479	1473	1474	1467	1467	1468	1460	1454	1449	1442	1437	1428	1434	1445	1450	1455	1457	1449	1430	1422	1425	1435	1456	1460	1464	1459	1458	1459	1459	1463	1471	1464	1462	1458	1462	1458	1471	1462	1450	1463	1474	1485	1491	1491	1493	1477	1465	1466	1463	1452	0	0	0	0	0	0	0
0	0	0	0	0	0	0	0	0	0	0	0	0	0	0	0	0	0	0	0	0	0	0	0	0	0	0	0	0	0	0	0	0	0	0	0	0	0	0	0	0	0	0	0	0	0	0	0	0	0	0	0	0	0	0	0	0	0	0	0	0	0	0	0	0	0	0	0	0	0	0	0	0	0	0	0	0	0	0	0	0	0	0	0	0	0	0	0	0	0	0	0	0	1450	1447	1456	1473	1475	1469	1472	1477	1481	1477	1478	1478	1477	1483	1479	1478	1480	1505	1519	1515	1498	1486	1478	1474	1461	1461	1460	1463	1456	1445	1429	1424	1430	1439	1452	1454	1452	1448	1486	1501	1502	1484	1467	1464	1474	1483	1479	1476	1473	1476	1478	1485	1482	1470	1451	1456	1467	1478	1479	1470	1465	1462	1475	1483	1496	1488	1477	1465	1460	1460	1450	1454	1455	1449	1440	1439	1440	1449	1457	1467	1481	1491	1495	1478	1478	1522	1489	1461	1441	1433	1429	1437	1433	1431	1436	1443	1434	1423	1424	1456	1456	1433	1403	1399	1420	1456	1476	1475	1465	1459	1446	1429	1415	1414	1407	1407	1410	1421	1425	1435	1440	1439	1444	1437	1426	1416	1406	1405	1401	1390	1361	1293	1240	1182	1148	1119	1100	1092	1098	1108	1111	1112	1105	1094	1088	1090	1107	1118	1113	1098	1111	0	1124	1092	1066	1044	1038	1045	1057	1059	1055	1056	1063	0	0	0	0	0	1047	1054	1063	1074	1086	1106	1137	1175	1220	1296	1457	1506	1516	1521	1514	1507	1487	1481	1481	1488	1500	1503	1507	1511	1523	1535	1527	1507	1483	1480	1484	1500	1505	1500	1497	1498	1495	1500	1511	1516	1508	1491	1477	1478	1484	1485	1468	1456	1448	1447	1405	1403	1398	1402	1421	1439	1461	1466	1457	1444	1426	1408	1396	1390	1403	1410	1405	1398	1410	1419	1422	1412	1418	1426	1436	1422	1415	1401	1404	1403	1412	1412	1396	1390	1393	1407	1417	1434	1439	1435	1433	1436	1435	1427	1417	1414	1430	1458	1477	1454	1436	1455	1487	1496	1504	1504	1491	1483	1473	1475	1478	1479	1480	1471	1470	1481	1485	1487	1486	1476	1483	1493	1490	1482	1472	1466	1469	1474	1475	1471	1472	1478	1475	1482	1501	1510	1509	1502	1496	1493	1505	1450	0	0	0	0	0	0	0	0	0	0	0	0	1030	1025	1029	1043	1039	1025	1018	1024	1044	1060	1060	1054	1042	1032	1026	1024	1011	994	992	988	983	982	993	1006	1012	1007	1010	1015	1025	1033	1027	1022	1016	1020	1029	1041	1042	1085	1124	1176	1219	1263	1306	1364	1387	1383	1385	1381	1393	1395	1400	1407	1411	1404	1398	1435	1453	1455	1435	1415	1399	1373	1360	1361	1371	1385	1395	1400	1399	1399	1421	1429	1430	1431	1433	1423	1407	1395	1392	1396	1402	1417	1429	1426	1420	1412	1407	1399	1394	1403	1424	1443	1440	1440	1429	1437	1453	1466	1501	1516	1501	1485	1488	1484	1480	1484	1494	1501	1503	1497	1487	1476	1465	1453	1452	1462	1487	1504	1513	1515	1519	1520	1519	1508	1492	1465	1469	1468	1465	1458	1458	1462	1468	1462	1460	1462	1493	1495	1488	1479	1458	1437	1429	1429	1438	1458	1466	1468	1464	1468	1469	1473	1475	1469	1449	1445	1440	1444	1450	1452	1455	1449	1443	1442	1456	1466	1467	1461	1460	1451	1441	1455	1468	1471	1468	1453	1449	1443	1437	1434	1435	1433	1445	1456	1462	1446	1432	1418	1422	1438	1460	1470	1474	1468	1459	1460	1460	1472	1478	1473	1462	1458	1454	1458	1458	1452	1447	1449	1463	1471	1477	1477	1475	1464	1456	1448	1442	1444	0	0	0	0	0	0	0
0	0	0	0	0	0	0	0	0	0	0	0	0	0	0	0	0	0	0	0	0	0	0	0	0	0	0	0	0	0	0	0	0	0	0	0	0	0	0	0	0	0	0	0	0	0	0	0	0	0	0	0	0	0	0	0	0	0	0	0	0	0	0	0	0	0	0	0	0	0	0	0	0	0	0	0	0	0	0	0	0	0	0	0	0	0	0	0	0	0	0	0	0	1454	1463	1471	1484	1499	1497	1495	1490	1489	1482	1483	1478	1483	1488	1484	1469	1459	1478	1472	1481	1489	1476	1470	1466	1461	1462	1466	1471	1463	1453	1437	1425	1433	1444	1451	1457	1457	1462	1479	1481	1475	1464	1460	1450	1464	1475	1486	1483	1488	1483	1479	1480	1471	1457	1451	1452	1474	1482	1479	1470	1462	1456	1473	1479	1487	1494	1483	1475	1471	1463	1451	1455	1459	1451	1446	1436	1438	1450	1461	1468	1485	1492	1490	1485	1489	1495	1470	1455	1445	1452	1450	1444	1435	1429	1433	1442	1443	1438	1436	1458	1460	1445	1422	1421	1437	1457	1468	1472	1463	1468	1459	1448	1460	1452	1421	1418	1426	1428	1432	1441	1451	1449	1447	1452	1451	1438	1413	1400	1394	1383	1334	1162	1142	1134	1128	1105	1085	1085	1090	1094	1095	1088	1083	1075	1064	1066	1075	1085	1083	1061	1037	1031	1058	1074	1043	1025	1014	1018	1031	1030	1030	1028	1045	0	1056	1037	1033	1029	1033	1042	1063	1093	1121	1135	1161	0	0	1321	1474	1501	1500	1492	1504	1511	1499	1488	1493	1508	1516	1516	1520	1525	1536	1546	1516	1489	1484	1485	1499	1506	1500	1490	1482	1486	1497	1508	1509	1510	1503	1496	1488	1495	1493	1491	1479	1461	1457	1459	1440	1417	1399	1405	1431	1447	1459	1461	1453	1443	1432	1420	1407	1407	1419	1426	1423	1417	1421	1425	1434	1423	1421	1423	1427	1422	1424	1417	1457	1445	1463	1463	1482	1487	1441	1429	1430	1443	1445	1440	1446	1446	1445	1437	1433	1430	1447	1480	1496	1491	1473	1464	1487	1508	1520	1523	1517	1498	1481	1477	1479	1484	1479	1473	1467	1473	1496	1495	1485	1481	1486	1494	1486	1481	1463	1462	1468	1478	1482	1480	1481	1479	1475	1479	1482	1502	1502	1501	1500	1489	1477	1433	0	0	0	0	0	0	0	0	0	0	0	0	0	1017	1013	1025	1014	1000	994	1012	1039	1058	1064	1053	1041	1024	1016	993	975	983	984	981	981	990	1002	1011	1006	1013	1022	1037	1057	1057	1043	1034	1022	1023	1035	1050	1048	1040	1074	1096	1126	1178	1239	1328	1361	1388	1394	1388	1397	1395	1406	1434	1442	1437	1438	1451	1456	1456	1440	1422	1405	1389	1373	1372	1388	1413	1430	1438	1438	1427	1446	1445	1449	1452	1463	1463	1444	1437	1431	1434	1431	1429	1431	1433	1433	1453	1451	1454	1466	1482	1492	1490	1470	1461	1447	1450	1462	1471	1483	1494	1475	1469	1480	1479	1487	1492	1503	1506	1507	1507	1495	1475	1467	1455	1450	1462	1483	1489	1492	1494	1500	1503	1500	1491	1477	1466	1456	1461	1460	1449	1458	1465	1470	1468	1469	1472	1485	1491	1494	1494	1480	1460	1445	1435	1447	1461	1473	1483	1481	1474	1473	1475	1472	1465	1449	1445	1450	1448	1454	1453	1450	1439	1433	1440	1445	1461	1454	1448	1445	1438	1445	1462	1485	1490	1486	1474	1459	1450	1447	1438	1425	1421	1428	1446	1455	1448	1429	1420	1424	1435	1456	1466	1473	1473	1458	1466	1466	1476	1485	1477	1464	1448	1445	1446	1450	1454	1447	1448	1445	1448	1458	1458	1454	1449	1443	1438	1439	1447	0	0	0	0	0	0	0
0	0	0	0	0	0	0	0	0	0	0	0	0	0	0	0	0	0	0	0	0	0	0	0	0	0	0	0	0	0	0	0	0	0	0	0	0	0	0	0	0	0	0	0	0	0	0	0	0	0	0	0	0	0	0	0	0	0	0	0	0	0	0	0	0	0	0	0	0	0	0	0	0	0	0	0	0	0	0	0	0	0	0	0	0	0	0	0	0	0	0	0	0	1444	1472	1481	1486	1490	1492	1480	1475	1476	1475	1476	1479	1485	1501	1493	1474	1455	1444	1455	1467	1478	1466	1466	1456	1452	1464	1475	1486	1481	1468	1452	1438	1432	1440	1439	1457	1460	1474	1480	1477	1469	1460	1457	1463	1457	1459	1475	1489	1494	1487	1484	1474	1462	1449	1450	1452	1479	1483	1484	1465	1454	1452	1452	1464	1478	1495	1496	1496	1486	1462	1450	1457	1466	1462	1442	1441	1442	1451	1466	1475	1479	1482	1470	1461	1461	1464	1449	1437	1438	1453	1461	1464	1461	1447	1447	1455	1463	1458	1447	1454	1460	1456	1450	1446	1448	1448	1461	1459	1472	1485	1492	1490	1479	1465	1441	1447	1448	1449	1454	1460	1454	1449	1446	1451	1453	1447	1416	1379	1293	1216	1174	1125	1112	1109	1105	1089	1069	1063	1066	1077	1074	1071	1064	1052	1045	1039	1041	1042	1040	1023	1013	1014	1043	1045	1028	1012	999	1007	1013	1016	1011	1017	1025	1038	1032	1031	1029	1026	1034	1044	0	0	0	0	0	0	0	1372	1493	1487	1487	1489	1495	1497	1486	1487	1497	1506	1516	1518	1521	1527	1537	1545	1526	1500	1491	1499	1505	1508	1499	1488	1481	1488	1508	1512	1508	1504	1508	1510	1505	1502	1508	1503	1491	1469	1457	1448	1455	1466	1471	1462	1454	1461	1479	1494	1484	1477	1475	1453	1445	1457	1473	1477	1475	1468	1465	1454	1443	1438	1433	1436	1437	1440	1467	1468	1491	1468	1475	1505	1508	1479	1480	1509	1497	1475	1461	1462	1463	1459	1470	1474	1471	1469	1471	1476	1476	1468	1457	1460	1479	1507	1526	1533	1529	1515	1498	1493	1487	1487	1484	1467	1457	1457	1472	1481	1486	1481	1488	1493	1495	1487	1463	1462	1469	1477	1488	1485	1488	1486	1484	1476	1478	1483	1481	1494	1493	1488	1480	1465	0	0	0	0	0	0	0	0	0	0	0	0	0	0	0	0	0	0	0	0	1030	1047	1053	1048	1036	1021	1005	982	977	993	997	993	997	1007	1014	1014	1005	1002	1018	0	0	0	0	0	0	0	0	0	0	1023	1025	1039	1056	1067	1066	1118	1243	1374	1396	1407	1403	1404	1419	1442	1456	1452	1465	1475	1476	1478	1452	1431	1425	1425	1431	1439	1449	1461	1476	1483	1485	1483	1474	1474	1479	1481	1510	1514	1512	1502	1510	1496	1481	1467	1460	1458	1469	1492	1493	1502	1507	1521	1518	1501	1481	1481	1471	1475	1480	1486	1483	1470	1453	1451	1458	1471	1486	1499	1505	1507	1508	1513	1500	1483	1467	1441	1435	1453	1470	1472	1473	1471	1472	1474	1477	1476	1476	1466	1459	1454	1451	1451	1448	1457	1460	1465	1470	1470	1474	1478	1493	1500	1494	1478	1458	1445	1446	1449	1483	1486	1480	1475	1475	1472	1468	1468	1459	1454	1462	1471	1478	1474	1464	1447	1440	1441	1448	1446	1423	1433	1435	1444	1461	1488	1503	1510	1501	1491	1477	1461	1453	1438	1427	1419	1421	1436	1444	1442	1434	1428	1425	1429	1444	1455	1464	1463	1464	1464	1461	1469	1474	1472	1459	1440	1429	1432	1443	1454	1460	1454	1437	1432	1431	1431	1425	1428	1428	1437	1442	1459	0	0	0	0	0	0	0
0	0	0	0	0	0	0	0	0	0	0	0	0	0	0	0	0	0	0	0	0	0	0	0	0	0	0	0	0	0	0	0	0	0	0	0	0	0	0	0	0	0	0	0	0	0	0	0	0	0	0	0	0	0	0	0	0	0	0	0	0	0	0	0	0	0	0	0	0	0	0	0	0	0	0	0	0	0	0	0	0	0	0	0	0	0	0	0	0	0	0	0	0	1446	1475	1478	1486	1479	1476	1464	1458	1459	1461	1464	1473	1482	1509	1500	1482	1461	1434	1449	1468	1475	1465	1454	1443	1445	1460	1474	1499	1491	1481	1461	1445	1436	1437	1438	1456	1466	1475	1476	1475	1462	1460	1468	1471	1458	1451	1456	1469	1480	1490	1480	1467	1463	1451	1441	1445	1469	1482	1485	1473	1461	1453	1458	1459	1475	1493	1495	1497	1487	1456	1445	1457	1463	1460	1441	1449	1451	1463	1471	1479	1491	1494	1482	1473	1460	1453	1446	1435	1434	1453	1466	1463	1460	1458	1457	1463	1456	1449	1441	1456	1462	1458	1458	1455	1451	1449	1455	1452	1461	1484	1498	1491	1476	1460	1453	1447	1444	1447	1446	1453	1452	1436	1427	1429	1373	1291	1241	1203	1174	1158	1149	1102	1091	1083	1076	1061	1042	1034	1035	1041	1046	1043	1036	1028	1025	1011	1012	1005	1006	1002	993	1000	1028	1039	1026	1012	996	998	1005	1005	1002	1001	1010	1024	1017	1013	1023	1031	1041	0	0	0	0	0	0	0	0	1427	1483	1475	1481	1484	1486	1482	1470	1476	1495	1505	1506	1501	1502	1516	1531	1539	1535	1515	1506	1511	1511	1505	1496	1485	1485	1495	1506	1511	1508	1508	1518	1519	1513	1506	1508	1505	1496	1476	1453	1449	1454	1462	1467	1459	1453	1465	1481	1495	1484	1478	1466	1461	1456	1462	1480	1480	1475	1469	1460	1454	1442	1437	1437	1439	1437	1442	1463	1478	1481	1466	1474	1503	1500	1468	1472	1506	1500	1483	1472	1466	1466	1458	1467	1479	1476	1474	1473	1474	1467	1461	1461	1465	1476	1503	1520	1531	1528	1519	1504	1496	1490	1491	1482	1459	1449	1447	1465	1485	1482	1478	1487	1503	1510	1495	1474	1466	1474	1488	1499	1501	1494	1494	1494	1493	1482	1468	1456	1482	1487	1490	1490	1499	0	0	0	0	0	0	0	0	0	0	0	0	0	0	0	0	0	0	0	0	0	0	1029	0	0	0	0	976	985	1004	1011	1015	1021	1030	1027	1020	998	0	0	0	0	0	0	0	0	0	0	0	0	0	1009	1016	1028	1030	1037	1053	1085	1117	1153	1217	1384	1404	1414	1435	1445	1453	1474	1484	1506	1484	1463	1444	1439	1446	1456	1462	1466	1477	1484	1496	1496	1498	1479	1474	1477	1493	1522	1531	1527	1511	1499	1490	1483	1475	1472	1469	1473	1515	1505	1507	1514	1517	1515	1500	1485	1484	1489	1496	1493	1491	1482	1462	1446	1445	1450	1458	1477	1486	1488	1486	1489	1497	1496	1480	1450	1432	1427	1440	1464	1470	1472	1461	1455	1457	1461	1473	1474	1465	1457	1452	1449	1449	1447	1451	1452	1458	1462	1471	1461	1466	1482	1492	1493	1487	1468	1444	1438	1446	1464	1469	1464	1463	1468	1468	1468	1464	1460	1468	1477	1506	1512	1505	1477	1461	1447	1451	1455	1442	1425	1419	1423	1452	1477	1494	1506	1507	1498	1488	1480	1466	1452	1442	1434	1425	1429	1432	1440	1440	1445	1439	1434	1432	1437	1451	1455	1456	1452	1452	1452	1459	1467	1468	1454	1436	1425	1424	1437	1460	1469	1469	1440	1420	1414	1414	1408	1414	1421	1431	1445	1464	0	0	0	0	0	0	0
0	0	0	0	0	0	0	0	0	0	0	0	0	0	0	0	0	0	0	0	0	0	0	0	0	0	0	0	0	0	0	0	0	0	0	0	0	0	0	0	0	0	0	0	0	0	0	0	0	0	0	0	0	0	0	0	0	0	0	0	0	0	0	0	0	0	0	0	0	0	0	0	0	0	0	0	0	0	0	0	0	0	0	0	0	0	0	0	0	0	0	0	0	1438	1469	1473	1475	1469	1463	1465	1460	1458	1452	1454	1462	1471	1498	1488	1477	1465	1442	1444	1464	1463	1460	1447	1432	1429	1453	1467	1481	1475	1481	1470	1458	1442	1433	1437	1458	1477	1479	1480	1460	1462	1465	1482	1478	1465	1452	1442	1450	1463	1470	1467	1472	1467	1457	1448	1447	1462	1477	1483	1479	1477	1471	1466	1465	1473	1477	1485	1489	1480	1463	1450	1455	1465	1458	1454	1450	1459	1459	1466	1476	1490	1499	1496	1484	1467	1463	1452	1443	1452	1468	1474	1471	1469	1466	1461	1463	1464	1452	1444	1462	1469	1468	1464	1462	1467	1460	1449	1441	1453	1481	1500	1494	1476	1462	1455	1450	1444	1438	1438	1444	1439	1381	1312	1282	1225	1189	1176	1150	1138	0	0	1115	1071	1060	1045	1037	1019	1011	1014	1025	1029	1026	1012	995	996	995	994	991	984	979	972	974	986	1023	1025	1014	1000	991	990	993	990	989	1003	1008	1009	1002	1014	1033	0	0	0	0	0	0	0	0	1406	1465	1466	1465	1473	1481	1486	1476	1471	1471	1484	1492	1494	1491	1494	1500	1519	1532	1532	1527	1517	1513	1508	1506	1499	1497	1492	1502	1506	1515	1512	1512	1528	1528	1513	1499	1499	1501	1498	1482	1464	1456	1459	1468	1461	1455	1456	1467	1484	1500	1493	1484	1474	1465	1469	1471	1479	1472	1474	1481	1479	1486	1479	1474	1462	1452	1439	1440	1448	1458	1462	1462	1453	1451	1444	1455	1471	1483	1488	1490	1483	1479	1472	1470	1471	1470	1469	1485	1481	1481	1468	1463	1472	1486	1495	1499	1499	1503	1514	1514	1504	1500	1490	1490	1483	1464	1450	1450	1463	1480	1482	1482	1493	1509	1512	1502	1490	1474	1482	1494	1515	1509	1500	1497	1500	1502	1483	1460	1450	1464	1484	1489	1499	1517	1557	0	0	0	0	0	0	0	0	0	0	0	0	0	0	0	0	0	0	0	0	0	0	0	0	0	0	0	0	0	0	0	0	0	0	0	0	0	0	0	0	0	0	0	0	0	0	0	0	0	0	0	0	1027	1025	1033	1048	1077	1095	1117	1166	1233	1330	1388	1417	1436	1468	1489	1499	1495	1477	1457	1445	1456	1475	1477	1477	1469	1481	1492	1499	1496	1483	1477	1479	1499	1524	1536	1523	1496	1481	1474	1469	1472	1474	1472	1497	1498	1502	1499	1497	1505	1497	1485	1472	1475	1489	1495	1500	1489	1483	1460	1451	1447	1445	1451	1458	1474	1462	1460	1471	1485	1484	1470	1450	1433	1431	1436	1445	1463	1472	1469	1462	1454	1457	1464	1462	1453	1446	1451	1461	1472	1459	1449	1447	1454	1465	1467	1460	1462	1465	1476	1485	1485	1465	1443	1428	1430	1435	1442	1451	1458	1464	1469	1462	1455	1461	1473	1495	1526	1523	1504	1484	1463	1454	1451	1455	1447	1433	1432	1443	1461	1472	1476	1487	1480	1477	1474	1471	1455	1442	1437	1432	1440	1435	1439	1441	1442	1449	1451	1451	1445	1447	1450	1444	1444	1443	1443	1449	1452	1458	1462	1450	1440	1435	1432	1442	1464	1471	1471	1449	1418	1418	1417	1419	1416	1425	1435	1443	1465	0	0	0	0	0	0	0
0	0	0	0	0	0	0	0	0	0	0	0	0	0	0	0	0	0	0	0	0	0	0	0	0	0	0	0	0	0	0	0	0	0	0	0	0	0	0	0	0	0	0	0	0	0	0	0	0	0	0	0	0	0	0	0	0	0	0	0	0	0	0	0	0	0	0	0	0	0	0	0	0	0	0	0	0	0	0	0	0	0	0	0	0	0	0	0	0	0	0	0	0	1446	1460	1458	1460	1462	1468	1470	1472	1472	1464	1465	1466	1474	1481	1469	1463	1458	1448	1442	1447	1455	1452	1439	1436	1433	1446	1442	1445	1452	1451	1461	1459	1447	1439	1439	1454	1479	1483	1475	1456	1458	1473	1489	1492	1477	1456	1450	1452	1454	1462	1466	1472	1470	1462	1452	1447	1447	1461	1487	1506	1496	1480	1474	1476	1473	1475	1476	1479	1483	1484	1479	1464	1462	1464	1460	1458	1459	1452	1458	1469	1483	1500	1500	1488	1479	1473	1467	1463	1468	1476	1479	1476	1478	1478	1466	1466	1470	1467	1462	1472	1474	1469	1471	1480	1478	1472	1449	1448	1455	1475	1489	1490	1474	1462	1448	1437	1415	1418	1425	1404	1345	1272	1225	1210	1199	1191	1169	1147	0	0	0	0	1055	1038	1029	1021	1017	1009	1006	1015	1020	1014	996	982	985	992	992	991	980	967	959	954	958	0	0	0	0	0	0	0	0	979	991	1004	1005	1007	1022	0	0	0	0	0	0	0	0	1394	1444	1462	1469	1473	1473	1478	1477	1484	1495	1494	1474	1450	1455	1464	1475	1478	1482	1489	1500	1508	1509	1504	1490	1487	1488	1491	1491	1493	1500	1513	1507	1504	1495	1483	1476	1474	1476	1477	1486	1482	1490	1490	1500	1477	1478	1477	1477	1479	1487	1501	1504	1500	1493	1490	1490	1485	1473	1468	1476	1485	1495	1484	1482	1471	1463	1453	1438	1436	1450	1465	1469	1467	1456	1460	1464	1474	1477	1484	1483	1488	1480	1474	1468	1473	1473	1469	1474	1487	1487	1488	1481	1475	1487	1494	1497	1494	1486	1488	1494	1496	1488	1486	1487	1489	1482	1470	1455	1453	1459	1466	1476	1493	1503	1506	1511	1502	1502	1488	1494	1515	1520	1517	1507	1493	1503	1507	1491	1466	1445	1463	1484	1499	1502	1511	1503	0	0	0	0	0	0	0	0	0	0	0	0	0	0	0	0	0	0	0	0	0	0	0	0	0	0	0	0	0	0	0	0	0	0	0	0	0	0	0	0	0	0	0	0	0	0	0	0	0	0	0	0	1011	1005	1003	1009	1025	1038	1055	1067	1103	1166	1216	1346	1403	1449	1454	1464	1473	1466	1449	1440	1453	1470	1479	1470	1453	1449	1474	1497	1504	1493	1488	1482	1492	1511	1513	1500	1478	1462	1456	1462	1472	1481	1474	1486	1500	1495	1486	1485	1485	1482	1472	1459	1470	1477	1489	1485	1477	1473	1470	1464	1461	1457	1455	1445	1457	1453	1462	1472	1480	1482	1474	1460	1449	1448	1446	1445	1459	1477	1479	1474	1461	1453	1452	1443	1441	1442	1452	1479	1481	1463	1448	1444	1455	1464	1469	1465	1466	1467	1478	1490	1495	1478	1458	1440	1426	1429	1438	1450	1462	1468	1472	1466	1458	1460	1482	1504	1524	1515	1495	1471	1457	1450	1457	1462	1459	1451	1454	1458	1464	1468	1461	1461	1455	1456	1458	1459	1448	1438	1431	1437	1441	1444	1444	1442	1446	1452	1453	1454	1455	1450	1446	1442	1441	1446	1446	1448	1451	1452	1456	1457	1452	1448	1453	1449	1462	1469	1464	1446	1429	1429	1429	1423	1427	1431	1426	1439	1452	0	0	0	0	0	0	0
0	0	0	0	0	0	0	0	0	0	0	0	0	0	0	0	0	0	0	0	0	0	0	0	0	0	0	0	0	0	0	0	0	0	0	0	0	0	0	0	0	0	0	0	0	0	0	0	0	0	0	0	0	0	0	0	0	0	0	0	0	0	0	0	0	0	0	0	0	0	0	0	0	0	0	0	0	0	0	0	0	0	0	0	0	0	0	0	0	0	0	0	0	1453	1458	1460	1454	1462	1480	1487	1496	1495	1487	1479	1475	1473	1469	1466	1463	1457	1456	1454	1456	1463	1466	1466	1467	1461	1454	1442	1434	1429	1432	1429	1437	1433	1436	1437	1454	1469	1469	1459	1454	1460	1478	1493	1491	1485	1475	1474	1468	1460	1455	1456	1469	1465	1457	1447	1437	1433	1456	1487	1508	1508	1491	1488	1483	1480	1477	1471	1474	1486	1493	1490	1472	1469	1470	1469	1467	1457	1447	1445	1460	1479	1485	1489	1485	1476	1474	1475	1474	1470	1474	1473	1487	1493	1483	1461	1455	1456	1462	1464	1464	1476	1471	1480	1497	1481	1467	1453	1440	1446	1464	1482	1481	1478	1464	1447	1390	1311	1283	1269	1250	1240	1232	1214	1207	1203	1189	1175	1153	0	0	0	0	1049	1020	1014	1012	1007	1004	1002	1002	1012	1003	984	976	972	984	988	989	978	967	955	949	958	0	0	0	0	0	0	0	0	0	0	999	0	0	0	0	0	0	0	0	0	0	1368	1410	1452	1470	1479	1469	1469	1467	1472	1484	1498	1500	1473	1456	1456	1464	1465	1471	1479	1490	1497	1511	1516	1508	1498	1492	1494	1498	1500	1499	1504	1508	1504	1492	1472	1471	1468	1472	1473	1474	1481	1479	1484	1496	1492	1481	1479	1483	1483	1485	1479	1506	1513	1512	1508	1502	1492	1484	1470	1465	1472	1490	1494	1494	1475	1465	1460	1454	1444	1448	1460	1472	1483	1478	1476	1477	1476	1474	1475	1479	1476	1478	1473	1469	1472	1473	1476	1477	1491	1484	1487	1493	1486	1490	1497	1498	1492	1482	1481	1486	1490	1482	1479	1478	1485	1489	1487	1467	1464	1458	1452	1461	1466	1484	1491	1499	1502	1501	1512	1508	1510	1514	1515	1514	1503	1501	1509	1515	1501	1481	1447	1464	1479	1495	1501	1497	1489	1465	0	0	0	0	0	0	0	0	0	0	0	0	0	0	0	0	932	933	0	951	959	958	950	945	947	0	0	0	0	0	0	0	0	0	0	0	0	0	0	0	0	0	0	0	0	0	0	0	0	0	992	987	978	967	967	972	984	1001	1015	1018	1042	1038	1054	1166	1363	1417	1433	1444	1448	1443	1440	1445	1459	1462	1460	1457	1447	1472	1495	1496	1481	1475	1473	1481	1493	1483	1478	1459	1447	1444	1452	1471	1482	1467	1487	1493	1494	1475	1467	1466	1468	1464	1467	1468	1472	1478	1475	1472	1474	1485	1490	1486	1485	1468	1459	1449	1452	1459	1477	1485	1481	1468	1468	1464	1464	1449	1448	1461	1479	1483	1481	1469	1456	1448	1435	1432	1438	1466	1478	1468	1454	1439	1448	1454	1464	1459	1460	1464	1473	1489	1502	1506	1501	1486	1466	1441	1434	1443	1458	1471	1480	1479	1472	1467	1465	1484	1497	1506	1496	1482	1460	1450	1451	1457	1464	1466	1464	1459	1465	1467	1461	1450	1446	1449	1447	1446	1448	1447	1440	1436	1438	1442	1449	1443	1443	1441	1441	1441	1444	1449	1449	1442	1435	1436	1441	1441	1439	1442	1441	1448	1460	1461	1469	1470	1461	1460	1461	1460	1441	1429	1429	1423	1422	1433	1436	1435	1442	1442	0	0	0	0	0	0	0
0	0	0	0	0	0	0	0	0	0	0	0	0	0	0	0	0	0	0	0	0	0	0	0	0	0	0	0	0	0	0	0	0	0	0	0	0	0	0	0	0	0	0	0	0	0	0	0	0	0	0	0	0	0	0	0	0	0	0	0	0	0	0	0	0	0	0	0	0	0	0	0	0	0	0	0	0	0	0	0	0	0	0	0	0	0	0	0	0	0	0	0	0	1466	1450	1467	1475	1475	1478	1482	1476	1482	1488	1483	1484	1477	1472	1469	1468	1461	1460	1462	1470	1472	1475	1473	1474	1468	1466	1454	1450	1440	1432	1428	1425	1428	1434	1444	1459	1465	1458	1451	1460	1466	1475	1480	1474	1467	1456	1454	1452	1452	1457	1453	1450	1446	1443	1436	1425	1435	1461	1484	1504	1502	1499	1494	1479	1473	1466	1479	1478	1487	1493	1495	1484	1480	1473	1464	1460	1451	1445	1450	1455	1469	1474	1471	1467	1457	1472	1468	1464	1463	1463	1471	1484	1486	1477	1460	1442	1432	1438	1444	1450	1472	1479	1482	1486	1486	1465	1449	1431	1431	1448	1466	1479	1479	1452	1415	1233	1183	1178	1190	1198	1204	1201	1198	1191	1182	1169	1159	1145	0	0	0	0	0	0	0	993	994	994	992	991	990	988	978	973	966	973	975	974	975	965	955	950	953	975	988	995	990	983	981	0	0	0	0	0	0	0	0	0	0	0	0	0	0	1373	1389	1427	1451	1468	1475	1472	1468	1465	1470	1487	1508	1506	1498	1485	1478	1473	1471	1476	1481	1494	1508	1516	1518	1516	1499	1496	1498	1504	1505	1507	1504	1502	1493	1481	1472	1468	1468	1469	1477	1473	1468	1471	1494	1504	1497	1483	1479	1486	1489	1490	1486	1498	1516	1514	1514	1505	1493	1476	1466	1464	1470	1479	1486	1485	1478	1468	1465	1459	1453	1453	1465	1481	1495	1501	1498	1493	1481	1475	1474	1473	1476	1478	1477	1473	1475	1469	1473	1481	1487	1484	1488	1491	1491	1491	1496	1495	1483	1471	1457	1472	1476	1473	1477	1480	1489	1487	1489	1480	1466	1457	1455	1452	1456	1464	1478	1485	1494	1501	1506	1512	1511	1509	1514	1507	1498	1496	1494	1506	1501	1475	1467	1468	1475	1483	1485	1478	1470	1454	1423	0	0	0	0	0	0	0	0	0	0	0	0	0	0	925	919	922	934	941	951	950	941	936	933	937	928	933	930	930	920	904	913	930	954	0	0	0	0	969	976	969	968	976	965	944	922	924	936	946	946	950	948	939	937	938	953	967	973	977	976	982	991	1005	1095	1291	1378	1399	1421	1426	1430	1440	1446	1456	1460	1469	1481	1482	1490	1470	1459	1457	1460	1476	1485	1472	1460	1454	1439	1442	1457	1474	1465	1465	1481	1495	1490	1470	1460	1462	1467	1466	1472	1469	1461	1463	1468	1474	1483	1494	1509	1518	1518	1506	1479	1464	1458	1465	1482	1490	1483	1468	1466	1468	1474	1456	1456	1470	1494	1490	1489	1486	1479	1463	1447	1441	1440	1450	1456	1455	1450	1451	1459	1462	1456	1447	1456	1475	1497	1516	1519	1518	1508	1504	1491	1471	1460	1457	1469	1479	1472	1458	1449	1450	1461	1475	1481	1475	1480	1474	1463	1452	1449	1463	1467	1467	1462	1463	1470	1465	1464	1458	1452	1445	1442	1439	1444	1444	1449	1449	1453	1450	1450	1449	1442	1440	1436	1435	1444	1453	1450	1444	1438	1437	1437	1431	1427	1428	1439	1451	1465	1469	1467	1468	1468	1466	1462	1453	1440	1422	1422	1419	1420	1419	1442	1448	1450	1406	0	0	0	0	0	0	0
0	0	0	0	0	0	0	0	0	0	0	0	0	0	0	0	0	0	0	0	0	0	0	0	0	0	0	0	0	0	0	0	0	0	0	0	0	0	0	0	0	0	0	0	0	0	0	0	0	0	0	0	0	0	0	0	0	0	0	0	0	0	0	0	0	0	0	0	0	0	0	0	0	0	0	0	0	0	0	0	0	0	0	0	0	0	0	0	0	0	0	0	0	1428	1444	1461	1475	1481	1470	1469	1469	1480	1486	1485	1482	1467	1479	1481	1475	1473	1471	1473	1481	1476	1473	1472	1471	1469	1473	1471	1466	1452	1447	1431	1426	1428	1433	1449	1460	1465	1456	1447	1459	1478	1478	1474	1463	1456	1443	1441	1439	1456	1464	1462	1460	1456	1456	1445	1457	1474	1481	1484	1486	1496	1497	1490	1485	1473	1470	1480	1483	1491	1496	1499	1493	1478	1464	1450	1444	1449	1458	1462	1461	1462	1450	1439	1438	1444	1465	1464	1458	1458	1465	1478	1488	1486	1477	1457	1444	1430	1425	1429	1443	1476	1487	1496	1506	1499	1477	1440	1416	1414	1426	1425	1420	1386	1276	1223	1135	1124	1124	1134	1144	1151	1155	1160	1150	1144	1137	1129	1118	0	0	0	0	1028	995	972	966	964	962	970	977	974	975	971	969	966	963	961	963	961	960	948	942	939	958	965	970	971	973	978	0	0	0	0	0	0	0	0	0	0	0	0	0	0	1402	1389	1430	1444	1460	1460	1472	1471	1476	1488	1504	1516	1512	1502	1488	1489	1484	1488	1493	1508	1507	1491	1469	1508	1503	1500	1500	1507	1511	1512	1513	1508	1503	1494	1479	1475	1473	1483	1487	1486	1490	1443	1444	1474	1487	1497	1483	1483	1479	1483	1482	1473	1492	1489	1493	1500	1493	1478	1475	1466	1462	1462	1461	1467	1469	1472	1471	1470	1464	1462	1465	1475	1478	1490	1507	1501	1495	1482	1483	1477	1475	1473	1472	1469	1475	1479	1479	1481	1487	1490	1492	1484	1482	1482	1477	1485	1496	1481	1451	1449	1454	1470	1477	1484	1501	1503	1497	1485	1480	1468	1459	1458	1454	1452	1448	1460	1464	1477	1484	1491	1499	1499	1500	1496	1490	1485	1486	1482	1492	1489	1481	1481	1483	1481	1477	1465	1461	1457	1445	1436	1425	0	0	0	0	0	0	0	0	0	0	0	0	0	0	916	917	919	919	929	936	932	917	920	937	944	940	930	910	892	888	891	920	937	945	940	945	940	946	941	932	921	925	940	942	918	923	934	935	936	942	938	927	917	920	927	939	943	941	941	949	965	999	1025	1049	1133	1170	1287	1368	1388	1422	1432	1445	1461	1474	1480	1484	1483	1445	1440	1438	1447	1464	1478	1472	1469	1475	1467	1450	1465	1465	1461	1458	1481	1489	1482	1465	1460	1465	1474	1481	1477	1472	1458	1453	1465	1481	1492	1503	1519	1532	1541	1528	1498	1472	1467	1477	1487	1486	1487	1480	1477	1480	1481	1483	1488	1495	1493	1479	1479	1481	1476	1466	1454	1459	1449	1462	1460	1468	1468	1472	1461	1463	1465	1460	1466	1482	1499	1509	1510	1501	1494	1495	1493	1477	1462	1468	1476	1471	1458	1438	1428	1435	1443	1460	1467	1470	1465	1451	1445	1449	1464	1470	1465	1464	1464	1467	1470	1471	1471	1472	1463	1450	1442	1437	1430	1449	1466	1471	1477	1469	1457	1452	1444	1440	1447	1446	1449	1450	1454	1442	1440	1434	1434	1424	1426	1432	1446	1459	1467	1469	1460	1468	1471	1475	1468	1452	1438	1423	1423	1420	1425	1436	1448	1457	1461	1396	0	0	0	0	0	0	0
0	0	0	0	0	0	0	0	0	0	0	0	0	0	0	0	0	0	0	0	0	0	0	0	0	0	0	0	0	0	0	0	0	0	0	0	0	0	0	0	0	0	0	0	0	0	0	0	0	0	0	0	0	0	0	0	0	0	0	0	0	0	0	0	0	0	0	0	0	0	0	0	0	0	0	0	0	0	0	0	0	0	0	0	0	0	0	0	0	0	0	0	0	1408	1437	1460	1470	1474	1466	1459	1462	1474	1487	1485	1474	1472	1484	1492	1493	1486	1482	1485	1479	1477	1469	1468	1471	1474	1479	1479	1478	1466	1455	1442	1431	1431	1438	1450	1467	1470	1463	1454	1470	1478	1480	1475	1465	1457	1447	1439	1448	1459	1476	1479	1480	1483	1480	1480	1488	1481	1477	1475	1477	1489	1495	1490	1482	1472	1473	1468	1477	1483	1498	1501	1489	1468	1451	1442	1439	1450	1461	1477	1470	1459	1437	1433	1433	1444	1463	1473	1471	1471	1484	1491	1485	1482	1466	1457	1437	1421	1415	1427	1446	1471	1480	1493	1506	1496	1476	1433	1407	1386	1376	1335	1271	1170	1135	1120	1098	1090	1093	1103	1106	1104	1104	1111	1102	1099	1100	1097	1084	0	0	0	0	998	973	954	947	943	946	953	962	963	966	970	966	964	964	964	963	957	949	935	921	921	924	939	946	963	0	0	0	0	0	0	0	0	0	0	0	0	0	0	0	0	1418	1449	1442	1444	1454	1462	1465	1471	1477	1492	1507	1517	1515	1506	1477	1483	1490	1511	1515	1517	1494	1471	1455	1448	1490	1506	1512	1516	1521	1519	1517	1510	1501	1490	1482	1478	1485	1500	1505	1512	1496	1471	1469	1475	1492	1505	1509	1481	1478	1472	1471	1476	1492	1483	1491	1489	1478	1470	1463	1459	1458	1450	1447	1456	1462	1471	1467	1465	1465	1471	1480	1482	1489	1490	1492	1488	1481	1476	1480	1490	1484	1467	1459	1466	1469	1475	1477	1480	1491	1497	1495	1488	1476	1476	1480	1486	1489	1482	1469	1454	1460	1472	1485	1504	1516	1520	1513	1499	1482	1470	1463	1469	1469	1458	1447	1443	1447	1455	1466	1479	1492	1488	1488	1484	1481	1479	1478	1481	1480	1482	1485	1494	1496	1487	1475	1460	1454	1454	1453	1449	1432	1424	0	0	0	0	0	0	0	0	0	0	0	0	0	913	910	902	894	894	904	905	901	909	925	932	936	921	896	880	875	876	902	924	926	924	914	915	911	902	887	889	904	919	923	919	914	926	931	936	934	929	916	908	909	914	918	916	914	918	930	941	977	1000	1014	1000	1025	1078	1193	1277	1318	1392	1427	1451	1465	1474	1477	1467	1439	1440	1444	1449	1452	1468	1476	1480	1493	1491	1484	1484	1473	1462	1454	1473	1481	1474	1471	1468	1469	1473	1476	1474	1468	1463	1466	1473	1489	1498	1496	1514	1528	1536	1495	1480	1460	1456	1476	1486	1490	1480	1476	1475	1481	1483	1494	1498	1505	1483	1471	1464	1460	1462	1456	1462	1464	1462	1468	1466	1475	1480	1481	1475	1467	1469	1468	1479	1479	1485	1493	1495	1492	1482	1483	1488	1473	1471	1475	1481	1479	1452	1425	1414	1422	1435	1452	1461	1452	1450	1433	1428	1439	1451	1450	1446	1445	1455	1469	1472	1458	1461	1461	1449	1444	1438	1440	1448	1466	1485	1496	1503	1489	1471	1458	1449	1451	1459	1458	1449	1441	1439	1440	1429	1423	1423	1428	1433	1447	1455	1461	1459	1456	1449	1459	1472	1479	1478	1461	1442	1427	1427	1429	1433	1445	1451	1464	1462	1391	0	0	0	0	0	0	0
0	0	0	0	0	0	0	0	0	0	0	0	0	0	0	0	0	0	0	0	0	0	0	0	0	0	0	0	0	0	0	0	0	0	0	0	0	0	0	0	0	0	0	0	0	0	0	0	0	0	0	0	0	0	0	0	0	0	0	0	0	0	0	0	0	0	0	0	0	0	0	0	0	0	0	0	0	0	0	0	0	0	0	0	0	0	0	0	0	0	0	0	0	1429	1452	1458	1463	1467	1476	1474	1469	1470	1481	1484	1480	1476	1488	1491	1492	1483	1475	1473	1479	1459	1451	1457	1467	1476	1480	1478	1476	1473	1468	1464	1443	1436	1447	1458	1472	1474	1470	1466	1475	1478	1480	1477	1478	1467	1457	1443	1447	1459	1478	1481	1484	1485	1493	1497	1502	1478	1473	1463	1467	1484	1494	1489	1474	1467	1458	1457	1461	1473	1480	1487	1487	1475	1470	1479	1456	1461	1462	1465	1471	1468	1440	1441	1450	1462	1477	1486	1486	1490	1499	1492	1484	1469	1453	1442	1432	1422	1430	1437	1447	1460	1466	1479	1486	1481	1452	1392	1301	1260	1169	1133	1123	1123	1112	1095	1058	1046	1052	1060	1069	1068	1072	1066	1062	1064	1071	1069	1056	1039	1026	1017	1004	988	959	955	957	950	950	951	960	959	958	962	960	969	973	974	977	965	939	916	903	897	903	913	932	0	0	0	0	0	0	0	0	0	0	0	0	0	1437	1464	1411	1433	1442	1462	1445	1454	1466	1471	1479	1478	1483	1492	1507	1514	1517	1506	1487	1472	1502	1504	1506	1520	1499	1462	1451	1437	1490	1516	1517	1520	1523	1518	1515	1507	1497	1483	1475	1477	1488	1502	1515	1521	1522	1490	1488	1509	1505	1507	1508	1504	1475	1458	1462	1469	1485	1481	1486	1476	1469	1461	1460	1464	1464	1454	1451	1462	1472	1471	1463	1457	1462	1464	1485	1491	1478	1468	1468	1473	1479	1480	1490	1492	1486	1472	1462	1465	1466	1469	1470	1479	1488	1494	1494	1486	1481	1490	1495	1496	1497	1494	1485	1486	1475	1477	1486	1506	1523	1523	1513	1496	1480	1472	1476	1483	1489	1468	1451	1442	1440	1450	1461	1476	1484	1483	1480	1479	1481	1486	1495	1489	1474	1478	1487	1492	1495	1485	1479	1475	1473	1474	1478	1472	1450	1439	0	0	0	0	0	0	0	0	0	0	0	0	0	917	903	889	872	862	856	869	871	899	918	931	932	912	886	866	857	861	878	897	908	908	905	897	889	873	867	872	888	898	899	897	898	907	914	926	924	915	903	902	897	897	887	884	890	904	918	928	954	968	966	948	936	946	1030	1060	1092	1219	1341	1420	1445	1455	1453	1437	1428	1437	1449	1442	1440	1449	1474	1491	1496	1503	1501	1496	1479	1464	1453	1465	1477	1470	1471	1472	1471	1468	1465	1463	1464	1471	1481	1490	1527	1522	1512	1506	1518	1509	1492	1468	1452	1444	1466	1485	1483	1482	1479	1474	1468	1467	1477	1496	1502	1481	1472	1460	1458	1451	1449	1457	1464	1467	1467	1465	1467	1476	1474	1474	1475	1476	1483	1479	1468	1467	1467	1477	1477	1481	1485	1478	1478	1476	1480	1492	1486	1463	1434	1424	1428	1438	1449	1444	1429	1433	1422	1427	1424	1431	1427	1416	1415	1436	1452	1462	1453	1455	1450	1444	1445	1445	1456	1466	1486	1501	1519	1525	1518	1493	1478	1463	1459	1456	1454	1450	1442	1431	1432	1421	1421	1421	1425	1438	1457	1457	1456	1447	1438	1443	1457	1468	1479	1479	1465	1451	1446	1446	1448	1443	1447	1458	1463	1448	1392	0	0	0	0	0	0	0
0	0	0	0	0	0	0	0	0	0	0	0	0	0	0	0	0	0	0	0	0	0	0	0	0	0	0	0	0	0	0	0	0	0	0	0	0	0	0	0	0	0	0	0	0	0	0	0	0	0	0	0	0	0	0	0	0	0	0	0	0	0	0	0	0	0	0	0	0	0	0	0	0	0	0	0	0	0	0	0	0	0	0	0	0	0	0	0	0	0	0	0	0	0	1470	1463	1459	1461	1469	1469	1474	1473	1479	1486	1484	1484	1482	1478	1482	1469	1466	1457	1475	1445	1434	1442	1457	1472	1471	1468	1468	1473	1475	1479	1477	1472	1470	1473	1474	1478	1474	1476	1477	1481	1482	1485	1485	1482	1467	1447	1439	1456	1471	1474	1472	1467	1473	1480	1482	1473	1466	1457	1453	1465	1481	1484	1477	1468	1454	1447	1454	1467	1474	1478	1474	1483	1482	1486	1485	1469	1452	1448	1459	1471	1454	1458	1465	1482	1494	1491	1493	1499	1501	1496	1478	1457	1442	1436	1426	1427	1441	1444	1442	1438	1429	1427	1418	1360	1285	1165	1104	1103	1081	1083	1094	1102	1102	1084	1059	1024	1030	1037	1042	1045	1044	1046	1044	1047	1050	1048	1034	1015	1004	990	975	962	955	969	980	983	986	971	966	964	958	956	961	968	978	989	987	966	933	897	881	883	887	917	0	0	0	0	0	0	0	0	0	0	0	0	0	1452	1472	1480	1479	1480	1477	1487	1474	1491	1491	1492	1488	1488	1484	1490	1503	1511	1515	1509	1488	1473	1495	1500	1503	1514	1505	1481	1465	1444	1508	1529	1531	1521	1517	1515	1508	1500	1487	1476	1479	1481	1488	1501	1519	1529	1530	1526	1509	1498	1497	1488	1490	1492	1470	1456	1461	1470	1490	1495	1490	1484	1467	1458	1469	1474	1477	1472	1468	1460	1464	1469	1468	1467	1475	1472	1494	1492	1466	1454	1458	1469	1481	1491	1488	1486	1474	1465	1461	1460	1459	1459	1462	1481	1482	1490	1490	1487	1489	1501	1515	1514	1510	1508	1507	1501	1488	1475	1477	1496	1505	1513	1498	1485	1480	1484	1493	1510	1498	1478	1472	1454	1448	1452	1464	1474	1479	1479	1466	1470	1476	1490	1500	1505	1495	1472	1486	1489	1493	1493	1486	1495	1497	1505	1499	1490	1486	1462	1438	0	0	0	0	0	0	0	0	0	0	0	0	0	909	884	860	841	826	832	842	881	903	922	928	906	884	861	846	840	852	873	889	901	901	892	879	868	862	866	878	879	873	875	877	883	895	906	906	900	893	889	883	876	867	868	877	898	909	922	931	936	936	918	896	896	922	960	996	1031	1147	1232	1312	1396	1416	1404	1413	1435	1446	1441	1437	1447	1470	1485	1492	1501	1500	1494	1481	1460	1446	1464	1473	1475	1477	1470	1468	1468	1458	1475	1483	1500	1524	1546	1546	1540	1512	1510	1517	1514	1488	1458	1441	1439	1452	1477	1489	1486	1482	1470	1464	1451	1459	1473	1476	1479	1475	1472	1463	1459	1449	1451	1453	1451	1454	1459	1463	1466	1461	1463	1464	1483	1496	1481	1466	1452	1450	1465	1474	1481	1482	1483	1482	1483	1491	1496	1485	1467	1450	1436	1440	1442	1448	1443	1435	1424	1420	1430	1430	1421	1408	1407	1411	1428	1444	1454	1449	1447	1444	1448	1453	1459	1464	1470	1476	1485	1492	1499	1505	1510	1491	1473	1461	1456	1456	1456	1448	1442	1429	1418	1413	1413	1428	1444	1448	1457	1451	1445	1440	1444	1457	1464	1467	1461	1458	1466	1466	1466	1456	1451	1454	1457	1461	1444	1418	0	0	0	0	0	0	0
0	0	0	0	0	0	0	0	0	0	0	0	0	0	0	0	0	0	0	0	0	0	0	0	0	0	0	0	0	0	0	0	0	0	0	0	0	0	0	0	0	0	0	0	0	0	0	0	0	0	0	0	0	0	0	0	0	0	0	0	0	0	0	0	0	0	0	0	0	0	0	0	0	0	0	0	0	0	0	0	0	0	0	0	0	0	0	0	0	0	0	0	0	1496	1483	1475	1465	1462	1460	1460	1465	1471	1485	1493	1489	1482	1477	1468	1466	1479	1465	1463	1479	1439	1440	1447	1461	1471	1465	1459	1449	1452	1467	1473	1479	1474	1475	1474	1470	1469	1458	1463	1478	1483	1489	1492	1494	1491	1474	1450	1437	1448	1464	1469	1463	1450	1438	1442	1453	1461	1456	1452	1452	1462	1470	1474	1477	1483	1473	1460	1455	1467	1471	1482	1473	1470	1477	1490	1484	1474	1458	1451	1461	1486	1501	1496	1480	1487	1496	1481	1478	1478	1471	1477	1464	1460	1446	1436	1434	1440	1442	1441	1438	1412	1379	1285	1174	1119	1101	1087	1084	1079	1068	1070	1075	1091	1103	1098	1070	1038	1043	1048	1052	1054	1046	1047	1049	1045	1045	1041	1033	1021	1012	999	979	960	967	0	0	0	0	0	972	0	0	957	962	974	985	1006	0	0	0	0	0	0	0	0	0	0	0	0	0	0	0	0	0	0	0	0	1430	1471	1474	1478	1494	1542	1533	1514	1482	1506	1505	1498	1494	1491	1491	1494	1491	1501	1511	1515	1497	1482	1474	1489	1509	1504	1502	1491	1488	1463	1518	1543	1536	1521	1501	1498	1498	1489	1481	1479	1486	1490	1494	1497	1526	1542	1541	1534	1519	1505	1487	1468	1464	1464	1467	1471	1472	1477	1486	1497	1507	1498	1477	1465	1470	1481	1484	1466	1461	1462	1459	1473	1476	1482	1490	1497	1506	1498	1475	1460	1457	1463	1479	1484	1479	1478	1471	1465	1466	1466	1464	1465	1474	1482	1483	1485	1483	1488	1494	1506	1521	1518	1508	1507	1518	1514	1500	1468	1460	1464	1485	1494	1484	1479	1476	1490	1510	1512	1509	1494	1482	1468	1461	1454	1464	1479	1475	1475	1471	1472	1480	1495	1510	1519	1489	1476	1476	1488	1497	1503	1505	1512	1514	1515	1509	1506	1503	1484	1452	1448	0	0	0	0	0	0	0	0	0	0	0	0	932	898	857	831	819	816	835	864	882	910	921	909	891	870	848	834	838	857	877	890	899	889	879	877	877	876	873	869	853	855	865	871	879	887	889	883	881	875	868	862	861	867	880	893	903	911	916	917	906	893	876	870	876	895	921	946	977	1014	1082	1219	1304	1380	1392	1418	1438	1440	1446	1452	1469	1474	1479	1486	1491	1491	1476	1457	1460	1472	1479	1472	1476	1486	1487	1481	1480	1483	1491	1500	1520	1540	1550	1544	1517	1513	1511	1500	1488	1459	1442	1438	1443	1474	1487	1496	1488	1484	1468	1453	1444	1456	1463	1465	1472	1475	1474	1473	1451	1443	1435	1439	1453	1461	1465	1461	1457	1451	1456	1482	1492	1477	1461	1450	1457	1463	1475	1485	1492	1495	1492	1492	1487	1487	1482	1466	1458	1452	1451	1454	1448	1445	1436	1427	1431	1431	1434	1424	1415	1414	1424	1443	1459	1456	1444	1439	1437	1451	1466	1473	1480	1478	1474	1465	1461	1464	1474	1484	1484	1469	1466	1461	1463	1461	1455	1447	1431	1420	1420	1424	1430	1439	1445	1453	1452	1450	1449	1458	1460	1462	1455	1457	1454	1467	1467	1467	1455	1447	1443	1448	1451	1438	0	0	0	0	0	0	0	0
0	0	0	0	0	0	0	0	0	0	0	0	0	0	0	0	0	0	0	0	0	0	0	0	0	0	0	0	0	0	0	0	0	0	0	0	0	0	0	0	0	0	0	0	0	0	0	0	0	0	0	0	0	0	0	0	0	0	0	0	0	0	0	0	0	0	0	0	0	0	0	0	0	0	0	0	0	0	0	0	0	0	0	0	0	0	0	0	0	0	0	0	0	1485	1474	1468	1469	1459	1447	1446	1466	1479	1492	1500	1497	1484	1469	1456	1455	1489	1480	1484	1487	1482	1464	1473	1475	1468	1453	1445	1432	1425	1438	1456	1468	1474	1471	1465	1467	1461	1454	1453	1480	1487	1498	1502	1512	1504	1479	1454	1435	1443	1457	1467	1462	1441	1422	1421	1431	1448	1444	1446	1443	1449	1444	1458	1470	1481	1486	1476	1465	1464	1472	1484	1475	1472	1476	1479	1483	1471	1467	1464	1463	1474	1494	1495	1482	1481	1467	1455	1461	1463	1470	1466	1471	1464	1467	1453	1442	1438	1440	1426	1418	1350	1197	1124	1091	1084	1086	1097	1095	1084	0	1065	1071	1092	1113	1124	1120	1084	1088	1098	1103	1101	1084	1079	1073	1060	1053	1050	1046	0	0	0	0	0	0	0	0	0	0	0	0	0	0	0	0	0	0	0	0	0	0	0	0	0	0	0	0	0	0	0	0	0	0	0	0	0	0	1398	1445	1461	1469	1487	1535	1540	1532	1489	1480	1503	1485	1487	1487	1493	1495	1493	1487	1491	1507	1515	1505	1480	1471	1468	1487	1501	1495	1488	1488	1497	1534	1542	1526	1499	1493	1489	1490	1482	1481	1481	1488	1497	1498	1502	1539	1546	1544	1537	1527	1506	1489	1449	1449	1446	1479	1483	1482	1482	1481	1491	1503	1512	1492	1479	1476	1484	1474	1463	1458	1463	1459	1480	1487	1497	1503	1509	1511	1501	1484	1471	1464	1470	1469	1475	1478	1475	1471	1471	1474	1479	1479	1483	1485	1489	1484	1486	1485	1498	1509	1510	1510	1513	1508	1516	1527	1528	1499	1474	1450	1442	1455	1473	1476	1475	1482	1496	1508	1517	1510	1499	1495	1480	1470	1465	1468	1472	1469	1474	1475	1479	1483	1497	1515	1524	1489	1474	1471	1488	1502	1507	1514	1516	1510	1515	1509	1505	1499	1454	1449	1448	1426	0	0	0	0	0	0	0	0	0	0	0	0	0	881	829	816	808	823	847	866	892	910	908	892	870	848	830	828	845	868	886	885	877	874	877	880	878	869	862	851	852	859	860	863	862	872	882	885	870	856	856	862	873	879	888	892	913	914	907	898	877	856	846	849	865	885	905	929	948	966	988	1004	1328	1364	1395	1424	1442	1454	1457	1463	1466	1468	1469	1472	1466	1465	1455	1494	1499	1509	1498	1498	1503	1499	1492	1485	1487	1491	1490	1486	1508	1529	1525	1510	1505	1497	1494	1489	1469	1452	1452	1453	1467	1480	1484	1488	1483	1479	1467	1444	1442	1442	1450	1466	1484	1491	1484	1457	1434	1433	1441	1461	1468	1472	1471	1459	1455	1463	1487	1491	1477	1460	1450	1451	1458	1467	1481	1487	1491	1495	1485	1485	1478	1478	1465	1463	1462	1466	1463	1455	1451	1447	1443	1442	1439	1443	1436	1422	1425	1434	1451	1459	1451	1443	1440	1441	1446	1462	1477	1484	1479	1468	1459	1453	1454	1466	1469	1461	1455	1460	1466	1468	1465	1472	1457	1441	1430	1430	1423	1421	1430	1445	1459	1459	1459	1467	1465	1463	1455	1451	1451	1450	1451	1451	1449	1444	1442	1440	1432	1436	1429	0	0	0	0	0	0	0	0
0	0	0	0	0	0	0	0	0	0	0	0	0	0	0	0	0	0	0	0	0	0	0	0	0	0	0	0	0	0	0	0	0	0	0	0	0	0	0	0	0	0	0	0	0	0	0	0	0	0	0	0	0	0	0	0	0	0	0	0	0	0	0	0	0	0	0	0	0	0	0	0	0	0	0	0	0	0	0	0	0	0	0	0	0	0	0	0	0	0	0	0	0	1449	1450	1450	1460	1455	1443	1454	1467	1483	1497	1509	1497	1483	1471	1460	1461	1490	1500	1490	1486	1482	1461	1468	1469	1463	1439	1428	1423	1419	1420	1437	1456	1476	1479	1474	1469	1463	1451	1443	1470	1492	1504	1514	1518	1509	1489	1461	1448	1449	1455	1465	1468	1446	1419	1413	1424	1435	1442	1441	1433	1434	1440	1446	1460	1473	1485	1478	1468	1460	1467	1472	1470	1471	1477	1483	1482	1475	1477	1474	1466	1463	1467	1474	1475	1471	1458	1440	1441	1455	1457	1470	1481	1483	1478	1463	1439	1424	1409	1355	1307	1195	1123	1104	1089	1088	1098	1107	1101	0	0	1093	1098	1109	1127	1148	1148	1130	1146	1156	1154	1140	1123	1110	1103	1094	1079	1072	0	0	0	0	0	0	0	0	0	0	0	0	0	0	0	0	0	0	0	0	0	0	0	0	0	0	0	0	0	0	0	0	0	0	0	0	0	0	1375	1446	1470	1466	1470	1492	1537	1530	1516	1478	1472	1463	1461	1476	1485	1492	1496	1493	1485	1495	1516	1521	1507	1486	1472	1471	1473	1492	1488	1476	1474	1516	1528	1527	1515	1500	1485	1486	1491	1489	1486	1485	1492	1502	1513	1532	1544	1542	1538	1535	1531	1505	1454	1443	1450	1482	1487	1492	1485	1485	1476	1481	1485	1500	1500	1486	1481	1481	1478	1470	1466	1472	1475	1481	1489	1500	1502	1504	1505	1491	1486	1477	1477	1478	1468	1469	1474	1473	1473	1480	1481	1494	1500	1507	1506	1503	1495	1492	1493	1510	1520	1519	1512	1507	1505	1517	1533	1531	1513	1480	1450	1445	1451	1471	1467	1466	1473	1488	1503	1509	1507	1497	1485	1480	1476	1471	1464	1457	1457	1468	1476	1476	1479	1489	1502	1501	1477	1464	1467	1486	1504	1509	1514	1501	1487	1486	1495	1501	1495	1478	1470	1467	1458	1482	0	0	0	0	0	0	0	0	0	0	0	0	0	869	829	808	816	831	847	866	882	884	874	858	838	828	826	841	861	872	871	867	866	873	875	873	868	861	854	853	854	848	844	847	862	877	877	862	856	854	862	875	880	875	875	904	910	905	890	871	849	839	843	853	871	879	886	902	910	918	926	1024	1110	1300	1399	1427	1439	1445	1447	1455	1455	1454	1413	1414	1421	1443	1488	1502	1511	1503	1508	1513	1510	1501	1492	1489	1482	1475	1474	1486	1508	1512	1502	1487	1479	1478	1481	1478	1473	1467	1467	1467	1476	1476	1479	1480	1485	1478	1449	1439	1442	1447	1467	1482	1498	1492	1469	1440	1430	1447	1462	1485	1489	1479	1471	1468	1477	1493	1492	1481	1460	1444	1435	1427	1429	1453	1469	1471	1477	1481	1474	1470	1478	1471	1464	1470	1471	1470	1459	1454	1458	1462	1455	1450	1446	1443	1436	1428	1437	1447	1454	1456	1459	1461	1450	1459	1466	1470	1476	1468	1462	1458	1464	1471	1462	1456	1447	1447	1458	1472	1481	1491	1482	1472	1451	1440	1440	1430	1417	1421	1435	1458	1469	1465	1465	1464	1461	1459	1448	1439	1442	1443	1443	1438	1440	1442	1446	1449	1448	1442	0	0	0	0	0	0	0	0
0	0	0	0	0	0	0	0	0	0	0	0	0	0	0	0	0	0	0	0	0	0	0	0	0	0	0	0	0	0	0	0	0	0	0	0	0	0	0	0	0	0	0	0	0	0	0	0	0	0	0	0	0	0	0	0	0	0	0	0	0	0	0	0	0	0	0	0	0	0	0	0	0	0	0	0	0	0	0	0	0	0	0	0	0	0	0	0	0	0	0	0	0	1420	1427	1430	1432	1439	1440	1452	1469	1476	1491	1499	1487	1485	1479	1477	1473	1479	1476	1477	1474	1466	1453	1460	1459	1469	1439	1430	1429	1430	1428	1439	1461	1478	1482	1478	1473	1465	1454	1440	1459	1488	1498	1510	1516	1520	1499	1477	1463	1456	1457	1467	1459	1449	1430	1420	1429	1433	1451	1445	1444	1442	1444	1447	1449	1453	1466	1466	1455	1456	1460	1460	1465	1469	1480	1492	1493	1493	1492	1494	1472	1455	1457	1465	1468	1456	1448	1415	1420	1432	1446	1455	1437	1407	1386	1451	1399	1332	1229	1181	1162	1146	1109	0	0	0	0	0	0	0	0	0	1129	1144	1158	1169	1165	1166	1186	1194	1196	1176	1155	1146	1137	0	0	0	0	0	0	0	0	0	0	0	0	0	0	0	0	0	0	0	0	0	0	0	0	0	0	0	0	0	0	0	0	0	0	0	0	0	0	0	1254	1350	1454	1485	1482	1471	1472	1475	1493	1516	1502	1486	1459	1466	1477	1484	1466	1496	1477	1463	1474	1490	1510	1511	1507	1484	1484	1486	1476	1501	1489	1456	1456	1527	1528	1514	1506	1506	1518	1521	1521	1537	1536	1524	1513	1500	1497	1534	1543	1536	1532	1532	1515	1480	1458	1451	1494	1499	1497	1495	1486	1476	1473	1473	1476	1484	1488	1487	1483	1485	1484	1475	1477	1476	1482	1484	1481	1488	1485	1479	1476	1477	1475	1472	1476	1478	1470	1469	1467	1475	1481	1485	1489	1508	1518	1524	1521	1511	1501	1499	1495	1509	1526	1530	1513	1504	1508	1519	1538	1531	1511	1482	1465	1462	1471	1472	1467	1463	1471	1481	1493	1498	1499	1495	1488	1487	1482	1468	1462	1460	1465	1475	1473	1473	1469	1471	1473	1471	1465	1462	1477	1497	1506	1507	1507	1491	1473	1477	1492	1500	1504	1505	1502	1494	1479	1467	0	0	0	0	0	0	0	0	0	0	0	0	0	0	0	846	824	828	833	841	843	851	847	839	836	834	834	843	856	865	862	857	857	857	867	861	854	854	857	855	848	836	830	838	852	867	865	850	841	844	852	861	870	860	855	876	894	896	880	864	849	841	840	857	861	865	866	870	870	866	868	925	963	993	1032	1234	1352	1383	1303	1331	1337	1352	1376	1386	1416	1445	1482	1494	1499	1500	1507	1512	1507	1500	1492	1483	1472	1454	1449	1472	1483	1498	1479	1455	1444	1448	1472	1482	1484	1485	1483	1479	1474	1472	1469	1465	1474	1491	1464	1442	1437	1453	1464	1476	1484	1490	1473	1452	1435	1446	1469	1501	1507	1496	1478	1466	1479	1492	1488	1477	1452	1444	1435	1435	1431	1434	1447	1459	1466	1471	1469	1471	1476	1471	1464	1469	1462	1459	1457	1459	1469	1479	1470	1458	1443	1442	1434	1428	1434	1441	1453	1461	1477	1485	1493	1488	1474	1460	1458	1449	1445	1457	1463	1467	1459	1446	1439	1444	1460	1475	1489	1494	1489	1478	1467	1449	1449	1432	1424	1416	1431	1446	1459	1459	1452	1454	1460	1465	1461	1454	1454	1445	1445	1440	1444	1449	1456	1463	1469	1463	0	0	0	0	0	0	0	0
0	0	0	0	0	0	0	0	0	0	0	0	0	0	0	0	0	0	0	0	0	0	0	0	0	0	0	0	0	0	0	0	0	0	0	0	0	0	0	0	0	0	0	0	0	0	0	0	0	0	0	0	0	0	0	0	0	0	0	0	0	0	0	0	0	0	0	0	0	0	0	0	0	0	0	0	0	0	0	0	0	0	0	0	0	0	0	0	0	0	0	0	0	1420	1426	1423	1430	1431	1441	1446	1457	1471	1478	1486	1477	1479	1485	1485	1479	1470	1455	1450	1451	1455	1453	1453	1456	1459	1462	1449	1449	1443	1437	1438	1457	1478	1489	1484	1474	1465	1451	1435	1440	1459	1481	1496	1510	1519	1510	1493	1478	1468	1453	1442	1452	1448	1440	1436	1439	1446	1471	1471	1469	1468	1467	1461	1455	1444	1439	1441	1452	1463	1467	1470	1466	1464	1486	1504	1509	1512	1505	1497	1472	1453	1450	1460	1459	1454	1436	1421	1403	1408	1419	1397	1325	1257	1216	0	0	0	0	0	0	0	0	0	0	0	0	0	0	0	0	0	0	0	0	1185	1179	1179	1206	1213	1208	1193	1177	1170	0	0	0	0	0	0	0	0	0	0	0	0	0	0	0	0	0	0	0	0	0	0	0	0	0	0	0	0	0	0	0	0	0	0	0	0	0	0	0	1237	1335	1449	1462	1480	1480	1473	1475	1480	1484	1488	1495	1485	1481	1491	1476	1465	1448	1434	1433	1431	1458	1492	1521	1538	1504	1499	1501	1500	1495	1506	1497	1443	1443	1514	1517	1510	1510	1516	1521	1539	1547	1540	1523	1485	1458	1444	1488	1497	1531	1530	1535	1535	1479	1465	1461	1502	1515	1508	1499	1494	1484	1475	1472	1481	1480	1489	1494	1480	1478	1494	1494	1489	1491	1499	1498	1490	1486	1479	1469	1454	1449	1458	1463	1459	1452	1455	1457	1467	1477	1482	1485	1494	1501	1513	1531	1535	1537	1523	1515	1507	1499	1507	1531	1527	1510	1503	1502	1520	1533	1517	1502	1490	1479	1480	1485	1485	1480	1476	1471	1479	1488	1490	1497	1500	1502	1508	1496	1483	1473	1473	1484	1478	1479	1474	1457	1447	1447	1451	1453	1460	1484	1502	1500	1507	1505	1506	1504	1496	1494	1499	1514	1525	1524	1508	1488	1461	1432	0	0	0	0	0	0	0	0	0	0	0	0	0	0	864	847	832	824	821	818	814	818	823	827	833	837	840	847	849	847	846	847	846	846	848	842	848	850	850	842	828	823	828	841	848	852	838	827	824	828	838	848	848	838	849	866	873	865	857	851	848	850	853	856	856	856	855	851	840	840	875	902	925	957	911	931	947	998	1125	1189	1243	1297	1337	1384	1430	1469	1474	1482	1492	1504	1506	1500	1497	1491	1484	1472	1450	1452	1462	1464	1460	1440	1445	1442	1444	1454	1477	1489	1495	1500	1488	1475	1463	1464	1459	1471	1496	1476	1455	1437	1438	1453	1461	1480	1484	1477	1462	1452	1461	1472	1516	1514	1499	1477	1463	1471	1486	1480	1466	1453	1449	1460	1460	1445	1434	1431	1443	1457	1466	1475	1475	1471	1469	1469	1466	1466	1454	1450	1453	1465	1480	1478	1465	1445	1429	1432	1431	1432	1442	1455	1466	1484	1499	1504	1496	1470	1442	1428	1426	1431	1440	1452	1448	1434	1432	1428	1435	1450	1462	1480	1498	1494	1488	1472	1472	1459	1440	1424	1412	1427	1440	1448	1447	1440	1447	1460	1473	1477	1479	1474	1474	1465	1453	1448	1449	1459	1469	1476	1469	0	0	0	0	0	0	0	0
0	0	0	0	0	0	0	0	0	0	0	0	0	0	0	0	0	0	0	0	0	0	0	0	0	0	0	0	0	0	0	0	0	0	0	0	0	0	0	0	0	0	0	0	0	0	0	0	0	0	0	0	0	0	0	0	0	0	0	0	0	0	0	0	0	0	0	0	0	0	0	0	0	0	0	0	0	0	0	0	0	0	0	0	0	0	0	0	0	0	0	0	0	0	1458	1445	1453	1456	1453	1448	1458	1466	1475	1474	1470	1478	1486	1481	1464	1450	1441	1443	1454	1458	1455	1451	1440	1449	1462	1466	1463	1456	1442	1435	1451	1467	1477	1479	1471	1460	1449	1437	1434	1446	1464	1478	1495	1508	1506	1501	1482	1471	1460	1453	1446	1447	1448	1441	1446	1463	1481	1485	1491	1491	1482	1470	1465	1453	1446	1444	1449	1465	1475	1472	1476	1466	1481	1494	1501	1504	1493	1473	1458	1452	1446	1442	1446	1441	1428	1414	1354	1295	1254	1174	0	0	0	0	0	0	0	0	0	0	0	0	0	0	0	0	0	0	0	0	0	0	0	1211	1199	1195	1208	1213	1209	1196	1178	1176	0	0	0	0	0	0	0	0	0	0	0	0	0	0	0	0	0	0	0	0	0	0	0	0	0	0	0	0	0	0	0	0	0	0	0	0	0	0	0	1314	1448	1452	1464	1471	1465	1464	1476	1481	1491	1491	1477	1473	1476	1491	1480	1475	1446	1443	1451	1459	1463	1497	1522	1536	1491	1482	1511	1516	1505	1507	1498	1442	1441	1492	1503	1513	1510	1519	1521	1528	1535	1529	1513	1477	1450	1442	1487	1497	1513	1520	1506	1471	1467	1456	1497	1518	1520	1499	1493	1491	1485	1484	1494	1499	1502	1504	1503	1491	1491	1500	1496	1496	1499	1511	1516	1512	1499	1486	1473	1475	1480	1483	1482	1477	1471	1475	1482	1478	1472	1485	1502	1500	1487	1511	1526	1531	1530	1518	1511	1506	1500	1487	1483	1491	1488	1490	1503	1520	1522	1512	1503	1497	1492	1489	1495	1499	1483	1479	1480	1488	1493	1492	1484	1493	1513	1518	1504	1492	1491	1498	1513	1498	1490	1467	1454	1443	1445	1452	1459	1472	1491	1501	1497	1490	1499	1509	1515	1507	1496	1495	1504	1515	1520	1503	1484	1460	1429	1388	0	0	0	0	0	0	0	0	0	0	0	0	0	0	862	839	820	805	798	798	798	804	810	814	826	832	835	829	824	822	828	833	836	836	835	834	838	834	830	822	818	821	826	831	832	824	813	802	803	816	831	836	826	827	843	856	849	842	847	845	844	846	843	845	851	850	846	836	833	843	831	828	828	841	848	860	883	930	1017	1080	1195	1271	1315	1363	1436	1457	1469	1485	1500	1500	1501	1492	1494	1490	1484	1475	1471	1475	1470	1454	1455	1461	1456	1454	1460	1479	1492	1502	1502	1488	1477	1463	1452	1448	1470	1494	1484	1470	1448	1445	1445	1463	1480	1483	1481	1465	1462	1479	1484	1513	1517	1495	1474	1458	1458	1466	1477	1464	1457	1474	1485	1490	1475	1452	1430	1433	1451	1479	1490	1486	1479	1469	1469	1470	1466	1452	1442	1440	1456	1464	1462	1450	1436	1422	1429	1437	1443	1442	1446	1462	1482	1489	1490	1473	1445	1418	1408	1407	1422	1428	1430	1425	1413	1415	1416	1421	1429	1444	1461	1483	1499	1495	1483	1483	1461	1452	1445	1433	1438	1440	1442	1439	1438	1442	1452	1466	1477	1480	1489	1489	1486	1470	1453	1448	1465	1475	1473	1454	0	0	0	0	0	0	0	0
