0	0	0	0	0	0	0	0	0	0	0	0	0	0	0	0	0	0	0	0	0	0	0	0	0	0	0	0	0	0	0	0	0	0	0	0	0	0	0	0	0	0	0	0	0	0	0	0	0	0	0	0	0	0	0	0	0	0	0	0	0	0	0	0	0	0	0	0	0	0	0	0	0	0	0	0	0	0	0	0	0	0	0	0	0	0	0	0	0	0	0	0	0	1486	1493	1498	1486	1459	1437	1428	1430	1437	1445	1446	1443	1445	1448	1455	1464	1476	1486	1496	1504	1498	1486	1481	1487	1487	1487	1481	1473	1462	1476	1479	1483	1481	1476	0	0	0	0	0	0	0	0	0	0	0	0	0	0	0	0	0	0	0	0	0	0	0	0	0	0	0	0	0	0	0	0	0	0	0	0	0	0	0	0	0	0	0	0	0	0	0	0	1367	1389	1411	1407	1412	1406	1404	1400	1394	1397	1399	1395	1376	1374	1382	1386	1389	1379	1370	1362	1374	1396	1434	1437	1426	1407	1394	1391	1398	1394	1387	1389	1417	1414	1411	1394	1384	1379	1383	1389	1389	1384	1391	1395	1392	1367	1367	1366	1392	1410	1385	1356	1300	1269	1249	1237	1216	1195	1179	1171	1169	1173	0	0	0	0	0	0	0	0	0	0	1150	0	0	1116	1098	1095	1096	1103	1109	1121	0	0	0	0	1105	1112	1116	1084	1082	1101	1143	1187	1244	1295	1353	1386	1402	1419	1437	1466	1479	1475	1475	1480	1473	1462	1456	1460	1471	1477	1471	1455	1452	1452	1464	1480	1488	1478	1467	1471	1486	1496	1494	1489	1480	1467	1456	1445	1427	1445	1471	1479	1452	1412	1408	1408	1418	1399	1381	1377	1394	1390	1390	1397	1401	1399	1392	1385	1377	1396	1401	1399	1391	1380	1372	1366	1370	1375	1377	1380	1385	1396	1408	1407	1391	1376	1369	1369	1376	1385	1390	1388	1393	1373	1367	1363	1371	1381	1392	1397	1401	1395	1401	1415	1429	1439	1450	1459	1460	1451	1453	1468	1486	1484	1482	1474	1465	1455	1448	1448	1467	1471	1471	1459	1450	1443	1440	1449	1460	1472	1472	1476	1475	1459	1460	1462	1454	1455	1461	1463	1471	1477	1503	1509	1489	1460	1359	1227	1196	1181	1162	1139	1129	0	0	0	0	0	0	0	0	0	1115	1118	1108	1094	1074	1057	1049	1046	1048	1050	1054	1050	1071	1079	1070	1070	1076	1084	1055	1044	1040	1055	1076	1097	1103	1102	1110	1125	1135	1136	1133	1207	1282	1298	1315	1362	1374	1386	1405	1406	1380	1373	1371	1367	1349	1334	1342	1361	1371	1361	1353	1354	1361	1377	1389	1384	1371	1355	1349	1339	1326	1314	1315	1315	1332	1347	1359	1363	1369	1367	1361	1358	1360	1358	1349	1334	1325	1332	1341	1349	1370	1379	1370	1362	1372	1419	1426	1442	1442	1449	1470	1491	1510	1510	1510	1507	1493	1474	1461	1456	1460	1466	1470	1464	1465	1472	1485	1486	1489	1477	1462	1465	1477	1474	1470	1466	1475	1482	1480	1481	1481	1485	1484	1473	1459	1447	1440	1443	1439	1436	1427	1435	1483	1488	1477	1475	1474	1477	1481	1477	1467	1453	1429	1436	1451	1472	1481	1477	1476	1478	1483	1490	1501	1495	1481	1479	1496	1507	1497	1476	1461	1453	1466	1487	1487	1487	1494	1502	1501	1504	1506	1503	1486	1478	1478	1479	1477	1470	1459	1450	1435	1430	1442	1451	1463	1458	1451	1436	1431	1432	1433	1441	1441	1441	1442	1443	1449	1448	1447	1448	1455	1439	1442	1445	1452	1446	1432	1432	1432	1436	1438	1453	1460	1460	0	0	0	0	0	0	0
0	0	0	0	0	0	0	0	0	0	0	0	0	0	0	0	0	0	0	0	0	0	0	0	0	0	0	0	0	0	0	0	0	0	0	0	0	0	0	0	0	0	0	0	0	0	0	0	0	0	0	0	0	0	0	0	0	0	0	0	0	0	0	0	0	0	0	0	0	0	0	0	0	0	0	0	0	0	0	0	0	0	0	0	0	0	0	0	0	0	0	0	0	1450	1476	1491	1484	1453	1430	1425	1427	1437	1447	1448	1446	1445	1444	1448	1454	1469	1490	1507	1514	1514	1501	1489	1481	1487	1481	1472	1477	1475	1490	1507	1505	1501	1499	1516	1538	1563	1568	1527	1512	1473	1431	1418	1429	1451	1459	1453	1451	1444	1440	1446	1448	1457	1469	1479	1474	1483	1478	1469	1465	1460	1452	1461	1466	1466	1462	1443	1443	1448	1463	1454	1450	1447	1440	1444	1470	1494	1498	1488	1465	1435	1403	1381	1399	1426	1419	1413	1403	1400	1406	1401	1389	1380	1374	1374	1377	1388	1396	1394	1378	1380	1398	1416	1429	1449	1453	1444	1435	1428	1429	1442	1434	1412	1402	1400	1404	1407	1411	1401	1394	1393	1391	1395	1409	1419	1421	1411	1408	1371	1363	1359	1342	1335	1302	1241	1191	1186	1180	1172	1139	1125	1115	1107	1107	0	0	0	0	0	0	0	0	1107	1107	1102	1098	1086	1075	1067	1063	1065	1077	1090	1108	0	0	0	0	0	1093	1084	1075	1073	1080	1106	1150	1203	1279	1371	1402	1427	1435	1441	1443	1448	1455	1467	1478	1474	1477	1471	1463	1462	1469	1476	1475	1467	1472	1493	1507	1509	1496	1478	1475	1487	1499	1507	1500	1490	1474	1452	1439	1433	1450	1466	1476	1468	1418	1406	1403	1417	1417	1386	1378	1388	1396	1400	1402	1412	1410	1390	1363	1343	1361	1374	1380	1381	1379	1369	1365	1372	1384	1393	1396	1398	1405	1407	1408	1400	1371	1367	1370	1378	1383	1386	1383	1378	1378	1383	1370	1367	1376	1380	1385	1382	1396	1407	1415	1427	1431	1459	1479	1466	1464	1460	1469	1479	1488	1481	1473	1464	1461	1445	1445	1461	1469	1470	1459	1449	1444	1434	1441	1451	1474	1479	1475	1467	1464	1473	1473	1467	1460	1464	1465	1472	1481	1498	1506	1492	1450	1336	0	0	0	0	0	0	0	0	0	0	0	0	0	0	0	1101	1097	1086	1060	1048	1035	1036	1044	1040	1038	1035	1036	1048	1054	1052	1051	1029	1025	1017	1015	1018	1033	1053	1069	1067	1060	1065	1078	1083	1078	1080	1096	1129	1177	1241	1260	1323	1376	1417	1411	1388	1373	1371	1364	1337	1327	1342	1364	1374	1363	1354	1364	1382	1399	1403	1400	1374	1359	1348	1341	1332	1328	1338	1349	1356	1356	1366	1372	1379	1376	1368	1363	1363	1356	1344	1333	1332	1332	1341	1358	1373	1372	1374	1364	1408	1417	1428	1450	1461	1485	1491	1505	1511	1512	1510	1513	1505	1486	1466	1461	1457	1472	1479	1478	1483	1482	1489	1493	1491	1473	1467	1464	1465	1467	1473	1478	1479	1467	1459	1474	1488	1494	1484	1475	1470	1473	1469	1457	1449	1434	1422	1421	1478	1484	1481	1481	1475	1471	1471	1482	1483	1477	1459	1457	1474	1490	1491	1491	1484	1478	1478	1482	1484	1484	1473	1468	1477	1491	1482	1467	1461	1456	1474	1482	1486	1485	1497	1504	1509	1499	1490	1476	1472	1474	1480	1489	1480	1472	1453	1441	1431	1426	1428	1451	1460	1466	1461	1461	1457	1446	1437	1437	1437	1437	1444	1458	1464	1467	1464	1454	1463	1448	1442	1459	1455	1440	1404	1404	1403	1422	1434	1446	1460	1460	0	0	0	0	0	0	0
0	0	0	0	0	0	0	0	0	0	0	0	0	0	0	0	0	0	0	0	0	0	0	0	0	0	0	0	0	0	0	0	0	0	0	0	0	0	0	0	0	0	0	0	0	0	0	0	0	0	0	0	0	0	0	0	0	0	0	0	0	0	0	0	0	0	0	0	0	0	0	0	0	0	0	0	0	0	0	0	0	0	0	0	0	0	0	0	0	0	0	0	0	1420	1454	1466	1473	1452	1426	1418	1433	1443	1451	1458	1451	1446	1446	1452	1456	1479	1490	1500	1508	1508	1496	1482	1472	1464	1449	1454	1465	1467	1473	1489	1500	1499	1498	1502	1542	1548	1559	1561	1523	1476	1445	1422	1421	1454	1488	1484	1482	1462	1449	1451	1453	1458	1465	1467	1495	1506	1501	1490	1470	1461	1461	1471	1471	1471	1465	1464	1462	1466	1462	1441	1422	1424	1428	1442	1466	1482	1494	1481	1467	1454	1435	1412	1418	1440	1441	1425	1417	1411	1419	1410	1399	1387	1385	1389	1390	1394	1390	1393	1416	1417	1423	1436	1449	1455	1453	1446	1448	1443	1445	1451	1443	1429	1409	1409	1420	1436	1436	1437	1424	1415	1414	1414	1423	1434	1434	1426	1418	1406	1388	1357	1285	1241	1192	1142	1128	1124	1131	1131	1114	1090	1076	1065	1059	1057	1062	1071	0	0	0	1100	0	1097	1090	1080	1074	1070	1066	1061	1058	1058	1070	1092	0	0	0	0	0	0	0	1089	1080	1074	1086	1107	1144	1191	1271	1398	1430	1431	1434	1435	1445	1460	1469	1476	1474	1481	1478	1471	1459	1458	1469	1481	1476	1473	1488	1507	1520	1516	1499	1480	1476	1481	1498	1504	1499	1487	1473	1457	1445	1445	1455	1471	1480	1476	1433	1416	1416	1418	1432	1427	1416	1411	1409	1413	1419	1421	1417	1404	1390	1395	1412	1421	1417	1400	1390	1387	1397	1406	1422	1427	1409	1405	1410	1415	1405	1398	1385	1378	1393	1403	1411	1411	1409	1412	1407	1400	1401	1402	1396	1389	1386	1402	1405	1415	1424	1426	1446	1487	1492	1486	1479	1470	1473	1481	1485	1478	1468	1465	1459	1458	1460	1467	1474	1473	1466	1462	1454	1442	1442	1457	1476	1480	1476	1472	1472	1488	1490	1483	1479	1484	1483	1482	1483	1499	1498	1492	1481	0	0	0	0	0	0	0	0	0	0	0	0	0	0	0	0	1082	1076	1051	1025	1010	1013	1020	1028	1033	1031	1025	1020	1023	1009	1008	1004	1003	998	1002	1003	1009	1022	1036	1045	1039	1038	1035	1041	1046	1045	1045	1063	1076	1128	1159	1208	1255	1326	1360	1384	1370	1371	1376	1375	1381	1377	1395	1413	1434	1444	1441	1441	1442	1447	1444	1437	1423	1404	1396	1389	1387	1387	1389	1386	1392	1382	1391	1413	1429	1423	1419	1410	1415	1414	1417	1425	1428	1445	1446	1423	1396	1395	1397	1399	1413	1413	1431	1450	1474	1506	1505	1508	1501	1486	1492	1494	1495	1483	1468	1463	1468	1484	1492	1493	1489	1480	1479	1480	1473	1456	1455	1457	1461	1460	1465	1470	1472	1458	1455	1462	1481	1482	1489	1476	1470	1470	1469	1453	1447	1433	1421	1425	1464	1477	1485	1489	1486	1475	1478	1482	1492	1489	1477	1480	1491	1503	1506	1492	1482	1472	1460	1463	1466	1469	1458	1456	1472	1473	1467	1458	1461	1463	1468	1484	1490	1487	1480	1492	1492	1487	1481	1470	1469	1471	1482	1484	1482	1471	1454	1446	1437	1431	1425	1432	1440	1455	1468	1479	1478	1459	1438	1433	1433	1443	1457	1471	1477	1479	1474	1469	1460	1454	1450	1451	1451	1422	1408	1408	1407	1420	1439	1448	1448	1455	0	0	0	0	0	0	0
0	0	0	0	0	0	0	0	0	0	0	0	0	0	0	0	0	0	0	0	0	0	0	0	0	0	0	0	0	0	0	0	0	0	0	0	0	0	0	0	0	0	0	0	0	0	0	0	0	0	0	0	0	0	0	0	0	0	0	0	0	0	0	0	0	0	0	0	0	0	0	0	0	0	0	0	0	0	0	0	0	0	0	0	0	0	0	0	0	0	0	0	0	1408	1441	1455	1458	1456	1439	1442	1444	1454	1465	1470	1461	1453	1451	1461	1467	1469	1478	1493	1512	1501	1482	1465	1455	1446	1432	1439	1453	1463	1464	1472	1483	1483	1475	1473	1481	1488	1506	1495	1485	1472	1451	1434	1430	1456	1485	1498	1492	1478	1461	1452	1456	1455	1464	1467	1481	1511	1507	1499	1484	1470	1461	1477	1479	1480	1481	1478	1473	1467	1469	1436	1421	1420	1425	1438	1460	1478	1484	1484	1477	1463	1461	1445	1452	1456	1455	1433	1423	1420	1430	1429	1419	1413	1411	1413	1416	1407	1407	1409	1426	1429	1438	1447	1466	1468	1469	1458	1454	1444	1443	1449	1448	1456	1441	1464	1468	1473	1468	1455	1438	1429	1425	1421	1423	1436	1445	1438	1406	1392	1370	1324	1146	1132	1119	1100	1095	1087	1087	1085	1081	1068	1057	1044	1038	1036	1042	1049	1064	1073	1075	1077	1085	1090	1084	1072	1070	1062	1063	1063	1058	1058	1069	1084	0	0	0	0	0	0	0	0	0	1123	1135	1149	1182	1202	1259	1408	1442	1440	1432	1432	1446	1462	1482	1493	1506	1503	1496	1489	1483	1473	1476	1478	1476	1479	1492	1513	1513	1494	1486	1477	1483	1496	1504	1486	1487	1491	1486	1458	1458	1466	1481	1489	1489	1494	1488	1436	1420	1429	1443	1443	1429	1415	1406	1412	1421	1425	1425	1415	1408	1411	1424	1436	1431	1410	1399	1402	1403	1408	1417	1416	1405	1402	1415	1474	1454	1446	1436	1423	1422	1432	1429	1422	1418	1416	1408	1411	1415	1412	1408	1402	1404	1410	1418	1430	1447	1468	1495	1499	1501	1498	1492	1486	1482	1482	1488	1483	1478	1473	1471	1465	1471	1475	1479	1476	1475	1474	1465	1450	1446	1448	1453	1468	1469	1477	1481	1490	1496	1499	1499	1488	1493	1489	1494	1490	1495	1490	1512	0	0	0	0	0	0	0	0	0	0	0	0	0	0	0	0	0	1050	1024	1001	990	997	1009	1028	1037	1033	1024	1011	1004	1000	997	991	986	982	986	994	1002	1017	1026	1036	1034	1033	1035	1032	1027	1025	1031	1040	1043	1057	1081	1108	1168	1233	1293	1325	1337	1369	1377	1378	1395	1395	1413	1436	1450	1454	1454	1452	1459	1465	1462	1456	1441	1420	1413	1418	1425	1435	1424	1419	1427	1404	1415	1441	1457	1448	1430	1426	1428	1438	1443	1458	1454	1466	1463	1444	1422	1427	1431	1433	1435	1437	1450	1473	1496	1502	1493	1490	1469	1466	1465	1476	1487	1477	1471	1464	1475	1489	1497	1496	1486	1465	1450	1441	1445	1443	1442	1449	1455	1460	1459	1466	1463	1453	1450	1465	1481	1491	1483	1476	1467	1459	1452	1446	1434	1426	1422	1428	1465	1473	1472	1480	1483	1482	1480	1485	1491	1495	1498	1498	1501	1508	1507	1497	1485	1464	1445	1443	1451	1454	1463	1459	1461	1462	1459	1462	1463	1469	1471	1495	1491	1486	1470	1465	1467	1470	1479	1483	1481	1477	1482	1481	1476	1469	1459	1453	1444	1439	1433	1430	1424	1442	1463	1475	1476	1458	1436	1438	1438	1450	1465	1470	1477	1470	1472	1463	1456	1455	1449	1444	1438	1420	1419	1419	1423	1434	1446	1445	1446	1449	0	0	0	0	0	0	0
0	0	0	0	0	0	0	0	0	0	0	0	0	0	0	0	0	0	0	0	0	0	0	0	0	0	0	0	0	0	0	0	0	0	0	0	0	0	0	0	0	0	0	0	0	0	0	0	0	0	0	0	0	0	0	0	0	0	0	0	0	0	0	0	0	0	0	0	0	0	0	0	0	0	0	0	0	0	0	0	0	0	0	0	0	0	0	0	0	0	0	0	0	1428	1440	1447	1458	1466	1479	1486	1474	1466	1476	1476	1470	1460	1463	1475	1469	1459	1453	1482	1512	1507	1465	1459	1447	1444	1434	1440	1451	1459	1463	1464	1472	1469	1465	1461	1474	1474	1481	1482	1483	1485	1469	1446	1444	1460	1481	1499	1498	1493	1466	1453	1451	1455	1470	1475	1485	1508	1514	1515	1501	1483	1467	1462	1473	1479	1492	1485	1481	1477	1467	1464	1440	1435	1437	1440	1458	1479	1488	1493	1486	1477	1471	1469	1468	1465	1474	1466	1451	1448	1456	1455	1453	1448	1444	1446	1451	1449	1459	1481	1465	1441	1430	1458	1478	1500	1501	1488	1444	1442	1451	1467	1480	1484	1485	1484	1490	1488	1480	1466	1452	1441	1428	1419	1419	1423	1429	1435	1384	1289	1210	1145	1108	1102	1094	1082	1073	1067	1068	1068	1066	1064	1049	1036	1022	1023	1036	1048	1047	1047	1043	1045	1048	1045	1050	1060	1068	1054	1057	1051	1050	1052	1052	1059	1059	1054	1045	1040	1040	0	0	0	0	0	0	0	0	1232	1294	1414	1457	1456	1445	1445	1455	1467	1497	1503	1510	1515	1512	1503	1491	1479	1469	1464	1474	1477	1489	1496	1490	1481	1475	1481	1494	1508	1505	1489	1489	1499	1499	1482	1478	1494	1511	1515	1504	1483	1464	1460	1471	1488	1507	1507	1500	1487	1482	1475	1466	1462	1449	1442	1442	1445	1450	1455	1459	1480	1475	1467	1469	1477	1496	1504	1501	1494	1482	1471	1477	1502	1496	1516	1541	1527	1495	1471	1464	1465	1465	1469	1461	1453	1456	1461	1459	1466	1471	1483	1495	1504	1506	1505	1507	1507	1506	1498	1496	1492	1493	1489	1485	1485	1479	1477	1476	1483	1478	1478	1483	1485	1473	1461	1451	1448	1453	1456	1462	1475	1485	1491	1493	1500	1498	1494	1499	1494	1490	1483	1481	1484	1516	0	0	0	0	0	0	0	0	0	0	0	0	0	0	0	0	0	0	1015	993	986	996	1019	1041	1045	1026	1008	1005	1003	1004	1004	996	986	975	976	981	991	1004	1023	0	0	0	0	0	0	0	0	0	0	1030	1050	1063	1093	1119	1143	1197	1277	1355	1375	1391	1403	1415	1431	1453	1464	1469	1472	1463	1464	1472	1465	1462	1459	1453	1460	1469	1488	1499	1502	1493	1483	1460	1449	1468	1485	1478	1468	1464	1474	1492	1501	1500	1501	1503	1501	1494	1488	1487	1483	1480	1481	1485	1490	1495	1502	1502	1486	1466	1452	1457	1458	1458	1478	1473	1471	1473	1481	1493	1493	1493	1473	1450	1439	1436	1436	1429	1433	1438	1452	1464	1467	1471	1465	1454	1452	1466	1486	1488	1484	1465	1448	1441	1435	1432	1424	1423	1426	1432	1463	1458	1456	1464	1471	1471	1471	1480	1486	1485	1494	1503	1507	1509	1505	1494	1473	1452	1436	1436	1452	1468	1484	1477	1476	1465	1461	1464	1468	1470	1467	1484	1484	1475	1466	1455	1448	1458	1474	1484	1493	1490	1487	1475	1473	1472	1468	1459	1455	1450	1445	1432	1424	1424	1446	1459	1463	1455	1442	1442	1443	1448	1461	1465	1464	1463	1461	1452	1448	1442	1440	1430	1419	1418	1425	1425	1432	1444	1450	1449	1444	1448	0	0	0	0	0	0	0
0	0	0	0	0	0	0	0	0	0	0	0	0	0	0	0	0	0	0	0	0	0	0	0	0	0	0	0	0	0	0	0	0	0	0	0	0	0	0	0	0	0	0	0	0	0	0	0	0	0	0	0	0	0	0	0	0	0	0	0	0	0	0	0	0	0	0	0	0	0	0	0	0	0	0	0	0	0	0	0	0	0	0	0	0	0	0	0	0	0	0	0	0	1460	1453	1456	1464	1479	1487	1498	1493	1478	1472	1463	1464	1463	1474	1482	1480	1464	1442	1482	1509	1510	1476	1462	1453	1461	1452	1454	1472	1463	1457	1457	1454	1457	1454	1454	1468	1471	1473	1477	1487	1489	1479	1467	1459	1460	1483	1505	1511	1501	1480	1457	1442	1451	1467	1481	1492	1510	1512	1511	1497	1482	1459	1449	1456	1474	1485	1483	1471	1473	1468	1466	1455	1449	1455	1455	1470	1485	1494	1494	1490	1484	1477	1473	1464	1454	1460	1467	1461	1455	1459	1463	1451	1436	1428	1443	1457	1460	1478	1488	1471	1441	1431	1441	1474	1489	1490	1469	1434	1429	1448	1466	1481	1483	1477	1480	1475	1473	1469	1453	1446	1441	1425	1411	1408	1382	1301	1222	1140	1120	1108	1104	1097	1088	1076	1064	1052	1055	1059	1061	1061	1052	1045	1029	1007	1014	1024	1032	1029	1027	1028	1027	1027	1024	1023	1029	1034	1028	1034	1029	1032	1033	1031	1028	1033	1023	1025	1030	1036	1047	1067	0	0	0	0	0	0	0	1353	1446	1471	1475	1469	1464	1464	1466	1499	1512	1516	1517	1514	1502	1492	1480	1465	1458	1462	1475	1482	1487	1481	1476	1475	1480	1491	1502	1498	1491	1494	1495	1492	1478	1479	1502	1520	1524	1502	1479	1469	1462	1470	1491	1512	1514	1509	1494	1487	1472	1465	1467	1467	1458	1458	1460	1460	1459	1460	1466	1475	1467	1477	1490	1503	1510	1503	1494	1479	1467	1474	1501	1495	1507	1530	1521	1498	1476	1472	1476	1471	1469	1458	1449	1461	1463	1465	1465	1470	1477	1490	1503	1510	1501	1499	1500	1505	1506	1497	1492	1496	1497	1497	1491	1487	1482	1484	1487	1488	1480	1471	1479	1480	1473	1462	1457	1455	1452	1464	1480	1490	1490	1484	1489	1496	1502	1505	1501	1481	1467	1459	1462	1506	0	0	0	0	0	0	0	0	0	0	0	0	0	0	0	0	0	0	0	0	994	1008	1039	0	1046	1022	1014	1006	1004	1007	1009	1003	989	971	966	967	977	985	0	0	0	0	0	0	0	0	0	0	0	0	1049	1052	1052	1047	1044	1056	1081	1154	1309	1355	1410	1416	1430	1450	1460	1472	1472	1464	1481	1470	1465	1464	1460	1464	1473	1499	1515	1520	1510	1496	1480	1460	1455	1477	1495	1492	1477	1466	1480	1493	1503	1504	1508	1512	1506	1505	1500	1505	1488	1483	1479	1488	1496	1502	1502	1493	1480	1465	1453	1459	1460	1469	1477	1473	1481	1483	1483	1485	1482	1478	1478	1464	1446	1440	1430	1435	1432	1436	1455	1473	1480	1480	1474	1463	1459	1469	1479	1482	1469	1456	1446	1433	1429	1432	1431	1431	1430	1440	1461	1451	1442	1448	1458	1464	1471	1474	1479	1482	1484	1500	1511	1511	1502	1479	1458	1446	1441	1446	1467	1492	1504	1502	1482	1469	1466	1465	1463	1464	1467	1470	1463	1468	1459	1450	1441	1443	1462	1476	1485	1489	1487	1486	1480	1476	1470	1463	1463	1460	1460	1443	1428	1427	1431	1447	1459	1453	1440	1440	1435	1437	1452	1454	1457	1454	1452	1446	1439	1436	1431	1430	1420	1426	1444	1444	1447	1462	1466	1474	1461	1447	0	0	0	0	0	0	0
0	0	0	0	0	0	0	0	0	0	0	0	0	0	0	0	0	0	0	0	0	0	0	0	0	0	0	0	0	0	0	0	0	0	0	0	0	0	0	0	0	0	0	0	0	0	0	0	0	0	0	0	0	0	0	0	0	0	0	0	0	0	0	0	0	0	0	0	0	0	0	0	0	0	0	0	0	0	0	0	0	0	0	0	0	0	0	0	0	0	0	0	0	1476	1460	1456	1457	1473	1487	1495	1493	1478	1453	1447	1449	1454	1467	1477	1480	1474	1466	1486	1508	1497	1488	1480	1477	1479	1477	1478	1477	1479	1461	1452	1450	1443	1444	1453	1465	1471	1468	1468	1478	1477	1475	1464	1454	1456	1482	1506	1517	1514	1488	1457	1446	1446	1444	1467	1484	1503	1505	1504	1488	1483	1462	1453	1456	1463	1479	1474	1477	1475	1477	1472	1454	1454	1457	1464	1469	1482	1491	1489	1486	1478	1480	1471	1461	1450	1464	1468	1465	1461	1468	1462	1447	1423	1410	1406	1420	1451	1463	1479	1468	1455	1441	1446	1456	1462	1462	1441	1420	1420	1441	1466	1480	1483	1476	1465	1458	1447	1439	1429	1430	1432	1414	1359	1315	1206	1143	1124	1109	1109	1107	1109	1112	1081	1061	1041	1031	1039	1050	1059	1054	0	1038	1005	984	977	992	1003	1004	1009	1010	1013	1020	1016	1008	1011	1017	1024	1020	1007	1010	1015	1016	1026	1023	1023	1027	1030	1037	1054	0	0	0	0	0	0	0	1322	1434	1465	1486	1493	1495	1489	1478	1480	1481	1512	1516	1513	1510	1503	1489	1477	1462	1454	1460	1472	1482	1483	1476	1474	1474	1478	1487	1487	1492	1490	1493	1492	1483	1468	1465	1495	1522	1524	1507	1485	1471	1470	1484	1496	1519	1518	1511	1499	1488	1476	1468	1475	1471	1466	1463	1463	1459	1460	1464	1465	1471	1467	1471	1469	1471	1466	1451	1441	1442	1443	1442	1449	1478	1497	1507	1506	1500	1492	1474	1456	1456	1463	1474	1478	1477	1470	1478	1466	1469	1471	1480	1492	1496	1489	1478	1474	1481	1501	1497	1492	1497	1494	1494	1488	1488	1486	1487	1487	1484	1474	1474	1485	1495	1492	1479	1471	1462	1456	1460	1491	1500	1485	1476	1475	1487	1498	1498	1491	1473	1458	1447	1451	1450	1472	0	0	0	0	0	0	0	0	0	0	0	0	0	0	0	0	0	0	0	0	0	0	0	0	0	0	0	0	0	0	0	995	972	962	962	968	977	0	0	0	0	0	0	0	0	0	0	0	0	0	1055	1041	1025	1015	1021	1038	1057	1075	1098	1153	1321	1393	1407	1430	1463	1460	1467	1478	1481	1475	1465	1463	1472	1488	1515	1522	1517	1512	1497	1475	1453	1460	1477	1496	1492	1485	1470	1478	1487	1495	1498	1501	1505	1505	1498	1509	1493	1490	1479	1479	1482	1495	1498	1494	1482	1473	1466	1478	1475	1476	1470	1473	1476	1471	1482	1482	1485	1471	1470	1478	1484	1484	1480	1476	1463	1447	1439	1448	1472	1481	1486	1482	1466	1460	1464	1470	1468	1461	1452	1465	1466	1448	1444	1436	1435	1435	1436	1451	1451	1436	1443	1456	1464	1463	1463	1468	1475	1483	1492	1507	1516	1500	1479	1457	1445	1456	1474	1481	1496	1497	1489	1480	1475	1469	1466	1464	1467	1475	1474	1462	1460	1459	1441	1441	1439	1454	1467	1476	1479	1484	1491	1486	1478	1463	1461	1465	1471	1472	1455	1445	1440	1442	1458	1464	1461	1446	1446	1435	1430	1434	1443	1451	1454	1454	1453	1439	1435	1430	1427	1434	1438	1438	1451	1463	1471	1475	1476	1464	1454	0	0	0	0	0	0	0
0	0	0	0	0	0	0	0	0	0	0	0	0	0	0	0	0	0	0	0	0	0	0	0	0	0	0	0	0	0	0	0	0	0	0	0	0	0	0	0	0	0	0	0	0	0	0	0	0	0	0	0	0	0	0	0	0	0	0	0	0	0	0	0	0	0	0	0	0	0	0	0	0	0	0	0	0	0	0	0	0	0	0	0	0	0	0	0	0	0	0	0	0	1484	1455	1441	1425	1436	1469	1478	1476	1466	1447	1445	1442	1452	1463	1466	1466	1463	1464	1481	1493	1492	1486	1495	1498	1502	1480	1473	1478	1470	1459	1461	1451	1442	1449	1455	1466	1466	1457	1459	1454	1453	1450	1449	1446	1454	1477	1506	1517	1522	1501	1466	1448	1441	1436	1447	1461	1485	1486	1483	1485	1471	1462	1463	1468	1477	1477	1482	1483	1490	1488	1479	1449	1446	1452	1461	1473	1484	1487	1480	1474	1472	1476	1469	1464	1453	1466	1474	1471	1470	1468	1462	1447	1423	1401	1393	1407	1439	1463	1478	1473	1462	1455	1444	1445	1440	1437	1422	1419	1426	1439	1457	1476	1472	1465	1457	1441	1428	1413	1406	1359	1325	1309	1287	1253	1218	1182	1148	1135	0	0	0	0	1079	1058	1029	1014	1024	1041	1048	1047	0	0	1016	982	967	974	980	988	992	998	1005	1013	1014	1015	1023	0	0	0	0	0	1014	1014	1037	1054	1055	1055	1053	0	0	0	0	0	0	0	0	1325	1426	1458	1476	1481	1497	1507	1500	1497	1495	1487	1499	1493	1476	1469	1477	1482	1491	1485	1481	1485	1484	1487	1490	1489	1487	1481	1464	1455	1453	1473	1481	1486	1486	1483	1483	1484	1482	1486	1496	1483	1478	1472	1484	1482	1509	1525	1525	1523	1507	1497	1481	1476	1476	1473	1471	1467	1462	1459	1465	1471	1477	1471	1473	1475	1476	1471	1460	1443	1440	1444	1449	1455	1458	1473	1494	1507	1503	1495	1487	1483	1470	1464	1469	1479	1484	1482	1484	1489	1478	1471	1467	1472	1483	1480	1472	1464	1453	1466	1478	1494	1488	1487	1490	1489	1487	1489	1490	1483	1483	1471	1461	1474	1495	1507	1508	1494	1490	1474	1467	1485	1500	1501	1484	1459	1461	1471	1479	1481	1471	1461	1455	1455	1454	1457	1463	0	0	0	0	0	0	0	0	0	0	0	0	0	0	0	0	0	0	0	0	0	0	0	0	0	0	0	0	0	0	0	0	0	0	0	0	0	0	0	0	0	0	0	0	0	0	0	0	0	0	0	1047	1028	1015	1009	1017	1025	1031	1048	1068	1090	1219	1288	1331	1375	1446	1447	1453	1462	1465	1464	1477	1487	1512	1520	1513	1504	1509	1492	1476	1459	1475	1490	1498	1492	1479	1474	1475	1484	1487	1489	1490	1497	1494	1484	1484	1489	1488	1480	1482	1483	1490	1494	1483	1470	1461	1471	1492	1514	1510	1493	1476	1466	1459	1450	1453	1467	1464	1472	1482	1486	1496	1495	1496	1481	1465	1444	1452	1468	1479	1485	1476	1460	1453	1453	1457	1457	1457	1461	1477	1483	1469	1454	1435	1431	1427	1432	1450	1451	1438	1447	1458	1465	1461	1466	1476	1479	1480	1487	1500	1509	1508	1490	1474	1463	1472	1483	1487	1482	1479	1480	1478	1473	1475	1468	1464	1475	1484	1485	1477	1476	1463	1448	1439	1444	1457	1470	1475	1474	1482	1488	1490	1479	1468	1456	1466	1479	1477	1471	1460	1458	1463	1470	1490	1487	1478	1478	1457	1441	1441	1445	1451	1455	1456	1456	1444	1439	1440	1444	1449	1448	1448	1456	1458	1471	1472	1464	1471	1510	0	0	0	0	0	0	0
0	0	0	0	0	0	0	0	0	0	0	0	0	0	0	0	0	0	0	0	0	0	0	0	0	0	0	0	0	0	0	0	0	0	0	0	0	0	0	0	0	0	0	0	0	0	0	0	0	0	0	0	0	0	0	0	0	0	0	0	0	0	0	0	0	0	0	0	0	0	0	0	0	0	0	0	0	0	0	0	0	0	0	0	0	0	0	0	0	0	0	0	0	1482	1445	1437	1421	1427	1457	1461	1454	1443	1435	1438	1456	1472	1472	1464	1456	1454	1459	1463	1480	1484	1490	1491	1498	1499	1469	1454	1455	1463	1472	1468	1460	1455	1460	1472	1474	1462	1450	1442	1439	1425	1428	1437	1450	1458	1468	1496	1518	1516	1505	1476	1456	1440	1439	1437	1456	1475	1478	1483	1485	1480	1474	1479	1484	1488	1488	1489	1500	1504	1494	1475	1441	1437	1443	1461	1476	1483	1481	1479	1473	1474	1472	1474	1470	1468	1476	1480	1471	1465	1460	1457	1449	1434	1407	1396	1408	1441	1467	1480	1477	1476	1463	1447	1444	1416	1408	1412	1413	1422	1434	1450	1456	1455	1452	1450	1433	1406	1374	1285	1266	1272	1272	1260	1251	1236	1215	1186	1172	0	0	0	0	0	1051	1027	1012	1005	1024	1039	1041	1040	1033	1015	984	953	951	961	971	981	985	990	996	1001	1001	0	0	0	0	0	0	0	0	0	0	0	0	0	0	0	0	0	0	0	0	1313	1412	1456	1479	1499	1496	1501	1504	1502	1494	1483	1475	1480	1480	1470	1469	1469	1483	1492	1487	1483	1481	1481	1479	1480	1489	1494	1489	1478	1465	1469	1476	1488	1487	1479	1478	1478	1479	1481	1488	1491	1484	1469	1472	1478	1486	1505	1521	1520	1518	1514	1506	1498	1483	1472	1464	1461	1462	1457	1453	1459	1468	1480	1482	1479	1486	1487	1478	1458	1447	1443	1442	1450	1458	1467	1477	1487	1492	1488	1487	1484	1483	1475	1469	1478	1485	1496	1503	1509	1494	1490	1482	1472	1475	1476	1475	1468	1457	1457	1466	1487	1487	1485	1477	1484	1492	1501	1491	1495	1488	1479	1467	1458	1475	1493	1512	1516	1500	1501	1489	1491	1492	1500	1496	1477	1472	1467	1470	1470	1466	1458	1459	1465	1469	1472	1464	1458	1464	0	0	0	0	0	0	0	0	0	0	0	0	0	0	0	998	984	974	959	939	928	945	0	0	986	0	0	0	1011	0	0	0	0	0	0	0	0	0	0	0	0	0	0	0	0	0	0	0	0	1028	1042	1027	1004	994	987	994	996	1018	1033	1044	1048	1063	1125	1182	1390	1421	1433	1435	1438	1454	1472	1493	1506	1496	1491	1497	1501	1498	1483	1476	1489	1497	1500	1490	1483	1467	1475	1481	1476	1475	1478	1483	1478	1470	1477	1473	1475	1474	1478	1483	1490	1493	1483	1470	1459	1469	1496	1513	1524	1512	1486	1463	1443	1430	1433	1441	1457	1468	1475	1479	1488	1492	1503	1500	1488	1451	1451	1459	1472	1475	1465	1450	1441	1447	1451	1455	1458	1465	1474	1483	1476	1450	1429	1420	1426	1436	1456	1455	1449	1449	1458	1464	1466	1466	1472	1478	1476	1473	1475	1489	1496	1498	1481	1469	1474	1476	1475	1465	1464	1472	1468	1474	1470	1474	1472	1479	1495	1499	1489	1481	1463	1450	1444	1451	1467	1479	1481	1486	1490	1489	1488	1476	1473	1467	1476	1484	1487	1484	1481	1483	1481	1487	1502	1506	1504	1504	1485	1461	1447	1445	1453	1453	1454	1452	1443	1443	1447	1461	1464	1458	1458	1451	1453	1469	1471	1469	1517	1512	0	0	0	0	0	0	0
0	0	0	0	0	0	0	0	0	0	0	0	0	0	0	0	0	0	0	0	0	0	0	0	0	0	0	0	0	0	0	0	0	0	0	0	0	0	0	0	0	0	0	0	0	0	0	0	0	0	0	0	0	0	0	0	0	0	0	0	0	0	0	0	0	0	0	0	0	0	0	0	0	0	0	0	0	0	0	0	0	0	0	0	0	0	0	0	0	0	0	0	0	1491	1463	1445	1449	1452	1466	1465	1455	1439	1431	1438	1460	1481	1479	1464	1456	1455	1456	1464	1478	1484	1484	1489	1493	1477	1460	1451	1460	1469	1475	1473	1468	1463	1463	1470	1472	1462	1441	1438	1441	1438	1431	1438	1440	1441	1450	1468	1499	1515	1521	1499	1471	1454	1449	1454	1458	1470	1475	1485	1493	1488	1476	1474	1472	1474	1480	1495	1503	1500	1482	1463	1421	1418	1428	1454	1476	1487	1487	1487	1478	1474	1475	1475	1480	1482	1499	1487	1476	1461	1452	1446	1442	1434	1422	1417	1429	1457	1488	1494	1488	1473	1459	1445	1418	1412	1408	1417	1416	1423	1428	1439	1443	1440	1436	1427	1330	1264	1209	1218	1232	1246	1243	1236	1235	1231	1215	0	0	0	0	0	0	0	0	1030	1016	1007	1022	1022	1026	1031	1025	1002	968	935	928	937	954	974	974	972	978	974	983	1001	0	0	1024	1022	1020	0	0	0	0	0	0	0	0	0	0	0	0	0	1309	1413	1443	1480	1496	1499	1502	1500	1500	1494	1491	1483	1472	1473	1473	1467	1463	1469	1481	1485	1484	1479	1478	1477	1482	1478	1486	1492	1490	1483	1479	1477	1485	1489	1488	1482	1470	1472	1472	1479	1483	1500	1497	1476	1465	1473	1488	1507	1518	1517	1513	1515	1498	1501	1487	1472	1459	1461	1458	1451	1446	1450	1463	1480	1487	1489	1495	1496	1493	1470	1450	1442	1441	1451	1462	1472	1475	1478	1475	1483	1490	1492	1492	1483	1479	1483	1485	1496	1507	1507	1498	1501	1498	1487	1482	1488	1486	1477	1463	1448	1461	1476	1479	1475	1473	1480	1487	1494	1495	1491	1488	1481	1469	1463	1480	1497	1515	1516	1506	1505	1501	1499	1496	1496	1491	1477	1477	1468	1475	1472	1460	1461	1470	1484	1489	1480	1468	1459	1448	1447	0	0	0	0	0	0	0	0	0	0	0	0	0	0	0	970	953	937	911	908	911	922	936	942	971	975	977	975	966	958	955	950	943	935	934	954	0	0	0	0	0	0	0	0	0	938	931	943	966	984	990	985	977	969	971	978	992	1000	1013	1017	1010	1015	1016	1219	1343	1373	1389	1402	1431	1454	1480	1484	1477	1471	1476	1497	1500	1493	1488	1490	1501	1497	1484	1478	1461	1461	1473	1468	1472	1471	1474	1465	1469	1475	1472	1475	1468	1474	1486	1489	1488	1477	1463	1451	1454	1467	1477	1498	1507	1495	1464	1445	1435	1427	1446	1452	1456	1468	1470	1480	1486	1492	1494	1489	1453	1449	1458	1468	1468	1441	1430	1437	1447	1465	1475	1465	1451	1450	1457	1465	1463	1446	1445	1461	1475	1478	1467	1462	1456	1455	1447	1448	1464	1475	1485	1477	1464	1467	1470	1474	1474	1473	1466	1467	1473	1461	1445	1450	1460	1474	1473	1470	1473	1475	1488	1502	1506	1502	1486	1464	1452	1453	1458	1468	1482	1489	1493	1498	1496	1487	1486	1487	1487	1491	1495	1496	1493	1491	1485	1485	1491	1496	1505	1505	1496	1480	1459	1446	1442	1452	1452	1450	1442	1446	1449	1463	1479	1478	1471	1471	1462	1454	1454	1471	1475	1509	1431	0	0	0	0	0	0	0
0	0	0	0	0	0	0	0	0	0	0	0	0	0	0	0	0	0	0	0	0	0	0	0	0	0	0	0	0	0	0	0	0	0	0	0	0	0	0	0	0	0	0	0	0	0	0	0	0	0	0	0	0	0	0	0	0	0	0	0	0	0	0	0	0	0	0	0	0	0	0	0	0	0	0	0	0	0	0	0	0	0	0	0	0	0	0	0	0	0	0	0	0	1480	1456	1439	1444	1462	1475	1474	1463	1449	1432	1434	1453	1465	1483	1472	1458	1454	1455	1466	1465	1474	1475	1470	1463	1455	1448	1453	1462	1482	1490	1485	1478	1470	1463	1463	1463	1456	1439	1434	1439	1441	1434	1431	1424	1424	1428	1456	1487	1517	1521	1502	1479	1463	1449	1438	1449	1475	1484	1494	1490	1466	1447	1437	1458	1454	1465	1486	1494	1488	1464	1442	1405	1408	1417	1449	1468	1485	1499	1500	1486	1472	1465	1466	1486	1494	1493	1485	1477	1466	1455	1446	1440	1434	1430	1435	1462	1487	1506	1516	1513	1486	1470	1459	1452	1441	1433	1433	1426	1423	1421	1423	1423	1379	1311	1268	1151	1138	1141	1164	1192	1195	1203	1197	1198	1189	1184	0	0	0	0	0	0	0	0	1032	1017	1005	996	1002	999	1006	998	970	937	916	914	925	942	961	974	971	969	960	969	973	979	985	1002	1018	1025	0	0	0	0	0	0	0	0	0	0	0	0	0	1411	1426	1447	1471	1487	1489	1501	1502	1500	1497	1490	1487	1482	1476	1470	1464	1459	1473	1485	1478	1445	1441	1446	1477	1481	1483	1484	1484	1487	1486	1486	1485	1493	1501	1499	1490	1472	1465	1463	1468	1467	1464	1482	1481	1485	1496	1523	1509	1513	1506	1503	1493	1494	1479	1472	1465	1457	1455	1457	1453	1445	1447	1463	1479	1490	1501	1511	1508	1505	1509	1490	1465	1445	1451	1469	1477	1483	1475	1479	1493	1502	1502	1494	1483	1485	1487	1497	1505	1508	1500	1495	1499	1500	1494	1482	1486	1507	1499	1470	1453	1457	1457	1456	1458	1472	1473	1482	1480	1480	1473	1472	1476	1473	1478	1484	1507	1509	1503	1506	1508	1503	1494	1487	1485	1479	1477	1477	1476	1481	1470	1460	1471	1481	1493	1495	1483	1471	1454	1443	1439	1443	0	0	0	0	0	0	0	0	0	0	0	0	0	0	952	937	922	904	896	902	906	919	938	944	949	948	942	927	935	937	930	922	910	904	916	938	952	959	959	950	955	953	937	927	902	907	927	949	965	968	960	954	953	956	952	957	966	967	970	970	968	973	988	1011	1198	1293	1342	1383	1423	1449	1462	1453	1453	1462	1479	1490	1487	1474	1481	1483	1482	1474	1470	1460	1459	1471	1477	1470	1476	1473	1469	1481	1489	1484	1466	1460	1466	1477	1484	1482	1474	1462	1447	1432	1438	1452	1465	1490	1483	1467	1451	1441	1435	1446	1454	1464	1465	1464	1469	1463	1462	1462	1461	1453	1456	1461	1455	1443	1432	1425	1438	1462	1487	1492	1476	1464	1450	1456	1468	1470	1466	1460	1466	1484	1488	1475	1468	1471	1460	1453	1445	1463	1487	1489	1480	1468	1461	1460	1454	1453	1452	1462	1462	1469	1467	1461	1440	1435	1446	1458	1476	1484	1492	1497	1489	1507	1507	1491	1469	1459	1457	1461	1471	1481	1480	1496	1493	1494	1492	1507	1513	1504	1492	1491	1494	1498	1490	1481	1475	1474	1481	1485	1485	1472	1462	1448	1441	1449	1454	1456	1452	1452	1450	1459	1468	1487	1492	1482	1482	1468	1463	1469	1474	1479	1498	1404	0	0	0	0	0	0	0
0	0	0	0	0	0	0	0	0	0	0	0	0	0	0	0	0	0	0	0	0	0	0	0	0	0	0	0	0	0	0	0	0	0	0	0	0	0	0	0	0	0	0	0	0	0	0	0	0	0	0	0	0	0	0	0	0	0	0	0	0	0	0	0	0	0	0	0	0	0	0	0	0	0	0	0	0	0	0	0	0	0	0	0	0	0	0	0	0	0	0	0	0	1469	1443	1434	1439	1457	1479	1482	1468	1451	1449	1446	1453	1484	1481	1474	1465	1474	1474	1464	1455	1453	1444	1442	1447	1446	1450	1455	1469	1490	1502	1496	1483	1476	1466	1466	1459	1457	1445	1436	1434	1432	1426	1424	1413	1417	1436	1463	1487	1506	1513	1500	1481	1462	1447	1438	1450	1471	1484	1490	1480	1456	1436	1425	1433	1440	1452	1462	1462	1458	1451	1427	1392	1389	1413	1438	1459	1481	1493	1503	1478	1466	1454	1463	1468	1479	1474	1464	1477	1477	1460	1450	1438	1427	1429	1444	1469	1482	1496	1502	1511	1488	1476	1465	1460	1452	1442	1434	1423	1402	1390	1339	1299	1196	1162	1145	1093	1091	1098	1124	1145	1144	1143	1146	1137	1128	1119	0	0	0	0	0	0	0	1030	1019	999	987	976	972	968	974	965	947	924	910	908	915	926	946	973	983	975	966	959	947	945	960	987	1014	0	0	0	0	0	0	0	0	0	0	0	0	0	1359	1412	1446	1458	1471	1481	1488	1498	1509	1506	1498	1494	1495	1492	1487	1468	1463	1461	1483	1481	1477	1437	1440	1455	1453	1489	1494	1488	1479	1480	1483	1487	1489	1495	1503	1505	1490	1474	1462	1455	1451	1462	1468	1466	1475	1474	1478	1473	1509	1506	1503	1497	1488	1494	1479	1482	1473	1466	1464	1465	1459	1453	1449	1459	1479	1491	1511	1519	1524	1526	1525	1515	1503	1488	1485	1485	1487	1479	1479	1485	1503	1508	1494	1483	1485	1484	1489	1501	1503	1500	1493	1497	1507	1506	1497	1485	1486	1492	1496	1481	1477	1474	1462	1455	1456	1468	1476	1475	1469	1460	1455	1459	1471	1484	1488	1500	1504	1500	1504	1511	1512	1510	1490	1481	1473	1475	1469	1469	1475	1479	1465	1463	1466	1484	1492	1499	1494	1477	1459	1448	1439	1445	0	0	0	0	0	0	0	0	0	0	0	0	0	0	937	925	910	897	891	892	899	913	922	923	920	923	919	909	911	913	901	902	895	892	892	903	916	923	926	925	930	927	917	903	892	906	931	950	957	951	940	937	932	936	932	929	925	924	934	943	939	939	951	969	986	1054	1163	1269	1357	1401	1430	1432	1437	1445	1467	1471	1471	1466	1466	1463	1462	1457	1464	1468	1473	1481	1486	1490	1495	1486	1493	1498	1494	1484	1465	1453	1457	1472	1479	1476	1465	1454	1438	1433	1432	1444	1455	1485	1481	1470	1454	1449	1442	1443	1438	1437	1446	1454	1460	1465	1457	1456	1444	1454	1459	1459	1445	1428	1417	1422	1442	1466	1489	1491	1483	1475	1466	1464	1464	1469	1473	1461	1469	1479	1493	1486	1478	1481	1470	1459	1447	1464	1479	1481	1474	1460	1456	1451	1442	1436	1440	1458	1467	1475	1480	1462	1446	1431	1440	1460	1480	1500	1502	1497	1481	1480	1480	1478	1484	1486	1481	1467	1474	1484	1488	1491	1493	1489	1492	1508	1513	1501	1487	1482	1486	1491	1486	1477	1463	1471	1468	1459	1459	1450	1444	1436	1436	1443	1451	1460	1463	1462	1455	1452	1458	1477	1486	1481	1481	1476	1469	1479	1482	1484	1485	1405	0	0	0	0	0	0	0
0	0	0	0	0	0	0	0	0	0	0	0	0	0	0	0	0	0	0	0	0	0	0	0	0	0	0	0	0	0	0	0	0	0	0	0	0	0	0	0	0	0	0	0	0	0	0	0	0	0	0	0	0	0	0	0	0	0	0	0	0	0	0	0	0	0	0	0	0	0	0	0	0	0	0	0	0	0	0	0	0	0	0	0	0	0	0	0	0	0	0	0	0	1460	1459	1454	1472	1494	1509	1495	1477	1458	1459	1477	1488	1479	1478	1479	1484	1497	1466	1456	1456	1446	1438	1438	1443	1446	1454	1457	1471	1486	1496	1492	1470	1468	1472	1472	1468	1463	1449	1438	1430	1424	1423	1421	1423	1429	1449	1468	1481	1479	1483	1478	1467	1457	1454	1450	1457	1470	1488	1479	1477	1454	1435	1434	1432	1452	1460	1464	1461	1459	1451	1445	1430	1440	1457	1471	1456	1478	1485	1491	1481	1466	1461	1465	1464	1453	1439	1449	1468	1480	1480	1460	1442	1431	1426	1443	1468	1474	1479	1487	1483	1473	1471	1461	1453	1442	1433	1416	1386	1345	1216	1133	1108	1106	1106	1104	1070	1055	1054	1070	1087	1099	1094	1091	1083	1064	1058	1064	0	0	0	0	1023	1008	1004	991	980	966	956	948	943	946	941	931	920	917	909	901	910	932	954	979	982	970	953	931	926	943	0	0	0	0	0	0	0	0	0	0	0	0	1329	1435	1355	1399	1419	1434	1457	1485	1480	1487	1503	1513	1514	1509	1509	1502	1501	1499	1493	1465	1482	1502	1525	1464	1469	1461	1459	1462	1496	1497	1488	1482	1477	1477	1482	1486	1494	1500	1502	1494	1475	1463	1452	1461	1484	1473	1461	1455	1454	1468	1459	1451	1490	1489	1481	1474	1484	1479	1487	1480	1482	1483	1486	1483	1477	1465	1460	1473	1486	1505	1514	1523	1527	1515	1513	1510	1501	1492	1492	1491	1494	1493	1498	1507	1507	1494	1485	1485	1494	1501	1504	1500	1492	1488	1502	1516	1514	1507	1489	1481	1483	1482	1475	1482	1482	1473	1462	1462	1466	1470	1469	1468	1462	1461	1463	1471	1483	1476	1485	1485	1495	1507	1513	1511	1503	1490	1487	1487	1483	1470	1468	1468	1465	1466	1464	1461	1475	1485	1494	1496	1488	1475	1460	1454	1448	1481	0	0	0	0	0	0	0	0	0	0	0	0	0	925	911	900	890	883	880	890	903	907	900	902	905	898	891	886	881	877	872	871	876	880	880	880	885	886	894	897	894	881	877	883	902	924	934	937	937	922	916	915	914	914	907	896	899	915	924	927	922	924	932	942	957	980	1006	1129	1243	1312	1355	1394	1419	1444	1456	1451	1448	1459	1461	1455	1457	1465	1472	1479	1482	1493	1503	1510	1516	1513	1512	1498	1486	1457	1446	1452	1464	1476	1465	1452	1445	1437	1442	1450	1485	1477	1478	1472	1477	1466	1454	1440	1434	1431	1433	1434	1439	1460	1465	1468	1456	1449	1454	1454	1455	1442	1423	1419	1423	1442	1462	1480	1492	1482	1480	1476	1467	1468	1464	1466	1467	1465	1482	1491	1484	1487	1487	1478	1466	1467	1474	1476	1465	1463	1456	1454	1450	1442	1441	1444	1451	1480	1489	1489	1467	1457	1441	1444	1465	1496	1507	1513	1503	1489	1472	1470	1470	1487	1488	1484	1482	1474	1470	1470	1486	1486	1488	1491	1495	1501	1486	1471	1468	1473	1476	1480	1477	1472	1467	1462	1454	1454	1444	1432	1426	1431	1441	1452	1465	1468	1469	1460	1453	1448	1465	1474	1476	1476	1476	1471	1475	1484	1488	1478	1416	0	0	0	0	0	0	0
0	0	0	0	0	0	0	0	0	0	0	0	0	0	0	0	0	0	0	0	0	0	0	0	0	0	0	0	0	0	0	0	0	0	0	0	0	0	0	0	0	0	0	0	0	0	0	0	0	0	0	0	0	0	0	0	0	0	0	0	0	0	0	0	0	0	0	0	0	0	0	0	0	0	0	0	0	0	0	0	0	0	0	0	0	0	0	0	0	0	0	0	0	1482	1497	1488	1500	1507	1514	1507	1490	1465	1479	1494	1507	1490	1481	1480	1482	1493	1476	1459	1460	1453	1453	1445	1449	1456	1463	1469	1477	1486	1486	1473	1457	1462	1473	1472	1472	1464	1456	1448	1427	1419	1422	1421	1429	1450	1468	1471	1462	1452	1447	1448	1448	1452	1453	1459	1464	1481	1484	1486	1483	1468	1456	1439	1433	1449	1462	1466	1462	1462	1458	1454	1446	1477	1489	1485	1479	1478	1485	1491	1482	1483	1484	1477	1462	1444	1430	1441	1469	1488	1494	1477	1454	1439	1446	1461	1471	1480	1477	1461	1456	1459	1461	1443	1427	1407	1346	1220	1148	1091	1069	1076	1077	1080	1084	1086	1079	1041	1034	1038	1031	1032	1036	1051	1049	1036	1024	1019	1025	1036	1023	1009	998	982	977	0	0	0	938	927	918	921	928	928	925	919	907	905	905	917	938	955	960	955	939	927	0	0	0	0	0	0	0	0	0	0	0	0	0	1372	1464	1495	1476	1453	1437	1445	1474	1499	1493	1498	1507	1514	1517	1512	1511	1510	1510	1509	1497	1467	1492	1543	1537	1488	1489	1494	1489	1470	1500	1503	1501	1488	1476	1473	1476	1483	1489	1495	1500	1496	1490	1482	1470	1490	1475	1482	1483	1484	1446	1454	1448	1448	1481	1480	1472	1468	1478	1486	1489	1494	1491	1496	1503	1505	1506	1490	1475	1457	1466	1488	1494	1503	1513	1503	1511	1506	1502	1494	1496	1497	1500	1507	1513	1508	1500	1485	1479	1482	1496	1506	1507	1504	1483	1488	1500	1518	1517	1513	1504	1492	1483	1474	1467	1471	1478	1480	1474	1468	1464	1469	1467	1474	1477	1486	1491	1492	1486	1474	1483	1483	1497	1507	1519	1511	1502	1504	1496	1497	1488	1476	1462	1458	1460	1468	1468	1462	1468	1482	1489	1492	1492	1483	1481	1477	1474	1450	0	0	0	0	0	0	0	0	0	0	0	0	0	0	903	891	875	868	857	869	883	880	869	874	879	878	872	867	857	847	845	855	867	881	877	869	863	868	871	869	860	847	856	872	890	899	905	911	911	906	903	903	904	903	890	884	886	895	908	908	911	913	914	914	922	935	951	969	1009	1058	1167	1316	1370	1413	1427	1434	1434	1447	1457	1460	1460	1471	1478	1485	1489	1496	1508	1513	1518	1518	1511	1507	1496	1470	1451	1451	1463	1465	1458	1454	1449	1454	1475	1498	1503	1492	1472	1465	1471	1473	1456	1439	1428	1432	1434	1437	1437	1454	1467	1475	1474	1464	1461	1457	1458	1447	1442	1438	1438	1450	1461	1471	1476	1467	1469	1466	1463	1463	1463	1466	1464	1463	1485	1478	1476	1471	1474	1472	1477	1482	1480	1477	1465	1456	1458	1456	1446	1442	1449	1445	1445	1454	1476	1482	1465	1450	1437	1433	1455	1486	1503	1508	1503	1486	1464	1457	1459	1474	1481	1481	1474	1458	1450	1449	1461	1464	1466	1468	1473	1482	1477	1462	1467	1465	1470	1476	1478	1477	1469	1466	1456	1456	1451	1436	1416	1424	1435	1454	1473	1480	1479	1470	1454	1444	1450	1467	1467	1472	1467	1468	1471	1474	1484	1468	0	0	0	0	0	0	0	0
0	0	0	0	0	0	0	0	0	0	0	0	0	0	0	0	0	0	0	0	0	0	0	0	0	0	0	0	0	0	0	0	0	0	0	0	0	0	0	0	0	0	0	0	0	0	0	0	0	0	0	0	0	0	0	0	0	0	0	0	0	0	0	0	0	0	0	0	0	0	0	0	0	0	0	0	0	0	0	0	0	0	0	0	0	0	0	0	0	0	0	0	0	1504	1502	1501	1499	1502	1506	1514	1489	1483	1488	1496	1504	1488	1487	1482	1477	1500	1481	1464	1461	1462	1471	1471	1464	1462	1470	1480	1481	1487	1478	1464	1458	1458	1470	1469	1458	1452	1442	1450	1427	1424	1434	1435	1441	1463	1477	1468	1446	1430	1427	1429	1438	1453	1460	1464	1466	1474	1490	1506	1509	1497	1471	1448	1434	1437	1450	1464	1472	1468	1468	1470	1457	1478	1498	1499	1480	1471	1480	1490	1493	1501	1503	1493	1468	1442	1433	1448	1472	1491	1482	1481	1465	1463	1467	1481	1482	1486	1477	1452	1438	1443	1427	1368	1308	1248	1099	1051	1052	1055	1052	1052	1053	1060	1078	1087	1085	1057	1047	1048	1042	1036	1036	1047	1049	1033	1021	1012	1019	1031	1025	1008	992	968	0	0	0	0	0	0	0	0	0	927	926	921	918	916	911	919	934	945	950	946	941	0	0	0	0	0	0	0	0	0	0	0	0	0	1406	1487	1497	1496	1490	1467	1483	1485	1476	1508	1491	1498	1510	1518	1519	1512	1508	1504	1509	1509	1493	1476	1491	1513	1539	1527	1513	1512	1513	1471	1493	1511	1504	1498	1476	1468	1471	1479	1488	1495	1502	1501	1496	1491	1492	1496	1515	1513	1509	1494	1481	1452	1458	1454	1481	1482	1478	1477	1482	1485	1492	1497	1495	1495	1503	1511	1507	1478	1459	1455	1457	1480	1478	1482	1486	1489	1495	1495	1494	1491	1490	1498	1511	1517	1519	1515	1497	1485	1473	1483	1494	1515	1519	1509	1488	1486	1503	1517	1518	1520	1509	1497	1482	1464	1458	1460	1472	1481	1475	1468	1467	1467	1467	1482	1496	1515	1521	1510	1499	1487	1482	1482	1490	1510	1522	1522	1514	1509	1507	1505	1489	1475	1467	1464	1470	1475	1474	1470	1476	1487	1487	1490	1490	1492	1492	1501	1505	1491	1486	1439	0	0	0	0	0	0	0	0	0	0	0	0	0	889	864	847	841	839	855	864	852	851	856	863	860	856	848	836	830	840	857	870	879	863	857	856	858	859	853	844	839	852	868	877	880	883	889	888	892	899	902	898	888	882	883	889	896	897	902	909	906	898	901	910	922	939	949	959	999	1111	1205	1280	1364	1403	1410	1425	1451	1467	1474	1481	1487	1494	1499	1500	1507	1514	1517	1519	1513	1509	1506	1484	1472	1472	1472	1475	1473	1460	1458	1464	1485	1501	1498	1486	1462	1453	1457	1456	1458	1446	1440	1445	1447	1447	1444	1456	1472	1492	1494	1489	1472	1465	1463	1457	1458	1457	1454	1455	1453	1457	1459	1452	1444	1449	1456	1466	1473	1474	1464	1458	1456	1454	1451	1456	1463	1473	1487	1498	1496	1489	1475	1466	1460	1453	1442	1435	1449	1453	1444	1443	1457	1452	1445	1435	1426	1420	1425	1442	1462	1491	1488	1474	1454	1442	1442	1460	1468	1469	1461	1448	1442	1437	1445	1439	1445	1447	1463	1478	1479	1471	1470	1466	1471	1475	1473	1477	1477	1475	1475	1468	1460	1440	1420	1421	1435	1456	1478	1493	1491	1485	1467	1449	1446	1460	1460	1466	1467	1462	1459	1462	1473	1459	0	0	0	0	0	0	0	0
0	0	0	0	0	0	0	0	0	0	0	0	0	0	0	0	0	0	0	0	0	0	0	0	0	0	0	0	0	0	0	0	0	0	0	0	0	0	0	0	0	0	0	0	0	0	0	0	0	0	0	0	0	0	0	0	0	0	0	0	0	0	0	0	0	0	0	0	0	0	0	0	0	0	0	0	0	0	0	0	0	0	0	0	0	0	0	0	0	0	0	0	0	1506	1499	1487	1484	1481	1483	1487	1492	1494	1497	1500	1495	1496	1486	1474	1470	1479	1478	1471	1457	1459	1469	1472	1467	1464	1468	1478	1485	1483	1476	1466	1467	1466	1468	1460	1454	1447	1446	1459	1441	1444	1453	1459	1464	1475	1470	1458	1437	1426	1421	1425	1439	1455	1464	1465	1466	1474	1482	1500	1508	1502	1479	1454	1432	1430	1440	1457	1469	1470	1477	1474	1469	1485	1485	1480	1471	1463	1470	1482	1484	1495	1498	1493	1476	1458	1451	1477	1482	1488	1484	1467	1463	1461	1476	1480	1485	1489	1475	1441	1408	1388	1246	1168	1104	1051	1035	1042	1045	1049	1051	1049	1051	1059	1074	1085	1099	1088	1079	1078	1073	1081	1094	1093	1082	1060	1039	1021	1018	1028	1034	1021	997	986	0	0	0	0	0	0	0	0	0	0	0	0	0	0	926	931	0	0	0	0	0	0	0	0	0	0	0	0	0	0	0	0	0	1408	1473	1497	1503	1502	1476	1498	1503	1501	1469	1497	1486	1498	1509	1521	1519	1510	1504	1499	1497	1494	1478	1467	1477	1511	1525	1504	1521	1499	1498	1480	1500	1502	1502	1484	1469	1464	1472	1478	1493	1498	1503	1506	1500	1496	1496	1495	1508	1523	1520	1499	1460	1477	1478	1475	1508	1490	1489	1493	1488	1491	1491	1497	1492	1493	1499	1513	1497	1476	1456	1448	1450	1470	1468	1468	1478	1483	1485	1481	1481	1484	1486	1496	1506	1521	1519	1511	1495	1475	1469	1474	1484	1504	1516	1511	1492	1489	1500	1522	1532	1527	1511	1506	1487	1468	1456	1462	1473	1479	1474	1460	1455	1461	1465	1479	1501	1522	1538	1535	1516	1504	1502	1488	1492	1506	1519	1516	1511	1502	1485	1477	1467	1470	1479	1485	1484	1489	1482	1487	1496	1497	1494	1490	1491	1491	1495	1506	1505	1487	1477	1477	1455	0	0	0	0	0	0	0	0	0	0	0	0	0	867	832	825	829	843	853	846	848	851	851	854	847	841	833	834	842	853	868	866	859	850	845	848	854	857	854	847	849	859	860	855	855	861	875	892	893	890	891	883	881	884	892	892	896	899	897	894	888	881	885	893	905	923	919	920	935	973	1027	1133	1346	1374	1398	1435	1460	1473	1476	1485	1488	1496	1501	1508	1501	1510	1512	1497	1489	1493	1487	1485	1485	1486	1480	1464	1461	1458	1467	1472	1481	1482	1458	1452	1452	1443	1455	1461	1459	1454	1467	1473	1472	1465	1466	1478	1492	1506	1507	1483	1467	1460	1460	1470	1480	1472	1466	1456	1456	1450	1442	1434	1438	1449	1462	1474	1480	1469	1452	1433	1429	1432	1442	1457	1471	1493	1503	1502	1496	1485	1477	1465	1452	1435	1436	1455	1454	1450	1449	1445	1440	1437	1427	1418	1413	1418	1427	1436	1458	1468	1454	1441	1433	1442	1455	1466	1461	1455	1446	1449	1444	1437	1439	1430	1437	1457	1474	1478	1464	1457	1451	1451	1462	1475	1471	1469	1473	1473	1476	1461	1448	1430	1423	1434	1458	1482	1496	1506	1499	1479	1459	1448	1448	1448	1453	1455	1456	1452	1447	1457	1451	0	0	0	0	0	0	0	0
0	0	0	0	0	0	0	0	0	0	0	0	0	0	0	0	0	0	0	0	0	0	0	0	0	0	0	0	0	0	0	0	0	0	0	0	0	0	0	0	0	0	0	0	0	0	0	0	0	0	0	0	0	0	0	0	0	0	0	0	0	0	0	0	0	0	0	0	0	0	0	0	0	0	0	0	0	0	0	0	0	0	0	0	0	0	0	0	0	0	0	0	0	1478	1479	1466	1458	1458	1463	1480	1485	1490	1500	1496	1494	1495	1486	1472	1459	1466	1464	1466	1459	1449	1455	1461	1462	1460	1463	1472	1481	1480	1475	1466	1466	1475	1471	1462	1448	1449	1459	1469	1464	1466	1478	1482	1478	1471	1466	1450	1441	1432	1433	1439	1449	1465	1469	1467	1462	1457	1460	1469	1477	1484	1482	1463	1446	1435	1439	1452	1465	1460	1456	1465	1468	1473	1475	1467	1464	1460	1465	1460	1476	1490	1497	1490	1475	1467	1464	1489	1494	1490	1469	1456	1454	1461	1464	1470	1481	1485	1467	1417	1368	1208	1133	1095	1066	1054	1056	1057	1059	1069	1077	1083	1083	1079	1091	1104	1119	1129	1121	1113	1112	1125	1150	1144	1130	1110	0	0	0	0	1047	1040	0	0	0	0	0	0	0	0	0	0	0	0	0	0	0	0	0	0	0	0	0	0	0	0	0	0	0	0	0	0	0	0	0	0	1390	1433	1447	1460	1500	1503	1484	1502	1501	1486	1469	1472	1479	1497	1512	1515	1515	1503	1496	1496	1492	1485	1474	1471	1462	1463	1499	1499	1499	1494	1487	1484	1492	1485	1483	1476	1464	1459	1470	1488	1499	1502	1506	1507	1504	1501	1497	1495	1506	1519	1526	1464	1447	1491	1511	1508	1517	1507	1501	1508	1504	1500	1496	1494	1487	1488	1498	1514	1515	1495	1466	1451	1437	1443	1452	1468	1471	1477	1481	1478	1484	1482	1473	1474	1479	1502	1506	1499	1487	1479	1469	1473	1476	1494	1508	1503	1489	1484	1492	1516	1530	1525	1513	1498	1483	1460	1461	1467	1479	1480	1464	1456	1445	1450	1443	1452	1472	1510	1532	1537	1523	1511	1491	1485	1488	1499	1507	1499	1484	1474	1468	1466	1471	1479	1484	1493	1484	1477	1476	1491	1499	1505	1506	1498	1494	1490	1485	1471	1470	1467	1464	1474	1489	1461	0	0	0	0	0	0	0	0	0	0	0	0	0	0	828	823	831	835	842	843	848	847	847	843	834	835	841	844	849	857	862	861	849	838	838	846	856	861	854	856	859	854	842	838	836	850	867	873	882	877	876	880	884	888	890	892	888	880	881	876	873	876	879	881	881	880	877	894	918	948	981	1074	1177	1346	1396	1436	1453	1455	1459	1469	1482	1486	1464	1472	1487	1503	1495	1485	1483	1481	1485	1484	1485	1475	1466	1459	1455	1459	1465	1466	1469	1452	1450	1450	1445	1449	1459	1463	1474	1494	1501	1492	1477	1478	1480	1487	1502	1508	1480	1462	1461	1459	1473	1482	1487	1474	1463	1465	1455	1445	1444	1444	1454	1471	1483	1488	1472	1449	1416	1417	1420	1429	1456	1478	1497	1504	1503	1495	1490	1480	1473	1460	1448	1450	1466	1481	1476	1470	1454	1443	1438	1432	1418	1419	1422	1434	1445	1456	1465	1455	1445	1441	1450	1463	1467	1461	1454	1456	1462	1460	1451	1442	1431	1442	1454	1469	1474	1464	1448	1445	1444	1450	1454	1458	1466	1477	1477	1478	1470	1456	1445	1437	1437	1454	1476	1498	1510	1504	1478	1460	1457	1450	1450	1444	1448	1448	1447	1450	1457	1467	0	0	0	0	0	0	0	0
0	0	0	0	0	0	0	0	0	0	0	0	0	0	0	0	0	0	0	0	0	0	0	0	0	0	0	0	0	0	0	0	0	0	0	0	0	0	0	0	0	0	0	0	0	0	0	0	0	0	0	0	0	0	0	0	0	0	0	0	0	0	0	0	0	0	0	0	0	0	0	0	0	0	0	0	0	0	0	0	0	0	0	0	0	0	0	0	0	0	0	0	0	1459	1448	1436	1423	1439	1454	1468	1476	1481	1485	1491	1480	1490	1476	1463	1452	1442	1445	1459	1450	1446	1446	1446	1447	1451	1453	1466	1474	1480	1475	1475	1477	1481	1474	1462	1457	1460	1467	1483	1481	1484	1484	1483	1478	1469	1459	1459	1453	1449	1448	1451	1455	1471	1473	1467	1453	1436	1430	1443	1454	1462	1465	1462	1450	1442	1444	1458	1463	1453	1440	1434	1460	1472	1470	1468	1470	1464	1460	1457	1465	1484	1497	1492	1475	1457	1465	1489	1490	1478	1462	1452	1447	1435	1407	1451	1462	1434	1246	1188	1137	1110	0	0	0	1088	1088	1085	1090	0	0	1136	1131	1125	1125	1130	1144	1159	1158	1146	1156	1167	1189	1190	1173	0	0	0	0	0	0	0	0	0	0	0	0	0	0	0	0	0	0	0	0	0	0	0	0	0	0	0	0	0	0	0	0	0	0	0	0	0	0	0	0	1379	1434	1462	1461	1460	1469	1494	1500	1494	1488	1471	1471	1460	1472	1473	1492	1511	1503	1493	1492	1494	1493	1490	1475	1472	1470	1460	1453	1481	1497	1493	1489	1487	1471	1472	1470	1471	1478	1480	1482	1482	1478	1479	1486	1496	1504	1512	1507	1506	1514	1531	1482	1447	1461	1484	1483	1506	1516	1513	1510	1518	1514	1506	1491	1483	1472	1486	1507	1525	1521	1509	1492	1453	1436	1436	1444	1459	1469	1473	1483	1491	1491	1480	1473	1472	1478	1491	1481	1475	1481	1482	1475	1477	1481	1487	1496	1489	1472	1466	1471	1484	1507	1515	1510	1502	1488	1477	1479	1481	1485	1478	1464	1452	1451	1448	1450	1454	1474	1498	1520	1527	1520	1507	1489	1483	1486	1486	1481	1474	1468	1462	1458	1465	1472	1483	1487	1495	1485	1473	1474	1491	1502	1507	1515	1510	1502	1498	1475	1464	1459	1456	1460	1466	1501	1504	0	0	0	0	0	0	0	0	0	0	0	0	0	0	862	830	815	819	823	830	830	837	830	827	827	835	837	849	853	862	865	866	851	831	829	839	854	865	862	863	859	847	835	826	821	828	842	848	862	864	868	871	879	882	885	871	875	874	871	874	877	875	865	862	858	859	858	868	884	903	916	949	978	1084	1181	1343	1386	1405	1349	1370	1393	1414	1431	1446	1469	1487	1494	1489	1485	1481	1478	1477	1464	1457	1457	1453	1451	1441	1444	1459	1461	1460	1459	1453	1444	1447	1460	1476	1491	1496	1493	1486	1478	1480	1478	1469	1477	1495	1475	1460	1449	1454	1469	1478	1487	1486	1483	1475	1459	1453	1452	1458	1470	1482	1488	1484	1466	1436	1414	1417	1417	1419	1445	1474	1495	1506	1503	1494	1490	1478	1471	1468	1468	1476	1492	1508	1494	1485	1466	1453	1448	1447	1433	1438	1436	1440	1449	1465	1467	1460	1451	1448	1457	1472	1480	1465	1453	1454	1463	1467	1463	1449	1438	1439	1447	1465	1476	1474	1457	1454	1459	1461	1461	1459	1458	1463	1474	1479	1481	1467	1456	1451	1444	1457	1472	1491	1506	1500	1486	1474	1472	1459	1459	1448	1445	1444	1446	1449	1467	1496	0	0	0	0	0	0	0	0
0	0	0	0	0	0	0	0	0	0	0	0	0	0	0	0	0	0	0	0	0	0	0	0	0	0	0	0	0	0	0	0	0	0	0	0	0	0	0	0	0	0	0	0	0	0	0	0	0	0	0	0	0	0	0	0	0	0	0	0	0	0	0	0	0	0	0	0	0	0	0	0	0	0	0	0	0	0	0	0	0	0	0	0	0	0	0	0	0	0	0	0	0	1440	1430	1399	1404	1430	1460	1477	1478	1474	1476	1476	1468	1470	1465	1454	1444	1436	1434	1439	1442	1443	1442	1441	1444	1441	1449	1459	1472	1483	1481	1485	1493	1488	1480	1467	1463	1467	1475	1484	1487	1485	1481	1474	1466	1456	1456	1455	1459	1461	1456	1455	1466	1468	1469	1460	1448	1425	1426	1433	1447	1450	1455	1456	1452	1444	1437	1444	1453	1449	1437	1438	1449	1478	1480	1477	1478	1477	1467	1458	1462	1474	1481	1485	1475	1471	1475	1478	1471	1458	1433	1427	1374	1316	1198	1142	1118	1110	1110	1109	1088	0	0	0	0	0	0	0	0	0	0	1170	1176	1173	1172	1178	1187	1189	1183	1175	1179	1189	1212	1214	0	0	0	0	0	0	0	0	0	0	0	0	0	0	0	0	0	0	0	0	0	0	0	0	0	0	0	0	0	0	0	0	0	0	0	0	0	0	0	0	1367	1449	1469	1470	1468	1465	1467	1472	1491	1489	1458	1456	1461	1458	1463	1474	1479	1467	1465	1455	1463	1472	1478	1492	1509	1493	1487	1463	1462	1478	1507	1500	1500	1487	1470	1470	1468	1474	1484	1530	1510	1493	1475	1468	1472	1480	1500	1514	1519	1520	1526	1492	1465	1460	1457	1491	1502	1515	1511	1506	1508	1511	1513	1509	1485	1469	1467	1478	1499	1513	1518	1512	1490	1469	1449	1443	1448	1454	1467	1485	1487	1493	1488	1480	1472	1475	1475	1477	1476	1473	1472	1477	1482	1482	1486	1497	1499	1487	1471	1457	1448	1461	1494	1509	1509	1505	1498	1498	1494	1493	1492	1485	1472	1462	1454	1461	1469	1475	1477	1494	1509	1518	1523	1511	1493	1495	1494	1490	1489	1471	1468	1458	1465	1478	1488	1495	1495	1499	1493	1478	1481	1491	1505	1521	1525	1522	1516	1506	1483	1464	1463	1463	1462	1469	1500	1528	0	0	0	0	0	0	0	0	0	0	0	0	0	0	0	825	806	805	806	806	809	814	818	812	815	821	826	840	847	857	868	867	853	832	824	834	852	861	854	851	852	842	829	819	814	812	823	830	844	854	859	862	866	874	868	857	858	856	860	873	878	878	866	853	848	844	853	860	868	867	862	868	881	889	926	907	941	973	1097	1235	1302	1331	1367	1393	1428	1456	1485	1481	1475	1474	1476	1468	1457	1448	1445	1447	1446	1432	1438	1450	1452	1456	1448	1449	1442	1448	1464	1475	1483	1485	1473	1466	1460	1460	1462	1452	1469	1484	1473	1453	1441	1440	1459	1476	1492	1499	1501	1487	1468	1447	1443	1466	1477	1484	1486	1477	1447	1428	1422	1420	1411	1409	1432	1463	1482	1500	1503	1494	1486	1480	1473	1473	1475	1490	1507	1524	1516	1502	1468	1458	1455	1460	1464	1465	1462	1452	1459	1464	1467	1464	1453	1452	1464	1479	1479	1468	1457	1456	1457	1467	1463	1451	1446	1437	1442	1466	1478	1483	1480	1479	1476	1477	1473	1463	1451	1451	1451	1461	1469	1473	1463	1456	1449	1461	1478	1495	1500	1488	1478	1480	1480	1480	1472	1462	1454	1454	1448	1448	1469	1492	0	0	0	0	0	0	0	0
0	0	0	0	0	0	0	0	0	0	0	0	0	0	0	0	0	0	0	0	0	0	0	0	0	0	0	0	0	0	0	0	0	0	0	0	0	0	0	0	0	0	0	0	0	0	0	0	0	0	0	0	0	0	0	0	0	0	0	0	0	0	0	0	0	0	0	0	0	0	0	0	0	0	0	0	0	0	0	0	0	0	0	0	0	0	0	0	0	0	0	0	0	1425	1415	1396	1411	1443	1473	1480	1479	1470	1462	1459	1450	1455	1458	1458	1448	1444	1434	1428	1427	1436	1450	1454	1440	1439	1451	1461	1475	1482	1494	1501	1509	1504	1494	1479	1467	1469	1479	1484	1487	1475	1465	1458	1451	1449	1447	1456	1462	1465	1460	1471	1466	1463	1454	1437	1426	1427	1428	1437	1450	1450	1449	1445	1447	1443	1439	1438	1435	1439	1430	1435	1460	1480	1483	1481	1472	1475	1468	1460	1458	1471	1469	1463	1464	1468	1474	1479	1454	1403	1327	1205	1181	1164	0	0	0	0	0	0	0	0	0	0	0	0	0	0	0	0	0	1189	1197	1209	1210	1213	1214	1213	1188	1183	1188	1200	1216	1224	0	0	0	0	0	0	0	0	0	0	0	0	0	0	0	0	0	0	0	0	0	0	0	0	0	0	0	0	0	0	0	0	0	0	0	0	0	0	0	1374	1460	1470	1472	1477	1494	1481	1465	1457	1466	1495	1461	1453	1461	1457	1463	1472	1464	1461	1467	1489	1509	1497	1503	1506	1509	1504	1494	1479	1469	1478	1505	1510	1510	1502	1493	1479	1478	1484	1498	1521	1507	1487	1468	1462	1470	1485	1491	1503	1515	1518	1488	1475	1479	1471	1514	1520	1515	1507	1503	1499	1500	1503	1511	1504	1487	1470	1472	1478	1492	1498	1492	1481	1476	1468	1464	1459	1461	1465	1503	1525	1528	1516	1495	1468	1447	1480	1483	1485	1480	1484	1481	1460	1460	1490	1499	1506	1504	1491	1475	1451	1441	1449	1469	1502	1509	1508	1511	1504	1497	1497	1489	1487	1480	1466	1463	1473	1482	1488	1486	1489	1504	1518	1511	1506	1502	1493	1495	1502	1491	1483	1486	1476	1484	1491	1500	1501	1509	1509	1500	1494	1494	1499	1517	1517	1513	1514	1517	1513	1489	1468	1454	1453	1463	1474	1491	1503	1543	0	0	0	0	0	0	0	0	0	0	0	0	0	0	860	812	799	792	789	799	805	807	803	799	797	805	820	833	844	855	857	847	829	823	831	844	847	836	836	836	836	828	819	812	811	808	818	833	841	846	852	859	861	860	844	837	838	841	855	869	872	861	849	838	829	842	850	852	851	834	824	795	796	817	852	879	900	932	992	1107	1182	1270	1316	1357	1394	1454	1470	1466	1466	1464	1460	1451	1446	1446	1446	1446	1444	1448	1458	1460	1443	1448	1445	1435	1440	1450	1470	1464	1457	1447	1448	1456	1457	1458	1459	1469	1478	1473	1458	1445	1439	1452	1473	1491	1497	1500	1481	1458	1439	1430	1454	1468	1475	1480	1466	1442	1427	1434	1428	1410	1415	1428	1463	1486	1498	1493	1489	1479	1475	1470	1473	1472	1484	1504	1523	1518	1501	1477	1457	1459	1467	1473	1480	1483	1477	1471	1470	1469	1457	1455	1455	1461	1474	1477	1470	1460	1455	1459	1462	1467	1458	1446	1446	1448	1464	1482	1488	1488	1484	1490	1488	1481	1464	1451	1451	1449	1451	1454	1461	1461	1456	1459	1471	1488	1502	1500	1484	1474	1466	1471	1471	1475	1481	1480	1467	1461	1461	1488	1492	0	0	0	0	0	0	0	0
0	0	0	0	0	0	0	0	0	0	0	0	0	0	0	0	0	0	0	0	0	0	0	0	0	0	0	0	0	0	0	0	0	0	0	0	0	0	0	0	0	0	0	0	0	0	0	0	0	0	0	0	0	0	0	0	0	0	0	0	0	0	0	0	0	0	0	0	0	0	0	0	0	0	0	0	0	0	0	0	0	0	0	0	0	0	0	0	0	0	0	0	0	1419	1427	1428	1435	1454	1477	1480	1470	1455	1453	1450	1455	1456	1462	1463	1455	1455	1440	1426	1415	1433	1451	1466	1457	1457	1459	1461	1473	1484	1496	1508	1512	1512	1499	1478	1470	1470	1481	1492	1476	1464	1446	1443	1434	1437	1445	1446	1451	1458	1465	1478	1472	1459	1438	1428	1419	1436	1442	1449	1456	1459	1451	1450	1450	1448	1439	1428	1431	1430	1442	1452	1471	1487	1483	1474	1465	1461	1460	1455	1461	1465	1449	1443	1432	1434	1452	1439	1264	1184	1120	0	0	0	0	0	0	0	0	0	0	0	0	0	0	0	0	0	0	0	0	1178	1204	1217	1235	1235	1225	1214	1186	1180	1185	1191	1207	0	0	0	0	0	0	0	0	0	0	0	0	0	0	0	0	0	0	0	0	0	0	0	0	0	0	0	0	0	0	0	0	0	0	0	0	0	0	0	0	1427	1467	1461	1467	1505	1491	1463	1454	1451	1477	1480	1466	1459	1462	1468	1472	1475	1478	1485	1497	1502	1513	1519	1523	1523	1502	1505	1492	1482	1473	1471	1492	1504	1503	1515	1515	1504	1509	1505	1512	1509	1492	1472	1453	1444	1448	1462	1485	1492	1498	1493	1467	1469	1480	1523	1524	1531	1510	1499	1495	1492	1497	1494	1504	1505	1501	1488	1485	1489	1484	1492	1476	1466	1466	1471	1477	1472	1479	1504	1525	1537	1525	1503	1478	1466	1463	1497	1501	1501	1487	1481	1498	1485	1454	1464	1484	1496	1502	1497	1487	1472	1467	1473	1471	1484	1497	1504	1508	1497	1490	1487	1488	1486	1484	1479	1477	1482	1489	1495	1494	1496	1503	1518	1521	1514	1494	1486	1488	1496	1492	1495	1491	1498	1495	1502	1499	1504	1517	1517	1510	1500	1497	1494	1494	1495	1492	1492	1506	1509	1489	1471	1454	1461	1467	1477	1483	1496	1513	1548	0	0	0	0	0	0	0	0	0	0	0	0	0	0	0	831	804	793	792	797	792	789	782	777	781	795	812	823	833	835	830	823	816	817	826	828	823	826	830	835	830	823	817	810	807	811	814	824	831	842	852	858	840	831	816	810	816	830	847	846	850	842	833	822	829	840	839	821	794	775	768	769	783	819	839	849	850	868	918	1027	1098	1227	1269	1305	1380	1428	1438	1446	1452	1457	1456	1450	1443	1445	1445	1452	1454	1458	1461	1442	1443	1437	1437	1433	1441	1446	1447	1440	1441	1448	1461	1471	1469	1473	1490	1488	1480	1472	1457	1454	1462	1482	1498	1503	1497	1474	1454	1433	1437	1447	1452	1457	1462	1446	1440	1435	1455	1437	1426	1425	1447	1475	1483	1495	1486	1484	1476	1469	1467	1473	1467	1476	1486	1507	1516	1508	1491	1472	1468	1471	1476	1490	1494	1487	1478	1471	1464	1455	1456	1460	1472	1480	1474	1464	1458	1453	1457	1462	1469	1460	1454	1453	1457	1469	1474	1479	1481	1486	1490	1489	1473	1463	1455	1455	1453	1448	1445	1448	1452	1466	1480	1483	1501	1518	1518	1491	1466	1461	1465	1465	1472	1475	1474	1471	1465	1465	1486	1475	0	0	0	0	0	0	0	0
0	0	0	0	0	0	0	0	0	0	0	0	0	0	0	0	0	0	0	0	0	0	0	0	0	0	0	0	0	0	0	0	0	0	0	0	0	0	0	0	0	0	0	0	0	0	0	0	0	0	0	0	0	0	0	0	0	0	0	0	0	0	0	0	0	0	0	0	0	0	0	0	0	0	0	0	0	0	0	0	0	0	0	0	0	0	0	0	0	0	0	0	0	1426	1453	1455	1456	1459	1460	1446	1434	1439	1453	1454	1455	1461	1466	1467	1462	1461	1446	1431	1419	1428	1459	1474	1477	1477	1476	1472	1473	1481	1490	1500	1498	1501	1486	1478	1470	1473	1479	1493	1473	1455	1446	1433	1432	1431	1439	1444	1449	1451	1459	1469	1469	1451	1431	1427	1436	1444	1461	1459	1461	1461	1465	1461	1463	1460	1446	1433	1427	1433	1445	1460	1475	1483	1473	1459	1453	1452	1455	1457	1454	1442	1420	1396	1374	1327	1241	1181	0	0	0	0	0	0	0	0	0	0	0	0	0	0	0	0	0	0	0	0	0	0	0	1178	1197	1229	1238	1239	1226	1199	1164	1166	1166	1170	1193	0	0	0	0	0	0	0	0	0	0	0	0	0	0	0	0	0	0	0	0	0	0	0	0	0	0	0	0	0	0	0	0	0	0	0	0	0	0	0	1354	1459	1464	1449	1456	1505	1467	1447	1431	1455	1474	1474	1468	1459	1451	1466	1472	1475	1484	1487	1490	1495	1502	1508	1512	1525	1530	1516	1502	1485	1477	1469	1486	1484	1483	1515	1521	1522	1527	1528	1521	1502	1491	1491	1504	1512	1520	1511	1488	1484	1489	1484	1466	1470	1479	1499	1518	1524	1526	1508	1498	1497	1492	1492	1491	1506	1506	1495	1490	1494	1499	1496	1482	1468	1464	1467	1474	1472	1480	1494	1513	1524	1514	1487	1493	1458	1511	1514	1515	1507	1504	1482	1503	1493	1481	1479	1480	1485	1487	1483	1477	1476	1489	1492	1485	1481	1478	1486	1497	1503	1502	1493	1488	1487	1488	1480	1482	1483	1489	1497	1500	1504	1503	1513	1517	1508	1478	1472	1463	1456	1460	1471	1491	1506	1499	1497	1493	1504	1518	1524	1510	1496	1478	1479	1482	1482	1485	1479	1480	1494	1481	1466	1456	1464	1469	1474	1480	1494	1509	1517	1545	0	0	0	0	0	0	0	0	0	0	0	0	0	0	0	0	850	803	784	775	766	757	759	770	783	792	798	801	807	806	802	798	805	811	814	815	824	833	835	830	821	814	809	803	800	802	805	810	828	843	846	828	816	800	794	794	807	820	826	827	831	830	823	817	816	809	802	784	776	765	766	788	807	821	823	819	821	830	842	863	901	1052	1170	1244	1374	1392	1403	1428	1437	1446	1443	1429	1436	1444	1454	1452	1454	1447	1436	1443	1440	1438	1442	1442	1444	1446	1440	1440	1456	1469	1477	1481	1498	1495	1481	1481	1481	1469	1471	1478	1485	1495	1499	1482	1472	1457	1441	1446	1440	1439	1441	1444	1448	1444	1445	1457	1461	1452	1449	1462	1478	1493	1490	1487	1478	1470	1464	1461	1465	1467	1468	1477	1492	1511	1516	1504	1483	1473	1471	1477	1484	1490	1488	1481	1472	1465	1457	1456	1467	1479	1478	1473	1457	1456	1450	1455	1454	1461	1466	1463	1466	1473	1477	1474	1466	1471	1487	1492	1482	1467	1456	1456	1454	1457	1454	1438	1432	1439	1459	1475	1484	1510	1522	1521	1508	1484	1469	1471	1471	1472	1471	1464	1460	1463	1463	1453	1464	1439	0	0	0	0	0	0	0
0	0	0	0	0	0	0	0	0	0	0	0	0	0	0	0	0	0	0	0	0	0	0	0	0	0	0	0	0	0	0	0	0	0	0	0	0	0	0	0	0	0	0	0	0	0	0	0	0	0	0	0	0	0	0	0	0	0	0	0	0	0	0	0	0	0	0	0	0	0	0	0	0	0	0	0	0	0	0	0	0	0	0	0	0	0	0	0	0	0	0	0	0	1446	1470	1468	1464	1449	1439	1421	1433	1447	1460	1459	1459	1466	1464	1464	1467	1469	1468	1449	1436	1439	1455	1469	1479	1488	1485	1475	1474	1479	1484	1489	1486	1480	1475	1476	1468	1469	1459	1475	1471	1454	1451	1441	1438	1438	1446	1448	1451	1450	1452	1453	1457	1446	1435	1438	1444	1465	1478	1473	1459	1460	1458	1463	1476	1473	1464	1444	1435	1445	1455	1469	1479	1480	1461	1450	1448	1440	1437	1431	1397	1351	1329	1289	1193	1051	0	0	0	0	0	0	0	0	0	0	0	0	0	0	0	0	0	0	0	0	0	0	0	0	0	1180	1207	1231	1237	1227	1212	1190	1150	1142	1149	1148	0	0	0	0	0	0	0	0	0	0	0	0	0	0	0	0	0	0	0	0	0	0	0	0	0	0	0	0	0	0	0	0	0	0	0	0	0	0	0	1348	1449	1456	1456	1440	1438	1437	1480	1445	1440	1454	1468	1470	1460	1456	1451	1452	1465	1470	1478	1471	1476	1494	1498	1502	1505	1513	1522	1523	1514	1495	1482	1475	1486	1483	1487	1504	1510	1513	1520	1527	1516	1496	1495	1497	1510	1516	1517	1503	1491	1481	1478	1487	1496	1471	1497	1499	1502	1498	1498	1500	1498	1486	1483	1480	1486	1496	1500	1491	1493	1500	1505	1500	1486	1472	1464	1465	1470	1475	1476	1488	1507	1511	1510	1504	1509	1517	1512	1514	1513	1508	1508	1508	1504	1486	1485	1494	1494	1489	1480	1475	1471	1481	1488	1497	1497	1487	1480	1480	1496	1513	1510	1499	1492	1496	1494	1488	1493	1490	1490	1495	1501	1502	1502	1505	1505	1493	1471	1463	1458	1464	1464	1474	1500	1515	1508	1495	1483	1492	1504	1493	1502	1485	1479	1475	1480	1484	1483	1483	1478	1477	1474	1461	1457	1464	1471	1473	1471	1473	1486	1498	1492	1464	0	0	0	0	0	0	0	0	0	0	0	0	0	0	0	0	0	788	765	755	752	758	768	776	775	775	778	778	782	785	791	788	796	803	818	827	828	822	817	805	803	797	796	789	781	782	793	811	825	831	817	804	794	791	795	805	805	806	809	796	800	803	809	807	795	789	785	781	776	773	778	793	803	803	805	805	800	800	801	809	851	970	1021	1065	1207	1295	1358	1399	1415	1417	1415	1421	1433	1439	1444	1449	1440	1425	1440	1445	1450	1450	1449	1436	1439	1451	1457	1467	1478	1486	1492	1495	1493	1482	1477	1477	1473	1473	1478	1476	1481	1482	1480	1469	1463	1459	1447	1441	1430	1418	1422	1439	1450	1449	1463	1464	1467	1477	1484	1487	1491	1490	1480	1472	1462	1454	1458	1465	1459	1461	1471	1492	1507	1517	1501	1486	1474	1471	1473	1472	1470	1470	1470	1465	1459	1459	1461	1470	1485	1483	1471	1463	1455	1450	1451	1453	1460	1469	1478	1482	1492	1486	1478	1465	1471	1481	1487	1476	1462	1449	1449	1457	1462	1457	1443	1431	1431	1446	1465	1474	1474	1481	1506	1494	1478	1472	1474	1474	1472	1459	1447	1448	1460	1459	1449	1433	1422	0	0	0	0	0	0	0
0	0	0	0	0	0	0	0	0	0	0	0	0	0	0	0	0	0	0	0	0	0	0	0	0	0	0	0	0	0	0	0	0	0	0	0	0	0	0	0	0	0	0	0	0	0	0	0	0	0	0	0	0	0	0	0	0	0	0	0	0	0	0	0	0	0	0	0	0	0	0	0	0	0	0	0	0	0	0	0	0	0	0	0	0	0	0	0	0	0	0	0	0	1444	1468	1465	1459	1436	1421	1427	1434	1448	1457	1461	1462	1460	1460	1471	1472	1481	1482	1480	1456	1442	1456	1467	1484	1493	1491	1471	1471	1474	1478	1479	1476	1470	1472	1472	1470	1459	1454	1458	1456	1448	1456	1455	1453	1444	1450	1452	1453	1449	1446	1447	1445	1442	1436	1442	1461	1475	1490	1469	1447	1437	1448	1457	1475	1488	1488	1472	1444	1438	1450	1467	1471	1468	1440	1433	1421	1412	1405	1374	1260	1187	1106	1010	930	0	0	0	0	0	0	0	0	0	0	0	0	0	0	0	0	0	1083	1087	0	0	0	0	0	1066	1093	1133	0	1219	1230	1214	1195	1178	1157	0	0	0	0	0	0	0	0	0	0	0	0	0	0	0	0	0	0	0	0	0	0	0	0	0	0	0	0	0	0	0	893	897	0	0	0	0	0	0	0	1268	1401	1420	1444	1461	1448	1436	1435	1443	1460	1472	1472	1471	1464	1461	1471	1458	1451	1453	1458	1465	1467	1463	1472	1484	1495	1501	1497	1505	1511	1515	1514	1507	1497	1486	1487	1488	1496	1491	1496	1502	1509	1513	1514	1507	1506	1510	1514	1517	1514	1506	1503	1493	1475	1477	1497	1516	1515	1505	1502	1499	1499	1493	1498	1484	1472	1468	1476	1480	1481	1483	1493	1503	1501	1498	1491	1479	1475	1472	1485	1501	1515	1520	1506	1487	1460	1444	1470	1481	1489	1486	1481	1502	1495	1485	1472	1475	1497	1510	1504	1497	1491	1488	1484	1483	1485	1492	1495	1487	1482	1481	1505	1520	1516	1506	1504	1501	1497	1491	1501	1501	1500	1498	1498	1496	1492	1490	1487	1478	1470	1458	1464	1478	1489	1506	1516	1527	1521	1505	1483	1497	1498	1494	1488	1487	1487	1484	1490	1495	1496	1498	1489	1484	1477	1471	1468	1467	1473	1464	1452	1456	1466	1477	1480	1476	0	0	0	0	0	0	0	0	0	0	0	0	0	0	0	0	0	0	779	764	761	766	770	764	760	756	760	763	762	771	775	775	779	796	809	814	813	808	800	792	783	778	779	775	772	773	786	800	810	809	799	794	784	785	797	806	797	790	784	785	785	792	795	789	786	774	780	785	779	774	771	773	778	781	789	788	787	776	777	782	798	854	881	942	1002	1110	1206	1286	1364	1378	1387	1404	1415	1427	1441	1445	1438	1421	1433	1445	1447	1452	1456	1450	1445	1462	1471	1479	1502	1500	1486	1484	1466	1464	1466	1476	1476	1474	1464	1465	1463	1461	1464	1471	1470	1471	1458	1447	1431	1412	1410	1434	1446	1446	1450	1463	1474	1490	1497	1496	1485	1483	1476	1470	1460	1452	1457	1456	1457	1460	1470	1481	1487	1492	1485	1472	1465	1466	1465	1456	1449	1454	1455	1455	1455	1455	1464	1473	1482	1483	1470	1465	1457	1457	1456	1463	1470	1489	1488	1488	1493	1482	1478	1471	1481	1488	1480	1467	1452	1451	1451	1458	1467	1464	1453	1442	1441	1455	1468	1475	1475	1478	1479	1473	1475	1465	1465	1463	1454	1442	1440	1445	1458	1457	1447	1438	1439	0	0	0	0	0	0	0
0	0	0	0	0	0	0	0	0	0	0	0	0	0	0	0	0	0	0	0	0	0	0	0	0	0	0	0	0	0	0	0	0	0	0	0	0	0	0	0	0	0	0	0	0	0	0	0	0	0	0	0	0	0	0	0	0	0	0	0	0	0	0	0	0	0	0	0	0	0	0	0	0	0	0	0	0	0	0	0	0	0	0	0	0	0	0	0	0	0	0	0	0	0	1464	1461	1457	1438	1427	1430	1442	1454	1465	1465	1461	1466	1471	1475	1478	1485	1489	1489	1475	1445	1456	1470	1487	1495	1489	1471	1464	1466	1463	1472	1469	1475	1487	1482	1480	1466	1459	1461	1454	1447	1449	1458	1463	1463	1465	1456	1451	1436	1435	1436	1442	1444	1443	1449	1463	1481	1490	1474	1451	1432	1439	1443	1463	1488	1509	1507	1478	1445	1461	1465	1458	1443	1407	1400	1381	1372	1290	1091	0	0	0	0	0	0	0	0	0	0	0	0	0	0	0	0	0	0	0	0	0	0	1066	0	0	0	0	1037	1037	1042	1058	0	0	0	0	0	1181	1163	1136	0	0	0	0	0	0	0	0	0	0	0	0	0	0	0	0	0	0	0	0	0	0	0	0	0	0	0	0	0	0	0	879	882	0	0	0	0	0	0	0	1416	1481	1479	1473	1464	1454	1444	1449	1457	1475	1492	1500	1452	1457	1459	1466	1462	1457	1458	1458	1460	1449	1458	1463	1485	1492	1491	1493	1500	1507	1513	1515	1514	1503	1495	1474	1490	1490	1490	1491	1495	1496	1506	1512	1515	1515	1517	1514	1512	1510	1508	1507	1497	1481	1468	1473	1482	1489	1492	1494	1493	1498	1506	1506	1497	1480	1461	1467	1469	1468	1478	1491	1497	1495	1488	1486	1480	1473	1478	1487	1498	1511	1508	1491	1475	1457	1444	1461	1474	1485	1485	1475	1469	1464	1470	1477	1499	1499	1499	1487	1481	1489	1494	1487	1478	1477	1484	1487	1481	1483	1489	1509	1516	1507	1499	1504	1501	1501	1506	1501	1507	1510	1506	1502	1499	1486	1476	1468	1464	1457	1458	1471	1485	1499	1510	1522	1524	1517	1486	1482	1493	1501	1498	1496	1497	1499	1498	1499	1501	1504	1505	1505	1497	1488	1481	1472	1468	1469	1454	1449	1452	1466	1476	1475	1481	1447	0	0	0	0	0	0	0	0	0	0	0	0	0	0	0	0	0	0	801	791	777	766	754	746	744	746	748	751	750	758	763	770	773	782	788	789	790	788	784	779	774	773	773	774	781	792	795	796	786	781	777	771	770	751	757	769	776	778	774	773	776	777	774	763	757	769	778	776	769	762	764	761	762	765	769	764	753	749	747	758	779	797	813	859	902	957	1013	1165	1250	1306	1359	1380	1405	1421	1436	1429	1422	1434	1441	1438	1449	1459	1467	1455	1467	1472	1487	1508	1507	1478	1465	1461	1446	1448	1458	1473	1475	1462	1456	1452	1453	1461	1467	1474	1471	1472	1461	1437	1413	1407	1417	1437	1438	1440	1451	1465	1487	1496	1498	1486	1475	1467	1460	1459	1450	1460	1458	1459	1458	1463	1472	1474	1468	1458	1458	1455	1459	1459	1448	1441	1439	1440	1450	1450	1459	1465	1471	1471	1468	1458	1453	1456	1462	1471	1475	1489	1485	1485	1482	1480	1473	1478	1482	1493	1487	1471	1456	1448	1456	1456	1463	1467	1472	1460	1452	1456	1468	1479	1478	1475	1477	1476	1477	1460	1454	1454	1443	1429	1426	1428	1441	1455	1457	1453	1448	1447	1447	0	0	0	0	0	0
0	0	0	0	0	0	0	0	0	0	0	0	0	0	0	0	0	0	0	0	0	0	0	0	0	0	0	0	0	0	0	0	0	0	0	0	0	0	0	0	0	0	0	0	0	0	0	0	0	0	0	0	0	0	0	0	0	0	0	0	0	0	0	0	0	0	0	0	0	0	0	0	0	0	0	0	0	0	0	0	0	0	0	0	0	0	0	0	0	0	0	0	0	0	1468	1459	1448	1443	1444	1447	1459	1463	1475	1478	1478	1476	1477	1478	1478	1472	1493	1497	1472	1457	1453	1476	1481	1493	1483	1462	1452	1449	1459	1465	1471	1484	1495	1502	1494	1482	1471	1469	1457	1445	1447	1463	1476	1484	1474	1460	1436	1423	1427	1432	1437	1440	1443	1455	1471	1486	1493	1490	1484	1465	1450	1448	1454	1473	1501	1504	1487	1464	1461	1446	1428	1400	1348	1299	1192	1114	0	0	0	0	0	0	0	0	0	0	0	0	0	0	0	0	0	0	0	0	0	0	0	0	0	0	0	0	1031	1035	1037	1034	0	0	0	0	0	0	1092	1082	1095	1061	0	0	0	0	0	0	0	0	0	0	0	0	0	0	0	0	0	0	0	0	0	0	0	0	0	0	0	0	0	0	873	874	0	0	0	0	0	0	1330	1488	1484	1479	1467	1461	1457	1454	1463	1477	1497	1506	1502	1459	1460	1464	1469	1472	1466	1461	1460	1457	1458	1464	1476	1481	1482	1477	1481	1491	1503	1509	1512	1519	1514	1511	1492	1471	1491	1498	1499	1491	1490	1491	1502	1512	1512	1509	1507	1504	1500	1500	1500	1493	1481	1476	1479	1490	1497	1497	1495	1491	1494	1504	1503	1500	1489	1471	1468	1472	1475	1482	1490	1486	1481	1479	1481	1478	1472	1477	1492	1502	1516	1510	1489	1465	1454	1456	1464	1477	1480	1483	1472	1457	1457	1468	1485	1488	1488	1479	1473	1468	1487	1494	1490	1470	1467	1473	1478	1479	1490	1487	1506	1504	1500	1489	1493	1498	1503	1509	1514	1514	1514	1511	1510	1497	1483	1463	1463	1456	1458	1456	1468	1479	1492	1502	1512	1500	1489	1463	1470	1492	1507	1513	1515	1519	1516	1513	1501	1499	1490	1504	1504	1498	1491	1482	1470	1469	1470	1461	1460	1464	1465	1474	1471	1471	1476	0	0	0	0	0	0	0	0	0	0	0	0	0	0	0	0	0	0	0	831	800	767	748	736	732	732	729	727	731	738	756	757	758	759	764	766	774	782	786	782	775	775	771	779	786	793	789	777	758	763	742	740	734	733	731	732	748	757	761	759	757	751	743	736	743	756	760	762	760	756	747	747	751	755	750	741	731	721	719	729	744	751	768	792	812	848	883	956	1047	1137	1222	1292	1340	1381	1410	1422	1426	1432	1439	1440	1458	1474	1479	1476	1468	1464	1478	1493	1489	1475	1458	1453	1430	1438	1452	1467	1466	1456	1453	1445	1450	1459	1465	1474	1471	1474	1470	1450	1416	1404	1407	1428	1438	1437	1437	1448	1478	1497	1502	1490	1475	1465	1457	1461	1468	1473	1472	1465	1461	1456	1456	1463	1458	1453	1449	1447	1446	1454	1451	1445	1436	1433	1443	1451	1459	1469	1474	1464	1451	1440	1436	1447	1457	1474	1487	1494	1488	1473	1464	1460	1462	1483	1499	1503	1491	1469	1450	1451	1451	1456	1460	1464	1468	1473	1473	1476	1484	1479	1478	1481	1484	1482	1480	1465	1464	1447	1430	1422	1418	1428	1453	1461	1478	1480	1482	1475	1475	0	0	0	0	0	0
0	0	0	0	0	0	0	0	0	0	0	0	0	0	0	0	0	0	0	0	0	0	0	0	0	0	0	0	0	0	0	0	0	0	0	0	0	0	0	0	0	0	0	0	0	0	0	0	0	0	0	0	0	0	0	0	0	0	0	0	0	0	0	0	0	0	0	0	0	0	0	0	0	0	0	0	0	0	0	0	0	0	0	0	0	0	0	0	0	0	0	0	0	0	1467	1464	1456	1462	1457	1461	1468	1479	1495	1494	1490	1485	1480	1478	1473	1477	1478	1480	1478	1471	1464	1464	1467	1466	1465	1453	1450	1460	1466	1474	1481	1492	1502	1507	1502	1490	1477	1469	1469	1456	1451	1468	1484	1493	1488	1462	1438	1424	1429	1440	1441	1438	1444	1462	1477	1489	1492	1483	1488	1489	1475	1462	1461	1468	1485	1476	1464	1441	1433	1419	1394	1361	1183	0	0	0	0	0	0	0	0	0	0	0	0	0	0	0	0	0	0	0	0	0	0	0	0	0	0	0	0	0	0	0	1026	1038	1043	1031	0	0	0	0	0	1043	1057	1055	1056	1035	0	0	0	0	0	0	0	0	0	0	0	0	0	0	0	0	0	0	0	0	0	0	0	0	0	0	0	0	0	0	872	877	0	0	0	0	0	1341	1494	1487	1479	1469	1454	1444	1453	1471	1483	1493	1501	1507	1495	1488	1468	1451	1443	1452	1469	1481	1478	1477	1475	1483	1489	1494	1490	1482	1471	1469	1476	1484	1490	1495	1504	1523	1531	1492	1487	1507	1522	1495	1484	1487	1485	1485	1494	1498	1496	1497	1499	1495	1488	1489	1487	1488	1497	1500	1503	1499	1497	1487	1491	1495	1497	1492	1487	1474	1469	1481	1488	1492	1488	1479	1462	1463	1470	1471	1472	1482	1501	1525	1524	1514	1491	1468	1460	1461	1470	1477	1478	1481	1470	1456	1454	1468	1479	1482	1474	1470	1468	1480	1486	1495	1489	1474	1463	1462	1469	1484	1490	1504	1508	1506	1490	1480	1473	1485	1495	1510	1521	1520	1512	1511	1504	1496	1479	1473	1472	1472	1464	1458	1462	1465	1479	1491	1495	1496	1485	1462	1473	1492	1511	1521	1526	1532	1530	1513	1496	1481	1476	1487	1492	1492	1483	1477	1465	1465	1472	1476	1475	1462	1469	1469	1464	1467	1477	1473	0	0	0	0	0	0	0	0	0	0	0	0	0	0	0	0	0	0	0	819	784	755	734	728	720	717	716	717	728	747	746	742	742	747	753	762	776	783	780	770	762	759	763	777	788	777	757	726	726	725	723	726	729	726	722	721	725	729	737	729	722	719	714	730	740	744	745	740	739	739	739	741	748	740	731	718	702	701	711	732	738	747	754	762	775	796	837	886	953	1058	1162	1254	1305	1344	1392	1417	1429	1436	1450	1470	1483	1482	1474	1460	1459	1468	1478	1476	1466	1455	1443	1433	1430	1440	1450	1455	1450	1445	1439	1436	1458	1469	1471	1473	1472	1479	1462	1430	1409	1409	1421	1430	1436	1435	1438	1466	1496	1507	1497	1479	1463	1460	1473	1482	1487	1482	1478	1471	1470	1458	1459	1460	1451	1437	1437	1433	1441	1445	1452	1436	1439	1442	1454	1462	1475	1478	1462	1448	1422	1422	1439	1457	1477	1489	1488	1474	1463	1450	1446	1459	1507	1508	1495	1483	1475	1455	1448	1448	1455	1459	1455	1456	1468	1481	1475	1464	1459	1460	1465	1475	1481	1475	1466	1457	1457	1440	1427	1439	1444	1455	1464	1472	1475	1468	1464	1464	0	0	0	0	0	0
0	0	0	0	0	0	0	0	0	0	0	0	0	0	0	0	0	0	0	0	0	0	0	0	0	0	0	0	0	0	0	0	0	0	0	0	0	0	0	0	0	0	0	0	0	0	0	0	0	0	0	0	0	0	0	0	0	0	0	0	0	0	0	0	0	0	0	0	0	0	0	0	0	0	0	0	0	0	0	0	0	0	0	0	0	0	0	0	0	0	0	0	0	0	1471	1470	1471	1467	1469	1467	1477	1484	1496	1497	1494	1491	1483	1477	1474	1477	1483	1454	1450	1448	1459	1442	1443	1447	1457	1456	1459	1465	1476	1480	1486	1493	1503	1501	1495	1482	1475	1477	1476	1462	1464	1473	1493	1499	1489	1468	1443	1431	1445	1454	1450	1442	1446	1460	1478	1487	1492	1492	1499	1502	1490	1477	1470	1477	1472	1456	1426	1405	1382	1241	1161	1070	0	0	0	0	0	0	0	0	0	0	0	0	0	0	0	0	0	0	0	0	0	0	0	0	0	0	0	0	0	0	0	0	0	1026	1031	1027	0	0	0	0	1018	1032	1047	1061	1067	1068	0	0	0	0	0	0	0	0	0	0	0	0	0	0	0	0	0	0	0	0	0	0	0	0	0	0	0	0	0	0	874	879	0	0	0	0	1332	1492	1496	1484	1470	1459	1451	1450	1458	1477	1482	1485	1493	1492	1490	1484	1472	1461	1453	1461	1474	1488	1485	1484	1483	1485	1486	1490	1491	1486	1479	1483	1482	1490	1492	1498	1502	1517	1531	1516	1490	1510	1523	1520	1514	1492	1474	1456	1450	1460	1484	1493	1488	1482	1483	1492	1498	1502	1507	1510	1505	1495	1492	1492	1505	1505	1508	1498	1484	1467	1464	1493	1506	1506	1493	1483	1469	1456	1457	1465	1478	1494	1518	1537	1534	1525	1499	1482	1470	1471	1476	1484	1483	1480	1471	1455	1453	1461	1471	1469	1466	1471	1482	1486	1492	1495	1496	1475	1464	1461	1477	1489	1504	1517	1515	1502	1483	1472	1467	1472	1485	1510	1519	1511	1508	1505	1491	1485	1488	1485	1489	1486	1479	1468	1489	1464	1475	1495	1504	1498	1474	1471	1478	1492	1499	1505	1516	1524	1520	1506	1480	1464	1464	1472	1474	1475	1471	1466	1461	1463	1478	1492	1490	1471	1462	1466	1456	1467	1475	1491	1528	0	0	0	0	0	0	0	0	0	0	0	0	0	0	0	0	0	0	829	813	796	758	736	720	715	712	718	725	741	742	736	731	733	740	749	758	765	764	757	746	742	745	757	745	738	725	713	716	708	711	715	725	725	713	704	702	702	703	697	702	694	695	719	726	728	724	721	722	727	730	736	737	735	725	707	692	688	717	728	734	740	739	736	735	742	760	786	832	880	940	1016	1128	1218	1262	1305	1359	1400	1431	1452	1453	1470	1467	1464	1458	1457	1468	1463	1458	1448	1441	1427	1427	1427	1435	1443	1432	1441	1442	1454	1464	1469	1469	1485	1489	1489	1479	1457	1466	1462	1450	1446	1435	1435	1433	1451	1477	1500	1500	1479	1469	1465	1479	1488	1486	1481	1478	1480	1506	1512	1479	1463	1443	1427	1424	1427	1433	1446	1457	1453	1448	1454	1467	1469	1472	1469	1468	1452	1441	1443	1460	1474	1485	1485	1476	1462	1463	1468	1495	1513	1516	1500	1478	1471	1460	1453	1456	1456	1457	1455	1454	1453	1452	1447	1454	1454	1448	1451	1464	1474	1475	1465	1448	1448	1454	1460	1476	1450	1449	1451	1454	1467	1470	1462	1447	1447	0	0	0	0	0	0
0	0	0	0	0	0	0	0	0	0	0	0	0	0	0	0	0	0	0	0	0	0	0	0	0	0	0	0	0	0	0	0	0	0	0	0	0	0	0	0	0	0	0	0	0	0	0	0	0	0	0	0	0	0	0	0	0	0	0	0	0	0	0	0	0	0	0	0	0	0	0	0	0	0	0	0	0	0	0	0	0	0	0	0	0	0	0	0	0	0	0	0	0	0	1469	1475	1468	1480	1474	1468	1468	1483	1486	1490	1491	1496	1488	1478	1473	1477	1494	1473	1440	1449	1444	1438	1435	1442	1450	1465	1468	1469	1478	1486	1489	1487	1490	1485	1475	1467	1476	1478	1482	1474	1471	1479	1489	1487	1486	1465	1445	1437	1447	1463	1467	1462	1454	1463	1478	1497	1488	1496	1501	1507	1496	1488	1478	1471	1422	1369	1366	1332	1135	0	0	0	0	0	0	0	0	0	0	0	0	0	0	0	0	0	0	0	0	0	0	0	0	0	0	0	0	0	0	0	0	0	0	0	0	0	1007	0	0	0	0	0	0	0	0	0	0	0	0	0	0	0	0	0	0	0	0	0	0	0	0	0	0	0	0	0	0	0	0	0	0	0	0	0	0	0	0	891	879	895	944	0	0	1273	1474	1479	1480	1480	1464	1460	1457	1460	1473	1481	1484	1484	1481	1481	1490	1491	1479	1467	1459	1470	1486	1492	1496	1496	1495	1484	1495	1496	1493	1497	1495	1490	1488	1484	1494	1496	1507	1519	1527	1525	1497	1505	1526	1520	1516	1500	1478	1455	1449	1452	1478	1485	1483	1483	1487	1500	1506	1510	1505	1500	1502	1496	1498	1507	1520	1528	1527	1511	1487	1468	1466	1506	1526	1525	1513	1494	1482	1460	1465	1466	1481	1496	1529	1538	1533	1525	1515	1496	1482	1486	1490	1495	1488	1478	1466	1454	1454	1457	1464	1454	1465	1472	1478	1481	1491	1496	1497	1490	1472	1473	1493	1503	1514	1511	1508	1492	1479	1478	1467	1467	1480	1500	1515	1512	1501	1485	1470	1474	1485	1496	1506	1507	1532	1496	1475	1466	1479	1490	1495	1497	1505	1512	1505	1483	1471	1463	1473	1483	1492	1488	1484	1479	1468	1453	1454	1458	1462	1465	1476	1490	1501	1509	1501	1482	1461	1466	1466	1474	1489	1505	1510	0	0	0	0	0	0	0	0	0	0	0	0	0	0	0	0	0	0	0	836	829	804	766	737	721	719	718	728	738	736	722	719	720	728	738	744	751	748	739	731	725	721	729	730	727	716	704	701	698	693	703	711	709	696	690	687	684	682	681	688	692	692	704	707	707	706	705	709	716	722	727	724	721	715	700	684	683	709	720	725	727	726	725	726	725	728	728	746	749	758	786	819	884	1054	1121	1181	1257	1323	1376	1398	1430	1467	1461	1440	1420	1416	1421	1442	1450	1458	1440	1423	1426	1429	1426	1433	1447	1482	1499	1502	1502	1510	1506	1486	1474	1471	1467	1476	1478	1484	1503	1471	1445	1429	1433	1462	1485	1499	1485	1458	1454	1459	1467	1463	1465	1469	1494	1516	1523	1502	1473	1450	1430	1417	1417	1431	1448	1457	1462	1467	1469	1463	1471	1466	1468	1468	1455	1448	1450	1470	1483	1488	1485	1475	1470	1469	1479	1504	1515	1508	1482	1467	1460	1450	1448	1448	1451	1451	1449	1455	1460	1454	1445	1446	1454	1458	1459	1464	1469	1468	1454	1441	1441	1443	1469	1489	1498	1474	1463	1455	1462	1470	1468	1442	1442	0	0	0	0	0	0
0	0	0	0	0	0	0	0	0	0	0	0	0	0	0	0	0	0	0	0	0	0	0	0	0	0	0	0	0	0	0	0	0	0	0	0	0	0	0	0	0	0	0	0	0	0	0	0	0	0	0	0	0	0	0	0	0	0	0	0	0	0	0	0	0	0	0	0	0	0	0	0	0	0	0	0	0	0	0	0	0	0	0	0	0	0	0	0	0	0	0	0	0	0	1472	1480	1497	1498	1478	1454	1425	1456	1469	1485	1494	1500	1494	1486	1472	1465	1498	1499	1480	1468	1455	1444	1433	1437	1456	1466	1465	1461	1468	1476	1478	1478	1475	1460	1456	1455	1477	1485	1493	1483	1478	1482	1483	1478	1472	1456	1432	1421	1441	1461	1477	1478	1468	1471	1478	1490	1494	1494	1498	1500	1492	1479	1447	1405	1231	1075	0	0	0	0	0	0	0	0	0	0	0	0	0	0	0	0	0	0	0	0	0	0	0	0	0	0	0	0	0	0	0	0	0	0	0	0	0	0	0	0	0	0	0	0	0	0	0	0	0	0	0	0	0	0	0	0	0	0	0	0	0	0	0	0	0	0	0	0	0	0	0	0	0	0	0	0	0	0	0	0	0	900	905	919	970	1043	1195	1439	1460	1468	1459	1457	1456	1458	1468	1481	1488	1496	1485	1471	1466	1468	1468	1476	1485	1489	1484	1486	1492	1494	1491	1482	1488	1506	1522	1533	1527	1514	1497	1492	1498	1507	1500	1506	1504	1489	1496	1509	1497	1485	1495	1494	1490	1490	1495	1494	1489	1483	1475	1478	1474	1488	1516	1528	1527	1506	1496	1488	1480	1486	1493	1512	1526	1535	1534	1524	1501	1490	1499	1518	1537	1539	1525	1503	1484	1475	1473	1482	1494	1506	1505	1499	1495	1492	1490	1485	1483	1487	1498	1501	1490	1482	1467	1450	1446	1454	1452	1484	1495	1492	1476	1478	1478	1486	1495	1511	1517	1531	1525	1521	1503	1496	1490	1496	1506	1511	1497	1490	1496	1502	1503	1491	1483	1467	1451	1435	1452	1496	1538	1549	1525	1494	1467	1470	1479	1485	1487	1493	1512	1518	1509	1480	1464	1453	1460	1479	1489	1496	1499	1508	1510	1506	1499	1490	1473	1467	1469	1488	1507	1515	1499	1481	1462	1469	1477	1488	1506	1499	1489	0	0	0	0	0	0	0	0	0	0	0	0	0	0	0	0	0	0	0	0	0	0	0	762	735	718	718	723	726	721	709	706	707	716	730	737	743	736	727	713	714	716	722	722	715	703	699	693	680	676	686	690	686	681	676	676	681	679	678	682	690	696	690	690	688	690	692	696	706	710	706	705	707	702	693	681	681	699	706	714	713	714	714	714	720	716	709	702	700	702	710	720	759	887	954	1047	1130	1206	1272	1323	1376	1447	1450	1425	1404	1396	1407	1434	1451	1466	1447	1437	1433	1426	1423	1431	1453	1481	1495	1488	1490	1495	1499	1473	1452	1453	1460	1471	1475	1488	1508	1481	1461	1438	1430	1437	1464	1482	1475	1446	1442	1449	1457	1463	1459	1470	1491	1512	1512	1505	1483	1461	1446	1432	1434	1439	1459	1467	1470	1467	1461	1456	1456	1461	1470	1466	1456	1455	1463	1466	1480	1482	1487	1485	1475	1465	1468	1483	1494	1488	1465	1458	1460	1456	1439	1439	1427	1429	1435	1456	1459	1452	1442	1448	1468	1488	1489	1474	1456	1442	1428	1426	1426	1432	1452	1489	1509	1509	1488	1472	1469	1477	1474	1474	1456	0	0	0	0	0	0
0	0	0	0	0	0	0	0	0	0	0	0	0	0	0	0	0	0	0	0	0	0	0	0	0	0	0	0	0	0	0	0	0	0	0	0	0	0	0	0	0	0	0	0	0	0	0	0	0	0	0	0	0	0	0	0	0	0	0	0	0	0	0	0	0	0	0	0	0	0	0	0	0	0	0	0	0	0	0	0	0	0	0	0	0	0	0	0	0	0	0	0	0	0	1476	1490	1507	1495	1470	1425	1417	1432	1450	1476	1493	1503	1508	1486	1466	1461	1486	1494	1492	1485	1476	1467	1450	1449	1452	1464	1466	1461	1459	1460	1467	1465	1461	1442	1443	1447	1469	1479	1489	1480	1480	1477	1474	1467	1459	1443	1417	1409	1422	1459	1476	1483	1478	1477	1476	1487	1483	1488	1484	1470	1432	1392	1243	1179	0	0	0	0	0	0	0	0	0	0	0	0	0	0	0	0	0	0	0	0	0	0	0	0	0	0	0	0	0	0	0	0	0	0	0	0	0	0	0	0	0	0	0	0	0	0	0	0	0	0	0	0	0	0	0	0	0	0	0	0	0	0	0	0	0	0	0	0	0	0	0	0	0	0	0	0	0	0	0	0	0	0	0	919	933	959	1014	1183	1402	1451	1454	1457	1458	1461	1455	1435	1446	1463	1481	1481	1472	1462	1459	1462	1461	1465	1466	1468	1463	1474	1483	1490	1480	1470	1480	1497	1510	1511	1498	1490	1487	1487	1493	1502	1507	1505	1501	1488	1499	1513	1509	1487	1487	1483	1483	1485	1494	1496	1504	1509	1497	1492	1483	1485	1511	1523	1529	1528	1501	1471	1445	1446	1467	1488	1495	1495	1496	1495	1495	1485	1487	1497	1507	1502	1489	1482	1468	1464	1472	1482	1496	1504	1494	1480	1471	1467	1461	1465	1471	1486	1493	1498	1491	1483	1470	1456	1454	1466	1484	1490	1502	1497	1490	1487	1484	1483	1494	1505	1512	1513	1514	1506	1494	1478	1478	1494	1517	1521	1511	1504	1500	1498	1487	1481	1483	1466	1452	1469	1486	1517	1554	1557	1536	1494	1490	1488	1487	1485	1484	1490	1507	1516	1514	1487	1470	1463	1468	1484	1498	1504	1515	1524	1534	1528	1517	1504	1479	1467	1467	1484	1505	1510	1488	1479	1483	1484	1496	1507	1512	1494	1484	1470	0	0	0	0	0	0	0	0	0	0	0	0	0	0	0	0	0	0	0	0	0	0	0	744	713	709	705	697	693	691	687	690	700	719	731	734	716	706	705	703	708	710	710	704	695	696	691	679	672	674	674	672	668	671	674	675	673	671	674	680	695	684	683	686	682	684	689	696	695	692	686	689	682	681	673	676	690	691	699	696	699	703	709	706	709	699	691	683	682	685	682	689	768	824	872	929	995	1073	1193	1274	1315	1367	1387	1397	1399	1411	1427	1460	1470	1462	1444	1443	1435	1435	1442	1463	1477	1477	1465	1449	1457	1451	1443	1437	1442	1443	1458	1477	1493	1498	1494	1473	1454	1423	1421	1416	1433	1442	1439	1446	1456	1465	1469	1460	1469	1481	1484	1480	1476	1484	1490	1482	1476	1474	1483	1483	1471	1469	1464	1462	1457	1452	1458	1456	1455	1458	1462	1465	1472	1483	1490	1490	1478	1466	1457	1464	1479	1474	1464	1457	1453	1462	1460	1439	1439	1427	1433	1444	1463	1460	1444	1435	1437	1456	1483	1489	1478	1455	1440	1427	1432	1432	1438	1465	1494	1504	1504	1489	1479	1471	1477	1479	1479	1464	0	0	0	0	0	0
0	0	0	0	0	0	0	0	0	0	0	0	0	0	0	0	0	0	0	0	0	0	0	0	0	0	0	0	0	0	0	0	0	0	0	0	0	0	0	0	0	0	0	0	0	0	0	0	0	0	0	0	0	0	0	0	0	0	0	0	0	0	0	0	0	0	0	0	0	0	0	0	0	0	0	0	0	0	0	0	0	0	0	0	0	0	0	0	0	0	0	0	0	0	1487	1495	1496	1482	1459	1419	1417	1434	1453	1473	1492	1509	1503	1481	1459	1450	1468	1477	1477	1473	1472	1470	1461	1453	1455	1468	1473	1468	1465	1456	1460	1462	1454	1447	1438	1444	1454	1464	1480	1472	1468	1465	1455	1450	1452	1437	1420	1410	1430	1458	1483	1484	1475	1466	1468	1466	1463	1407	0	0	0	0	0	0	0	0	0	0	0	0	0	0	0	0	0	0	0	0	0	0	0	0	0	0	0	0	0	0	0	0	0	0	0	0	0	0	0	0	0	0	0	0	0	0	0	0	0	0	0	0	0	0	0	0	0	0	0	0	0	0	0	0	0	0	0	0	0	0	0	0	0	0	0	0	0	0	0	0	0	0	0	0	0	0	0	0	0	935	967	1022	1185	1340	1444	1462	1462	1459	1462	1458	1455	1433	1443	1462	1482	1476	1460	1452	1449	1456	1460	1462	1458	1456	1457	1458	1471	1477	1473	1457	1457	1471	1487	1481	1470	1469	1472	1484	1489	1497	1502	1510	1509	1519	1537	1548	1546	1545	1510	1484	1477	1481	1490	1501	1515	1523	1527	1524	1534	1535	1525	1510	1526	1521	1498	1471	1447	1450	1472	1490	1499	1499	1501	1497	1495	1478	1481	1484	1498	1497	1489	1476	1470	1468	1473	1483	1499	1502	1494	1473	1465	1456	1451	1454	1478	1500	1496	1488	1477	1484	1496	1488	1481	1489	1500	1504	1511	1515	1509	1504	1498	1494	1496	1504	1507	1496	1501	1503	1487	1477	1478	1499	1520	1525	1526	1515	1510	1498	1480	1476	1477	1485	1488	1498	1498	1506	1522	1519	1504	1489	1486	1498	1498	1497	1486	1492	1504	1511	1508	1502	1499	1506	1525	1533	1536	1526	1522	1536	1537	1541	1527	1507	1475	1470	1477	1478	1482	1487	1477	1482	1494	1504	1516	1518	1509	1495	1481	1468	1446	0	0	0	0	0	0	0	0	0	0	0	0	0	0	0	0	0	0	0	0	0	0	760	714	696	685	681	672	676	681	682	700	692	693	692	692	689	691	693	694	702	705	701	691	693	691	682	676	670	666	663	663	668	668	667	664	662	663	674	692	693	688	686	677	675	674	682	681	677	674	669	668	666	665	669	672	669	663	662	672	686	693	689	697	690	684	677	672	669	659	657	683	734	780	825	876	927	996	1058	1137	1223	1282	1335	1365	1393	1415	1446	1468	1467	1468	1468	1464	1468	1472	1482	1484	1478	1453	1432	1430	1430	1432	1435	1437	1446	1460	1478	1497	1507	1505	1487	1462	1439	1430	1430	1442	1448	1459	1466	1478	1479	1473	1469	1471	1475	1482	1474	1475	1482	1497	1496	1502	1499	1482	1468	1468	1462	1465	1463	1459	1457	1456	1457	1457	1459	1459	1464	1473	1485	1486	1487	1472	1466	1461	1468	1477	1475	1462	1452	1449	1464	1451	1451	1438	1426	1428	1451	1459	1457	1443	1430	1431	1453	1474	1489	1487	1474	1452	1435	1435	1437	1457	1479	1498	1503	1495	1482	1475	1468	1468	1474	1474	1473	0	0	0	0	0	0
0	0	0	0	0	0	0	0	0	0	0	0	0	0	0	0	0	0	0	0	0	0	0	0	0	0	0	0	0	0	0	0	0	0	0	0	0	0	0	0	0	0	0	0	0	0	0	0	0	0	0	0	0	0	0	0	0	0	0	0	0	0	0	0	0	0	0	0	0	0	0	0	0	0	0	0	0	0	0	0	0	0	0	0	0	0	0	0	0	0	0	0	0	0	1494	1485	1485	1482	1476	1448	1447	1455	1472	1481	1497	1499	1494	1474	1460	1453	1444	1442	1446	1455	1465	1469	1473	1465	1473	1485	1502	1508	1496	1478	1473	1449	1437	1423	1430	1450	1453	1457	1469	1468	1444	1442	1449	1452	1453	1459	1443	1434	1449	1465	1483	1471	1458	1441	1437	1412	1381	0	0	0	0	0	0	0	0	0	0	0	0	0	0	0	0	0	0	0	0	0	0	0	0	0	0	0	0	0	0	0	0	0	0	0	0	0	0	0	0	0	0	0	0	0	0	0	0	0	0	0	0	0	0	0	0	0	0	0	0	0	0	0	0	0	0	0	0	0	0	0	0	0	0	0	0	0	0	0	0	0	0	0	0	0	0	0	0	0	0	957	1031	1175	1425	1448	1478	1491	1490	1476	1467	1456	1468	1492	1494	1489	1474	1458	1441	1442	1453	1455	1455	1465	1470	1473	1468	1467	1466	1455	1440	1430	1433	1440	1451	1459	1467	1468	1477	1480	1482	1492	1503	1515	1516	1527	1536	1542	1538	1537	1524	1521	1515	1503	1492	1485	1509	1524	1532	1531	1534	1535	1520	1496	1479	1464	1462	1468	1474	1484	1502	1504	1503	1498	1489	1484	1480	1483	1496	1494	1496	1481	1476	1479	1487	1485	1470	1463	1475	1487	1491	1487	1470	1463	1464	1479	1496	1501	1497	1486	1477	1497	1503	1504	1491	1498	1526	1536	1537	1523	1504	1497	1500	1505	1511	1507	1503	1500	1505	1513	1511	1502	1498	1504	1518	1522	1519	1525	1518	1509	1480	1473	1474	1481	1491	1505	1509	1503	1505	1498	1484	1477	1473	1486	1500	1496	1485	1489	1509	1508	1498	1496	1500	1520	1535	1539	1542	1524	1521	1524	1534	1535	1521	1501	1483	1473	1474	1468	1461	1454	1467	1480	1499	1509	1513	1505	1496	1478	1460	1474	1463	1430	0	0	0	0	0	0	0	0	0	0	0	0	0	0	0	0	0	0	0	0	0	0	762	693	679	672	664	658	667	665	671	674	674	673	673	677	679	680	688	697	704	704	687	689	688	689	677	671	661	658	653	655	660	658	650	652	655	664	688	687	685	677	664	660	659	669	670	666	663	662	658	651	654	659	650	643	639	645	650	662	669	678	678	681	680	675	667	656	645	636	649	672	707	725	762	812	864	924	1010	1099	1178	1236	1295	1349	1400	1435	1464	1463	1475	1477	1475	1478	1482	1497	1493	1481	1455	1422	1418	1422	1431	1444	1438	1442	1456	1473	1495	1515	1517	1491	1464	1440	1427	1432	1442	1461	1465	1468	1472	1481	1474	1470	1471	1478	1473	1473	1475	1480	1498	1499	1495	1493	1473	1464	1465	1462	1459	1462	1464	1462	1461	1491	1489	1477	1469	1462	1474	1488	1487	1481	1470	1462	1470	1484	1479	1477	1463	1457	1457	1459	1442	1442	1421	1420	1437	1463	1483	1471	1461	1438	1430	1446	1467	1500	1502	1491	1462	1417	1417	1404	1424	1460	0	0	0	0	0	1468	1468	1472	1472	1475	0	0	0	0	0	0
0	0	0	0	0	0	0	0	0	0	0	0	0	0	0	0	0	0	0	0	0	0	0	0	0	0	0	0	0	0	0	0	0	0	0	0	0	0	0	0	0	0	0	0	0	0	0	0	0	0	0	0	0	0	0	0	0	0	0	0	0	0	0	0	0	0	0	0	0	0	0	0	0	0	0	0	0	0	0	0	0	0	0	0	0	0	0	0	0	0	0	0	0	0	1481	1471	1483	1481	1475	1468	1469	1475	1487	1494	1497	1487	1480	1480	1473	1465	1449	1434	1439	1444	1464	1477	1474	1468	1478	1490	1503	1503	1503	1482	1474	1450	1436	1427	1442	1450	1457	1469	1483	1469	1445	1442	1449	1459	1459	1468	1474	1472	1460	1426	1389	1368	1363	1237	0	0	0	0	0	0	0	0	0	0	0	0	0	0	0	0	0	0	0	0	0	0	0	0	0	0	0	0	0	0	0	0	0	0	0	0	0	0	0	0	0	0	0	0	0	0	0	0	0	0	0	0	0	0	0	0	0	0	0	0	0	0	0	0	0	0	0	0	0	0	0	0	0	0	0	0	0	0	0	0	0	0	0	0	0	0	0	0	0	0	0	0	967	1022	1217	1406	1438	1470	1485	1496	1486	1470	1458	1455	1464	1477	1496	1488	1473	1454	1442	1441	1444	1450	1460	1469	1475	1471	1469	1461	1458	1453	1440	1432	1440	1446	1457	1468	1472	1472	1473	1474	1480	1494	1515	1525	1527	1521	1531	1526	1524	1523	1522	1516	1506	1499	1490	1481	1501	1515	1521	1514	1526	1522	1506	1481	1460	1457	1462	1479	1500	1521	1531	1517	1506	1492	1484	1480	1486	1489	1497	1495	1489	1472	1465	1474	1488	1479	1468	1453	1459	1483	1494	1492	1482	1469	1466	1478	1496	1502	1496	1478	1468	1488	1484	1497	1499	1529	1521	1518	1508	1499	1495	1495	1499	1504	1506	1499	1495	1497	1510	1514	1512	1508	1500	1494	1499	1495	1510	1534	1538	1520	1482	1467	1473	1482	1502	1521	1521	1503	1490	1485	1475	1463	1460	1481	1497	1503	1508	1496	1509	1506	1486	1489	1507	1519	1537	1548	1547	1528	1512	1511	1518	1518	1510	1498	1485	1472	1471	1467	1451	1451	1492	1510	1512	1514	1513	1498	1481	1464	1471	1474	1458	1427	0	0	0	0	0	0	0	0	0	0	0	0	0	0	0	0	0	0	0	0	0	0	0	705	681	667	653	657	658	658	658	661	659	658	662	667	673	677	679	692	702	690	678	679	679	683	683	678	665	651	645	647	648	641	640	639	643	653	674	673	674	667	656	647	642	653	659	656	657	661	655	649	648	650	641	636	631	631	632	639	648	657	669	668	669	659	653	652	644	632	648	668	681	692	697	716	750	800	877	968	1033	1081	1119	1191	1297	1346	1427	1445	1454	1467	1468	1478	1486	1487	1494	1477	1454	1422	1401	1399	1409	1412	1425	1426	1440	1467	1491	1514	1520	1473	1437	1413	1404	1402	1425	1449	1454	1449	1445	1446	1447	1448	1443	1453	1459	1487	1509	1516	1505	1471	1424	1404	1405	1423	1448	1468	1467	1463	1460	1470	0	0	0	0	0	0	0	0	0	0	0	0	0	0	0	0	0	0	0	0	0	0	0	0	0	0	0	0	0	0	0	0	0	0	0	0	0	0	0	0	0	0	0	0	0	0	0	0	0	0	0	0	0	0	0	0	0	0
0	0	0	0	0	0	0	0	0	0	0	0	0	0	0	0	0	0	0	0	0	0	0	0	0	0	0	0	0	0	0	0	0	0	0	0	0	0	0	0	0	0	0	0	0	0	0	0	0	0	0	0	0	0	0	0	0	0	0	0	0	0	0	0	0	0	0	0	0	0	0	0	0	0	0	0	0	0	0	0	0	0	0	0	0	0	0	0	0	0	0	0	0	1482	1458	1468	1484	1480	1478	1479	1481	1489	1496	1498	1497	1493	1483	1483	1484	1475	1454	1433	1445	1447	1463	1479	1468	1465	1468	1472	1486	1493	1491	1483	1465	1444	1436	1448	1456	1460	1463	1480	1486	1472	1454	1449	1445	1434	1443	1448	1468	1465	1442	1406	1300	1218	0	0	0	0	0	0	0	0	0	0	0	0	0	0	0	0	0	0	0	0	0	0	0	0	0	0	0	0	0	0	0	0	0	0	0	0	0	0	0	0	0	0	0	0	0	0	0	0	0	0	0	0	0	0	0	0	0	0	0	0	0	0	0	0	0	0	0	0	0	0	0	0	0	0	0	0	0	0	0	0	0	0	0	0	0	0	0	0	0	0	0	0	0	0	1037	1180	1394	1417	1442	1469	1489	1496	1486	1471	1454	1445	1456	1475	1501	1498	1478	1454	1440	1437	1441	1447	1459	1470	1472	1468	1459	1454	1450	1446	1439	1437	1444	1456	1469	1490	1492	1474	1468	1473	1486	1508	1524	1527	1535	1532	1524	1510	1501	1495	1497	1504	1503	1493	1479	1484	1510	1513	1496	1479	1481	1479	1484	1471	1465	1460	1467	1487	1515	1533	1533	1524	1517	1503	1501	1490	1498	1506	1498	1489	1477	1464	1461	1472	1484	1483	1466	1456	1460	1482	1487	1490	1479	1470	1469	1479	1494	1505	1497	1480	1460	1483	1497	1497	1500	1525	1527	1512	1505	1495	1488	1497	1503	1501	1499	1497	1495	1498	1507	1506	1501	1391	1398	1411	1433	1450	1475	1479	1478	1449	1447	1455	1470	1488	1495	1500	1494	1495	1490	1472	1444	1403	1385	1387	1464	0	1531	1507	1489	1457	1446	1430	1423	1424	1443	1475	1483	1463	1456	1446	1445	1449	1443	1446	1461	1493	1501	1487	1481	1490	1506	1521	1519	1507	1513	1515	1505	1490	1464	1441	1432	1421	0	0	0	0	0	0	0	0	0	0	0	0	0	0	0	0	0	0	0	0	0	0	0	0	697	703	684	672	659	657	659	657	656	655	658	669	675	679	686	690	693	679	673	671	671	682	688	683	667	654	644	641	638	633	630	630	633	639	649	655	662	660	651	641	638	644	644	644	647	653	651	645	643	650	645	635	629	620	613	613	624	638	652	655	650	640	639	640	635	632	650	667	674	673	670	670	676	704	707	741	786	836	883	957	949	0	0	0	0	0	0	0	0	0	0	0	0	0	0	0	0	0	0	0	0	0	0	0	0	0	0	0	0	0	0	0	0	0	0	0	0	0	0	0	0	0	0	0	0	0	0	0	0	0	0	0	0	0	0	0	0	0	0	0	0	0	0	0	0	0	0	0	0	0	0	0	0	0	0	0	0	0	0	0	0	0	0	0	0	0	0	0	0	0	0	0	0	0	0	0	0	0	0	0	0	0	0	0	0	0	0	0	0	0	0	0	0	0
0	0	0	0	0	0	0	0	0	0	0	0	0	0	0	0	0	0	0	0	0	0	0	0	0	0	0	0	0	0	0	0	0	0	0	0	0	0	0	0	0	0	0	0	0	0	0	0	0	0	0	0	0	0	0	0	0	0	0	0	0	0	0	0	0	0	0	0	0	0	0	0	0	0	0	0	0	0	0	0	0	0	0	0	0	0	0	0	0	0	0	0	0	1499	1470	1469	1483	1480	1472	1471	1482	1497	1515	1513	1503	1491	1483	1487	1491	1484	1459	1447	1453	1467	1474	1474	1466	1460	1459	1462	1470	1479	1483	1470	1446	1420	1410	1417	1437	1452	1456	1463	1470	1437	1415	1414	1421	1414	1415	1429	1422	1370	1293	0	0	0	0	0	0	0	0	0	0	0	0	0	0	0	0	0	0	0	0	0	0	0	0	0	0	0	0	0	0	0	0	0	0	0	0	0	0	0	0	0	0	0	0	0	0	0	0	0	0	0	0	0	0	0	0	0	0	0	0	0	0	0	0	0	0	0	0	0	0	0	0	0	0	0	0	0	0	0	0	0	0	0	0	0	0	0	0	0	0	0	0	0	0	0	0	0	0	1134	1333	1429	1449	1465	1475	1485	1488	1487	1484	1483	1480	1483	1490	1492	1488	1484	1477	1468	1471	1485	1500	1498	1489	1462	1443	1448	1472	1467	1442	1415	1408	1440	1483	1494	1486	1471	1460	1448	1451	1462	1484	1507	1523	1508	1481	1455	1455	1451	1463	1479	1511	1487	1457	1449	0	0	0	0	0	0	0	1492	0	0	0	0	0	0	0	0	0	0	0	0	0	0	0	1443	1423	1411	1417	1429	1450	1478	1503	1527	1541	1518	1510	1504	1504	1502	1504	1496	1495	1489	1482	1474	1474	1479	1483	1514	1517	1537	1510	1484	1507	1515	1513	1502	1469	1432	1397	1401	0	0	0	0	0	0	0	0	0	0	0	0	0	0	0	0	0	0	0	0	0	0	0	0	0	0	0	0	0	0	0	0	0	0	0	0	0	0	0	0	0	0	0	0	0	0	0	0	0	0	0	0	0	0	0	0	0	0	0	0	0	0	0	0	0	0	0	0	0	0	0	0	0	0	0	0	0	0	0	0	0	0	0	0	0	0	0	0	0	0	0	0	729	705	668	659	658	657	655	652	657	669	679	689	693	694	686	667	661	658	666	680	686	684	668	653	646	640	636	632	626	625	624	626	634	644	653	658	653	648	643	638	632	628	631	640	641	635	639	650	647	639	626	612	603	597	604	619	637	645	637	626	616	621	624	627	643	649	654	655	656	651	648	652	664	685	703	649	653	645	636	644	0	0	0	0	0	0	0	0	0	0	0	0	0	0	0	0	0	0	0	0	0	0	0	0	0	0	0	0	0	0	0	0	0	0	0	0	0	0	0	0	0	0	0	0	0	0	0	0	0	0	0	0	0	0	0	0	0	0	0	0	0	0	0	0	0	0	0	0	0	0	0	0	0	0	0	0	0	0	0	0	0	0	0	0	0	0	0	0	0	0	0	0	0	0	0	0	0	0	0	0	0	0	0	0	0	0	0	0	0	0	0	0
0	0	0	0	0	0	0	0	0	0	0	0	0	0	0	0	0	0	0	0	0	0	0	0	0	0	0	0	0	0	0	0	0	0	0	0	0	0	0	0	0	0	0	0	0	0	0	0	0	0	0	0	0	0	0	0	0	0	0	0	0	0	0	0	0	0	0	0	0	0	0	0	0	0	0	0	0	0	0	0	0	0	0	0	0	0	0	0	0	0	0	0	0	1478	1470	1475	1479	1478	1473	1470	1480	1497	1510	1506	1497	1470	1471	1478	1482	1481	1466	1454	1465	1481	1489	1485	1476	1465	1456	1455	1457	1470	1486	1473	1433	1394	1366	1362	1370	1377	0	0	0	0	0	0	0	0	0	0	0	0	0	0	0	0	0	0	0	0	0	0	0	0	0	0	0	0	0	0	0	0	0	0	0	0	0	0	0	0	0	0	0	0	0	0	0	0	0	0	0	0	0	0	0	0	0	0	0	0	0	0	0	0	0	0	0	0	0	0	0	0	0	0	0	0	0	0	0	0	0	0	0	0	0	0	0	0	0	0	0	0	0	0	0	0	0	0	0	0	0	0	0	0	0	0	0	0	0	0	0	0	0	0	0	0	0	0	0	0	0	0	0	0	0	0	0	0	0	0	0	0	0	0	0	0	0	0	0	0	0	0	0	0	0	0	0	0	0	0	0	0	0	0	0	0	0	0	0	0	0	0	0	0	0	0	0	0	0	0	0	0	0	0	0	0	0	0	0	0	0	0	0	0	0	0	0	0	0	0	0	0	0	0	0	0	0	0	0	0	0	0	0	0	0	0	0	0	0	0	0	0	0	0	0	0	0	0	0	0	0	0	0	0	0	0	0	0	0	0	0	0	0	0	0	0	0	0	0	0	0	0	0	0	0	0	0	0	0	0	0	0	0	0	0	0	0	0	0	0	0	0	0	0	0	0	0	0	0	0	0	0	0	0	0	0	0	0	0	0	0	0	0	0	0	0	0	0	0	0	0	0	0	0	0	0	0	0	0	0	0	0	0	0	0	0	0	0	0	0	0	0	0	0	0	0	0	0	0	730	696	667	656	657	656	654	660	667	679	691	697	690	678	651	646	649	660	669	670	669	658	644	640	637	632	629	627	626	626	627	631	637	649	651	652	655	649	640	622	616	617	623	625	626	633	648	647	641	629	615	603	591	594	607	627	630	624	611	607	607	609	611	613	620	627	633	635	616	605	600	600	609	620	630	632	624	617	612	594	601	616	0	0	0	0	0	0	0	0	0	0	0	0	0	0	0	0	0	0	0	0	0	0	0	0	0	0	0	0	0	0	0	0	0	0	0	0	0	0	0	0	0	0	0	0	0	0	0	0	0	0	0	0	0	0	0	0	0	0	0	0	0	0	0	0	0	0	0	0	0	0	0	0	0	0	0	0	0	0	0	0	0	0	0	0	0	0	0	0	0	0	0	0	0	0	0	0	0	0	0	0	0	0	0	0	0	0	0	0	0
