0	0	0	0	0	0	0	0	0	0	0	0	0	0	0	0	0	0	0	0	0	0	0	0	0	0	0	0	0	0	0	0	0	0	0	0	0	0	0	0	0	0	0	0	0	0	0	0	0	0	0	0	0	0	0	0	0	0	0	0	0	0	0	0	0	0	0	0	0	0	0	0	0	0	0	0	0	0	0	0	0	0	0	0	0	0	0	0	0	0	0	0	0	1468	1441	1437	1446	1446	1437	1436	1442	1446	1458	1471	1480	1480	1470	1449	1449	1453	1460	1459	1459	1466	1466	1463	1466	1472	1484	1473	1462	1483	1503	1518	1514	1502	0	0	0	0	0	0	0	0	0	0	0	0	0	0	0	0	0	0	0	0	0	0	0	0	0	0	0	0	0	0	0	0	0	0	0	0	0	0	0	0	0	0	0	0	0	0	0	0	0	0	1332	1347	1361	1377	1402	1405	1410	1412	1407	1411	1414	1418	1422	1422	1419	1402	1394	1396	1414	1431	1432	1427	1408	1402	1399	1398	1394	1394	1406	1407	1412	1416	1418	1421	1417	1402	1397	1401	1420	1423	1409	1397	1400	1413	1422	1459	1489	1478	0	0	0	0	0	0	0	0	0	0	0	0	0	0	0	0	0	0	0	0	0	0	0	0	0	0	0	0	0	0	0	0	0	0	0	0	0	0	0	0	0	0	0	0	0	0	0	0	0	0	0	0	0	0	0	0	0	0	0	0	0	0	0	0	0	0	0	0	0	0	0	0	0	0	0	0	0	0	0	0	0	0	0	0	0	0	0	1508	1435	1406	1388	1377	1371	1375	1386	1395	1399	1397	1394	1393	1394	1397	1379	1368	1368	1366	1364	1360	1356	1361	1374	1383	1372	1366	1360	1368	1365	1373	1391	1386	1381	1384	1388	1383	1381	1394	1393	1393	1385	1379	1372	1368	1376	1363	1356	1360	1371	1400	1440	1502	1546	0	0	0	0	0	0	0	0	0	0	0	0	0	0	0	0	0	0	0	0	0	0	0	0	0	0	0	0	0	0	0	0	0	0	0	0	0	0	0	0	0	0	0	0	0	0	0	0	0	0	0	0	0	0	0	0	0	0	0	0	0	0	0	0	0	0	0	0	0	0	0	0	0	0	0	0	0	0	0	0	0	0	0	0	0	0	0	0	0	0	0	1384	1404	1453	1434	1413	1406	1395	1369	1346	1345	1343	1348	1349	1358	1359	1368	1359	1335	1332	1342	1358	1369	1374	1366	1358	1350	1349	1348	1348	1342	1349	1362	1374	1380	1380	1370	1365	1355	1346	1344	1356	1361	1361	1359	1361	1366	1366	1356	1361	1370	1402	0	0	0	0	0	0	0	0	0	0	0	0	0	0	0	0	0	0	0	0	0	0	0	0	0	0	0	0	0	0	0	0	0	0	0	0	0	0	0	0	0	0	0	0	0	0	0	0	0	0	0	0	0	0	0	0	0	0	0	0	0	0	0	0	0	0	0	0	0	0	0	0	0	0	0	0	0	0	0	0	0	0	0	0	0	0	0	0	0	0	0	0	0	0	0	0	0	0	0	0	0	0	0	0	0	0	0	0	0	0	0	0	0	0	0	0	0	0	0	0	0	0	0	0	0	0	0	0	0	0	0	0	0
0	0	0	0	0	0	0	0	0	0	0	0	0	0	0	0	0	0	0	0	0	0	0	0	0	0	0	0	0	0	0	0	0	0	0	0	0	0	0	0	0	0	0	0	0	0	0	0	0	0	0	0	0	0	0	0	0	0	0	0	0	0	0	0	0	0	0	0	0	0	0	0	0	0	0	0	0	0	0	0	0	0	0	0	0	0	0	0	0	0	0	0	0	1457	1447	1443	1441	1443	1432	1450	1458	1454	1461	1473	1480	1480	1471	1463	1452	1453	1456	1455	1459	1463	1458	1454	1455	1471	1486	1489	1463	1476	1494	1514	1497	1481	0	0	0	0	0	0	0	0	0	0	0	0	0	0	0	0	0	0	0	0	0	0	0	0	0	0	0	0	0	0	0	0	0	0	0	0	0	0	0	0	0	0	0	0	0	0	0	0	0	0	1380	1364	1363	1367	1376	1380	1382	1395	1405	1420	1420	1418	1419	1421	1407	1401	1398	1403	1421	1428	1428	1425	1412	1404	1401	1401	1399	1398	1398	1405	1408	1406	1400	1413	1409	1404	1405	1407	1416	1415	1401	1399	1405	1419	1432	1455	1473	1466	0	0	0	0	0	0	0	0	0	0	0	0	0	0	0	0	0	0	0	0	0	0	0	0	0	0	0	0	0	0	0	0	0	0	0	0	0	0	0	0	0	0	0	0	0	0	0	0	0	0	0	0	0	0	0	0	0	0	0	0	0	0	0	0	0	0	0	0	0	0	0	0	0	0	0	0	0	0	0	0	0	0	0	0	0	0	0	1482	1439	1407	1393	1382	1379	1386	1388	1397	1402	1401	1398	1388	1395	1409	1405	1377	1366	1366	1370	1356	1355	1360	1376	1387	1386	1367	1361	1367	1370	1373	1379	1385	1386	1395	1397	1395	1393	1397	1398	1397	1383	1373	1366	1360	1364	1360	1362	1365	1382	1403	1438	1509	1571	0	0	0	0	0	0	0	0	0	0	0	0	0	0	0	0	0	0	0	0	0	0	0	0	0	0	0	0	0	0	0	0	0	0	0	0	0	0	0	0	0	0	0	0	0	0	0	0	0	0	0	0	0	0	0	0	0	0	0	0	0	0	0	0	0	0	0	0	0	0	0	0	0	0	0	0	0	0	0	0	0	0	0	0	0	0	0	0	0	0	0	1374	1384	1424	1419	1399	1387	1376	1365	1350	1349	1354	1340	1338	1346	1350	1360	1344	1329	1326	1337	1352	1365	1369	1367	1357	1350	1353	1354	1356	1352	1345	1351	1360	1366	1367	1362	1353	1347	1342	1347	1363	1370	1376	1368	1366	1363	1354	1349	1356	1367	1395	0	0	0	0	0	0	0	0	0	0	0	0	0	0	0	0	0	0	0	0	0	0	0	0	0	0	0	0	0	0	0	0	0	0	0	0	0	0	0	0	0	0	0	0	0	0	0	0	0	0	0	0	0	0	0	0	0	0	0	0	0	0	0	0	0	0	0	0	0	0	0	0	0	0	0	0	0	0	0	0	0	0	0	0	0	0	0	0	0	0	0	0	0	0	0	0	0	0	0	0	0	0	0	0	0	0	0	0	0	0	0	0	0	0	0	0	0	0	0	0	0	0	0	0	0	0	0	0	0	0	0	0	0
0	0	0	0	0	0	0	0	0	0	0	0	0	0	0	0	0	0	0	0	0	0	0	0	0	0	0	0	0	0	0	0	0	0	0	0	0	0	0	0	0	0	0	0	0	0	0	0	0	0	0	0	0	0	0	0	0	0	0	0	0	0	0	0	0	0	0	0	0	0	0	0	0	0	0	0	0	0	0	0	0	0	0	0	0	0	0	0	0	0	0	0	0	1459	1445	1437	1430	1428	1436	1456	1466	1465	1467	1470	1471	1467	1466	1471	1462	1465	1457	1457	1460	1455	1448	1446	1453	1471	1484	1495	1462	1469	1494	1509	1497	1470	0	0	0	0	0	0	0	0	0	0	0	0	0	0	0	0	0	0	0	0	0	0	0	0	0	0	0	0	0	0	0	0	0	0	0	0	0	0	0	0	0	0	0	0	0	0	0	0	0	0	1433	1362	1365	1366	1366	1370	1380	1394	1410	1416	1417	1412	1413	1412	1402	1405	1401	1405	1414	1417	1415	1413	1408	1409	1410	1410	1401	1392	1393	1395	1393	1386	1379	1383	1388	1401	1404	1406	1404	1398	1393	1397	1406	1422	1439	1447	1460	1463	1454	0	0	0	0	0	0	0	0	0	0	0	0	0	0	0	0	0	0	0	0	0	0	0	0	0	0	0	0	0	0	0	0	0	0	0	0	0	0	0	0	0	0	0	0	0	0	0	0	0	0	0	0	0	0	0	0	0	0	0	0	0	0	0	0	0	0	0	0	0	0	0	0	0	0	0	0	0	0	0	0	0	0	0	0	0	0	1457	1434	1415	1412	1401	1395	1393	1391	1396	1397	1393	1386	1388	1390	1404	1403	1396	1382	1371	1367	1356	1355	1358	1373	1379	1388	1384	1377	1375	1374	1375	1375	1368	1364	1364	1369	1377	1384	1392	1393	1385	1378	1371	1366	1363	1361	1366	1378	1378	1396	1412	1440	1529	0	0	0	0	0	0	0	0	0	0	0	0	0	0	0	0	0	0	0	0	0	0	0	0	0	0	0	0	0	0	0	0	0	0	0	0	0	0	0	0	0	0	0	0	0	0	0	0	0	0	0	0	0	0	0	0	0	0	0	0	0	0	0	0	0	0	0	0	0	0	0	0	0	0	0	0	0	0	0	0	0	0	0	0	0	0	0	0	0	0	0	0	1401	1383	1418	1409	1388	1371	1360	1367	1363	1352	1344	1336	1340	1349	1350	1363	1347	1337	1335	1345	1352	1359	1360	1361	1355	1355	1356	1359	1363	1357	1343	1347	1349	1356	1361	1359	1352	1347	1340	1363	1381	1387	1378	1372	1363	1353	1346	1344	1351	1363	1390	0	0	0	0	0	0	0	0	0	0	0	0	0	0	0	0	0	0	0	0	0	0	0	0	0	0	0	0	0	0	0	0	0	0	0	0	0	0	0	0	0	0	0	0	0	0	0	0	0	0	0	0	0	0	0	0	0	0	0	0	0	0	0	0	0	0	0	0	0	0	0	0	0	0	0	0	0	0	0	0	0	0	0	0	0	0	0	0	0	0	0	0	0	0	0	0	0	0	0	0	0	0	0	0	0	0	0	0	0	0	0	0	0	0	0	0	0	0	0	0	0	0	0	0	0	0	0	0	0	0	0	0	0
0	0	0	0	0	0	0	0	0	0	0	0	0	0	0	0	0	0	0	0	0	0	0	0	0	0	0	0	0	0	0	0	0	0	0	0	0	0	0	0	0	0	0	0	0	0	0	0	0	0	0	0	0	0	0	0	0	0	0	0	0	0	0	0	0	0	0	0	0	0	0	0	0	0	0	0	0	0	0	0	0	0	0	0	0	0	0	0	0	0	0	0	0	1445	1431	1425	1420	1423	1430	1461	1470	1464	1459	1470	1471	1458	1458	1473	1480	1474	1463	1456	1466	1456	1442	1448	1458	1474	1481	1485	1470	1473	1492	1503	1491	1475	0	0	0	0	0	0	0	0	0	0	0	0	0	0	0	0	0	0	0	0	0	0	0	0	0	0	0	0	0	0	0	0	0	0	0	0	0	0	0	0	0	0	0	0	0	0	0	0	0	0	1481	1369	1376	1380	1372	1372	1383	1398	1414	1422	1416	1410	1408	1414	1416	1408	1403	1395	1402	1401	1395	1399	1399	1407	1416	1408	1398	1390	1387	1390	1383	1370	1368	1375	1381	1400	1406	1405	1402	1401	1396	1389	1398	1416	1438	1453	1456	1464	0	0	0	0	0	0	0	0	0	0	0	0	0	0	0	0	0	0	0	0	0	0	0	0	0	0	0	0	0	0	0	0	0	0	0	0	0	0	0	0	0	0	0	0	0	0	0	0	0	0	0	0	0	0	0	0	0	0	0	0	0	0	0	0	0	0	0	0	0	0	0	0	0	0	0	0	0	0	0	0	0	0	0	0	0	0	0	1437	1431	1424	1410	1413	1408	1396	1391	1389	1385	1373	1370	1376	1384	1394	1397	1393	1386	1385	1375	1361	1355	1361	1363	1373	1381	1382	1378	1377	1370	1365	1365	1364	1365	1363	1366	1370	1374	1376	1367	1369	1371	1366	1361	1361	1372	1372	1382	1393	1410	1418	1427	1532	0	0	0	0	0	0	0	0	0	0	0	0	0	0	0	0	0	0	0	0	0	0	0	0	0	0	0	0	0	0	0	0	0	0	0	0	0	0	0	0	0	0	0	0	0	0	0	0	0	0	0	0	0	0	0	0	0	0	0	0	0	0	0	0	0	0	0	0	0	0	0	0	0	0	0	0	0	0	0	0	0	0	0	0	0	0	0	0	0	0	0	0	1410	1408	1418	1381	1353	1360	1375	1383	1372	1351	1338	1334	1345	1357	1366	1372	1367	1366	1361	1361	1354	1355	1356	1361	1356	1361	1366	1371	1361	1355	1335	1335	1339	1352	1363	1365	1356	1349	1345	1362	1379	1388	1382	1368	1350	1336	1343	1340	1343	1353	1391	0	0	0	0	0	0	0	0	0	0	0	0	0	0	0	0	0	0	0	0	0	0	0	0	0	0	0	0	0	0	0	0	0	0	0	0	0	0	0	0	0	0	0	0	0	0	0	0	0	0	0	0	0	0	0	0	0	0	0	0	0	0	0	0	0	0	0	0	0	0	0	0	0	0	0	0	0	0	0	0	0	0	0	0	0	0	0	0	0	0	0	0	0	0	0	0	0	0	0	0	0	0	0	0	0	0	0	0	0	0	0	0	0	0	0	0	0	0	0	0	0	0	0	0	0	0	0	0	0	0	0	0	0
0	0	0	0	0	0	0	0	0	0	0	0	0	0	0	0	0	0	0	0	0	0	0	0	0	0	0	0	0	0	0	0	0	0	0	0	0	0	0	0	0	0	0	0	0	0	0	0	0	0	0	0	0	0	0	0	0	0	0	0	0	0	0	0	0	0	0	0	0	0	0	0	0	0	0	0	0	0	0	0	0	0	0	0	0	0	0	0	0	0	0	0	0	1435	1429	1430	1430	1430	1433	1459	1465	1460	1461	1464	1468	1455	1455	1471	1482	1474	1469	1473	1478	1473	1456	1460	1474	1477	1478	1475	1475	1470	1473	1493	1499	0	0	0	0	0	0	0	0	0	0	0	0	0	0	0	0	0	0	0	0	0	0	0	0	0	0	0	0	0	0	0	0	0	0	0	0	0	0	0	0	0	0	0	0	0	0	0	0	0	0	0	0	1382	1395	1392	1383	1380	1387	1415	1423	1416	1408	1410	1412	1420	1422	1405	1401	1397	1397	1399	1397	1392	1394	1396	1404	1400	1390	1381	1380	1388	1381	1374	1368	1374	1383	1399	1418	1420	1416	1411	1410	1403	1405	1409	1425	1454	1476	1469	0	0	0	0	0	0	0	0	0	0	0	0	0	0	0	0	0	0	0	0	0	0	0	0	0	0	0	0	0	0	0	0	0	0	0	0	0	0	0	0	0	0	0	0	0	0	0	0	0	0	0	0	0	0	0	0	0	0	0	0	0	0	0	0	0	0	0	0	0	0	0	0	0	0	0	0	0	0	0	0	0	0	0	0	0	0	0	1437	1439	1424	1410	1408	1407	1396	1384	1382	1372	1355	1355	1361	1375	1390	1399	1405	1406	1401	1395	1381	1363	1348	1347	1359	1365	1371	1376	1376	1363	1350	1356	1362	1367	1370	1367	1366	1363	1357	1351	1354	1360	1355	1358	1362	1382	1383	1391	1404	1438	1441	1439	1484	1581	0	0	0	0	0	0	0	0	0	0	0	0	0	0	0	0	0	0	0	0	0	0	0	0	0	0	0	0	0	0	0	0	0	0	0	0	0	0	0	0	0	0	0	0	0	0	0	0	0	0	0	0	0	0	0	0	0	0	0	0	0	0	0	0	0	0	0	0	0	0	0	0	0	0	0	0	0	0	0	0	0	0	0	0	0	0	0	0	0	0	0	1409	1400	1390	1356	1352	1367	1388	1396	1379	1362	1350	1343	1354	1376	1381	1375	1372	1369	1372	1366	1363	1355	1354	1359	1366	1369	1370	1362	1358	1355	1340	1340	1351	1364	1377	1370	1354	1344	1347	1360	1382	1382	1372	1360	1346	1335	1344	1337	1335	1344	1399	0	0	0	0	0	0	0	0	0	0	0	0	0	0	0	0	0	0	0	0	0	0	0	0	0	0	0	0	0	0	0	0	0	0	0	0	0	0	0	0	0	0	0	0	0	0	0	0	0	0	0	0	0	0	0	0	0	0	0	0	0	0	0	0	0	0	0	0	0	0	0	0	0	0	0	0	0	0	0	0	0	0	0	0	0	0	0	0	0	0	0	0	0	0	0	0	0	0	0	0	0	0	0	0	0	0	0	0	0	0	0	0	0	0	0	0	0	0	0	0	0	0	0	0	0	0	0	0	0	0	0	0	0
0	0	0	0	0	0	0	0	0	0	0	0	0	0	0	0	0	0	0	0	0	0	0	0	0	0	0	0	0	0	0	0	0	0	0	0	0	0	0	0	0	0	0	0	0	0	0	0	0	0	0	0	0	0	0	0	0	0	0	0	0	0	0	0	0	0	0	0	0	0	0	0	0	0	0	0	0	0	0	0	0	0	0	0	0	0	0	0	0	0	0	0	0	1436	1438	1444	1447	1447	1452	1468	1469	1464	1457	1464	1467	1461	1454	1465	1476	1477	1472	1479	1486	1477	1475	1480	1479	1481	1474	1469	1469	1466	1467	1475	1501	0	0	0	0	0	0	0	0	0	0	0	0	0	0	0	0	0	0	0	0	0	0	0	0	0	0	0	0	0	0	0	0	0	0	0	0	0	0	0	0	0	0	0	0	0	0	0	0	0	0	0	0	1407	1419	1414	1400	1388	1404	1416	1424	1422	1410	1416	1418	1430	1426	1403	1403	1411	1412	1413	1413	1404	1403	1396	1394	1390	1385	1384	1383	1389	1391	1388	1385	1383	1393	1400	1420	1427	1429	1423	1415	1414	1413	1416	1425	1437	1446	0	0	0	0	0	0	0	0	0	0	0	0	0	0	0	0	0	0	0	0	0	0	0	0	0	0	0	0	0	0	0	0	0	0	0	0	0	0	0	0	0	0	0	0	0	0	0	0	0	0	0	0	0	0	0	0	0	0	0	0	0	0	0	0	0	0	0	0	0	0	0	0	0	0	0	0	0	0	0	0	0	0	0	0	0	0	0	0	1432	1449	1423	1408	1405	1404	1395	1384	1381	1375	1351	1348	1358	1365	1383	1408	1413	1408	1403	1404	1401	1398	1385	1358	1353	1362	1372	1376	1369	1356	1346	1358	1379	1372	1375	1369	1366	1359	1356	1349	1349	1352	1354	1358	1377	1395	1395	1398	1423	1460	1441	1437	1459	1539	0	0	0	0	0	0	0	0	0	0	0	0	0	0	0	0	0	0	0	0	0	1684	1705	0	0	0	0	0	0	0	0	0	0	0	0	0	0	0	0	0	0	0	0	0	0	0	0	0	0	0	0	0	0	0	0	0	0	0	0	0	0	0	0	0	0	0	0	0	0	0	0	0	0	0	0	0	0	0	0	0	0	0	0	0	0	0	0	0	0	0	0	1386	1375	1365	1349	1350	1362	1382	1394	1386	1372	1362	1362	1373	1385	1382	1374	1371	1368	1366	1366	1361	1357	1353	1354	1366	1368	1364	1356	1351	1350	1351	1346	1360	1374	1379	1372	1347	1344	1352	1372	1383	1378	1368	1357	1341	1343	1349	1338	1337	1355	1406	0	0	0	0	0	0	0	0	0	0	0	0	0	0	0	0	0	0	0	0	0	0	0	0	0	0	0	0	0	0	0	0	0	0	0	0	0	0	0	0	0	0	0	0	0	0	0	0	0	0	0	0	0	0	0	0	0	0	0	0	0	0	0	0	0	0	0	0	0	0	0	0	0	0	0	0	0	0	0	0	0	0	0	0	0	0	0	0	0	0	0	0	0	0	0	0	0	0	0	0	0	0	0	0	0	0	0	0	0	0	0	0	0	0	0	0	0	0	0	0	0	0	0	0	0	0	0	0	0	0	0	0	0
0	0	0	0	0	0	0	0	0	0	0	0	0	0	0	0	0	0	0	0	0	0	0	0	0	0	0	0	0	0	0	0	0	0	0	0	0	0	0	0	0	0	0	0	0	0	0	0	0	0	0	0	0	0	0	0	0	0	0	0	0	0	0	0	0	0	0	0	0	0	0	0	0	0	0	0	0	0	0	0	0	0	0	0	0	0	0	0	0	0	0	0	0	1456	1451	1456	1460	1460	1464	1467	1467	1462	1463	1469	1468	1464	1460	1464	1468	1476	1481	1488	1492	1496	1489	1486	1491	1486	1478	1462	1458	1461	1470	1488	1514	0	0	0	0	0	0	0	0	0	0	0	0	0	0	0	0	0	0	0	0	0	0	0	0	0	0	0	0	0	0	0	0	0	0	0	0	0	0	0	0	0	0	0	0	0	0	0	0	0	0	0	1391	1422	1433	1432	1416	1412	1410	1413	1421	1420	1419	1428	1432	1437	1432	1407	1412	1425	1427	1434	1435	1436	1435	1411	1392	1388	1389	1400	1418	1414	1396	1396	1396	1393	1385	1380	1403	1421	1430	1426	1415	1410	1416	1429	1431	1426	1428	0	0	0	0	0	0	0	0	0	0	0	0	0	0	0	0	0	0	0	0	0	0	0	0	0	0	0	0	0	0	0	0	0	0	0	0	0	0	0	0	0	0	0	0	0	0	0	0	0	0	0	0	0	0	0	0	0	0	0	0	0	0	0	0	0	0	0	0	0	0	0	0	0	0	0	0	0	0	0	0	0	0	0	0	0	0	0	0	1411	1434	1410	1407	1410	1409	1397	1385	1383	1382	1364	1355	1356	1361	1378	1402	1403	1403	1404	1407	1403	1401	1394	1386	1380	1379	1376	1378	1370	1361	1359	1381	1380	1371	1381	1374	1366	1360	1362	1355	1350	1352	1355	1367	1396	1401	1399	1416	1462	1461	1429	1419	1443	1499	1571	0	0	0	0	0	0	0	0	0	0	0	0	0	0	0	0	0	0	0	0	0	0	0	0	0	0	0	0	0	0	0	0	0	0	0	0	0	0	0	0	0	0	0	0	0	0	0	0	0	0	0	0	0	0	0	0	0	0	0	0	0	0	0	0	0	0	0	0	0	0	0	0	0	0	0	0	0	0	0	0	0	0	0	0	0	0	0	0	0	0	1380	1363	1355	1350	1353	1353	1358	1368	1370	1360	1352	1357	1371	1381	1381	1379	1370	1366	1354	1352	1359	1362	1354	1351	1355	1357	1353	1348	1345	1349	1357	1355	1364	1374	1371	1368	1350	1357	1364	1384	1394	1386	1361	1355	1346	1358	1359	1357	1353	1372	1421	0	0	0	0	0	0	0	0	0	0	0	0	0	0	0	0	0	0	0	0	0	0	0	0	0	0	0	0	0	0	0	0	0	0	0	0	0	0	0	0	0	0	0	0	0	0	0	0	0	0	0	0	0	0	0	0	0	0	0	0	0	0	0	0	0	0	0	0	0	0	0	0	0	0	0	0	0	0	0	0	0	0	0	0	0	0	0	0	0	0	0	0	0	0	0	0	0	0	0	0	0	0	0	0	0	0	0	0	0	0	1464	1440	1416	0	0	0	0	0	0	0	0	1370	1385	1415	1434	1427	0	0	0	0	0	0	0
0	0	0	0	0	0	0	0	0	0	0	0	0	0	0	0	0	0	0	0	0	0	0	0	0	0	0	0	0	0	0	0	0	0	0	0	0	0	0	0	0	0	0	0	0	0	0	0	0	0	0	0	0	0	0	0	0	0	0	0	0	0	0	0	0	0	0	0	0	0	0	0	0	0	0	0	0	0	0	0	0	0	0	0	0	0	0	0	0	0	0	0	0	1477	1455	1458	1462	1466	1461	1462	1458	1462	1462	1470	1473	1468	1460	1461	1469	1482	1487	1496	1496	1490	1488	1486	1491	1497	1484	1472	1447	1472	1483	1500	1509	0	0	0	0	0	0	0	0	0	0	0	0	0	0	0	0	0	0	0	0	0	0	0	0	0	0	0	0	0	0	0	0	0	0	0	0	0	0	0	0	0	0	0	0	0	0	0	0	0	0	0	1356	1421	1434	1436	1428	1424	1419	1417	1418	1417	1422	1428	1431	1438	1433	1419	1427	1440	1431	1427	1431	1442	1446	1426	1403	1399	1403	1433	1435	1430	1393	1401	1399	1395	1376	1365	1382	1401	1408	1411	1408	1405	1418	1429	1426	1424	1434	0	0	0	0	0	0	0	0	0	0	0	0	0	0	0	0	0	0	0	0	0	0	0	0	0	0	0	0	0	0	0	0	0	0	0	0	0	0	0	0	0	0	0	0	0	0	0	0	0	0	0	0	0	0	0	0	0	0	0	0	0	0	0	0	0	0	0	0	0	0	0	0	0	0	0	0	0	0	0	0	0	0	0	0	0	0	0	1408	1390	1407	1407	1411	1414	1421	1404	1395	1390	1389	1383	1372	1360	1360	1380	1396	1397	1407	1405	1402	1400	1401	1392	1389	1385	1385	1386	1382	1379	1372	1370	1381	1379	1376	1374	1371	1366	1366	1362	1363	1359	1347	1360	1378	1393	1396	1394	1422	1455	1461	1425	1408	1417	1440	1494	1580	0	0	0	0	0	0	0	0	0	0	0	0	0	0	0	0	0	0	0	0	0	0	0	0	0	0	0	0	0	0	0	0	0	0	0	0	0	0	0	0	0	0	0	0	0	0	0	0	0	0	0	0	0	0	0	0	0	0	0	0	0	0	0	0	0	0	0	0	0	0	0	0	0	0	0	0	0	0	0	0	0	0	0	0	0	0	0	0	0	1379	1376	1362	1349	1351	1352	1348	1346	1343	1337	1332	1341	1357	1372	1384	1383	1385	1370	1357	1348	1351	1358	1357	1351	1352	1352	1347	1342	1345	1350	1364	1362	1362	1369	1371	1367	1361	1360	1369	1388	1387	1375	1360	1352	1356	1364	1372	1376	1374	1380	1406	1457	0	0	0	0	0	0	0	1524	1496	0	0	0	0	0	0	0	0	0	0	0	0	0	0	0	0	0	0	0	0	1475	1463	0	0	0	0	0	0	0	1456	1477	0	0	0	0	0	0	0	0	1500	1470	1447	1447	1458	1476	1500	1520	1516	0	1501	1492	0	1470	1455	1432	1421	1412	1394	1389	1401	1420	1449	1467	1485	1489	1478	1463	1463	1479	1492	1487	1455	1434	1434	1443	1459	1466	1473	1484	1483	1482	1482	1486	1477	1456	1459	1464	1472	1481	1490	1483	1474	1465	1481	1498	1498	1514	1510	1500	1490	1467	1446	1426	1417	1411	1417	1425	1444	1454	1448	1448	1437	1431	1430	1432	1429	0	0	0	0	0	0	0
0	0	0	0	0	0	0	0	0	0	0	0	0	0	0	0	0	0	0	0	0	0	0	0	0	0	0	0	0	0	0	0	0	0	0	0	0	0	0	0	0	0	0	0	0	0	0	0	0	0	0	0	0	0	0	0	0	0	0	0	0	0	0	0	0	0	0	0	0	0	0	0	0	0	0	0	0	0	0	0	0	0	0	0	0	0	0	0	0	0	0	0	0	1475	1463	1458	1462	1463	1455	1451	1455	1458	1466	1464	1471	1465	1459	1469	1470	1482	1489	1488	1484	1478	1481	1487	1494	1498	1505	1488	1463	1474	1494	1503	1507	1490	0	0	0	0	0	0	0	0	0	0	0	0	0	0	0	0	0	0	0	0	0	0	0	0	0	0	0	0	0	0	0	0	0	0	0	0	0	0	0	0	0	0	0	0	0	0	0	0	0	0	1355	1423	1433	1434	1433	1435	1429	1418	1412	1417	1424	1424	1427	1431	1437	1439	1445	1448	1433	1422	1427	1431	1433	1419	1412	1409	1414	1429	1433	1432	1413	1420	1420	1404	1379	1355	1370	1383	1395	1402	1401	1409	1425	1427	1420	1417	1422	0	0	0	0	0	0	0	0	0	0	0	0	0	0	0	0	0	0	0	0	0	0	0	0	0	0	0	0	0	0	0	0	0	0	0	0	0	0	0	0	0	0	0	0	0	0	0	0	0	0	0	0	0	0	0	0	0	0	0	0	0	0	0	0	0	0	0	0	0	0	0	0	0	0	0	0	0	0	0	0	0	0	0	0	0	0	0	1413	1399	1411	1415	1413	1409	1423	1421	1404	1394	1393	1390	1389	1376	1382	1397	1405	1404	1396	1391	1392	1393	1394	1384	1379	1380	1386	1389	1390	1388	1386	1381	1379	1374	1374	1366	1370	1371	1374	1376	1371	1364	1359	1368	1387	1396	1393	1388	1409	1438	1448	1426	1423	1414	1415	1444	1490	1517	0	0	0	0	0	0	0	0	0	0	0	0	0	0	0	0	0	0	0	0	0	0	0	0	0	0	0	0	0	0	0	0	0	0	0	0	0	0	0	0	0	0	0	0	0	0	0	0	0	0	1150	1113	1106	1102	1096	1095	1096	1097	1113	1121	1103	1087	1076	1088	0	0	0	0	0	1208	0	0	0	0	0	1149	1155	1181	1222	1258	1296	1356	1391	1395	1367	0	0	0	1384	1381	1359	1343	1336	1335	1338	1332	1325	1324	1325	1332	1351	1361	1381	1387	1384	1374	1359	1351	1347	1349	1360	1360	1366	1364	1354	1347	1347	1366	1369	1368	1368	1370	1369	1366	1364	1358	1362	1366	1360	1352	1346	1343	1363	1375	1384	1380	1370	1377	1391	1421	1450	1490	1545	1577	1589	1584	1570	1482	1452	1451	1452	1441	1431	1420	1426	1452	1464	1455	1446	1441	1451	1458	1468	1467	1464	1480	1502	1536	1545	1545	1534	1505	1472	1436	1426	1437	1449	1450	1448	1436	1447	1464	1478	1460	1461	1458	1461	1458	1450	1445	1456	1473	1485	1495	1490	1470	1453	1439	1441	1454	1512	1527	1513	1490	1458	1439	1431	1430	1437	1455	1468	1490	1509	1512	1504	1477	1464	1458	1474	1477	1464	1457	1455	1455	1452	1438	1437	1444	1448	1445	1446	1441	1444	1457	1476	1486	1496	1485	1476	1472	1456	1448	1458	1458	1485	1508	1503	1492	1466	1457	1451	1438	1434	1429	1424	1436	1457	1471	1471	1471	1461	1449	1441	1435	1429	0	0	0	0	0	0	0
0	0	0	0	0	0	0	0	0	0	0	0	0	0	0	0	0	0	0	0	0	0	0	0	0	0	0	0	0	0	0	0	0	0	0	0	0	0	0	0	0	0	0	0	0	0	0	0	0	0	0	0	0	0	0	0	0	0	0	0	0	0	0	0	0	0	0	0	0	0	0	0	0	0	0	0	0	0	0	0	0	0	0	0	0	0	0	0	0	0	0	0	0	1482	1462	1458	1458	1461	1449	1445	1448	1462	1465	1463	1462	1455	1468	1472	1473	1483	1480	1472	1468	1464	1470	1482	1492	1498	1498	1490	1472	1476	1488	1491	1479	1448	1433	0	0	0	0	0	0	0	0	0	0	0	0	0	0	0	0	0	0	0	0	0	0	0	0	0	0	0	0	0	0	0	0	0	0	0	0	0	0	0	0	0	0	0	0	0	0	0	0	1376	1370	1419	1429	1427	1431	1434	1430	1425	1412	1415	1411	1414	1417	1424	1435	1458	1461	1455	1435	1420	1421	1430	1423	1415	1404	1412	1413	1415	1415	1416	1422	1434	1429	1423	1386	1359	1367	1379	1390	1399	1405	1422	1433	1417	1419	1431	1430	0	0	0	1419	1365	1335	1312	1286	0	0	0	0	0	0	0	0	0	0	0	0	0	0	0	0	0	0	0	0	0	0	0	0	0	0	0	0	0	0	0	0	1190	1190	1196	1210	0	0	0	0	0	0	0	0	0	1446	1421	1410	1437	1453	1470	1470	1485	1496	1506	1487	1470	1465	0	0	0	0	1478	1451	1442	1440	1460	1523	1538	1507	1497	1502	1519	1531	1525	1515	1497	1461	1437	1423	1428	1440	1425	1416	1413	1423	1427	1408	1398	1392	1392	1393	1388	1393	1408	1407	1399	1387	1380	1383	1384	1384	1383	1376	1374	1380	1390	1393	1396	1393	1389	1375	1370	1370	1368	1372	1381	1385	1385	1375	1363	1357	1367	1387	1397	1384	1383	1393	1420	1442	1438	1448	1446	1449	1457	1454	1462	1462	1438	1429	1431	1462	1489	1506	1508	1494	1481	1470	1468	1482	1507	1523	1509	1504	1490	1485	1488	1495	1493	1475	1461	1461	1476	1493	1497	1480	1458	1451	1442	1447	1454	1432	1382	0	0	0	0	0	0	0	0	0	0	0	0	0	0	1084	1090	1084	1077	1071	1066	1066	1069	1078	1084	1079	1065	1038	1038	1079	1107	1114	1120	1120	1118	1125	1159	1094	1095	1103	1100	1105	1126	1154	1179	1217	1295	1353	1359	1335	1368	0	0	1396	1389	1366	1337	1309	1309	1313	1323	1322	1321	1323	1332	1341	1349	1370	1382	1385	1376	1363	1352	1343	1339	1355	1365	1373	1370	1361	1358	1354	1371	1375	1374	1372	1370	1367	1369	1358	1348	1340	1334	1334	1335	1336	1339	1364	1383	1372	1358	1357	1366	1394	1408	1433	1463	1482	1502	1532	1568	1563	1485	1454	1446	1440	1446	1446	1447	1455	1462	1470	1457	1447	1448	1452	1460	1474	1484	1486	1486	1500	1532	1548	1539	1520	1497	1461	1432	1420	1429	1444	1454	1453	1449	1458	1468	1468	1460	1446	1449	1455	1457	1458	1461	1475	1484	1484	1488	1485	1474	1455	1442	1436	1442	1465	1521	1517	1500	1474	1456	1449	1442	1446	1457	1468	1488	1505	1516	1503	1485	1464	1460	1472	1474	1468	1467	1461	1462	1453	1433	1431	1433	1439	1434	1433	1432	1436	1452	1478	1489	1494	1491	1478	1456	1440	1432	1452	1452	1475	1486	1484	1471	1458	1452	1453	1454	1449	1450	1436	1452	1466	1473	1473	1476	1471	1453	1449	1439	1438	0	0	0	0	0	0	0
0	0	0	0	0	0	0	0	0	0	0	0	0	0	0	0	0	0	0	0	0	0	0	0	0	0	0	0	0	0	0	0	0	0	0	0	0	0	0	0	0	0	0	0	0	0	0	0	0	0	0	0	0	0	0	0	0	0	0	0	0	0	0	0	0	0	0	0	0	0	0	0	0	0	0	0	0	0	0	0	0	0	0	0	0	0	0	0	0	0	0	0	0	1506	1477	1458	1459	1460	1450	1447	1448	1457	1462	1457	1453	1454	1461	1468	1471	1476	1476	1463	1453	1449	1456	1473	1490	1494	1483	1469	1458	1460	1467	1472	1453	1434	1411	1399	0	0	0	0	0	0	0	0	0	0	0	0	0	0	0	0	0	0	0	0	0	0	0	0	0	0	0	0	0	0	0	0	0	0	0	0	0	0	1460	1444	1439	1455	1491	1528	1536	1505	1455	1419	1400	1419	1431	1428	1422	1420	1423	1421	1420	1414	1405	1397	1399	1418	1439	1469	1469	1449	1420	1411	1428	1440	1438	1413	1406	1409	1406	1408	1392	1393	1406	1438	1442	1427	1407	1383	1381	1384	1395	1401	1420	1446	1438	1422	1431	1455	1451	1441	1378	1368	1347	1292	1265	1237	1221	0	0	0	0	0	0	0	0	0	0	0	0	0	0	0	1084	1067	1076	1076	1068	1068	1080	1078	1084	1094	1120	0	0	0	0	0	1131	1142	1135	1134	1150	1179	1205	1257	1326	1408	1495	1512	1521	1499	1457	1427	1442	1477	1515	1511	1486	1473	1480	1475	1475	1472	1464	1473	1482	1487	1488	1484	1470	1451	1451	1465	1483	1497	1495	1489	1479	1464	1460	1462	1472	1478	1484	1463	1453	1464	1465	1449	1431	1421	1424	1439	1415	1396	1390	1392	1393	1395	1399	1395	1403	1392	1387	1381	1380	1380	1377	1380	1377	1380	1385	1392	1391	1392	1386	1378	1379	1378	1371	1372	1383	1394	1403	1400	1373	1356	1352	1374	1388	1391	1387	1384	1395	1417	1429	1437	1450	1456	1457	1446	1449	1456	1464	1457	1447	1443	1454	1473	1484	1488	1492	1505	1497	1488	1477	1481	1484	1479	1473	1464	1479	1498	1507	1506	1499	1485	1479	1473	1479	1476	1470	1474	1463	1451	1458	1470	1475	1404	0	0	1101	1077	0	0	0	0	0	0	0	0	0	1050	1065	1078	1071	1056	1049	1046	1047	1053	1065	1068	1067	1056	1033	1036	1074	1093	1103	1106	1105	1082	1069	1064	1073	1074	1070	1070	1068	1076	1093	1110	1114	1142	1161	1235	1256	1304	1367	1400	1405	1406	1379	1339	1296	1290	1294	1307	1315	1318	1326	1329	1329	1334	1360	1373	1375	1373	1359	1345	1333	1338	1351	1368	1373	1369	1353	1352	1349	1360	1371	1375	1378	1373	1369	1364	1361	1349	1330	1320	1322	1329	1330	1341	1371	1372	1360	1343	1347	1374	1397	1414	1434	1449	1467	1486	1491	1540	1547	1477	1457	1454	1454	1451	1454	1462	1467	1478	1468	1460	1446	1452	1450	1456	1473	1492	1493	1491	1496	1506	1506	1501	1494	1490	1470	1449	1435	1436	1448	1453	1456	1462	1472	1473	1471	1455	1440	1439	1450	1456	1468	1473	1484	1491	1491	1482	1477	1470	1457	1445	1440	1443	1456	1484	1500	1500	1484	1472	1461	1459	1457	1454	1464	1492	1510	1515	1503	1481	1460	1456	1465	1466	1465	1476	1476	1469	1448	1439	1426	1418	1425	1427	1432	1428	1435	1451	1472	1483	1487	1489	1471	1449	1433	1432	1449	1449	1464	1472	1469	1458	1457	1456	1450	1458	1445	1450	1454	1461	1465	1468	1468	1473	1466	1455	1445	1433	1439	0	0	0	0	0	0	0
0	0	0	0	0	0	0	0	0	0	0	0	0	0	0	0	0	0	0	0	0	0	0	0	0	0	0	0	0	0	0	0	0	0	0	0	0	0	0	0	0	0	0	0	0	0	0	0	0	0	0	0	0	0	0	0	0	0	0	0	0	0	0	0	0	0	0	0	0	0	0	0	0	0	0	0	0	0	0	0	0	0	0	0	0	0	0	0	0	0	0	0	0	1511	1474	1465	1467	1464	1464	1467	1464	1458	1456	1454	1448	1448	1459	1466	1469	1470	1465	1456	1442	1437	1450	1463	1473	1479	1462	1446	1427	1432	1451	1457	1447	1435	1418	1413	1435	1455	1468	1443	1440	1459	1486	1498	1490	1470	1455	1455	1455	1450	1443	1444	1462	1477	1480	1489	1484	1470	1450	1437	1433	1426	1408	1384	1378	1390	1415	1432	1460	1468	1468	1449	1467	1488	1490	1479	1468	1454	1455	1456	1474	1491	1487	1445	1418	1423	1439	1441	1423	1413	1419	1430	1437	1439	1430	1407	1405	1428	1448	1459	1459	1455	1430	1417	1428	1439	1454	1443	1419	1406	1406	1389	1379	1388	1403	1435	1447	1442	1421	1401	1393	1396	1399	1407	1436	1450	1452	1433	1418	1455	1460	1391	1333	1322	1291	1216	1180	1169	1162	0	0	0	0	1104	1087	1075	0	0	0	0	0	0	0	1085	1066	1053	1051	1051	1058	1068	1070	1065	1058	1068	1096	0	0	0	0	0	1098	1104	1105	1116	1131	1163	1191	1223	1303	1418	1448	1486	1481	1472	1474	1484	1490	1501	1503	1483	1483	1475	1466	1460	1458	1452	1450	1456	1465	1482	1497	1500	1489	1478	1476	1482	1501	1508	1512	1507	1487	1475	1474	1471	1478	1483	1478	1479	1474	1483	1490	1465	1441	1436	1435	1436	1416	1399	1402	1415	1424	1411	1388	1375	1386	1386	1390	1390	1391	1382	1382	1387	1391	1392	1390	1387	1386	1383	1385	1384	1382	1390	1392	1383	1389	1395	1405	1405	1383	1361	1365	1372	1385	1394	1393	1399	1414	1425	1413	1419	1434	1448	1444	1445	1456	1460	1464	1464	1463	1457	1466	1479	1490	1490	1495	1505	1506	1499	1491	1488	1487	1477	1464	1463	1481	1501	1513	1513	1506	1497	1487	1483	1473	1471	1477	1484	1481	1465	1472	1501	1444	0	0	0	0	0	0	0	0	0	0	0	0	0	0	1040	1059	1067	1060	1040	1028	1025	1032	1040	1053	1063	1066	1056	1050	1053	1069	1074	1083	1069	1071	1067	1064	1056	1066	1062	1052	1044	1040	1038	1040	1052	1062	1072	1092	1115	1160	1251	1292	1326	1356	1388	1388	1363	1350	1298	1303	1326	1350	1349	1346	1339	1345	1336	1332	1350	1355	1355	1351	1339	1324	1331	1345	1365	1373	1365	1353	1342	1342	1361	1359	1368	1369	1373	1373	1381	1383	1368	1344	1340	1341	1349	1352	1358	1373	1374	1356	1358	1365	1384	1410	1426	1440	1447	1452	1454	1474	1488	1500	1475	1465	1464	1468	1461	1467	1469	1473	1478	1469	1465	1455	1454	1450	1457	1471	1485	1477	1464	1486	1495	1498	1491	1491	1496	1485	1469	1452	1444	1455	1464	1466	1480	1493	1490	1478	1450	1445	1448	1455	1467	1476	1487	1493	1492	1483	1472	1468	1465	1459	1456	1456	1459	1470	1488	1501	1492	1476	1465	1464	1470	1473	1457	1461	1480	1500	1506	1495	1481	1465	1459	1459	1463	1463	1470	1468	1458	1451	1448	1436	1426	1429	1438	1440	1438	1439	1447	1467	1478	1483	1477	1470	1454	1442	1442	1456	1456	1465	1472	1471	1463	1462	1462	1445	1449	1448	1449	1467	1474	1472	1463	1463	1464	1446	1443	1427	1431	1440	0	0	0	0	0	0	0
0	0	0	0	0	0	0	0	0	0	0	0	0	0	0	0	0	0	0	0	0	0	0	0	0	0	0	0	0	0	0	0	0	0	0	0	0	0	0	0	0	0	0	0	0	0	0	0	0	0	0	0	0	0	0	0	0	0	0	0	0	0	0	0	0	0	0	0	0	0	0	0	0	0	0	0	0	0	0	0	0	0	0	0	0	0	0	0	0	0	0	0	0	1485	1462	1458	1465	1468	1461	1465	1477	1467	1454	1454	1448	1448	1462	1474	1475	1470	1466	1461	1464	1445	1441	1447	1459	1463	1453	1432	1426	1423	1446	1464	1475	1475	1461	1455	1453	1458	1462	1495	1490	1495	1491	1481	1470	1471	1475	1462	1464	1455	1451	1452	1465	1466	1472	1479	1483	1472	1473	1470	1462	1446	1427	1412	1400	1399	1406	1428	1453	1460	1446	1427	1434	1460	1472	1473	1468	1454	1450	1450	1461	1482	1487	1457	1425	1417	1444	1443	1441	1446	1452	1457	1458	1450	1439	1444	1449	1455	1460	1453	1462	1458	1442	1427	1426	1444	1460	1454	1427	1423	1415	1405	1395	1396	1407	1439	1452	1453	1437	1416	1408	1405	1414	1422	1436	1454	1455	1442	1421	1398	1373	1361	1271	1199	1177	1127	1124	1129	1131	1121	1108	1090	1075	1071	1059	1055	1067	1088	1097	1088	1065	1048	0	1064	1058	1051	1041	1044	1055	1066	1074	1054	1052	1061	1084	0	0	0	0	0	1077	1074	1084	1102	1126	1166	0	1220	1299	1412	1475	1487	1491	1485	1488	1498	1503	1494	1484	1481	1478	1473	1471	1466	1454	1444	1444	1446	1460	1478	1494	1504	1502	1499	1493	1500	1501	1501	1504	1508	1500	1496	1491	1485	1484	1481	1474	1465	1480	1493	1506	1477	1448	1440	1436	1428	1417	1413	1428	1458	1484	1480	1427	1405	1395	1392	1395	1405	1405	1397	1395	1396	1402	1409	1382	1374	1383	1388	1385	1387	1396	1399	1403	1401	1407	1416	1419	1424	1431	1439	1439	1430	1426	1426	1421	1420	1431	1441	1421	1403	1429	1454	1450	1456	1464	1473	1479	1478	1479	1481	1481	1481	1478	1486	1496	1499	1501	1499	1502	1508	1502	1487	1474	1474	1485	1499	1505	1506	1500	1494	1493	1483	1479	1484	1493	1500	1500	1481	1484	1509	1443	0	0	0	0	0	0	0	0	0	0	0	0	0	1038	1039	1053	1062	1053	1027	1009	1009	1021	1029	1036	1048	1058	1065	1065	1049	1037	1043	1050	1053	1055	1061	1059	1059	1060	1059	1043	1029	1018	1015	1017	1021	1031	1039	1051	1063	1105	1177	1236	1265	1302	1334	1365	1378	1370	1352	1342	1362	1390	1416	1438	1432	1414	1393	1380	1377	1380	1384	1390	1402	1396	1384	1382	1382	1375	1372	1380	1394	1412	1422	1427	1420	1403	1390	1385	1395	1401	1396	1391	1411	1439	1427	1402	1380	1384	1389	1380	1377	1380	1401	1424	1441	1446	1439	1439	1446	1449	1472	1492	1482	1467	1476	1479	1474	1476	1479	1484	1489	1481	1468	1460	1457	1452	1461	1474	1477	1460	1455	1469	1482	1481	1480	1486	1489	1485	1489	1479	1466	1476	1483	1486	1500	1503	1498	1486	1464	1450	1454	1462	1477	1483	1488	1487	1483	1473	1460	1458	1453	1460	1459	1463	1466	1480	1498	1497	1482	1465	1445	1451	1465	1467	1456	1448	1462	1475	1481	1484	1484	1472	1457	1455	1460	1467	1467	1461	1457	1462	1466	1468	1463	1452	1454	1455	1447	1445	1448	1457	1463	1469	1469	1467	1458	1450	1454	1462	1462	1469	1471	1466	1465	1465	1464	1447	1432	1434	1446	1466	1480	1472	1446	1446	1436	1444	1442	1435	1430	1439	0	0	0	0	0	0	0
0	0	0	0	0	0	0	0	0	0	0	0	0	0	0	0	0	0	0	0	0	0	0	0	0	0	0	0	0	0	0	0	0	0	0	0	0	0	0	0	0	0	0	0	0	0	0	0	0	0	0	0	0	0	0	0	0	0	0	0	0	0	0	0	0	0	0	0	0	0	0	0	0	0	0	0	0	0	0	0	0	0	0	0	0	0	0	0	0	0	0	0	0	1459	1448	1448	1453	1460	1466	1471	1478	1469	1475	1470	1468	1462	1473	1480	1472	1457	1454	1459	1473	1463	1440	1439	1449	1457	1454	1433	1428	1430	1435	1447	1471	1467	1453	1443	1443	1446	1455	1482	1483	1474	1470	1463	1466	1480	1484	1485	1474	1467	1463	1465	1466	1463	1465	1466	1479	1475	1470	1474	1466	1448	1435	1428	1413	1411	1417	1434	1458	1466	1456	1423	1431	1448	1465	1473	1470	1464	1455	1455	1462	1471	1480	1461	1430	1421	1447	1448	1455	1462	1468	1476	1475	1463	1455	1451	1463	1477	1476	1467	1462	1460	1449	1426	1433	1445	1466	1466	1458	1447	1447	1432	1425	1445	1451	1455	1469	1469	1458	1431	1426	1430	1432	1438	1449	1462	1472	1433	1394	1373	1339	1316	1162	1126	1092	1082	1093	1103	1111	1093	1067	1053	1046	1048	1042	1049	1068	1080	1085	1069	1042	1025	1024	1050	1057	1046	1039	1045	1057	1069	1060	1044	1039	1058	1078	1090	0	0	0	0	1063	1067	1073	0	0	0	0	0	1300	1410	1479	1494	1494	1488	1490	1494	1490	1486	1483	1482	1477	1479	1481	1475	1453	1445	1440	1450	1458	1464	1487	1500	1504	1510	1511	1507	1500	1486	1480	1485	1503	1506	1510	1503	1498	1485	1471	1467	1473	1511	1504	1478	1451	1450	1440	1428	1414	1417	1435	1463	1495	1492	1439	1414	1403	1404	1406	1416	1410	1409	1403	1395	1399	1399	1379	1380	1389	1454	1463	1459	1454	1468	1439	1426	1421	1429	1427	1429	1434	1453	1453	1444	1435	1434	1429	1432	1447	1462	1461	1451	1448	1457	1469	1473	1479	1487	1493	1491	1501	1496	1494	1484	1475	1469	1468	1471	1470	1481	1497	1512	1518	1502	1487	1476	1482	1492	1498	1499	1492	1493	1492	1486	1481	1483	1505	1513	1502	1490	1481	1475	1446	0	0	0	0	0	0	0	0	0	0	0	0	0	1037	1036	1056	1059	1049	1026	997	1003	1013	1017	1021	1032	1050	1063	1042	1021	1020	1027	1038	1049	1053	1056	1055	1051	1052	1050	1038	1027	1016	1013	0	0	0	1027	1035	1040	1053	1082	1113	1152	1212	1277	1310	1377	1380	1379	1366	1375	1394	1428	1457	1466	1445	1409	1409	1415	1411	1422	1436	1443	1443	1432	1416	1408	1398	1398	1403	1422	1433	1441	1440	1436	1417	1396	1393	1400	1411	1413	1415	1435	1452	1441	1418	1392	1406	1415	1425	1421	1422	1431	1445	1440	1437	1428	1429	1436	1443	1457	1478	1489	1481	1481	1479	1474	1476	1483	1495	1499	1493	1477	1456	1459	1459	1467	1473	1470	1456	1455	1463	1469	1464	1462	1470	1478	1494	1500	1498	1492	1487	1494	1502	1503	1499	1495	1490	1470	1458	1458	1464	1480	1488	1494	1494	1481	1466	1451	1445	1448	1457	1460	1467	1474	1487	1499	1495	1474	1446	1438	1443	1455	1452	1449	1439	1441	1453	1463	1492	1492	1482	1470	1460	1461	1458	1462	1460	1456	1462	1477	1477	1468	1465	1462	1458	1451	1453	1451	1451	1456	1461	1464	1463	1463	1462	1464	1479	1479	1468	1461	1453	1454	1459	1466	1456	1433	1436	1447	1464	1475	1466	1454	1454	1446	1456	1461	1449	1445	1448	0	0	0	0	0	0	0
0	0	0	0	0	0	0	0	0	0	0	0	0	0	0	0	0	0	0	0	0	0	0	0	0	0	0	0	0	0	0	0	0	0	0	0	0	0	0	0	0	0	0	0	0	0	0	0	0	0	0	0	0	0	0	0	0	0	0	0	0	0	0	0	0	0	0	0	0	0	0	0	0	0	0	0	0	0	0	0	0	0	0	0	0	0	0	0	0	0	0	0	0	1440	1440	1447	1446	1450	1450	1454	1463	1471	1483	1487	1485	1482	1478	1468	1462	1451	1434	1439	1452	1459	1431	1440	1454	1466	1469	1442	1437	1436	1432	1433	1456	1463	1456	1446	1450	1447	1458	1459	1458	1464	1462	1460	1470	1472	1488	1491	1486	1480	1475	1470	1456	1449	1449	1458	1465	1466	1466	1468	1461	1452	1444	1434	1427	1422	1430	1447	1474	1486	1467	1448	1437	1443	1461	1467	1473	1470	1465	1468	1466	1465	1462	1460	1454	1444	1441	1434	1432	1435	1466	1488	1499	1502	1496	1498	1497	1498	1489	1484	1466	1468	1469	1463	1468	1476	1485	1482	1463	1464	1468	1467	1465	1469	1474	1484	1487	1488	1483	1474	1456	1452	1452	1444	1447	1453	1462	1419	1344	1259	1197	1151	1124	1093	1068	1069	1077	1084	1080	1062	1045	1026	1026	1026	1032	1046	1056	1063	1059	1039	1019	1013	1022	1041	1036	1028	1042	1049	1067	1065	1050	1030	1030	1048	1070	1087	1082	1057	1037	1038	1052	0	0	0	0	0	0	0	1318	1418	1472	1471	1455	1446	1443	1446	1473	1478	1474	1472	1479	1486	1487	1467	1455	1452	1456	1457	1458	1458	1475	1495	1510	1514	1520	1521	1499	1475	1465	1466	1478	1491	1501	1504	1501	1499	1491	1483	1486	1483	1487	1484	1492	1494	1491	1481	1476	1458	1475	1482	1472	1464	1459	1456	1461	1472	1479	1492	1487	1475	1459	1443	1436	1436	1436	1439	1447	1473	1512	1494	1485	1493	1510	1508	1523	1533	1521	1507	1496	1492	1487	1480	1474	1463	1466	1469	1466	1463	1464	1450	1451	1455	1468	1483	1493	1498	1503	1510	1511	1503	1493	1479	1468	1455	1454	1452	1448	1454	1471	1495	1508	1505	1494	1472	1474	1481	1483	1482	1481	1488	1493	1495	1484	1493	1512	1511	1500	1488	1480	1463	1435	0	0	0	0	0	0	0	0	0	0	0	1028	1026	1024	1032	0	0	0	0	1018	1010	1018	1013	1012	1017	1023	1036	1024	1001	1004	1012	1025	1041	1047	1054	1043	1035	1036	1029	1020	1014	1014	0	0	0	0	0	0	0	0	0	0	1094	1128	1163	1206	1249	1360	1396	1398	1393	1410	1442	1472	1487	1483	1454	1448	1456	1466	1457	1461	1475	1472	1478	1477	1474	1472	1459	1457	1463	1474	1490	1490	1480	1471	1476	1478	1488	1493	1480	1468	1456	1465	1467	1462	1467	1479	1482	1480	1474	1466	1463	1451	1447	1443	1435	1435	1439	1450	1460	1465	1490	1483	1482	1475	1471	1475	1487	1498	1500	1499	1489	1480	1475	1456	1459	1472	1474	1464	1456	1457	1460	1458	1451	1454	1465	1483	1501	1501	1493	1494	1496	1505	1500	1482	1479	1475	1463	1451	1443	1455	1471	1488	1499	1500	1488	1464	1454	1451	1457	1463	1464	1465	1473	1486	1495	1484	1464	1445	1435	1442	1455	1452	1446	1441	1446	1453	1460	1491	1491	1487	1474	1464	1457	1455	1456	1450	1457	1463	1477	1479	1471	1467	1462	1457	1452	1456	1461	1454	1453	1456	1464	1465	1468	1478	1483	1483	1485	1466	1444	1433	1437	1452	1468	1476	1454	1438	1440	1457	1467	1471	1465	1465	1463	1466	1472	1470	1464	1462	0	0	0	0	0	0	0
0	0	0	0	0	0	0	0	0	0	0	0	0	0	0	0	0	0	0	0	0	0	0	0	0	0	0	0	0	0	0	0	0	0	0	0	0	0	0	0	0	0	0	0	0	0	0	0	0	0	0	0	0	0	0	0	0	0	0	0	0	0	0	0	0	0	0	0	0	0	0	0	0	0	0	0	0	0	0	0	0	0	0	0	0	0	0	0	0	0	0	0	0	1432	1446	1453	1457	1450	1445	1438	1450	1471	1489	1494	1493	1491	1476	1464	1456	1449	1426	1432	1433	1442	1433	1442	1455	1475	1479	1451	1445	1443	1435	1436	1469	1474	1474	1460	1460	1459	1457	1458	1461	1463	1464	1465	1462	1461	1476	1491	1490	1485	1476	1466	1449	1444	1439	1451	1460	1460	1454	1455	1456	1455	1447	1446	1435	1437	1444	1452	1459	1465	1454	1451	1447	1451	1466	1465	1473	1473	1472	1469	1459	1459	1460	1457	1449	1435	1428	1431	1426	1431	1458	1486	1490	1492	1496	1499	1500	1498	1497	1483	1474	1481	1485	1493	1486	1485	1479	1476	1459	1453	1464	1469	1463	1465	1465	1492	1492	1489	1480	1460	1453	1448	1445	1439	1433	1399	1299	1228	1183	1126	1112	1116	1107	1086	1065	1063	1067	1067	1061	1042	1023	1012	1008	1014	1023	1032	1035	1038	1026	1012	1004	1007	1017	1028	1021	1009	1004	1013	1052	1051	1035	1028	1028	1040	1068	1081	1077	1052	1027	1025	0	0	0	0	0	0	0	0	1340	1426	1453	1445	1434	1427	1426	1434	1460	1468	1470	1468	1473	1476	1473	1459	1452	1456	1462	1467	1460	1457	1467	1487	1508	1514	1518	1513	1498	1463	1452	1458	1474	1490	1499	1501	1501	1501	1492	1485	1486	1482	1473	1471	1485	1490	1490	1481	1473	1454	1474	1476	1475	1468	1462	1458	1464	1477	1479	1481	1481	1471	1457	1444	1440	1435	1434	1436	1438	1469	1508	1493	1485	1483	1500	1504	1524	1535	1534	1522	1505	1496	1484	1468	1466	1459	1459	1463	1461	1459	1452	1447	1443	1443	1464	1486	1500	1504	1507	1509	1509	1505	1499	1465	1447	1442	1450	1458	1461	1452	1453	1474	1493	1500	1487	1473	1471	1473	1476	1464	1467	1479	1489	1503	1507	1511	1508	1506	1497	1490	1479	1459	1434	0	0	0	0	0	0	0	0	0	0	0	0	1019	1017	0	0	0	0	0	0	1040	1040	1026	0	0	1017	1017	1010	993	994	999	1012	1032	1048	1049	1038	1021	1011	1005	1003	1002	0	0	0	0	0	0	0	0	0	0	0	0	1078	1103	1118	1128	1154	1220	1274	1383	1400	1430	1462	1482	1484	1462	1456	1475	1470	1467	1478	1480	1477	1476	1483	1488	1485	1479	1475	1483	1487	1487	1485	1485	1480	1486	1496	1507	1508	1497	1483	1472	1467	1479	1484	1487	1501	1492	1491	1487	1483	1473	1467	1461	1455	1455	1453	1445	1446	1449	1477	1478	1477	1475	1474	1469	1483	1491	1495	1494	1498	1501	1506	1477	1458	1452	1466	1486	1472	1458	1454	1456	1458	1459	1454	1454	1472	1488	1488	1481	1486	1490	1492	1483	1469	1449	1452	1454	1447	1444	1447	1468	1494	1505	1504	1496	1482	1470	1464	1465	1470	1466	1467	1468	1478	1483	1478	1458	1449	1451	1460	1451	1448	1441	1442	1450	1464	1477	1491	1483	1483	1472	1463	1453	1447	1452	1448	1456	1470	1479	1475	1465	1465	1462	1460	1460	1463	1468	1461	1456	1460	1465	1473	1482	1489	1489	1489	1470	1445	1421	1419	1431	1452	1479	1483	1476	1454	1438	1447	1449	1465	1471	1471	1467	1465	1458	1462	1467	1468	0	0	0	0	0	0	0
0	0	0	0	0	0	0	0	0	0	0	0	0	0	0	0	0	0	0	0	0	0	0	0	0	0	0	0	0	0	0	0	0	0	0	0	0	0	0	0	0	0	0	0	0	0	0	0	0	0	0	0	0	0	0	0	0	0	0	0	0	0	0	0	0	0	0	0	0	0	0	0	0	0	0	0	0	0	0	0	0	0	0	0	0	0	0	0	0	0	0	0	0	1440	1459	1466	1462	1450	1439	1433	1457	1481	1494	1493	1491	1488	1469	1460	1464	1471	1454	1434	1434	1442	1441	1451	1463	1476	1470	1455	1445	1446	1445	1464	1475	1480	1485	1485	1483	1476	1472	1472	1465	1468	1467	1462	1445	1441	1456	1468	1472	1469	1460	1451	1451	1446	1446	1454	1464	1456	1452	1451	1449	1455	1453	1447	1444	1448	1449	1447	1446	1438	1439	1444	1459	1464	1466	1471	1467	1467	1462	1457	1455	1456	1460	1455	1445	1432	1435	1440	1436	1443	1463	1478	1485	1482	1486	1491	1490	1500	1490	1476	1470	1495	1504	1503	1487	1480	1469	1461	1450	1454	1469	1470	1466	1467	1468	1486	1492	1484	1472	1451	1437	1432	1423	1374	1333	1243	1187	1161	1143	0	0	1120	1106	1073	1070	1063	1055	1050	1038	1031	1018	1005	1001	998	1004	1001	995	998	993	987	989	1001	1013	1020	1002	990	981	985	992	1003	1030	1026	1027	1045	1063	1077	1076	1058	1043	0	0	0	0	0	0	0	0	1338	1420	1459	1455	1443	1428	1422	1419	1436	1449	1463	1464	1465	1471	1474	1462	1452	1453	1461	1474	1477	1467	1456	1464	1481	1500	1512	1513	1500	1480	1457	1445	1456	1476	1498	1503	1505	1507	1503	1499	1492	1487	1481	1478	1472	1480	1487	1483	1469	1465	1471	1478	1476	1469	1465	1462	1467	1477	1490	1506	1497	1489	1469	1455	1440	1431	1435	1450	1466	1485	1500	1476	1460	1455	1440	1437	1453	1470	1480	1486	1481	1479	1477	1474	1461	1450	1442	1454	1446	1452	1452	1444	1442	1438	1449	1466	1484	1492	1503	1500	1493	1493	1487	1483	1455	1447	1443	1462	1476	1475	1465	1459	1469	1482	1488	1483	1482	1477	1474	1460	1460	1463	1477	1487	1494	1494	1499	1498	1498	1492	1491	1483	1472	1455	1427	0	0	0	0	0	0	0	0	0	0	0	0	0	0	0	0	0	0	0	0	0	0	0	0	0	0	0	0	0	0	0	0	1031	1041	1027	1011	997	995	997	0	0	0	0	0	0	0	0	0	0	0	0	0	1059	1065	1081	1095	1101	1095	1102	1148	1268	1380	1438	1462	1475	1457	1464	1474	1476	1476	1478	1478	1472	1477	1484	1495	1491	1494	1492	1491	1486	1477	1481	1480	1483	1492	1504	1513	1515	1501	1490	1477	1475	1483	1493	1503	1497	1506	1503	1499	1495	1487	1477	1471	1467	1466	1458	1454	1441	1443	1461	1471	1468	1466	1469	1479	1495	1496	1486	1485	1495	1506	1503	1490	1470	1460	1461	1476	1474	1459	1452	1460	1462	1462	1463	1465	1467	1471	1469	1472	1488	1491	1484	1473	1454	1441	1440	1450	1456	1453	1465	1484	1495	1496	1496	1490	1487	1477	1475	1477	1470	1465	1468	1472	1475	1480	1474	1456	1460	1459	1457	1455	1447	1443	1440	1460	1473	1483	1492	1484	1479	1465	1449	1453	1454	1457	1457	1465	1478	1483	1482	1472	1478	1478	1481	1480	1475	1475	1469	1464	1463	1466	1484	1494	1500	1486	1486	1462	1434	1416	1417	1440	1465	1487	1496	1485	1464	1440	1432	1440	1450	1450	1463	1469	1460	1441	1443	1449	1456	0	0	0	0	0	0	0
0	0	0	0	0	0	0	0	0	0	0	0	0	0	0	0	0	0	0	0	0	0	0	0	0	0	0	0	0	0	0	0	0	0	0	0	0	0	0	0	0	0	0	0	0	0	0	0	0	0	0	0	0	0	0	0	0	0	0	0	0	0	0	0	0	0	0	0	0	0	0	0	0	0	0	0	0	0	0	0	0	0	0	0	0	0	0	0	0	0	0	0	0	1451	1461	1456	1456	1450	1449	1456	1470	1488	1501	1502	1496	1490	1466	1462	1473	1474	1458	1450	1450	1445	1447	1452	1462	1468	1461	1464	1473	1472	1470	1466	1462	1470	1490	1499	1503	1500	1496	1487	1469	1467	1464	1457	1443	1434	1437	1450	1454	1459	1454	1450	1459	1462	1456	1456	1460	1458	1444	1438	1446	1445	1450	1447	1450	1449	1453	1450	1440	1428	1428	1437	1471	1471	1476	1467	1464	1451	1445	1449	1452	1454	1465	1458	1445	1440	1445	1455	1462	1470	1478	1478	1475	1472	1476	1477	1484	1488	1483	1469	1470	1487	1499	1488	1477	1462	1453	1449	1457	1461	1472	1472	1469	1465	1468	1467	1479	1472	1459	1429	1382	1359	1313	1271	1224	1195	1175	1158	0	0	0	0	0	1070	1061	1057	1048	1047	1042	1038	1030	1018	1009	996	988	981	974	974	972	973	987	1027	0	0	0	0	0	0	0	0	0	0	1024	1040	1063	1076	1076	1072	0	0	0	0	0	0	0	0	1329	1404	1442	1471	1475	1465	1450	1442	1460	1489	1495	1494	1478	1455	1447	1460	1474	1482	1481	1487	1500	1509	1506	1501	1498	1498	1505	1505	1502	1494	1498	1488	1476	1469	1468	1476	1492	1503	1501	1500	1481	1488	1487	1502	1488	1493	1490	1486	1472	1461	1471	1481	1486	1482	1475	1465	1462	1462	1471	1483	1494	1492	1481	1479	1471	1448	1433	1435	1451	1477	1505	1520	1507	1456	1450	1449	1459	1462	1468	1470	1475	1473	1475	1481	1488	1480	1456	1448	1459	1457	1458	1462	1465	1459	1451	1457	1470	1492	1499	1490	1479	1467	1464	1464	1469	1463	1446	1457	1484	1497	1484	1476	1480	1485	1480	1476	1477	1487	1486	1484	1485	1478	1481	1487	1482	1482	1477	1478	1480	1481	1481	1487	1489	1476	1466	1448	0	0	0	0	0	0	0	0	0	0	0	0	0	0	0	0	0	0	0	0	0	0	0	0	0	0	0	0	0	0	0	0	0	0	0	0	997	0	0	0	0	0	0	0	0	0	0	0	0	0	0	0	0	0	1059	1061	1066	1047	1038	1057	1097	1140	1234	1372	1428	1466	1460	1467	1474	1479	1476	1475	1470	1472	1484	1493	1489	1499	1498	1498	1483	1478	1478	1478	1481	1490	1500	1505	1505	1497	1485	1484	1485	1493	1500	1501	1508	1515	1507	1504	1493	1488	1484	1471	1471	1466	1463	1451	1440	1446	1471	1467	1466	1469	1471	1484	1493	1490	1489	1491	1500	1504	1510	1494	1472	1460	1473	1478	1473	1464	1457	1466	1462	1461	1465	1465	1465	1458	1451	1469	1495	1498	1486	1466	1460	1455	1445	1457	1474	1486	1491	1499	1502	1497	1487	1490	1472	1470	1472	1472	1470	1465	1471	1483	1486	1483	1475	1475	1475	1473	1467	1456	1448	1444	1441	1453	1467	1480	1480	1476	1475	1461	1447	1446	1453	1459	1466	1469	1477	1488	1485	1487	1487	1494	1494	1486	1483	1475	1470	1466	1469	1477	1492	1503	1502	1482	1482	1456	1441	1431	1437	1457	1472	1486	1493	1487	1474	1453	1434	1438	1448	1448	1466	1469	1453	1439	1427	1436	1430	0	0	0	0	0	0	0
0	0	0	0	0	0	0	0	0	0	0	0	0	0	0	0	0	0	0	0	0	0	0	0	0	0	0	0	0	0	0	0	0	0	0	0	0	0	0	0	0	0	0	0	0	0	0	0	0	0	0	0	0	0	0	0	0	0	0	0	0	0	0	0	0	0	0	0	0	0	0	0	0	0	0	0	0	0	0	0	0	0	0	0	0	0	0	0	0	0	0	0	0	1453	1457	1466	1464	1465	1476	1491	1500	1504	1496	1492	1498	1495	1481	1472	1467	1451	1434	1427	1426	1427	1434	1442	1451	1450	1462	1476	1480	1480	1466	1450	1454	1459	1480	1497	1504	1500	1488	1484	1473	1473	1475	1462	1452	1439	1430	1438	1443	1442	1444	1445	1463	1474	1469	1455	1451	1454	1451	1446	1440	1440	1441	1443	1449	1455	1458	1452	1441	1429	1432	1466	1483	1483	1480	1473	1461	1447	1439	1442	1454	1466	1473	1466	1459	1461	1459	1466	1474	1484	1483	1479	1474	1468	1463	1464	1466	1468	1463	1451	1447	1476	1481	1470	1466	1435	1431	1440	1448	1463	1468	1470	1465	1464	1459	1458	1444	1424	1404	1324	1275	1261	1231	1197	1192	1180	1167	1155	0	0	0	0	0	0	1047	1044	1044	1038	0	0	1042	1035	1018	1009	990	968	964	964	967	976	984	1017	0	0	0	0	0	0	0	0	0	0	0	0	0	0	0	0	0	0	0	0	0	0	0	1326	1407	1442	1472	1483	1480	1482	1477	1475	1481	1490	1495	1484	1471	1454	1445	1454	1478	1492	1492	1491	1499	1506	1506	1505	1504	1505	1509	1506	1501	1497	1493	1485	1475	1465	1468	1475	1484	1488	1485	1480	1471	1475	1487	1487	1490	1489	1491	1487	1479	1470	1473	1484	1493	1495	1487	1469	1462	1458	1463	1463	1466	1470	1480	1477	1469	1451	1434	1437	1460	1488	1506	1509	1511	1490	1465	1454	1460	1461	1464	1464	1465	1467	1475	1492	1493	1494	1484	1480	1459	1462	1462	1465	1477	1475	1467	1462	1473	1494	1510	1505	1495	1467	1454	1455	1465	1477	1474	1491	1504	1510	1505	1494	1498	1494	1489	1479	1474	1494	1501	1501	1500	1504	1506	1499	1493	1481	1469	1468	1471	1463	1465	1469	1477	1479	1471	1467	1447	0	0	0	0	0	0	0	0	0	0	0	0	0	0	0	0	958	0	0	0	975	975	975	963	949	0	0	950	958	968	972	0	0	0	0	0	0	0	0	0	0	0	0	0	0	0	0	0	0	1024	1013	1020	1017	1002	994	1012	999	996	1002	1021	1052	1068	1103	1167	1437	1452	1459	1473	1477	1478	1478	1471	1475	1478	1481	1482	1487	1490	1486	1474	1467	1472	1472	1480	1485	1486	1491	1486	1478	1475	1483	1497	1502	1497	1499	1502	1513	1507	1492	1482	1481	1481	1475	1471	1470	1465	1460	1457	1458	1476	1482	1476	1479	1478	1487	1475	1472	1469	1479	1494	1503	1501	1487	1480	1479	1473	1476	1475	1471	1477	1478	1466	1457	1461	1459	1451	1442	1441	1466	1495	1504	1487	1470	1462	1460	1451	1465	1480	1487	1496	1500	1505	1508	1489	1472	1467	1460	1464	1461	1457	1463	1475	1485	1488	1487	1481	1478	1477	1479	1477	1464	1458	1449	1444	1448	1453	1460	1467	1470	1466	1460	1453	1451	1462	1464	1465	1465	1474	1479	1486	1492	1490	1491	1489	1486	1478	1463	1456	1461	1465	1480	1491	1497	1491	1477	1477	1467	1452	1449	1452	1463	1467	1477	1484	1483	1482	1466	1443	1439	1444	1444	1461	1473	1454	1440	1430	1415	1413	0	0	0	0	0	0	0
0	0	0	0	0	0	0	0	0	0	0	0	0	0	0	0	0	0	0	0	0	0	0	0	0	0	0	0	0	0	0	0	0	0	0	0	0	0	0	0	0	0	0	0	0	0	0	0	0	0	0	0	0	0	0	0	0	0	0	0	0	0	0	0	0	0	0	0	0	0	0	0	0	0	0	0	0	0	0	0	0	0	0	0	0	0	0	0	0	0	0	0	0	1434	1466	1473	1470	1467	1478	1492	1499	1492	1493	1489	1493	1492	1487	1476	1465	1451	1432	1428	1430	1430	1430	1443	1449	1451	1460	1465	1472	1467	1463	1463	1460	1467	1481	1490	1487	1477	1459	1449	1463	1467	1461	1457	1448	1442	1433	1433	1427	1430	1441	1456	1469	1472	1469	1450	1433	1452	1457	1455	1455	1449	1443	1442	1441	1447	1455	1464	1448	1449	1472	1477	1482	1484	1480	1472	1459	1441	1435	1439	1450	1465	1476	1475	1479	1473	1476	1468	1471	1474	1466	1461	1455	1459	1456	1454	1449	1443	1445	1441	1438	1463	1464	1451	1427	1428	1428	1441	1447	1453	1457	1465	1469	1467	1450	1440	1295	1235	1221	1229	1216	1210	1188	1178	1166	1160	1152	1139	0	0	0	0	0	0	1024	1020	1023	1020	1036	1036	1030	1015	1009	1004	991	973	964	962	969	975	977	983	987	982	984	969	946	932	943	946	0	0	0	0	0	0	0	0	0	0	0	0	0	0	1323	1443	1465	1484	1483	1484	1491	1495	1488	1479	1485	1492	1491	1487	1467	1451	1445	1453	1483	1498	1502	1502	1506	1505	1507	1500	1504	1506	1508	1502	1497	1492	1490	1480	1471	1472	1473	1477	1481	1481	1476	1470	1469	1473	1473	1479	1480	1485	1487	1487	1483	1480	1470	1489	1499	1504	1493	1475	1461	1457	1454	1452	1451	1456	1464	1467	1462	1450	1441	1446	1465	1487	1504	1503	1496	1494	1479	1468	1465	1462	1461	1460	1463	1466	1483	1491	1491	1491	1497	1485	1472	1467	1465	1462	1470	1473	1470	1471	1479	1483	1505	1508	1495	1479	1457	1458	1472	1486	1501	1508	1519	1522	1507	1500	1504	1513	1507	1494	1485	1492	1500	1503	1507	1524	1527	1515	1501	1476	1471	1464	1464	1456	1454	1457	1465	1464	1458	1456	1446	1440	0	0	0	0	0	0	0	0	0	0	0	0	0	0	976	947	929	934	942	945	947	946	939	931	932	937	948	954	960	957	945	931	924	927	952	978	0	0	0	0	990	949	928	929	947	971	981	991	991	973	954	946	938	937	944	956	962	968	986	1010	1029	1045	1063	1117	1284	1405	1449	1468	1475	1477	1475	1478	1475	1464	1460	1472	1473	1473	1468	1469	1469	1465	1469	1478	1472	1464	1469	1462	1467	1484	1503	1491	1492	1493	1498	1508	1500	1481	1472	1470	1470	1473	1471	1472	1474	1475	1480	1484	1481	1492	1490	1495	1498	1479	1470	1453	1445	1465	1491	1505	1505	1503	1500	1490	1486	1484	1484	1499	1493	1460	1451	1455	1450	1447	1431	1430	1442	1457	1471	1471	1473	1467	1465	1464	1458	1459	1464	1468	1465	1481	1495	1503	1492	1472	1459	1449	1446	1444	1442	1441	1448	1454	1463	1471	1477	1472	1460	1470	1473	1466	1465	1450	1447	1445	1446	1448	1462	1480	1479	1468	1476	1476	1474	1474	1467	1463	1462	1468	1477	1491	1492	1485	1482	1480	1471	1461	1453	1450	1460	1471	1478	1478	1476	1476	1469	1463	1461	1457	1458	1461	1461	1462	1469	1476	1479	1475	1458	1448	1453	1453	1472	1482	1451	1448	1442	1412	1379	0	0	0	0	0	0	0
0	0	0	0	0	0	0	0	0	0	0	0	0	0	0	0	0	0	0	0	0	0	0	0	0	0	0	0	0	0	0	0	0	0	0	0	0	0	0	0	0	0	0	0	0	0	0	0	0	0	0	0	0	0	0	0	0	0	0	0	0	0	0	0	0	0	0	0	0	0	0	0	0	0	0	0	0	0	0	0	0	0	0	0	0	0	0	0	0	0	0	0	0	1416	1467	1473	1472	1474	1480	1495	1493	1495	1485	1490	1493	1483	1493	1487	1474	1457	1431	1434	1440	1440	1443	1448	1451	1459	1457	1456	1458	1456	1466	1469	1472	1479	1476	1483	1480	1469	1452	1440	1446	1454	1456	1458	1449	1442	1442	1442	1436	1435	1444	1461	1471	1480	1466	1443	1439	1457	1471	1468	1454	1444	1447	1451	1450	1450	1462	1475	1477	1480	1480	1470	1474	1472	1470	1463	1454	1443	1440	1444	1444	1454	1464	1471	1480	1483	1480	1465	1458	1455	1448	1451	1453	1452	1444	1445	1445	1440	1439	1434	1438	1455	1455	1447	1439	1439	1441	1444	1447	1450	1451	1455	1453	1400	1302	1254	1180	1170	1166	1166	1178	1167	1161	1145	1139	1136	1132	1116	0	0	0	0	0	0	992	986	989	986	982	981	980	978	968	978	978	967	960	963	968	974	975	975	969	964	955	945	935	937	942	958	968	0	0	0	0	0	0	0	0	0	0	0	0	0	1400	1463	1486	1485	1484	1478	1491	1495	1489	1481	1481	1487	1490	1486	1470	1460	1455	1468	1506	1513	1499	1503	1492	1481	1496	1497	1496	1500	1501	1502	1497	1493	1490	1488	1478	1478	1472	1478	1481	1483	1482	1501	1499	1488	1482	1490	1494	1489	1478	1478	1480	1470	1475	1468	1477	1493	1479	1465	1459	1457	1454	1450	1449	1460	1459	1466	1465	1456	1450	1461	1486	1500	1490	1484	1488	1488	1485	1472	1474	1466	1463	1463	1462	1485	1498	1494	1499	1500	1503	1496	1484	1472	1464	1462	1452	1455	1470	1473	1469	1481	1498	1508	1500	1480	1465	1467	1481	1501	1511	1525	1528	1519	1501	1498	1503	1518	1511	1499	1489	1483	1486	1494	1503	1518	1526	1517	1499	1478	1465	1455	1463	1460	1454	1452	1455	1451	1449	1446	1437	1431	1442	0	0	0	0	0	0	0	0	0	0	0	0	0	0	949	916	905	905	915	924	926	924	909	914	930	945	951	952	941	926	909	907	914	937	955	977	985	992	980	963	931	902	900	918	939	955	960	958	942	933	921	921	923	921	912	913	928	957	978	1001	1013	1012	1017	1039	1189	1254	1324	1424	1462	1475	1491	1483	1458	1452	1454	1470	1477	1467	1463	1460	1456	1457	1467	1462	1458	1469	1474	1474	1494	1491	1483	1487	1487	1496	1489	1482	1471	1463	1464	1468	1472	1481	1490	1485	1490	1498	1493	1483	1481	1490	1499	1497	1479	1457	1444	1448	1474	1491	1497	1496	1509	1512	1512	1506	1514	1518	1508	1474	1430	1432	1445	1451	1454	1448	1441	1449	1452	1453	1460	1459	1469	1479	1485	1471	1452	1455	1452	1459	1475	1493	1490	1481	1473	1454	1441	1441	1445	1448	1438	1439	1441	1453	1457	1461	1461	1457	1443	1439	1437	1442	1450	1447	1437	1434	1437	1462	1482	1507	1525	1515	1498	1494	1488	1482	1465	1462	1458	1465	1489	1497	1493	1478	1475	1467	1464	1456	1448	1450	1461	1466	1469	1467	1467	1457	1462	1465	1462	1457	1457	1454	1451	1456	1458	1467	1472	1475	1462	1462	1462	1478	1486	1468	1462	1457	1428	1385	0	0	0	0	0	0	0
0	0	0	0	0	0	0	0	0	0	0	0	0	0	0	0	0	0	0	0	0	0	0	0	0	0	0	0	0	0	0	0	0	0	0	0	0	0	0	0	0	0	0	0	0	0	0	0	0	0	0	0	0	0	0	0	0	0	0	0	0	0	0	0	0	0	0	0	0	0	0	0	0	0	0	0	0	0	0	0	0	0	0	0	0	0	0	0	0	0	0	0	0	1401	1462	1470	1470	1474	1481	1489	1490	1475	1480	1479	1487	1495	1494	1487	1477	1449	1416	1431	1451	1460	1456	1460	1458	1455	1450	1442	1448	1454	1466	1468	1468	1472	1479	1484	1484	1477	1463	1443	1437	1453	1459	1461	1448	1442	1446	1461	1459	1450	1449	1468	1487	1492	1470	1443	1439	1457	1471	1464	1448	1445	1446	1454	1459	1458	1453	1445	1442	1456	1477	1475	1460	1450	1448	1451	1446	1451	1454	1454	1442	1439	1449	1464	1476	1485	1489	1467	1457	1446	1446	1447	1440	1438	1435	1431	1435	1429	1430	1438	1450	1458	1454	1447	1440	1441	1444	1435	1436	1431	1406	1351	1288	1197	1180	1165	1126	1120	1119	1122	1128	1125	1120	1119	1106	1102	1095	1087	1065	0	0	0	0	991	973	964	961	956	954	950	946	940	948	957	965	961	956	957	957	964	967	967	957	953	949	943	940	947	953	962	982	0	0	0	0	0	0	0	0	0	0	0	0	1369	1423	1472	1492	1489	1486	1490	1499	1501	1491	1483	1479	1477	1482	1488	1477	1469	1463	1489	1474	1462	1471	1479	1484	1475	1472	1488	1491	1490	1490	1494	1492	1489	1492	1488	1487	1481	1471	1471	1473	1474	1483	1487	1488	1492	1494	1507	1524	1493	1480	1483	1483	1483	1476	1471	1487	1490	1470	1457	1451	1453	1458	1456	1461	1468	1471	1472	1466	1464	1460	1469	1487	1500	1498	1490	1480	1477	1473	1468	1466	1471	1474	1466	1474	1497	1502	1498	1500	1505	1502	1501	1495	1485	1470	1464	1456	1450	1451	1462	1467	1480	1500	1513	1509	1492	1477	1479	1491	1509	1525	1536	1532	1517	1505	1497	1505	1512	1505	1498	1484	1479	1482	1481	1494	1506	1509	1506	1504	1485	1470	1465	1465	1465	1466	1457	1454	1446	1440	1438	1432	1427	1439	0	0	0	0	0	0	0	0	0	0	0	0	0	0	947	907	899	897	900	907	912	912	900	901	909	930	938	937	932	915	896	903	915	927	944	944	942	941	942	926	912	901	905	913	925	921	936	934	919	908	912	912	913	907	892	889	901	928	953	975	971	959	970	990	1010	1028	1078	1193	1319	1378	1443	1461	1445	1448	1463	1476	1487	1473	1459	1447	1448	1446	1459	1465	1472	1492	1505	1516	1502	1489	1478	1475	1482	1485	1475	1473	1465	1462	1461	1471	1480	1502	1512	1506	1500	1498	1490	1475	1473	1475	1482	1462	1456	1452	1439	1443	1462	1474	1479	1487	1503	1509	1500	1509	1524	1522	1501	1457	1415	1419	1440	1459	1464	1473	1472	1476	1456	1449	1455	1460	1479	1492	1489	1471	1444	1440	1445	1458	1476	1488	1482	1477	1471	1458	1451	1449	1454	1455	1449	1440	1446	1451	1455	1462	1465	1456	1447	1438	1434	1438	1446	1450	1445	1436	1439	1454	1483	1500	1528	1529	1517	1508	1503	1504	1485	1468	1455	1473	1492	1501	1493	1477	1468	1468	1461	1460	1449	1452	1456	1469	1468	1465	1465	1464	1466	1465	1462	1456	1450	1451	1449	1447	1449	1455	1464	1468	1466	1460	1460	1465	1470	1473	1474	1473	1444	1402	0	0	0	0	0	0	0
0	0	0	0	0	0	0	0	0	0	0	0	0	0	0	0	0	0	0	0	0	0	0	0	0	0	0	0	0	0	0	0	0	0	0	0	0	0	0	0	0	0	0	0	0	0	0	0	0	0	0	0	0	0	0	0	0	0	0	0	0	0	0	0	0	0	0	0	0	0	0	0	0	0	0	0	0	0	0	0	0	0	0	0	0	0	0	0	0	0	0	0	0	1398	1450	1465	1470	1469	1470	1472	1474	1461	1461	1480	1491	1503	1493	1479	1462	1424	1437	1443	1463	1464	1460	1469	1464	1454	1451	1448	1456	1466	1469	1464	1459	1468	1477	1482	1487	1481	1468	1448	1439	1456	1466	1465	1453	1448	1450	1461	1466	1463	1461	1480	1504	1505	1488	1460	1449	1453	1476	1470	1467	1451	1444	1452	1451	1453	1443	1429	1427	1445	1466	1484	1476	1458	1443	1456	1452	1465	1473	1467	1457	1442	1447	1458	1473	1480	1487	1465	1453	1442	1441	1440	1439	1432	1425	1419	1422	1420	1432	1459	1464	1464	1453	1440	1437	1433	1414	1354	1270	1238	1177	1155	1130	1123	1106	1094	1079	1070	1069	1080	1081	1087	1095	1090	1080	1077	1076	1064	1044	0	0	0	1012	991	966	954	952	946	940	935	932	934	941	958	964	965	957	949	948	942	938	933	937	937	935	952	957	963	971	0	0	0	0	0	0	0	0	0	0	0	1357	1416	1376	1409	1433	1453	1455	1478	1497	1507	1519	1520	1499	1484	1477	1471	1476	1483	1484	1471	1483	1481	1471	1460	1458	1463	1464	1470	1483	1491	1490	1490	1493	1492	1492	1488	1487	1486	1481	1473	1465	1459	1454	1466	1474	1491	1495	1512	1511	1520	1530	1523	1495	1490	1487	1482	1477	1476	1497	1484	1473	1458	1453	1456	1465	1475	1476	1483	1479	1476	1468	1464	1466	1460	1479	1492	1489	1481	1474	1473	1466	1465	1470	1470	1472	1466	1474	1492	1504	1511	1509	1505	1503	1503	1499	1491	1480	1482	1469	1461	1459	1464	1471	1491	1503	1510	1506	1494	1489	1481	1492	1509	1533	1542	1532	1516	1504	1496	1505	1507	1504	1486	1473	1454	1455	1468	1481	1483	1489	1493	1493	1492	1476	1472	1475	1475	1474	1466	1461	1454	1451	1445	1437	1435	1428	1401	0	0	0	0	0	0	0	0	0	0	0	0	0	941	907	893	890	886	890	903	902	891	888	896	906	914	918	915	904	898	894	904	904	904	894	886	895	899	903	898	895	898	906	910	912	918	911	905	901	906	906	907	893	882	882	893	915	935	946	942	921	931	942	950	954	963	1021	1105	1181	1297	1345	1382	1397	1444	1472	1484	1464	1441	1431	1441	1451	1459	1469	1482	1496	1512	1515	1505	1492	1487	1485	1480	1482	1461	1465	1466	1469	1469	1475	1483	1499	1512	1515	1501	1501	1494	1493	1481	1482	1471	1458	1455	1453	1448	1456	1462	1463	1472	1469	1491	1504	1505	1511	1523	1521	1490	1462	1456	1451	1456	1466	1479	1492	1497	1492	1471	1461	1459	1460	1473	1486	1489	1474	1445	1439	1455	1465	1481	1487	1485	1476	1468	1473	1469	1456	1457	1451	1451	1451	1456	1462	1462	1468	1468	1461	1459	1444	1438	1439	1455	1462	1456	1453	1460	1468	1483	1492	1512	1513	1508	1500	1494	1481	1470	1466	1465	1484	1498	1501	1493	1478	1468	1466	1465	1463	1461	1463	1470	1476	1473	1473	1473	1472	1473	1471	1461	1454	1441	1446	1450	1454	1453	1459	1464	1467	1456	1451	1451	1458	1459	1473	1479	1484	1471	1411	0	0	0	0	0	0	0
0	0	0	0	0	0	0	0	0	0	0	0	0	0	0	0	0	0	0	0	0	0	0	0	0	0	0	0	0	0	0	0	0	0	0	0	0	0	0	0	0	0	0	0	0	0	0	0	0	0	0	0	0	0	0	0	0	0	0	0	0	0	0	0	0	0	0	0	0	0	0	0	0	0	0	0	0	0	0	0	0	0	0	0	0	0	0	0	0	0	0	0	0	1395	1437	1455	1464	1463	1461	1458	1455	1453	1461	1477	1498	1509	1487	1468	1461	1460	1463	1463	1467	1461	1457	1461	1467	1463	1456	1456	1467	1473	1465	1463	1457	1466	1473	1471	1474	1476	1467	1453	1447	1453	1465	1460	1454	1450	1449	1454	1456	1459	1473	1501	1516	1512	1494	1470	1453	1461	1474	1480	1468	1447	1443	1442	1440	1438	1433	1431	1431	1442	1461	1471	1470	1483	1470	1469	1476	1481	1488	1493	1464	1457	1450	1463	1472	1477	1481	1466	1445	1437	1438	1442	1444	1441	1432	1426	1417	1430	1458	1462	1468	1462	1447	1424	1402	1396	1333	1204	1119	1082	1082	1092	1101	1095	1083	1072	1061	1044	1040	1041	1050	1065	1081	1084	1074	1070	1069	1058	1035	1019	1021	1019	998	982	960	961	966	965	960	949	936	936	945	963	968	969	962	957	940	921	897	889	900	912	919	963	979	0	0	0	0	0	0	0	0	0	0	0	0	1360	1422	1428	1435	1448	1459	1462	1455	1464	1500	1512	1521	1516	1503	1488	1478	1476	1480	1485	1484	1465	1487	1490	1488	1464	1460	1465	1466	1470	1491	1501	1501	1495	1498	1504	1503	1494	1489	1488	1483	1480	1471	1466	1461	1454	1466	1480	1509	1504	1509	1517	1514	1511	1495	1492	1487	1486	1482	1498	1511	1503	1477	1460	1455	1460	1478	1482	1485	1474	1466	1469	1461	1463	1462	1457	1479	1487	1483	1482	1480	1477	1477	1473	1473	1472	1466	1460	1465	1482	1504	1518	1518	1514	1498	1494	1489	1488	1491	1491	1491	1476	1470	1476	1481	1492	1503	1504	1500	1496	1483	1477	1472	1494	1517	1533	1522	1507	1499	1491	1504	1505	1499	1477	1453	1440	1438	1454	1466	1481	1483	1484	1488	1491	1492	1490	1496	1494	1482	1475	1468	1465	1463	1462	1450	1444	1442	1434	1383	0	0	0	0	0	0	0	0	0	0	0	0	0	910	890	880	880	874	884	885	876	876	880	884	891	901	905	900	893	888	891	883	874	869	863	869	872	878	878	878	882	891	897	902	906	905	900	899	898	900	896	891	890	890	897	910	919	920	917	902	904	906	899	895	902	919	959	994	1066	1184	1298	1323	1356	1425	1455	1438	1421	1425	1439	1447	1462	1474	1489	1505	1517	1514	1503	1492	1488	1495	1487	1480	1478	1473	1471	1481	1484	1479	1484	1484	1480	1490	1505	1507	1510	1498	1500	1491	1479	1460	1456	1455	1462	1467	1474	1472	1467	1474	1476	1489	1494	1514	1518	1510	1493	1484	1478	1480	1471	1473	1487	1493	1497	1486	1467	1457	1455	1457	1465	1475	1478	1454	1455	1463	1471	1483	1483	1481	1473	1467	1470	1479	1476	1464	1454	1451	1450	1461	1466	1466	1464	1465	1471	1472	1465	1450	1447	1449	1467	1477	1476	1472	1469	1471	1486	1490	1492	1492	1486	1485	1483	1471	1457	1457	1464	1479	1506	1510	1494	1482	1469	1475	1471	1470	1473	1475	1479	1478	1477	1476	1476	1481	1481	1474	1474	1460	1438	1445	1461	1467	1462	1465	1463	1462	1450	1450	1451	1451	1457	1467	1476	1484	1490	0	0	0	0	0	0	0	0
0	0	0	0	0	0	0	0	0	0	0	0	0	0	0	0	0	0	0	0	0	0	0	0	0	0	0	0	0	0	0	0	0	0	0	0	0	0	0	0	0	0	0	0	0	0	0	0	0	0	0	0	0	0	0	0	0	0	0	0	0	0	0	0	0	0	0	0	0	0	0	0	0	0	0	0	0	0	0	0	0	0	0	0	0	0	0	0	0	0	0	0	0	1414	1430	1447	1456	1465	1460	1450	1449	1458	1471	1480	1492	1490	1478	1465	1469	1467	1459	1458	1459	1453	1455	1450	1455	1464	1468	1466	1466	1466	1463	1454	1451	1454	1458	1459	1463	1462	1450	1446	1437	1450	1458	1460	1456	1449	1450	1446	1440	1446	1468	1499	1520	1521	1502	1482	1470	1463	1471	1471	1465	1454	1441	1434	1432	1434	1432	1436	1440	1450	1455	1463	1457	1478	1492	1500	1494	1492	1495	1493	1489	1487	1480	1482	1465	1473	1479	1466	1449	1433	1430	1446	1447	1447	1439	1432	1436	1448	1455	1457	1461	1441	1380	1285	1245	1204	1119	1069	1056	1062	1074	1092	1087	1086	1075	1066	1063	1041	1043	1047	1053	1067	1078	1085	1078	1070	1065	1056	1032	1025	1029	1017	1002	984	976	0	0	0	0	977	959	952	955	964	968	965	971	960	936	905	879	868	0	0	0	0	0	0	0	0	0	0	0	0	0	0	0	0	1385	1455	1440	1430	1438	1449	1459	1452	1454	1464	1490	1502	1511	1508	1502	1495	1485	1482	1489	1492	1485	1471	1463	1485	1487	1479	1467	1477	1480	1472	1497	1517	1512	1512	1505	1507	1507	1499	1499	1497	1493	1488	1479	1473	1472	1475	1476	1483	1489	1494	1494	1499	1492	1487	1486	1499	1494	1493	1487	1505	1512	1505	1484	1465	1457	1467	1477	1470	1473	1476	1468	1468	1457	1453	1452	1461	1474	1483	1481	1489	1489	1491	1495	1485	1481	1481	1473	1467	1465	1483	1506	1528	1536	1529	1502	1486	1474	1477	1485	1496	1487	1468	1465	1468	1486	1497	1505	1501	1497	1483	1480	1468	1459	1479	1503	1518	1508	1493	1491	1484	1487	1495	1484	1464	1449	1437	1440	1457	1473	1483	1489	1483	1486	1495	1507	1507	1509	1507	1499	1479	1471	1475	1477	1479	1469	1464	1477	1477	1504	1485	0	0	0	0	0	0	0	0	0	0	0	0	0	898	882	874	860	842	839	850	852	865	869	875	885	889	885	885	882	872	865	853	855	854	860	859	858	859	859	860	864	875	891	894	899	901	900	891	885	881	888	895	899	902	904	903	905	897	893	893	886	876	867	863	874	898	921	953	992	1046	1104	1189	1298	1422	1413	1412	1420	1440	1464	1469	1474	1486	1509	1521	1520	1505	1496	1504	1511	1503	1488	1481	1486	1491	1499	1494	1498	1490	1485	1479	1486	1503	1518	1526	1504	1497	1487	1459	1458	1451	1454	1472	1485	1491	1484	1480	1472	1476	1484	1487	1501	1507	1499	1489	1485	1487	1471	1473	1468	1476	1473	1471	1468	1466	1457	1453	1459	1460	1462	1462	1460	1474	1487	1498	1500	1495	1480	1468	1467	1478	1477	1475	1462	1455	1455	1457	1465	1466	1469	1464	1466	1469	1475	1468	1461	1456	1460	1481	1496	1496	1482	1474	1476	1485	1495	1488	1478	1478	1478	1477	1471	1459	1454	1459	1474	1493	1499	1496	1486	1480	1485	1480	1476	1472	1470	1474	1474	1473	1473	1473	1481	1490	1490	1494	1487	1476	1467	1474	1476	1468	1467	1462	1451	1442	1442	1445	1454	1455	1460	1463	1473	1481	0	0	0	0	0	0	0	0
0	0	0	0	0	0	0	0	0	0	0	0	0	0	0	0	0	0	0	0	0	0	0	0	0	0	0	0	0	0	0	0	0	0	0	0	0	0	0	0	0	0	0	0	0	0	0	0	0	0	0	0	0	0	0	0	0	0	0	0	0	0	0	0	0	0	0	0	0	0	0	0	0	0	0	0	0	0	0	0	0	0	0	0	0	0	0	0	0	0	0	0	0	1431	1437	1443	1451	1460	1455	1445	1452	1468	1474	1482	1491	1484	1474	1466	1478	1494	1461	1460	1456	1458	1447	1443	1449	1462	1472	1476	1467	1461	1450	1441	1441	1445	1453	1454	1459	1455	1445	1436	1431	1436	1443	1449	1446	1436	1437	1428	1422	1426	1456	1495	1513	1516	1510	1501	1485	1473	1462	1453	1452	1455	1447	1438	1425	1421	1426	1435	1439	1445	1443	1445	1449	1478	1489	1491	1504	1502	1502	1502	1494	1482	1478	1480	1467	1463	1468	1480	1453	1443	1449	1454	1464	1452	1449	1438	1437	1439	1441	1431	1420	1361	1206	1164	1139	1120	1105	1081	1076	0	0	0	1109	1091	1084	1078	1078	1067	1061	1066	1069	1078	1094	1103	1092	1083	1075	1066	0	0	0	0	0	0	0	0	0	0	0	0	0	0	0	0	0	0	0	0	954	917	879	0	0	0	0	0	0	0	0	0	0	0	0	0	0	0	0	1383	1478	1465	1456	1448	1434	1450	1456	1446	1466	1477	1487	1494	1494	1498	1500	1496	1490	1486	1492	1497	1495	1477	1468	1466	1475	1492	1494	1480	1481	1484	1518	1521	1517	1505	1508	1510	1506	1499	1505	1504	1502	1496	1486	1476	1478	1479	1486	1490	1488	1482	1485	1465	1462	1465	1504	1494	1492	1493	1485	1490	1494	1494	1485	1478	1463	1474	1466	1470	1480	1486	1485	1490	1480	1462	1455	1466	1478	1479	1489	1497	1499	1500	1492	1495	1488	1484	1478	1473	1472	1486	1505	1521	1527	1530	1510	1486	1461	1456	1455	1456	1460	1463	1461	1469	1482	1498	1500	1496	1483	1472	1466	1463	1468	1487	1504	1504	1494	1487	1490	1490	1488	1473	1460	1455	1454	1462	1475	1481	1494	1500	1500	1496	1495	1501	1516	1516	1511	1504	1489	1478	1474	1475	1480	1484	1486	1483	1492	1503	1507	1498	1440	0	0	0	0	0	0	0	0	0	0	0	0	0	895	866	846	823	803	816	827	843	854	864	864	866	866	870	870	865	859	856	851	856	859	854	848	843	844	845	849	861	873	883	892	898	896	892	886	876	875	885	892	894	893	897	896	892	887	881	875	862	851	844	849	862	882	905	925	947	986	1030	1083	1343	1388	1401	1418	1453	1478	1473	1465	1477	1495	1517	1518	1507	1508	1513	1508	1499	1487	1479	1494	1498	1503	1500	1497	1496	1493	1485	1489	1505	1523	1506	1486	1478	1470	1464	1455	1450	1460	1489	1504	1508	1498	1490	1484	1482	1487	1491	1506	1505	1497	1488	1480	1479	1471	1467	1454	1459	1466	1464	1468	1471	1467	1470	1471	1468	1457	1453	1473	1490	1504	1498	1497	1493	1482	1474	1479	1484	1485	1480	1473	1465	1460	1459	1467	1469	1465	1460	1467	1475	1480	1483	1480	1469	1473	1486	1517	1515	1494	1477	1481	1493	1501	1487	1475	1470	1478	1479	1477	1470	1462	1470	1473	1481	1491	1491	1483	1482	1477	1466	1447	1455	1460	1461	1460	1460	1460	1466	1472	1482	1497	1492	1495	1485	1478	1475	1472	1470	1461	1455	1442	1429	1429	1440	1449	1451	1453	1447	1451	1442	0	0	0	0	0	0	0	0
0	0	0	0	0	0	0	0	0	0	0	0	0	0	0	0	0	0	0	0	0	0	0	0	0	0	0	0	0	0	0	0	0	0	0	0	0	0	0	0	0	0	0	0	0	0	0	0	0	0	0	0	0	0	0	0	0	0	0	0	0	0	0	0	0	0	0	0	0	0	0	0	0	0	0	0	0	0	0	0	0	0	0	0	0	0	0	0	0	0	0	0	0	1435	1444	1444	1449	1471	1467	1452	1450	1464	1473	1482	1481	1482	1479	1479	1483	1490	1479	1453	1458	1468	1465	1438	1438	1458	1472	1480	1473	1454	1445	1432	1437	1447	1456	1463	1465	1458	1444	1437	1424	1427	1438	1438	1438	1435	1435	1426	1420	1422	1446	1490	1499	1502	1511	1501	1489	1480	1452	1441	1444	1458	1458	1441	1426	1415	1423	1427	1435	1439	1438	1436	1451	1479	1480	1486	1494	1500	1502	1501	1496	1490	1478	1473	1459	1451	1460	1473	1459	1444	1437	1452	1469	1463	1448	1439	1425	1416	1387	1367	1335	1234	0	0	1118	1120	1114	0	0	0	0	0	0	1118	1112	1108	1117	1105	1098	1096	1098	1110	1133	1134	1130	1115	1103	1097	0	0	0	0	0	0	0	0	0	0	0	0	0	0	0	0	0	0	0	0	0	0	0	0	0	0	0	0	0	0	0	0	0	0	0	0	0	0	1353	1454	1453	1455	1460	1464	1439	1457	1454	1446	1473	1494	1502	1492	1489	1485	1493	1494	1491	1490	1493	1496	1496	1487	1464	1463	1475	1489	1502	1469	1466	1487	1517	1511	1509	1510	1511	1509	1507	1510	1515	1512	1503	1495	1482	1477	1481	1490	1497	1499	1494	1478	1453	1448	1457	1486	1509	1497	1493	1494	1482	1473	1472	1473	1481	1488	1480	1479	1478	1485	1495	1508	1511	1513	1504	1489	1479	1485	1492	1491	1498	1504	1502	1487	1482	1491	1491	1483	1467	1456	1446	1456	1469	1486	1498	1509	1499	1488	1467	1470	1468	1467	1467	1469	1468	1474	1485	1490	1484	1471	1456	1457	1457	1479	1492	1507	1515	1509	1501	1505	1507	1501	1479	1464	1453	1456	1469	1483	1492	1499	1506	1510	1509	1508	1495	1493	1499	1495	1485	1482	1476	1472	1468	1471	1480	1490	1488	1491	1496	1495	1498	1497	1467	1426	0	0	0	0	0	0	0	0	0	0	0	0	0	890	856	824	802	803	806	822	838	850	853	852	851	858	861	859	858	854	857	858	857	849	840	835	836	839	840	847	859	870	875	878	879	874	869	860	864	866	872	879	879	877	883	889	876	863	861	854	849	842	843	850	862	873	883	903	922	934	950	978	1119	1300	1383	1445	1472	1470	1453	1458	1469	1488	1471	1475	1470	1480	1480	1481	1476	1474	1482	1486	1491	1492	1502	1502	1496	1487	1497	1513	1527	1493	1477	1465	1459	1450	1442	1452	1470	1494	1507	1514	1518	1511	1497	1496	1495	1499	1507	1505	1501	1493	1477	1464	1461	1454	1456	1465	1470	1480	1485	1495	1497	1494	1494	1480	1465	1454	1469	1484	1493	1491	1494	1488	1481	1485	1490	1496	1497	1496	1485	1472	1470	1474	1472	1465	1455	1457	1463	1477	1486	1494	1485	1481	1473	1490	1521	1523	1502	1479	1482	1499	1502	1496	1480	1467	1469	1471	1478	1476	1472	1474	1481	1486	1479	1483	1476	1480	1485	1478	1454	1441	1449	1464	1464	1464	1464	1460	1464	1474	1474	1477	1476	1471	1464	1465	1471	1469	1453	1441	1434	1437	1437	1437	1451	1456	1453	1455	1446	1417	0	0	0	0	0	0	0	0
0	0	0	0	0	0	0	0	0	0	0	0	0	0	0	0	0	0	0	0	0	0	0	0	0	0	0	0	0	0	0	0	0	0	0	0	0	0	0	0	0	0	0	0	0	0	0	0	0	0	0	0	0	0	0	0	0	0	0	0	0	0	0	0	0	0	0	0	0	0	0	0	0	0	0	0	0	0	0	0	0	0	0	0	0	0	0	0	0	0	0	0	0	1454	1460	1450	1447	1475	1476	1453	1441	1447	1459	1472	1465	1482	1482	1477	1475	1482	1475	1453	1457	1467	1464	1435	1438	1458	1476	1477	1468	1456	1449	1445	1447	1454	1462	1466	1461	1451	1445	1437	1432	1434	1435	1437	1439	1444	1451	1444	1436	1432	1437	1459	1473	1490	1496	1494	1479	1462	1447	1434	1442	1451	1456	1441	1427	1423	1428	1435	1441	1439	1443	1441	1458	1479	1477	1480	1480	1486	1493	1494	1496	1490	1480	1465	1449	1430	1441	1446	1437	1429	1428	1439	1441	1427	1395	1417	1389	1360	1305	1252	1160	0	0	0	0	0	0	0	0	1102	0	0	0	1150	1144	1149	1152	1149	1145	1147	1154	1163	1170	1167	1160	1152	0	0	0	0	0	0	0	0	0	0	0	0	0	0	0	0	0	0	0	0	0	0	0	0	0	0	0	0	0	0	0	0	0	0	0	0	0	0	1258	1351	1445	1456	1453	1446	1454	1459	1497	1463	1465	1451	1471	1485	1490	1486	1484	1481	1488	1504	1518	1515	1498	1490	1491	1489	1480	1464	1463	1504	1499	1450	1451	1477	1501	1500	1498	1502	1500	1505	1511	1511	1517	1525	1524	1487	1463	1481	1487	1500	1506	1522	1515	1489	1463	1457	1479	1511	1509	1504	1499	1500	1482	1467	1454	1459	1467	1489	1491	1490	1487	1492	1502	1506	1513	1510	1505	1500	1497	1501	1506	1506	1495	1490	1487	1475	1482	1497	1493	1480	1467	1453	1443	1446	1458	1465	1472	1480	1485	1482	1475	1473	1477	1477	1472	1471	1474	1485	1500	1492	1482	1463	1455	1451	1469	1496	1512	1531	1531	1528	1528	1529	1527	1507	1475	1460	1463	1471	1482	1499	1515	1520	1511	1512	1510	1506	1483	1480	1487	1485	1482	1477	1469	1465	1469	1473	1472	1479	1488	1500	1510	1509	1513	1506	1498	1451	0	0	0	0	0	0	0	0	0	0	0	0	0	0	878	844	814	812	810	815	829	840	845	846	848	852	842	845	847	854	853	854	851	843	832	827	827	833	838	847	851	857	859	862	857	854	852	842	843	846	855	859	859	860	863	866	861	851	844	844	846	844	840	849	849	856	865	871	881	885	886	915	946	1033	1135	1332	1369	1390	1264	1317	1387	1422	1442	1453	1463	1460	1458	1461	1474	1477	1479	1474	1463	1466	1488	1499	1489	1476	1487	1511	1515	1490	1475	1467	1456	1446	1437	1454	1471	1484	1496	1514	1531	1528	1515	1490	1486	1493	1506	1505	1506	1500	1478	1462	1459	1461	1469	1486	1490	1494	1490	1487	1497	1502	1502	1491	1473	1458	1458	1467	1468	1479	1485	1486	1488	1493	1496	1506	1510	1501	1490	1473	1479	1484	1482	1476	1448	1456	1468	1477	1489	1496	1492	1481	1473	1484	1513	1514	1486	1467	1480	1504	1508	1496	1480	1465	1460	1468	1467	1472	1475	1477	1477	1482	1483	1478	1477	1483	1492	1497	1478	1455	1455	1471	1484	1472	1470	1462	1458	1448	1443	1439	1438	1445	1450	1460	1469	1468	1457	1444	1448	1455	1455	1454	1462	1456	1454	1458	1457	1415	0	0	0	0	0	0	0	0
0	0	0	0	0	0	0	0	0	0	0	0	0	0	0	0	0	0	0	0	0	0	0	0	0	0	0	0	0	0	0	0	0	0	0	0	0	0	0	0	0	0	0	0	0	0	0	0	0	0	0	0	0	0	0	0	0	0	0	0	0	0	0	0	0	0	0	0	0	0	0	0	0	0	0	0	0	0	0	0	0	0	0	0	0	0	0	0	0	0	0	0	0	0	1478	1458	1457	1463	1467	1441	1428	1432	1447	1455	1465	1472	1470	1472	1474	1473	1467	1447	1440	1444	1432	1436	1444	1456	1473	1480	1477	1459	1458	1453	1461	1463	1461	1459	1459	1451	1450	1449	1447	1445	1442	1440	1443	1455	1470	1468	1457	1446	1436	1438	1452	1471	1489	1495	1476	1450	1437	1429	1435	1437	1443	1432	1430	1430	1433	1445	1452	1460	1455	1458	1471	1480	1480	1475	1473	1475	1478	1477	1487	1490	1479	1464	1431	1419	1420	1427	1419	1415	1415	1416	1346	1240	0	0	0	0	0	1097	0	0	0	0	0	0	0	0	0	1118	0	0	1169	1182	1183	1186	1190	1186	1178	1179	1187	1193	1184	1174	1163	0	0	0	0	0	0	0	0	0	0	0	0	0	0	0	0	0	0	0	0	0	0	0	0	0	0	0	0	0	0	0	0	0	0	0	0	0	0	1253	1358	1455	1469	1459	1449	1443	1449	1457	1449	1481	1461	1454	1475	1476	1481	1485	1480	1492	1500	1506	1499	1479	1450	1450	1502	1487	1482	1464	1466	1519	1507	1452	1445	1454	1487	1492	1496	1505	1511	1456	1438	1449	1478	1501	1505	1466	1494	1474	1487	1496	1508	1528	1524	1497	1481	1486	1508	1514	1509	1503	1501	1500	1486	1471	1456	1456	1466	1471	1480	1484	1479	1489	1494	1496	1496	1495	1500	1499	1505	1511	1513	1503	1482	1469	1464	1475	1487	1492	1497	1482	1465	1458	1455	1455	1453	1461	1468	1473	1483	1488	1482	1487	1493	1482	1470	1462	1465	1490	1503	1499	1482	1465	1455	1458	1474	1500	1510	1499	1511	1535	1539	1541	1532	1503	1476	1476	1483	1486	1491	1498	1521	1520	1519	1520	1502	1493	1478	1472	1482	1487	1488	1481	1463	1464	1473	1484	1480	1478	1489	1515	1530	1535	1533	1522	1513	1491	1423	0	0	0	0	0	0	0	0	0	0	0	0	0	0	848	830	821	819	818	823	827	826	829	834	836	827	825	826	837	845	843	841	825	815	817	823	829	834	837	842	841	838	838	840	839	838	832	833	835	846	848	848	843	838	847	844	840	837	839	843	840	841	839	833	841	847	852	859	859	856	864	884	918	979	937	982	1022	1061	1172	1222	1294	1344	1385	1421	1430	1428	1449	1467	1486	1489	1465	1452	1455	1473	1490	1488	1472	1470	1491	1494	1482	1464	1474	1472	1457	1442	1453	1464	1476	1483	1503	1522	1520	1506	1484	1476	1487	1498	1500	1496	1481	1479	1465	1474	1483	1495	1507	1504	1500	1476	1480	1484	1498	1499	1483	1471	1463	1450	1449	1444	1457	1481	1491	1492	1499	1503	1505	1506	1501	1485	1473	1479	1498	1496	1490	1476	1477	1478	1487	1489	1497	1500	1495	1486	1482	1482	1484	1467	1451	1460	1493	1505	1496	1478	1472	1467	1463	1460	1460	1463	1465	1471	1477	1474	1479	1473	1485	1496	1507	1492	1474	1465	1469	1471	1471	1460	1443	1427	1420	1415	1409	1420	1433	1446	1459	1469	1464	1457	1459	1459	1459	1474	1473	1470	1461	1454	1454	1460	1426	0	0	0	0	0	0	0	0
0	0	0	0	0	0	0	0	0	0	0	0	0	0	0	0	0	0	0	0	0	0	0	0	0	0	0	0	0	0	0	0	0	0	0	0	0	0	0	0	0	0	0	0	0	0	0	0	0	0	0	0	0	0	0	0	0	0	0	0	0	0	0	0	0	0	0	0	0	0	0	0	0	0	0	0	0	0	0	0	0	0	0	0	0	0	0	0	0	0	0	0	0	1505	1473	1451	1450	1450	1447	1427	1429	1432	1444	1453	1449	1454	1455	1461	1467	1472	1465	1457	1435	1433	1435	1440	1444	1457	1472	1479	1476	1465	1464	1459	1458	1451	1454	1453	1451	1459	1467	1466	1462	1454	1446	1441	1446	1463	1491	1494	1476	1464	1448	1455	1452	1471	1493	1485	1471	1458	1437	1431	1432	1431	1434	1434	1437	1443	1445	1455	1458	1466	1466	1470	1481	1480	1486	1485	1473	1465	1458	1452	1462	1478	1462	1440	1416	1404	1402	1408	1392	1369	1305	1194	1158	0	0	0	0	0	0	0	0	0	0	0	0	0	0	0	0	0	0	0	1189	1206	0	1221	1211	1206	1181	1184	1198	1193	1181	1163	1142	0	0	0	0	0	0	0	0	0	0	0	0	0	0	0	0	0	0	0	0	0	0	0	0	0	0	0	0	0	0	0	0	0	0	0	0	0	0	1359	1474	1489	1484	1472	1484	1476	1454	1442	1459	1431	1477	1483	1479	1472	1473	1477	1482	1480	1488	1492	1477	1475	1457	1451	1467	1499	1488	1481	1482	1516	1514	1464	1464	1454	1485	1496	1499	1509	1512	1449	1432	1446	1472	1496	1493	1473	1501	1489	1476	1484	1491	1503	1501	1496	1486	1500	1512	1509	1496	1497	1498	1496	1493	1484	1476	1466	1470	1467	1467	1468	1465	1465	1472	1480	1486	1485	1487	1487	1486	1497	1501	1501	1498	1493	1472	1476	1487	1493	1497	1478	1480	1503	1482	1484	1489	1497	1496	1498	1498	1491	1490	1485	1485	1481	1462	1451	1470	1492	1507	1505	1481	1466	1463	1467	1484	1497	1498	1483	1473	1482	1505	1518	1498	1473	1462	1487	1495	1496	1488	1492	1517	1519	1524	1511	1499	1485	1471	1473	1484	1495	1499	1484	1471	1471	1479	1485	1487	1483	1492	1515	1532	1531	1533	1527	1518	1512	1494	0	0	0	0	0	0	0	0	0	0	0	0	0	0	0	846	835	831	819	816	812	805	810	817	814	809	806	808	816	827	827	823	812	807	812	818	821	828	831	826	818	814	820	828	833	826	818	821	827	835	844	844	832	826	830	835	840	833	826	828	830	831	826	824	831	833	838	846	854	847	830	804	805	821	856	882	899	909	950	1033	1143	1237	1293	1338	1361	1394	1425	1470	1495	1498	1487	1480	1465	1480	1485	1489	1482	1475	1476	1485	1466	1471	1481	1483	1475	1460	1463	1464	1470	1475	1489	1505	1501	1492	1471	1474	1481	1473	1477	1473	1470	1468	1473	1483	1493	1505	1508	1511	1501	1476	1481	1489	1489	1483	1470	1456	1457	1445	1442	1438	1466	1485	1494	1500	1502	1500	1495	1498	1494	1484	1478	1482	1495	1503	1504	1500	1496	1499	1496	1494	1497	1501	1495	1487	1472	1467	1465	1454	1434	1434	1467	1501	1498	1488	1478	1473	1459	1455	1459	1467	1470	1467	1471	1470	1474	1474	1480	1498	1505	1505	1485	1472	1463	1456	1456	1445	1438	1430	1428	1421	1409	1425	1443	1455	1460	1465	1466	1454	1457	1468	1468	1479	1471	1456	1445	1439	1444	1458	1436	0	0	0	0	0	0	0	0
0	0	0	0	0	0	0	0	0	0	0	0	0	0	0	0	0	0	0	0	0	0	0	0	0	0	0	0	0	0	0	0	0	0	0	0	0	0	0	0	0	0	0	0	0	0	0	0	0	0	0	0	0	0	0	0	0	0	0	0	0	0	0	0	0	0	0	0	0	0	0	0	0	0	0	0	0	0	0	0	0	0	0	0	0	0	0	0	0	0	0	0	0	1482	1456	1445	1442	1443	1438	1435	1430	1437	1446	1458	1454	1451	1446	1453	1462	1471	1469	1459	1446	1434	1441	1463	1465	1473	1474	1476	1483	1475	1465	1452	1442	1440	1444	1448	1451	1457	1472	1478	1460	1454	1449	1440	1444	1467	1496	1505	1487	1473	1469	1473	1481	1490	1490	1489	1469	1467	1447	1441	1437	1438	1446	1447	1456	1463	1465	1464	1459	1465	1466	1476	1481	1483	1487	1489	1477	1465	1447	1438	1439	1440	1429	1414	1393	1373	1372	1321	1228	1163	0	0	0	0	0	0	0	0	0	0	0	0	0	0	0	0	0	0	0	0	0	0	1188	1222	0	1242	1225	1205	1175	1177	1186	1181	1161	1137	0	0	0	0	0	0	0	0	0	0	0	0	0	0	0	0	0	0	0	0	0	0	0	0	0	0	0	0	0	0	0	0	0	0	0	0	0	0	0	1413	1481	1490	1489	1482	1487	1484	1482	1463	1459	1478	1504	1511	1483	1460	1466	1480	1495	1507	1507	1509	1515	1511	1500	1444	1479	1480	1483	1490	1499	1506	1517	1483	1474	1454	1488	1498	1505	1517	1513	1499	1481	1471	1469	1479	1487	1498	1507	1470	1467	1454	1466	1458	1477	1474	1481	1495	1504	1500	1486	1482	1487	1487	1495	1491	1487	1481	1478	1473	1466	1466	1454	1455	1456	1458	1465	1465	1471	1481	1498	1502	1503	1498	1485	1482	1468	1471	1482	1488	1497	1482	1480	1480	1487	1481	1481	1480	1488	1492	1494	1493	1497	1503	1488	1475	1453	1448	1469	1495	1515	1506	1486	1469	1466	1479	1496	1502	1495	1479	1464	1462	1476	1490	1484	1467	1453	1456	1482	1478	1469	1472	1489	1511	1514	1507	1494	1485	1472	1478	1488	1495	1493	1472	1463	1464	1478	1486	1489	1487	1486	1506	1516	1517	1509	1513	1505	1507	1511	1498	0	0	0	0	0	0	0	0	0	0	0	0	0	0	0	0	845	833	815	801	792	792	793	798	800	795	799	801	810	816	817	807	804	807	812	818	814	820	809	799	801	805	815	815	810	807	807	816	824	832	836	830	820	832	837	839	831	822	820	818	819	818	823	826	827	829	831	830	826	808	791	788	795	817	830	832	840	848	867	923	1063	1166	1214	1270	1341	1372	1423	1462	1484	1488	1488	1471	1472	1486	1485	1485	1477	1482	1485	1474	1471	1478	1483	1482	1473	1470	1471	1470	1475	1473	1471	1464	1475	1476	1482	1480	1465	1458	1449	1448	1462	1470	1482	1492	1502	1507	1513	1495	1497	1495	1500	1494	1486	1464	1457	1457	1454	1441	1461	1482	1492	1504	1495	1504	1498	1496	1494	1488	1480	1480	1481	1486	1490	1499	1501	1510	1503	1500	1498	1503	1508	1508	1495	1462	1456	1452	1442	1437	1442	1468	1499	1507	1497	1478	1469	1449	1443	1449	1469	1474	1467	1466	1465	1471	1470	1475	1493	1507	1508	1495	1476	1468	1455	1455	1449	1446	1445	1450	1453	1469	1482	1464	1471	1467	1470	1465	1456	1456	1461	1461	1463	1456	1446	1425	1422	1432	1449	1432	1442	0	0	0	0	0	0	0
0	0	0	0	0	0	0	0	0	0	0	0	0	0	0	0	0	0	0	0	0	0	0	0	0	0	0	0	0	0	0	0	0	0	0	0	0	0	0	0	0	0	0	0	0	0	0	0	0	0	0	0	0	0	0	0	0	0	0	0	0	0	0	0	0	0	0	0	0	0	0	0	0	0	0	0	0	0	0	0	0	0	0	0	0	0	0	0	0	0	0	0	0	1474	1449	1443	1447	1451	1447	1449	1442	1447	1456	1465	1465	1454	1453	1456	1461	1472	1468	1459	1453	1444	1452	1477	1488	1482	1473	1481	1485	1477	1464	1455	1434	1437	1437	1441	1448	1455	1466	1487	1462	1448	1447	1449	1458	1473	1487	1495	1492	1474	1472	1476	1486	1487	1483	1475	1465	1462	1456	1454	1454	1456	1465	1470	1487	1494	1484	1478	1465	1456	1461	1459	1464	1482	1480	1481	1474	1461	1453	1435	1417	1404	1391	1370	1354	1282	1089	0	0	0	0	0	0	0	0	0	0	0	0	0	0	0	0	0	0	0	0	0	0	0	0	0	1177	1213	1235	1238	1221	1189	1151	1166	1163	1160	1147	1118	0	0	0	0	0	0	0	0	0	0	0	0	0	0	0	0	0	0	0	0	0	0	0	0	0	0	0	0	0	0	0	0	0	0	0	0	0	0	1348	1434	1458	1475	1479	1476	1478	1511	1490	1481	1470	1473	1495	1496	1463	1467	1479	1492	1505	1506	1501	1500	1506	1506	1496	1485	1479	1480	1490	1494	1496	1496	1509	1489	1480	1454	1483	1501	1502	1507	1514	1524	1520	1510	1500	1494	1495	1501	1503	1484	1472	1434	1422	1438	1452	1463	1481	1488	1486	1486	1498	1486	1478	1479	1478	1490	1493	1491	1476	1471	1473	1464	1457	1458	1459	1458	1458	1459	1473	1488	1499	1505	1486	1482	1498	1464	1508	1501	1502	1485	1498	1490	1487	1483	1505	1488	1471	1465	1471	1478	1482	1487	1501	1508	1500	1480	1460	1447	1465	1496	1512	1508	1488	1466	1470	1478	1495	1498	1488	1474	1459	1451	1460	1475	1474	1459	1438	1445	1448	1450	1452	1456	1475	1495	1499	1503	1498	1478	1477	1475	1485	1485	1475	1466	1459	1467	1481	1488	1492	1494	1496	1494	1498	1494	1490	1487	1490	1495	1504	1507	1484	0	0	0	0	0	0	0	0	0	0	0	0	0	0	0	0	854	833	806	794	789	786	786	790	792	790	789	790	805	807	801	796	802	810	803	800	793	788	789	794	802	806	803	798	791	800	806	810	819	825	826	826	832	840	839	827	814	810	811	814	823	827	831	831	829	823	820	815	799	786	784	795	801	805	802	798	795	804	828	848	904	971	1189	1262	1281	1337	1387	1420	1437	1449	1454	1459	1471	1485	1486	1480	1482	1488	1476	1467	1467	1472	1477	1475	1478	1481	1480	1470	1463	1454	1456	1465	1478	1476	1463	1455	1454	1441	1453	1460	1460	1465	1477	1485	1500	1507	1489	1493	1497	1502	1498	1487	1481	1477	1472	1457	1457	1471	1487	1501	1502	1508	1508	1513	1510	1500	1494	1474	1471	1470	1477	1478	1481	1486	1492	1491	1488	1490	1501	1507	1507	1497	1473	1462	1449	1441	1438	1449	1477	1504	1504	1493	1479	1463	1440	1433	1446	1471	1479	1471	1463	1464	1468	1471	1478	1488	1506	1514	1498	1479	1468	1468	1467	1458	1457	1454	1465	1469	1480	1482	1479	1479	1474	1469	1472	1458	1446	1450	1450	1451	1451	1437	1416	1416	1425	1435	1435	1407	0	0	0	0	0	0	0
0	0	0	0	0	0	0	0	0	0	0	0	0	0	0	0	0	0	0	0	0	0	0	0	0	0	0	0	0	0	0	0	0	0	0	0	0	0	0	0	0	0	0	0	0	0	0	0	0	0	0	0	0	0	0	0	0	0	0	0	0	0	0	0	0	0	0	0	0	0	0	0	0	0	0	0	0	0	0	0	0	0	0	0	0	0	0	0	0	0	0	0	0	0	1445	1448	1454	1461	1465	1466	1465	1466	1473	1481	1475	1470	1466	1463	1466	1475	1479	1471	1457	1449	1455	1485	1493	1485	1484	1483	1487	1478	1462	1454	1435	1434	1433	1443	1447	1457	1463	1481	1467	1449	1448	1462	1470	1476	1484	1483	1481	1465	1459	1467	1478	1475	1468	1458	1452	1452	1453	1454	1458	1464	1471	1473	1492	1498	1496	1485	1473	1466	1453	1446	1454	1474	1478	1469	1466	1459	1440	1418	1386	1357	1339	1295	1195	1001	0	0	0	0	0	0	0	0	0	0	0	0	0	0	0	0	0	1110	1109	1104	0	0	0	1125	0	1154	1171	1189	1215	1217	1205	1177	1136	1144	1149	1139	1125	0	0	0	0	0	0	0	0	0	0	0	0	0	0	0	0	0	0	0	0	0	0	0	0	0	0	0	0	0	0	0	0	0	0	0	0	0	0	1320	1439	1473	1457	1472	1474	1468	1463	1466	1480	1471	1458	1463	1475	1480	1485	1487	1504	1506	1508	1493	1486	1498	1497	1499	1495	1486	1481	1487	1496	1503	1498	1492	1491	1475	1466	1451	1472	1496	1499	1505	1511	1515	1517	1509	1500	1490	1488	1488	1498	1501	1479	1434	1442	1426	1438	1473	1489	1495	1491	1488	1487	1490	1467	1464	1473	1486	1494	1490	1475	1472	1469	1465	1460	1464	1465	1463	1460	1466	1475	1486	1504	1502	1483	1472	1496	1512	1509	1502	1500	1487	1494	1489	1488	1508	1502	1473	1460	1458	1461	1464	1472	1488	1501	1501	1500	1483	1469	1456	1469	1496	1511	1501	1487	1475	1477	1482	1497	1494	1484	1470	1462	1454	1459	1471	1466	1454	1438	1441	1441	1449	1450	1452	1474	1487	1498	1503	1504	1474	1464	1475	1490	1493	1484	1471	1468	1487	1495	1501	1504	1501	1498	1490	1487	1484	1478	1470	1471	1480	1490	1495	1464	1443	0	0	0	0	0	0	0	0	0	0	0	0	0	0	0	0	861	836	815	801	788	781	785	791	783	778	783	792	799	802	800	801	804	799	792	782	784	787	795	799	804	800	794	786	794	802	809	816	820	823	826	831	829	831	820	808	797	800	810	807	821	826	822	818	808	806	796	788	779	781	784	788	789	784	781	778	784	796	811	821	848	940	1094	1163	1229	1287	1328	1375	1396	1406	1421	1444	1465	1466	1469	1478	1492	1473	1463	1465	1468	1474	1479	1471	1474	1486	1473	1465	1455	1458	1469	1469	1465	1439	1446	1447	1453	1469	1471	1463	1458	1464	1474	1485	1487	1483	1480	1488	1494	1494	1478	1472	1478	1482	1480	1472	1476	1484	1495	1497	1502	1515	1520	1519	1513	1498	1470	1460	1459	1467	1468	1472	1474	1472	1470	1480	1485	1494	1501	1500	1495	1483	1473	1452	1439	1438	1454	1477	1501	1500	1492	1481	1463	1441	1435	1444	1463	1485	1482	1481	1479	1482	1492	1485	1487	1497	1502	1491	1475	1461	1461	1466	1464	1461	1465	1471	1475	1474	1465	1458	1438	1433	1465	1457	1452	1435	1432	1432	1445	1448	1435	1414	1413	1423	1433	1432	1427	0	0	0	0	0	0	0
0	0	0	0	0	0	0	0	0	0	0	0	0	0	0	0	0	0	0	0	0	0	0	0	0	0	0	0	0	0	0	0	0	0	0	0	0	0	0	0	0	0	0	0	0	0	0	0	0	0	0	0	0	0	0	0	0	0	0	0	0	0	0	0	0	0	0	0	0	0	0	0	0	0	0	0	0	0	0	0	0	0	0	0	0	0	0	0	0	0	0	0	0	0	1430	1450	1460	1469	1477	1485	1482	1480	1483	1490	1487	1485	1480	1474	1477	1485	1486	1486	1463	1449	1464	1485	1507	1502	1500	1495	1488	1465	1457	1449	1446	1441	1446	1447	1460	1461	1457	1463	1474	1462	1467	1475	1486	1477	1478	1465	1461	1450	1443	1446	1458	1466	1463	1457	1452	1447	1454	1444	1445	1447	1460	1450	1454	1472	1476	1470	1465	1469	1451	1442	1444	1460	1471	1460	1460	1452	1428	1397	1308	1184	1080	1003	0	0	0	0	0	0	0	0	0	0	0	0	0	0	0	0	0	0	0	1060	1056	1069	1073	1079	1071	1079	1085	1098	1100	1167	1187	1193	1191	1168	1147	1134	0	0	0	0	0	0	0	0	0	0	0	0	0	0	0	0	0	0	0	0	0	0	0	0	0	0	0	0	0	0	0	0	0	0	0	0	0	0	1204	1333	1451	1469	1472	1471	1475	1471	1474	1469	1465	1466	1458	1450	1448	1459	1493	1495	1497	1498	1498	1505	1502	1496	1489	1487	1489	1491	1487	1483	1481	1482	1491	1497	1502	1495	1486	1472	1453	1459	1477	1494	1503	1503	1506	1508	1508	1499	1497	1491	1488	1486	1493	1493	1488	1486	1427	1436	1461	1486	1500	1502	1497	1486	1501	1484	1470	1464	1474	1479	1487	1489	1474	1469	1467	1470	1469	1467	1467	1459	1460	1469	1483	1496	1501	1501	1501	1498	1504	1504	1504	1496	1496	1509	1511	1492	1478	1481	1489	1489	1478	1473	1473	1478	1491	1505	1511	1507	1492	1475	1462	1457	1467	1482	1496	1490	1480	1477	1478	1477	1486	1485	1487	1478	1469	1464	1471	1476	1471	1460	1448	1441	1448	1453	1462	1469	1473	1492	1502	1506	1494	1496	1500	1502	1505	1506	1492	1484	1484	1500	1499	1502	1500	1495	1497	1496	1491	1482	1469	1462	1459	1462	1476	1476	1460	1445	0	0	0	0	0	0	0	0	0	0	0	0	0	0	0	0	0	867	831	806	781	767	767	772	774	774	780	786	789	793	798	802	793	786	777	770	776	785	795	802	804	805	796	796	795	801	806	812	821	822	807	799	798	802	795	787	754	760	771	789	799	804	798	789	785	779	774	770	768	773	779	781	780	773	763	763	774	782	794	797	804	811	815	838	936	1065	1121	1203	1310	1356	1383	1423	1438	1447	1457	1476	1494	1484	1467	1467	1474	1480	1480	1480	1474	1482	1480	1473	1475	1467	1464	1458	1433	1417	1419	1447	1465	1483	1480	1471	1462	1466	1473	1484	1481	1480	1475	1482	1494	1486	1471	1459	1460	1474	1501	1494	1488	1489	1494	1491	1490	1496	1508	1510	1504	1475	1456	1447	1448	1458	1474	1478	1462	1459	1463	1469	1479	1476	1481	1486	1495	1488	1475	1455	1440	1437	1457	1485	1508	1501	1488	1482	1467	1452	1437	1442	1461	1485	1487	1484	1486	1484	1491	1491	1486	1489	1485	1474	1454	1447	1447	1455	1458	1469	1476	1476	1476	1471	1465	1455	1439	1438	1434	1441	1435	1429	1429	1427	1438	1440	1437	1420	1418	1426	1433	1437	1434	0	0	0	0	0	0	0
0	0	0	0	0	0	0	0	0	0	0	0	0	0	0	0	0	0	0	0	0	0	0	0	0	0	0	0	0	0	0	0	0	0	0	0	0	0	0	0	0	0	0	0	0	0	0	0	0	0	0	0	0	0	0	0	0	0	0	0	0	0	0	0	0	0	0	0	0	0	0	0	0	0	0	0	0	0	0	0	0	0	0	0	0	0	0	0	0	0	0	0	0	0	1426	1453	1464	1474	1488	1496	1488	1487	1487	1485	1491	1496	1498	1487	1483	1491	1509	1502	1480	1455	1472	1485	1504	1514	1511	1507	1490	1463	1451	1454	1452	1462	1466	1470	1477	1466	1456	1449	1469	1476	1481	1486	1485	1481	1473	1464	1452	1442	1432	1434	1445	1459	1461	1460	1455	1452	1457	1452	1454	1442	1435	1434	1429	1434	1432	1436	1445	1454	1449	1438	1434	1433	1428	1435	1424	1404	1325	1141	0	0	0	0	0	0	0	0	0	0	0	0	0	0	0	0	0	0	0	0	0	0	0	1022	1021	1036	1048	1042	1036	1031	1034	1042	1054	1064	1091	1165	1173	1151	1136	0	0	0	0	0	0	0	0	0	0	0	0	0	0	0	0	0	0	0	0	0	0	0	0	0	0	0	0	0	0	0	886	892	0	0	0	0	0	0	1226	1450	1497	1492	1483	1481	1475	1470	1474	1468	1466	1460	1462	1456	1463	1471	1486	1491	1493	1494	1500	1505	1494	1495	1488	1489	1490	1485	1483	1480	1481	1483	1488	1497	1504	1506	1503	1479	1467	1467	1479	1490	1500	1500	1502	1498	1494	1488	1489	1488	1483	1482	1482	1485	1484	1480	1480	1483	1493	1500	1498	1494	1488	1486	1491	1491	1479	1469	1480	1483	1483	1478	1472	1470	1475	1482	1482	1478	1472	1469	1466	1477	1492	1498	1501	1501	1508	1502	1519	1523	1507	1491	1478	1478	1480	1480	1473	1482	1489	1492	1481	1476	1485	1496	1502	1507	1512	1504	1482	1465	1461	1463	1470	1478	1480	1484	1482	1479	1479	1480	1482	1490	1497	1491	1482	1483	1485	1489	1486	1470	1459	1457	1465	1471	1474	1475	1482	1482	1485	1488	1497	1506	1517	1520	1520	1509	1500	1493	1486	1492	1497	1491	1493	1491	1493	1498	1495	1482	1464	1452	1453	1463	1472	1473	1469	1474	1558	0	0	0	0	0	0	0	0	0	0	0	0	0	0	0	0	0	844	799	764	751	751	760	762	769	774	775	774	772	781	794	782	760	751	746	756	779	790	800	802	804	799	798	799	800	802	808	819	814	778	763	757	754	725	723	730	738	751	766	772	773	770	760	756	753	753	753	756	762	768	771	766	760	748	746	754	768	778	777	772	760	755	761	799	859	917	971	1069	1182	1301	1345	1392	1417	1442	1473	1498	1490	1483	1480	1479	1486	1481	1484	1469	1474	1475	1481	1497	1490	1461	1443	1426	1401	1405	1424	1450	1475	1470	1466	1461	1465	1478	1490	1488	1481	1471	1474	1482	1481	1458	1439	1442	1464	1507	1506	1498	1493	1486	1485	1484	1482	1482	1482	1472	1450	1442	1439	1445	1463	1479	1491	1479	1464	1460	1464	1461	1466	1464	1474	1483	1480	1473	1457	1440	1446	1464	1494	1522	1521	1492	1479	1469	1459	1452	1442	1451	1463	1476	1482	1484	1487	1493	1497	1495	1493	1486	1465	1447	1444	1444	1454	1464	1475	1477	1475	1473	1472	1471	1461	1457	1448	1448	1451	1451	1436	1436	1434	1438	1445	1441	1432	1416	1421	1428	1439	1436	1436	0	0	0	0	0	0
0	0	0	0	0	0	0	0	0	0	0	0	0	0	0	0	0	0	0	0	0	0	0	0	0	0	0	0	0	0	0	0	0	0	0	0	0	0	0	0	0	0	0	0	0	0	0	0	0	0	0	0	0	0	0	0	0	0	0	0	0	0	0	0	0	0	0	0	0	0	0	0	0	0	0	0	0	0	0	0	0	0	0	0	0	0	0	0	0	0	0	0	0	0	1435	1449	1468	1481	1502	1500	1493	1488	1476	1472	1490	1503	1498	1488	1477	1484	1515	1520	1500	1481	1475	1488	1493	1503	1511	1501	1482	1461	1454	1459	1468	1471	1471	1474	1469	1465	1458	1447	1458	1468	1481	1486	1489	1483	1475	1465	1450	1440	1436	1436	1440	1453	1459	1464	1462	1455	1468	1479	1472	1463	1446	1437	1427	1425	1416	1409	1416	1423	1440	1439	1419	1404	1362	1344	1211	0	0	0	0	0	0	0	0	0	0	0	0	0	0	0	0	0	0	0	0	0	0	0	0	0	0	0	0	0	0	0	0	0	0	1009	1012	1027	1051	1079	1098	1095	1105	0	0	0	0	0	0	0	0	0	0	0	0	0	0	0	0	0	0	0	0	0	0	0	0	0	0	0	0	0	0	0	895	891	902	0	0	0	0	0	1349	1491	1491	1486	1479	1476	1472	1467	1469	1466	1462	1458	1462	1464	1466	1476	1493	1495	1488	1484	1492	1498	1501	1500	1498	1496	1492	1485	1478	1478	1478	1484	1490	1499	1509	1513	1509	1498	1488	1476	1476	1481	1492	1489	1492	1491	1483	1481	1480	1485	1475	1470	1470	1476	1475	1485	1491	1497	1504	1503	1497	1490	1486	1488	1485	1485	1489	1486	1489	1485	1484	1470	1466	1473	1481	1494	1493	1481	1472	1471	1476	1484	1503	1507	1506	1500	1504	1515	1527	1535	1517	1493	1471	1460	1470	1471	1475	1484	1495	1490	1483	1479	1493	1497	1505	1503	1505	1498	1483	1470	1465	1453	1466	1473	1477	1483	1492	1491	1486	1480	1489	1498	1504	1500	1490	1488	1497	1500	1498	1487	1481	1480	1484	1488	1492	1488	1483	1481	1489	1510	1513	1520	1523	1525	1517	1506	1494	1491	1488	1490	1484	1492	1488	1486	1486	1496	1497	1482	1467	1460	1465	1474	1476	1473	1470	1476	1520	0	0	0	0	0	0	0	0	0	0	0	0	0	0	0	0	0	0	805	771	750	749	753	751	742	743	741	738	745	759	773	758	734	715	719	738	763	781	793	795	793	791	790	794	790	787	782	788	776	758	734	725	717	710	708	711	724	735	745	750	747	743	741	741	735	736	738	741	744	752	748	747	745	736	727	726	733	748	754	751	728	715	718	731	757	792	845	895	985	1079	1180	1270	1346	1410	1449	1485	1492	1490	1488	1480	1479	1485	1483	1478	1475	1484	1495	1505	1488	1461	1441	1428	1408	1410	1420	1436	1450	1454	1454	1448	1457	1476	1487	1497	1486	1469	1461	1461	1460	1444	1434	1443	1464	1500	1499	1489	1488	1481	1479	1469	1464	1460	1457	1445	1434	1432	1438	1443	1462	1480	1487	1480	1485	1476	1467	1457	1450	1447	1459	1470	1470	1463	1455	1449	1451	1472	1502	1533	1528	1502	1472	1462	1460	1454	1450	1450	1462	1466	1479	1475	1476	1485	1499	1509	1508	1484	1464	1452	1452	1450	1464	1469	1472	1484	1478	1491	1499	1498	1486	1478	1469	1463	1455	1459	1466	1445	1441	1451	1456	1464	1466	1446	1409	1401	1412	1412	1412	0	0	0	0	0	0
0	0	0	0	0	0	0	0	0	0	0	0	0	0	0	0	0	0	0	0	0	0	0	0	0	0	0	0	0	0	0	0	0	0	0	0	0	0	0	0	0	0	0	0	0	0	0	0	0	0	0	0	0	0	0	0	0	0	0	0	0	0	0	0	0	0	0	0	0	0	0	0	0	0	0	0	0	0	0	0	0	0	0	0	0	0	0	0	0	0	0	0	0	0	1457	1468	1473	1483	1499	1504	1484	1480	1469	1472	1479	1486	1485	1475	1469	1473	1494	1498	1533	1489	1475	1467	1477	1484	1492	1488	1481	1466	1462	1472	1482	1479	1474	1465	1459	1467	1457	1444	1441	1452	1464	1476	1484	1480	1478	1472	1465	1451	1444	1441	1441	1444	1455	1466	1468	1466	1467	1479	1475	1475	1456	1442	1440	1432	1419	1409	1401	1405	1406	1419	1393	1363	1190	0	0	0	0	0	0	0	0	0	0	0	0	0	0	0	0	0	0	0	0	0	0	0	0	0	0	0	0	0	0	0	0	0	0	0	0	1000	996	1011	1031	1050	1064	1067	1059	0	0	0	0	0	0	0	0	0	0	0	0	0	0	0	0	0	0	0	0	0	0	0	0	0	0	0	0	0	0	0	899	894	918	0	0	0	0	1354	1453	1481	1482	1485	1476	1469	1469	1480	1487	1490	1485	1482	1477	1478	1482	1488	1469	1446	1436	1447	1469	1484	1486	1481	1488	1499	1501	1502	1495	1500	1504	1501	1495	1488	1490	1496	1510	1515	1512	1504	1504	1482	1488	1502	1510	1513	1512	1504	1512	1516	1521	1495	1474	1476	1482	1504	1517	1517	1515	1503	1497	1478	1478	1478	1477	1478	1494	1497	1493	1485	1475	1472	1475	1485	1488	1492	1491	1479	1471	1473	1479	1489	1504	1509	1501	1495	1506	1516	1530	1533	1520	1506	1472	1457	1459	1473	1486	1499	1500	1493	1485	1491	1491	1493	1499	1499	1494	1495	1488	1479	1463	1453	1457	1468	1479	1489	1495	1505	1495	1489	1493	1507	1509	1501	1492	1491	1505	1512	1506	1498	1491	1493	1494	1495	1501	1505	1496	1497	1497	1515	1523	1522	1524	1516	1504	1492	1485	1481	1483	1490	1489	1490	1486	1482	1483	1492	1493	1483	1471	1466	1472	1473	1481	1472	1465	1471	1493	1520	0	0	0	0	0	0	0	0	0	0	0	0	0	0	0	0	0	0	0	799	776	761	744	730	724	720	717	723	736	749	729	707	696	700	721	744	760	773	777	778	774	776	775	761	755	748	743	735	733	730	724	715	704	700	702	705	719	727	728	721	722	732	730	722	718	723	725	728	725	728	730	729	729	720	717	713	720	732	737	712	696	694	698	714	735	761	798	836	890	970	1079	1196	1320	1382	1435	1462	1479	1486	1479	1485	1487	1484	1481	1480	1485	1501	1499	1477	1456	1442	1438	1447	1446	1443	1439	1447	1454	1451	1450	1446	1469	1489	1496	1493	1472	1459	1456	1456	1444	1437	1446	1463	1489	1487	1477	1475	1474	1473	1464	1460	1455	1449	1433	1427	1430	1438	1449	1461	1464	1474	1481	1500	1506	1482	1467	1452	1443	1450	1457	1455	1453	1460	1459	1469	1486	1512	1525	1531	1496	1461	1445	1447	1454	1453	1456	1463	1482	1482	1471	1479	1494	1514	1516	1506	1493	1481	1484	1484	1483	1484	1491	1490	1497	1496	1495	1492	1494	1493	1490	1488	1481	1475	1475	1481	1481	1458	1467	1465	1469	1470	1467	1448	1426	1404	1394	1394	0	0	0	0	0	0
0	0	0	0	0	0	0	0	0	0	0	0	0	0	0	0	0	0	0	0	0	0	0	0	0	0	0	0	0	0	0	0	0	0	0	0	0	0	0	0	0	0	0	0	0	0	0	0	0	0	0	0	0	0	0	0	0	0	0	0	0	0	0	0	0	0	0	0	0	0	0	0	0	0	0	0	0	0	0	0	0	0	0	0	0	0	0	0	0	0	0	0	0	0	1454	1470	1470	1471	1484	1489	1471	1476	1472	1470	1472	1476	1470	1465	1455	1462	1485	0	0	1482	1457	1445	1453	1465	1482	1484	1478	1468	1466	1469	1484	1488	1477	1461	1458	1461	1457	1449	1432	1442	1454	1465	1472	1475	1472	1475	1471	1465	1458	1459	1455	1455	1464	1478	1485	1475	1484	1491	1488	1480	1471	1451	1446	1439	1424	1411	1389	1383	1376	1311	1191	1103	0	0	0	0	0	0	0	0	0	0	0	0	0	0	0	0	0	0	0	0	0	0	0	0	0	0	0	0	0	0	0	0	0	0	0	0	0	1017	1017	1015	1027	1048	1059	1059	1057	1054	0	0	0	0	0	0	0	0	0	0	0	0	0	0	0	0	0	0	0	0	0	0	0	0	0	0	0	0	0	0	900	905	941	0	0	0	1330	1461	1478	1470	1474	1485	1481	1473	1473	1489	1497	1500	1492	1483	1486	1484	1486	1487	1469	1448	1443	1457	1474	1484	1483	1473	1479	1483	1487	1491	1502	1507	1509	1504	1491	1486	1483	1485	1495	1508	1526	1530	1525	1518	1511	1498	1501	1502	1505	1507	1512	1525	1532	1530	1509	1489	1490	1497	1511	1510	1501	1488	1475	1466	1475	1476	1481	1484	1499	1502	1498	1484	1474	1475	1480	1492	1503	1496	1484	1472	1469	1476	1484	1485	1489	1493	1492	1499	1511	1520	1524	1522	1517	1507	1493	1453	1458	1472	1496	1507	1506	1491	1481	1479	1480	1481	1483	1481	1485	1495	1509	1489	1466	1451	1457	1465	1476	1493	1500	1503	1495	1494	1499	1504	1499	1494	1481	1492	1511	1518	1512	1501	1498	1492	1485	1480	1495	1510	1512	1509	1500	1500	1511	1514	1513	1498	1487	1474	1462	1462	1475	1490	1493	1494	1480	1474	1483	1490	1491	1475	1462	1464	1482	1479	1472	1473	1457	1467	1481	1499	1485	0	0	0	0	0	0	0	0	0	0	0	0	0	0	0	0	0	0	0	0	771	743	729	711	706	702	705	715	728	718	699	692	692	708	714	737	749	756	756	754	749	743	735	712	708	707	718	722	719	714	707	700	692	686	686	696	699	703	701	702	710	719	714	709	710	716	716	714	713	711	713	716	719	711	707	706	712	717	705	695	692	695	703	711	721	732	747	780	814	864	918	1055	1256	1345	1350	1393	1422	1434	1439	1448	1471	1475	1479	1484	1494	1494	1476	1467	1455	1457	1478	1482	1479	1458	1453	1453	1473	1490	1505	1516	1516	1513	1507	1494	1477	1473	1471	1474	1456	1443	1443	1471	1470	1455	1445	1440	1459	1466	1469	1472	1458	1455	1445	1454	1467	1478	1461	1461	1464	1483	1503	1516	1506	1491	1474	1467	1459	1454	1459	1458	1468	1491	1496	1501	1506	1523	1511	1472	1436	1422	1424	1449	1475	1485	1496	1508	1510	1492	1492	1497	1510	1508	1494	1482	1482	1500	1500	1499	1494	1491	1497	1494	1477	1477	1477	1488	1496	1501	1504	1497	1490	1481	1481	1481	1480	1468	1458	1454	1458	1464	1463	1446	1433	1428	1428	0	0	0	0	0	0
