0	0	0	0	0	0	0	0	0	0	0	0	0	0	0	0	0	0	0	0	0	0	0	0	0	0	0	0	0	0	0	0	0	0	0	0	0	0	0	0	0	0	0	0	0	0	0	0	0	0	0	0	0	0	0	0	0	0	0	0	0	0	0	0	0	0	0	0	0	0	0	0	0	0	0	0	0	0	0	0	0	0	0	0	0	0	0	0	0	0	0	0	1496	1497	1495	1488	1474	1453	1438	1428	1431	1439	1447	1453	1451	1434	1431	1450	1455	1432	1425	0	1482	1494	1468	1453	1449	1443	1457	1512	1504	1501	1494	1488	0	0	0	0	0	0	0	0	0	0	0	0	0	0	0	0	0	0	0	0	0	0	0	0	0	0	0	0	0	0	0	0	0	0	0	0	0	0	0	0	0	0	0	0	0	0	0	0	0	0	0	0	1416	1399	1392	1389	1399	1412	1429	1436	1439	1438	1429	1426	1430	1436	1431	1431	1430	1434	1436	1433	1427	1433	1431	1416	1405	1397	1400	1415	1418	1391	1363	1371	1384	1389	1390	1387	1383	1387	1387	1396	1393	1393	1380	1395	1445	1454	1436	1436	1430	0	0	0	0	0	0	0	0	0	0	0	0	0	1656	1675	0	0	0	0	1705	1699	1693	1694	1679	1649	1646	1660	1677	1690	1694	1670	0	0	0	0	0	0	0	0	0	0	0	0	0	0	0	0	0	0	0	0	0	0	0	0	0	0	0	0	0	0	0	0	0	0	0	0	0	0	0	0	0	0	0	0	0	0	0	0	0	0	0	0	0	0	0	1431	1435	1434	1409	1389	1387	1394	1398	1401	1386	1389	1391	1391	1384	1376	1372	1364	1365	1368	1382	1397	1401	1390	1380	1379	1389	1393	1387	1377	1364	1355	1352	1356	1359	1375	1391	1398	1395	1392	1383	1371	1362	1357	1360	1366	1365	1380	1388	1394	1405	1411	1451	1513	1577	1666	0	0	0	0	0	0	0	0	0	0	0	0	0	0	0	0	0	0	0	0	0	0	0	0	0	0	0	0	0	0	0	0	0	0	0	0	0	0	0	0	0	0	0	0	0	0	0	0	0	0	0	0	0	0	0	0	0	0	0	0	0	0	0	0	0	0	0	0	0	0	0	1696	1706	1693	1654	1648	1674	1685	0	0	0	0	0	0	0	0	0	0	0	0	1369	1369	1362	1361	1385	1398	1395	1367	1358	1357	1354	1354	1366	1368	1369	1362	1359	1357	1353	1353	1361	1385	1399	1399	1381	1370	1368	1369	1381	1384	1374	1356	1358	1365	1367	1362	1355	1347	1343	1353	1361	1367	1368	1361	1362	1358	1354	1339	1358	1397	1426	0	0	0	0	0	0	0	0	0	0	0	0	0	0	0	0	0	0	0	0	0	0	0	0	0	0	0	0	0	0	0	0	0	0	0	0	0	0	0	0	0	0	0	0	0	0	0	0	0	0	0	0	0	0	0	0	0	0	0	0	0	0	0	0	0	0	0	0	0	0	0	0	0	0	0	0	0	0	0	0	0	0	0	0	0	0	0	0	0	0	0	0	0	0	0	0	0	0	0	0	0	0	0	0	0	0	0	0	0	0	0	0	0	0	0	0	0	0	0	0	0	0	0	0	0	0	0	0	0	0	0	0	0
0	0	0	0	0	0	0	0	0	0	0	0	0	0	0	0	0	0	0	0	0	0	0	0	0	0	0	0	0	0	0	0	0	0	0	0	0	0	0	0	0	0	0	0	0	0	0	0	0	0	0	0	0	0	0	0	0	0	0	0	0	0	0	0	0	0	0	0	0	0	0	0	0	0	0	0	0	0	0	0	0	0	0	0	0	0	0	0	0	0	0	0	1529	1512	1505	1488	1483	1477	1471	1449	1439	1454	1465	1472	1485	1480	1462	1477	1479	1478	1482	1488	1486	1473	1455	1448	1442	1438	1442	1489	1500	1495	1486	1508	0	0	0	0	0	0	0	0	0	0	0	0	0	0	0	0	0	0	0	0	0	0	0	0	0	0	0	0	0	0	0	0	0	0	0	0	0	0	0	0	0	0	0	0	0	0	0	0	0	0	0	0	1470	1406	1381	1373	1381	1390	1408	1418	1430	1427	1416	1412	1414	1420	1422	1427	1433	1435	1432	1425	1420	1437	1438	1427	1414	1401	1408	1410	1408	1375	1369	1377	1396	1406	1401	1382	1379	1383	1393	1399	1401	1394	1392	1410	1440	1437	1444	1439	1430	0	0	0	0	0	0	0	0	0	0	0	0	0	0	0	0	0	0	0	0	0	0	0	0	0	0	1647	1664	1673	1671	1638	0	0	0	0	0	0	0	0	0	0	0	0	0	0	0	0	0	0	0	0	0	0	0	0	0	0	0	0	0	0	0	0	0	0	0	0	0	0	0	0	0	0	0	0	0	0	0	0	0	0	0	0	0	0	0	1430	1425	1421	1382	1381	1386	1391	1403	1408	1404	1397	1392	1382	1370	1373	1373	1368	1358	1361	1378	1392	1393	1397	1386	1372	1378	1386	1387	1382	1374	1360	1353	1353	1362	1375	1391	1398	1392	1389	1380	1371	1357	1354	1355	1364	1366	1391	1399	1403	1404	1408	1442	1505	1608	1713	0	0	0	0	0	0	0	0	0	0	0	0	0	0	0	0	0	0	0	0	0	0	0	0	0	0	0	0	0	0	0	0	0	0	0	0	0	0	0	0	0	0	0	0	0	0	0	0	0	0	0	0	0	0	0	0	0	0	0	0	0	0	0	0	0	0	0	0	0	0	0	0	1693	1685	1668	0	0	0	0	0	0	0	0	0	0	0	0	0	0	0	1387	1379	1362	1358	1390	1408	1413	1383	1365	1353	1351	1347	1349	1356	1362	1357	1351	1352	1351	1357	1369	1389	1402	1391	1373	1361	1362	1367	1370	1374	1374	1349	1356	1366	1364	1362	1356	1346	1344	1347	1356	1362	1362	1359	1364	1366	1361	1349	1354	1399	1432	0	0	0	0	0	0	0	0	0	0	0	0	0	0	0	0	0	0	0	0	0	0	0	0	0	0	0	0	0	0	0	0	0	0	0	0	0	0	0	0	0	0	0	0	0	0	0	0	0	0	0	0	0	0	0	0	0	0	0	0	0	0	0	0	0	0	0	0	0	0	0	0	0	0	0	0	0	0	0	0	0	0	0	0	0	0	0	0	0	0	0	0	0	0	0	0	0	0	0	0	0	0	0	0	0	0	0	0	0	0	0	0	0	0	0	0	0	0	0	0	0	0	0	0	0	0	0	0	0	0	0	0	0
0	0	0	0	0	0	0	0	0	0	0	0	0	0	0	0	0	0	0	0	0	0	0	0	0	0	0	0	0	0	0	0	0	0	0	0	0	0	0	0	0	0	0	0	0	0	0	0	0	0	0	0	0	0	0	0	0	0	0	0	0	0	0	0	0	0	0	0	0	0	0	0	0	0	0	0	0	0	0	0	0	0	0	0	0	0	0	0	0	0	0	0	1544	1514	1483	1465	1467	1469	1465	1457	1448	1459	1472	1487	1499	1500	1479	1482	1484	1485	1478	1470	1470	1463	1463	1456	1447	1443	1435	1478	1491	1505	1501	1490	0	0	0	0	0	0	0	0	0	0	0	0	0	0	0	0	0	0	0	0	0	0	0	0	0	0	0	0	0	0	0	0	0	0	0	0	0	0	0	0	0	0	0	0	0	0	0	0	0	0	0	0	1477	1405	1376	1369	1371	1374	1381	1394	1401	1403	1400	1399	1409	1411	1415	1425	1434	1432	1428	1425	1426	1433	1440	1429	1425	1408	1407	1410	1408	1379	1369	1381	1405	1417	1409	1384	1383	1389	1409	1409	1411	1399	1408	1421	1425	1433	1436	1435	1426	0	0	0	0	0	0	0	0	0	0	0	0	0	0	0	0	0	0	0	0	0	0	0	0	0	0	0	0	1657	1647	0	0	0	0	0	0	0	0	0	0	0	0	0	0	0	0	0	0	0	0	0	0	0	0	0	0	0	0	0	0	0	0	0	0	0	0	0	0	0	0	0	0	0	0	0	0	0	0	0	0	0	0	0	0	0	0	1417	1411	1393	1365	1379	1384	1389	1395	1399	1397	1392	1387	1375	1372	1377	1377	1371	1361	1361	1365	1379	1384	1379	1380	1379	1381	1381	1382	1381	1375	1363	1355	1354	1358	1375	1386	1393	1392	1386	1383	1384	1369	1363	1362	1364	1365	1403	1408	1398	1400	1404	1444	1543	1674	0	0	0	0	0	0	0	0	0	0	0	0	0	0	0	0	0	0	0	0	0	0	0	0	0	0	0	0	0	0	0	0	0	0	0	0	0	0	0	0	0	0	0	0	0	0	0	0	0	0	0	0	0	0	0	0	0	0	0	0	0	0	0	0	0	0	0	0	0	0	0	0	0	0	0	0	0	0	0	0	0	0	0	0	0	0	0	0	0	0	0	1405	1403	1385	1359	1385	1405	1404	1376	1356	1350	1345	1339	1341	1347	1354	1350	1347	1349	1356	1370	1378	1390	1396	1383	1362	1349	1351	1354	1356	1358	1353	1343	1347	1360	1365	1371	1368	1356	1341	1337	1345	1359	1360	1358	1363	1372	1370	1361	1349	1374	1446	0	0	0	0	0	0	0	0	0	0	0	0	0	0	0	0	0	0	0	0	0	0	0	0	0	0	0	0	0	0	0	0	0	0	0	0	0	0	0	0	0	0	0	0	0	0	0	0	0	0	0	0	0	0	0	0	0	0	0	0	0	0	0	0	0	0	0	0	0	0	0	0	0	0	0	0	0	0	0	0	0	0	0	0	0	0	0	0	0	0	0	0	0	0	0	0	0	0	0	0	0	0	0	0	0	0	0	0	0	0	0	0	0	0	0	0	0	0	0	0	0	0	0	0	0	0	0	0	0	0	0	0	0
0	0	0	0	0	0	0	0	0	0	0	0	0	0	0	0	0	0	0	0	0	0	0	0	0	0	0	0	0	0	0	0	0	0	0	0	0	0	0	0	0	0	0	0	0	0	0	0	0	0	0	0	0	0	0	0	0	0	0	0	0	0	0	0	0	0	0	0	0	0	0	0	0	0	0	0	0	0	0	0	0	0	0	0	0	0	0	0	0	0	0	0	1509	1504	1472	1462	1463	1465	1466	1454	1458	1467	1480	1489	1493	1486	1480	1478	1482	1481	1478	1468	1459	1467	1473	1468	1455	1454	1441	1469	1490	1495	1490	1479	0	0	0	0	0	0	0	0	0	0	0	0	0	0	0	0	0	0	0	0	0	0	0	0	0	0	0	0	0	0	0	0	0	0	0	0	0	0	0	0	0	0	0	0	0	0	0	0	0	0	0	0	1473	1387	1365	1362	1367	1366	1368	1371	1384	1389	1389	1400	1406	1413	1412	1421	1426	1426	1427	1425	1429	1436	1441	1436	1426	1417	1418	1423	1423	1381	1368	1387	1412	1422	1408	1389	1395	1410	1423	1400	1398	1406	1414	1418	1412	1424	1428	1428	1421	0	0	0	0	0	0	0	0	0	0	0	0	0	0	0	0	0	0	0	0	0	0	0	0	0	0	0	0	0	0	0	0	0	0	0	0	0	0	0	0	0	0	0	0	0	0	0	0	0	0	0	0	0	0	0	0	0	0	0	0	0	0	0	0	0	0	0	0	0	0	0	0	0	0	0	0	0	0	0	0	0	0	0	0	0	0	1411	1388	1368	1358	1379	1389	1390	1389	1390	1390	1388	1381	1378	1379	1381	1382	1378	1365	1360	1365	1373	1375	1366	1373	1375	1383	1386	1385	1384	1379	1367	1358	1360	1367	1375	1386	1398	1393	1392	1395	1402	1394	1385	1376	1369	1365	1408	1402	1390	1388	1404	1460	1545	1677	0	0	0	0	0	0	0	0	0	0	0	0	0	0	0	0	0	0	0	0	0	0	0	0	0	0	0	0	0	0	0	0	0	0	0	0	0	0	0	0	0	0	0	0	0	0	0	0	0	0	0	0	0	0	0	0	0	0	0	0	0	0	0	0	0	0	0	0	0	0	0	0	0	0	0	0	0	0	0	0	0	0	0	0	0	0	0	0	0	0	0	1432	1411	1405	1394	1376	1388	1382	1357	1343	1342	1335	1337	1340	1341	1349	1348	1352	1351	1359	1370	1376	1377	1374	1361	1350	1340	1344	1345	1347	1344	1334	1331	1341	1357	1376	1392	1384	1365	1349	1348	1354	1355	1365	1367	1366	1369	1375	1367	1356	1372	1466	0	0	0	0	0	0	0	0	0	0	0	0	0	0	0	0	0	0	0	0	0	0	0	0	0	0	0	0	0	0	0	0	0	0	0	0	0	0	0	0	0	0	0	0	0	0	0	0	0	0	0	0	0	0	0	0	0	0	0	0	0	0	0	0	0	0	0	0	0	0	0	0	0	0	0	0	0	0	0	0	0	0	0	0	0	0	0	0	0	0	0	0	0	0	0	0	0	0	0	0	0	0	0	0	0	0	0	0	0	0	0	0	0	0	0	0	0	0	0	0	0	0	0	0	0	0	0	0	0	0	0	0	0
0	0	0	0	0	0	0	0	0	0	0	0	0	0	0	0	0	0	0	0	0	0	0	0	0	0	0	0	0	0	0	0	0	0	0	0	0	0	0	0	0	0	0	0	0	0	0	0	0	0	0	0	0	0	0	0	0	0	0	0	0	0	0	0	0	0	0	0	0	0	0	0	0	0	0	0	0	0	0	0	0	0	0	0	0	0	0	0	0	0	0	0	1464	1476	1464	1465	1468	1477	1480	1467	1466	1475	1483	1479	1468	1466	1460	1477	1488	1490	1479	1472	1467	1469	1475	1475	1469	1458	1445	1471	1479	1492	1476	1461	0	0	0	0	0	0	0	0	0	0	0	0	0	0	0	0	0	0	0	0	0	0	0	0	0	0	0	0	0	0	0	0	0	0	0	0	0	0	0	0	0	0	0	0	0	0	0	0	0	0	0	0	1485	1385	1360	1362	1369	1378	1371	1370	1372	1380	1394	1397	1403	1412	1409	1407	1407	1413	1419	1427	1429	1432	1432	1431	1424	1423	1433	1441	1437	1385	1380	1395	1411	1415	1402	1394	1404	1414	1414	1393	1385	1391	1404	1409	1407	1423	1425	1418	1416	1418	0	0	0	0	0	0	0	0	0	0	0	0	0	0	0	0	0	0	0	0	0	0	0	0	0	0	0	0	0	0	0	0	0	0	0	0	0	0	0	0	0	0	0	0	0	0	0	0	0	0	0	0	0	0	0	0	0	0	0	0	0	0	0	0	0	0	0	0	0	0	0	0	0	0	0	0	0	0	0	0	0	0	0	0	0	1441	1392	1369	1372	1377	1388	1392	1386	1386	1385	1380	1379	1385	1387	1386	1381	1372	1364	1360	1363	1382	1376	1373	1370	1376	1389	1392	1389	1380	1374	1365	1361	1362	1371	1378	1392	1397	1398	1402	1404	1406	1405	1398	1388	1374	1371	1400	1394	1386	1383	1397	1454	1572	0	0	0	0	0	0	0	0	0	0	0	0	0	0	0	0	0	0	0	0	0	0	0	0	0	0	0	0	0	0	0	0	0	0	0	0	0	0	0	0	0	0	0	0	0	0	0	0	0	0	0	0	0	0	0	0	0	0	0	0	0	0	0	0	0	0	0	0	0	0	0	0	0	0	0	0	0	0	0	0	0	0	0	0	0	0	0	0	0	0	0	0	1448	1433	1422	1393	1374	1367	1364	1350	1341	1334	1333	1340	1342	1343	1352	1363	1355	1357	1364	1366	1370	1371	1363	1355	1347	1346	1347	1348	1340	1343	1330	1332	1347	1363	1393	1398	1386	1370	1356	1357	1362	1365	1375	1375	1366	1372	1373	1368	1370	1371	1446	0	0	0	0	0	0	0	0	0	0	0	0	0	0	0	0	0	0	0	0	0	0	0	0	0	0	0	0	0	0	0	0	0	0	0	0	0	0	0	0	0	0	0	0	0	0	0	0	0	0	0	0	0	0	0	0	0	0	0	0	0	0	0	0	0	0	0	0	0	0	0	0	0	0	0	0	0	0	0	0	0	0	0	0	0	0	0	0	0	0	0	0	0	0	0	0	0	0	0	0	0	0	0	0	0	0	0	0	0	0	0	0	0	0	0	0	0	0	0	0	0	0	0	0	0	0	0	0	0	0	0	0	0
0	0	0	0	0	0	0	0	0	0	0	0	0	0	0	0	0	0	0	0	0	0	0	0	0	0	0	0	0	0	0	0	0	0	0	0	0	0	0	0	0	0	0	0	0	0	0	0	0	0	0	0	0	0	0	0	0	0	0	0	0	0	0	0	0	0	0	0	0	0	0	0	0	0	0	0	0	0	0	0	0	0	0	0	0	0	0	0	0	0	0	0	1416	1437	1447	1472	1486	1489	1501	1498	1491	1478	1477	1465	1450	1447	1447	1475	1492	1496	1484	1474	1474	1473	1475	1478	1467	1456	1450	1465	1473	1484	1480	1459	1423	0	0	0	0	0	0	0	0	0	0	0	0	0	0	0	0	0	0	0	0	0	0	0	0	0	0	0	0	0	0	0	0	0	0	0	0	0	0	0	0	0	0	0	0	0	0	0	0	0	0	0	1470	1409	1377	1384	1397	1412	1418	1410	1415	1390	1402	1399	1395	1400	1393	1384	1385	1404	1415	1428	1430	1421	1417	1417	1416	1424	1437	1445	1442	1402	1397	1402	1409	1405	1397	1396	1413	1414	1409	1392	1385	1389	1393	1393	1405	1438	1433	1416	1424	1427	0	0	0	0	0	0	0	0	0	0	0	0	0	0	0	0	0	0	0	0	0	0	0	0	0	0	0	0	0	0	0	0	0	0	0	0	0	0	0	0	0	0	0	0	0	0	0	0	0	0	0	0	0	0	0	0	0	0	0	0	0	0	0	0	0	0	0	0	0	0	0	0	0	0	0	0	0	0	0	0	0	0	0	0	0	1441	1382	1368	1375	1379	1387	1394	1390	1385	1378	1377	1382	1387	1393	1389	1378	1371	1366	1363	1369	1377	1375	1367	1371	1384	1400	1405	1398	1383	1370	1362	1351	1354	1373	1383	1386	1397	1403	1394	1401	1400	1401	1398	1393	1379	1370	1388	1394	1389	1385	1394	1455	1556	0	0	0	0	0	0	0	0	0	0	0	0	0	0	0	0	0	0	0	0	0	0	0	0	0	0	0	0	0	0	0	0	0	0	0	0	0	0	0	0	0	0	0	0	0	0	0	0	0	0	0	0	0	0	0	0	0	0	0	0	0	0	0	0	0	0	0	0	0	0	0	0	0	0	0	0	0	0	0	0	0	0	0	0	0	0	0	0	0	0	0	0	1461	1452	1424	1376	1367	1364	1365	1362	1345	1337	1335	1347	1353	1352	1354	1364	1364	1366	1367	1371	1368	1365	1361	1357	1351	1350	1342	1343	1345	1350	1335	1337	1351	1371	1394	1393	1377	1364	1360	1365	1372	1379	1378	1373	1368	1369	1367	1364	1368	1380	1420	0	0	0	0	0	0	0	0	0	0	0	0	0	0	0	0	0	0	0	0	0	0	0	0	0	0	0	0	0	0	0	0	0	0	0	0	0	0	0	0	0	0	0	0	0	0	0	0	0	0	0	0	0	0	0	0	0	0	0	0	0	0	0	0	0	0	0	0	0	0	0	0	0	0	0	0	0	0	0	0	0	0	0	0	0	0	0	0	0	0	0	0	0	0	0	0	0	0	0	0	0	0	0	0	0	0	0	0	0	0	0	0	0	0	0	0	0	0	0	0	0	0	0	0	0	0	0	0	0	0	0	0	0
0	0	0	0	0	0	0	0	0	0	0	0	0	0	0	0	0	0	0	0	0	0	0	0	0	0	0	0	0	0	0	0	0	0	0	0	0	0	0	0	0	0	0	0	0	0	0	0	0	0	0	0	0	0	0	0	0	0	0	0	0	0	0	0	0	0	0	0	0	0	0	0	0	0	0	0	0	0	0	0	0	0	0	0	0	0	0	0	0	0	0	0	1418	1450	1471	1481	1491	1500	1504	1501	1489	1478	1469	1460	1456	1449	1455	1475	1486	1488	1480	1469	1464	1460	1463	1464	1457	1451	1449	1458	1479	1496	1484	1458	1429	1425	0	0	0	0	0	0	0	0	0	0	0	0	0	0	0	0	0	0	0	0	0	0	0	0	0	0	0	0	0	0	0	0	0	0	0	0	0	0	0	0	0	0	0	0	0	0	0	0	0	0	1448	1382	1381	1392	1414	1426	1421	1420	1415	1410	1411	1402	1390	1379	1382	1399	1391	1404	1419	1425	1422	1411	1404	1406	1415	1424	1436	1446	1440	1415	1406	1403	1404	1397	1396	1404	1414	1411	1407	1402	1391	1388	1386	1388	1409	1442	1424	1434	1448	0	0	0	0	0	0	0	0	0	0	0	0	0	0	0	0	0	0	0	0	0	0	0	0	0	0	0	0	0	0	0	0	0	0	0	0	0	0	0	0	0	0	0	0	0	0	0	0	0	0	0	0	0	0	0	0	0	0	0	0	0	0	0	0	0	0	0	0	0	0	0	0	0	0	0	0	0	0	0	0	0	0	0	0	0	0	1402	1366	1370	1382	1388	1388	1391	1393	1383	1384	1383	1383	1386	1387	1379	1366	1365	1372	1379	1378	1382	1377	1368	1370	1381	1399	1400	1395	1383	1372	1365	1363	1366	1370	1382	1383	1380	1374	1374	1379	1389	1397	1400	1393	1388	1374	1390	1395	1398	1398	1399	1454	1555	0	0	0	0	0	0	0	0	0	0	0	0	0	0	0	0	0	0	0	0	0	0	0	0	0	0	0	0	0	0	0	0	0	0	0	0	0	0	0	0	0	0	0	0	0	0	0	0	0	0	0	0	0	0	0	0	0	0	0	0	0	0	0	0	0	0	0	0	0	0	0	0	0	0	0	0	0	0	0	0	0	0	0	0	0	0	0	0	0	0	0	0	1448	1433	1378	1361	1361	1372	1375	1374	1352	1342	1348	1370	1363	1361	1360	1359	1358	1359	1364	1364	1362	1359	1362	1364	1358	1341	1339	1343	1348	1354	1344	1351	1358	1363	1371	1373	1369	1359	1354	1357	1363	1367	1368	1365	1369	1368	1361	1353	1363	1382	1411	0	0	0	0	0	0	0	0	0	0	0	0	0	0	0	0	0	0	0	0	0	0	0	0	0	0	0	0	0	0	0	0	0	0	0	0	0	0	0	0	0	0	0	0	0	0	0	0	0	0	0	0	0	0	0	0	0	0	0	0	0	0	0	0	0	0	0	0	0	0	0	0	0	0	0	0	0	0	0	0	0	0	0	0	0	0	0	0	0	0	0	0	0	0	0	0	0	0	0	0	0	0	0	0	0	0	0	0	0	0	0	0	0	0	0	0	0	0	0	0	0	0	0	0	0	0	0	0	0	0	0	0	0
0	0	0	0	0	0	0	0	0	0	0	0	0	0	0	0	0	0	0	0	0	0	0	0	0	0	0	0	0	0	0	0	0	0	0	0	0	0	0	0	0	0	0	0	0	0	0	0	0	0	0	0	0	0	0	0	0	0	0	0	0	0	0	0	0	0	0	0	0	0	0	0	0	0	0	0	0	0	0	0	0	0	0	0	0	0	0	0	0	0	0	0	1452	1458	1473	1488	1491	1499	1497	1498	1483	1473	1463	1465	1465	1468	1476	1465	1467	1461	1462	1459	1453	1445	1446	1448	1448	1446	1450	1467	1476	1495	1497	1479	1461	1454	1459	0	0	0	0	0	0	0	0	0	0	0	0	0	0	0	0	0	0	0	0	0	0	0	0	0	0	0	0	0	0	0	0	0	0	0	0	0	0	0	0	0	0	0	0	0	0	0	0	0	1432	1376	1381	1399	1421	1430	1429	1418	1413	1414	1407	1395	1390	1384	1390	1414	1419	1421	1418	1414	1400	1394	1406	1412	1423	1430	1436	1431	1432	1414	1400	1396	1397	1397	1399	1410	1409	1409	1407	1412	1411	1397	1393	1409	1432	1442	1410	1428	0	0	0	0	0	0	0	0	0	0	0	0	0	0	0	0	0	0	0	0	0	0	0	0	0	0	0	0	0	0	0	0	0	0	0	0	0	0	0	0	0	0	0	0	0	0	0	0	0	0	0	0	0	0	0	0	0	0	0	0	0	0	0	0	0	0	0	0	0	0	0	0	0	0	0	0	0	0	0	0	0	0	0	0	0	0	0	1381	1361	1385	1397	1401	1389	1388	1387	1390	1397	1396	1390	1388	1394	1393	1379	1369	1370	1380	1391	1390	1381	1371	1367	1376	1376	1391	1394	1386	1379	1369	1366	1365	1363	1366	1372	1380	1372	1367	1370	1381	1389	1397	1399	1391	1389	1390	1394	1400	1408	1407	1468	1560	1588	0	0	0	0	0	0	0	0	0	0	0	0	0	0	0	0	0	0	0	0	0	0	0	0	0	0	0	0	0	0	0	0	0	0	0	0	0	0	0	0	0	0	0	0	0	0	0	0	0	0	0	0	0	0	0	0	0	0	0	0	0	0	0	0	0	0	0	0	0	0	0	0	0	0	0	0	0	0	0	0	0	0	0	0	0	0	0	0	0	0	0	1420	1411	1368	1373	1379	1384	1385	1383	1362	1358	1354	1379	1372	1365	1361	1351	1346	1351	1357	1363	1359	1360	1373	1380	1368	1343	1328	1328	1334	1342	1346	1355	1359	1365	1371	1370	1366	1353	1347	1352	1355	1357	1358	1368	1373	1358	1348	1341	1351	1394	1424	0	0	0	0	0	0	0	0	0	0	0	0	0	0	0	0	0	0	0	0	0	0	0	0	0	0	0	0	0	0	0	0	0	0	0	0	0	0	0	0	0	0	0	0	0	0	0	0	0	0	0	0	0	0	0	0	0	0	0	0	0	0	0	0	0	0	0	0	0	0	0	0	0	0	0	0	0	0	0	0	0	0	0	0	0	0	0	0	0	0	0	0	0	0	0	0	0	0	0	0	0	0	0	0	0	0	0	0	0	0	0	0	0	0	0	0	0	0	0	0	0	0	0	0	0	0	0	0	0	0	0	0	0
0	0	0	0	0	0	0	0	0	0	0	0	0	0	0	0	0	0	0	0	0	0	0	0	0	0	0	0	0	0	0	0	0	0	0	0	0	0	0	0	0	0	0	0	0	0	0	0	0	0	0	0	0	0	0	0	0	0	0	0	0	0	0	0	0	0	0	0	0	0	0	0	0	0	0	0	0	0	0	0	0	0	0	0	0	0	0	0	0	0	0	0	0	1461	1475	1488	1501	1501	1494	1489	1483	1459	1462	1465	1477	1491	1492	1472	1454	1442	1448	1450	1452	1442	1442	1439	1444	1443	1450	1466	1475	1484	1493	1489	1487	1489	1503	0	0	0	0	0	0	0	0	0	0	0	0	0	0	0	0	0	0	0	0	0	0	0	0	0	0	0	0	0	0	0	0	0	0	0	0	0	0	0	0	0	0	0	0	0	0	0	0	0	1467	1375	1399	1417	1430	1419	1408	1406	1403	1401	1400	1394	1392	1395	1398	1420	1420	1415	1413	1406	1403	1401	1411	1428	1438	1440	1438	1428	1422	1405	1386	1385	1387	1391	1400	1410	1408	1409	1416	1425	1428	1419	1407	1420	1452	1448	1398	1399	0	0	0	0	0	0	0	0	0	0	0	0	0	0	0	0	0	0	0	0	0	0	0	0	0	0	0	0	0	0	0	0	0	0	0	0	0	0	0	0	0	0	0	0	0	0	0	0	0	0	0	0	0	0	0	0	0	0	0	0	0	0	0	0	0	0	0	0	0	0	0	0	0	0	0	0	0	0	0	0	0	0	0	0	0	0	0	1394	1388	1413	1421	1413	1395	1378	1381	1390	1399	1405	1406	1412	1406	1407	1397	1376	1370	1376	1386	1392	1385	1376	1369	1374	1367	1378	1383	1394	1383	1379	1369	1360	1355	1357	1369	1375	1374	1377	1377	1380	1384	1389	1391	1389	1394	1388	1400	1402	1409	1430	1479	1568	1602	1619	0	0	0	0	0	0	0	0	0	0	0	0	0	0	0	0	0	0	0	0	0	0	0	0	0	0	0	0	0	0	0	0	0	0	0	0	0	0	0	0	0	0	0	0	0	0	0	0	0	0	0	0	0	0	0	0	0	0	0	0	0	0	0	0	0	0	0	0	0	0	0	0	0	0	0	0	0	0	0	0	0	0	0	0	0	0	0	0	0	0	0	1401	1367	1377	1389	1391	1382	1379	1369	1368	1369	1378	1377	1365	1364	1350	1345	1352	1360	1366	1372	1376	1384	1386	1378	1351	1333	1327	1331	1336	1343	1353	1361	1368	1373	1370	1362	1349	1349	1347	1361	1365	1366	1370	1366	1341	1339	1337	1347	1390	1439	0	0	0	0	0	0	0	0	0	0	0	0	0	0	0	0	0	0	0	0	0	0	0	0	0	0	0	0	0	0	0	0	0	0	0	0	0	0	0	0	0	0	0	0	0	0	0	0	0	0	0	0	0	0	0	0	0	0	0	0	0	0	0	0	0	0	0	0	0	0	0	0	0	0	0	0	0	0	0	0	0	0	0	0	0	0	0	0	0	0	0	0	0	0	0	0	0	0	0	0	0	0	0	0	0	0	0	0	0	0	0	0	0	0	0	0	0	0	0	0	0	0	0	0	0	0	0	0	0	0	0	0	0
0	0	0	0	0	0	0	0	0	0	0	0	0	0	0	0	0	0	0	0	0	0	0	0	0	0	0	0	0	0	0	0	0	0	0	0	0	0	0	0	0	0	0	0	0	0	0	0	0	0	0	0	0	0	0	0	0	0	0	0	0	0	0	0	0	0	0	0	0	0	0	0	0	0	0	0	0	0	0	0	0	0	0	0	0	0	0	0	0	0	0	0	0	1459	1468	1487	1510	1510	1498	1483	1476	1460	1463	1475	1486	1499	1494	1467	1443	1445	1451	1454	1459	1450	1451	1449	1452	1448	1451	1463	1470	1477	1483	1489	1490	1505	1512	0	0	0	0	0	0	0	0	0	0	0	0	0	0	0	0	0	0	0	0	0	0	0	0	0	0	0	0	0	0	0	0	0	0	0	0	0	0	0	0	0	0	0	0	0	0	0	0	0	1465	1391	1412	1427	1434	1424	1401	1398	1392	1401	1394	1394	1395	1406	1411	1422	1417	1411	1412	1401	1399	1409	1419	1430	1435	1441	1448	1443	1425	1405	1387	1380	1379	1391	1402	1409	1409	1412	1417	1429	1427	1426	1415	1434	1467	1468	1400	1389	0	0	0	0	0	0	0	0	0	0	0	0	0	0	0	0	0	0	0	0	0	0	0	0	0	0	0	0	0	0	0	0	0	0	0	0	0	0	0	0	0	0	0	0	0	0	0	0	0	0	0	0	0	0	0	0	0	0	0	0	0	0	0	0	0	0	0	0	0	0	0	0	0	0	0	0	0	0	0	0	0	0	0	0	0	0	0	1422	1427	1432	1434	1410	1383	1371	1372	1385	1393	1403	1405	1400	1406	1411	1400	1384	1372	1377	1390	1384	1386	1379	1376	1379	1382	1376	1383	1390	1389	1383	1377	1377	1375	1386	1395	1395	1393	1385	1382	1378	1377	1383	1385	1386	1383	1382	1399	1404	1424	1434	1477	1572	1614	1635	0	0	0	0	0	0	0	0	0	0	0	0	0	0	0	0	0	0	0	0	0	0	0	0	0	0	0	0	0	0	0	0	0	0	0	0	0	0	0	0	0	0	0	0	0	0	0	0	0	0	0	0	0	0	0	0	0	0	0	0	0	0	0	0	0	0	0	0	0	0	0	0	0	0	0	0	0	0	0	0	0	0	0	0	0	0	0	0	0	0	0	1414	1377	1381	1404	1393	1364	1362	1367	1378	1387	1375	1375	1370	1357	1359	1360	1360	1365	1370	1373	1376	1386	1388	1376	1356	1340	1336	1339	1339	1344	1351	1356	1363	1366	1363	1354	1349	1351	1369	1377	1370	1376	1375	1369	1343	1337	1338	1341	1369	1440	0	0	0	0	0	0	0	0	0	0	0	0	0	0	0	0	0	0	0	0	0	0	0	0	0	0	0	0	0	0	0	0	0	0	0	0	0	0	0	0	0	0	0	0	0	0	0	0	0	0	0	0	0	0	0	0	0	0	0	0	0	0	0	0	0	0	0	0	0	0	0	0	0	0	0	0	0	0	0	0	0	0	0	0	0	0	0	0	0	0	0	0	0	0	0	0	0	0	0	0	0	0	0	0	0	0	0	0	0	0	0	0	0	0	0	0	0	0	0	0	0	0	0	0	0	0	0	0	0	0	0	0	0
0	0	0	0	0	0	0	0	0	0	0	0	0	0	0	0	0	0	0	0	0	0	0	0	0	0	0	0	0	0	0	0	0	0	0	0	0	0	0	0	0	0	0	0	0	0	0	0	0	0	0	0	0	0	0	0	0	0	0	0	0	0	0	0	0	0	0	0	0	0	0	0	0	0	0	0	0	0	0	0	0	0	0	0	0	0	0	0	0	0	0	0	0	1463	1468	1491	1508	1517	1498	1471	1458	1459	1470	1478	1489	1496	1493	1473	1455	1455	1456	1459	1462	1456	1453	1457	1459	1458	1459	1460	1457	1456	1468	1489	1501	1498	1495	0	0	0	0	0	0	0	0	0	0	0	0	0	0	0	0	0	0	0	0	0	0	0	0	0	0	0	0	0	0	0	0	0	0	0	0	0	0	0	0	0	0	0	0	0	0	0	0	0	1462	1399	1411	1425	1427	1427	1415	1402	1397	1394	1397	1396	1402	1412	1423	1423	1420	1417	1417	1405	1403	1412	1423	1429	1439	1451	1458	1452	1446	1426	1390	1380	1379	1391	1402	1414	1410	1411	1415	1415	1423	1418	1417	1434	1472	1488	1416	0	0	0	0	0	0	0	0	0	0	0	0	0	0	0	0	0	0	0	0	0	0	0	0	0	0	0	0	0	0	0	0	0	0	0	0	0	0	0	0	0	0	0	0	0	0	0	0	0	0	0	0	0	0	0	0	0	0	0	0	0	0	0	0	0	0	0	0	0	0	0	0	0	0	0	0	0	0	0	0	0	0	0	0	0	0	0	0	1474	1447	1438	1424	1398	1377	1363	1367	1373	1386	1394	1391	1392	1395	1402	1398	1388	1379	1380	1386	1378	1380	1377	1381	1377	1382	1386	1386	1386	1386	1383	1379	1372	1376	1379	1386	1386	1386	1385	1379	1375	1374	1382	1388	1388	1373	1376	1396	1405	1416	1419	1452	1577	1616	1647	0	0	0	0	0	0	0	0	0	0	0	0	0	0	0	0	0	0	0	0	0	0	0	0	0	0	0	0	0	0	0	0	0	0	0	0	0	0	0	0	0	0	0	0	0	0	0	0	0	0	0	0	0	0	0	0	0	0	0	0	0	0	0	0	0	0	0	0	0	0	0	0	0	0	0	0	0	0	0	0	0	0	0	0	0	0	0	0	0	0	0	1421	1414	1390	1411	1397	1349	1340	1348	1358	1371	1376	1379	1376	1364	1361	1363	1368	1372	1371	1369	1373	1379	1382	1370	1355	1344	1341	1346	1350	1354	1359	1358	1364	1366	1361	1352	1347	1351	1386	1393	1388	1377	1372	1365	1349	1345	1343	1345	1371	1435	0	0	0	0	0	0	0	0	0	0	0	0	0	0	0	0	0	0	0	0	0	0	0	0	0	0	0	0	0	0	0	0	0	0	0	0	0	0	0	0	0	0	0	0	0	0	0	0	0	0	0	0	0	0	0	0	0	0	0	0	0	0	0	0	0	0	0	0	0	0	0	0	0	0	0	0	0	0	0	0	0	0	0	0	0	0	0	0	0	0	0	0	0	0	0	0	0	0	0	0	0	0	0	0	0	0	0	0	0	0	0	0	0	0	0	0	0	0	0	0	0	0	0	0	0	0	0	0	0	0	0	0	0
0	0	0	0	0	0	0	0	0	0	0	0	0	0	0	0	0	0	0	0	0	0	0	0	0	0	0	0	0	0	0	0	0	0	0	0	0	0	0	0	0	0	0	0	0	0	0	0	0	0	0	0	0	0	0	0	0	0	0	0	0	0	0	0	0	0	0	0	0	0	0	0	0	0	0	0	0	0	0	0	0	0	0	0	0	0	0	0	0	0	0	0	0	1476	1476	1493	1508	1508	1491	1456	1448	1458	1465	1486	1497	1498	1495	1476	1474	1466	1463	1459	1456	1445	1442	1457	1470	1469	1468	1466	1450	1448	1452	1483	1499	1488	1469	0	0	0	0	0	0	0	0	0	0	0	0	0	0	0	0	0	0	0	0	0	0	0	0	0	0	0	0	0	0	0	0	0	0	0	0	0	0	0	0	0	0	0	0	0	0	0	0	0	1470	1419	1408	1412	1420	1426	1421	1406	1393	1396	1395	1402	1408	1417	1420	1411	1416	1418	1430	1418	1405	1411	1419	1429	1443	1458	1455	1450	1447	1459	1404	1379	1375	1388	1401	1414	1411	1409	1407	1405	1403	1411	1415	1421	1462	1472	1458	1415	0	0	0	0	0	0	0	0	0	0	0	0	0	0	0	0	0	0	0	0	0	0	0	0	0	0	0	0	0	0	0	0	0	0	0	0	0	0	0	0	0	0	0	0	0	0	0	0	0	0	0	0	0	0	0	0	0	0	0	0	0	0	0	0	0	0	0	0	0	0	0	0	0	0	0	0	0	0	0	0	0	0	0	0	0	0	0	1475	1420	1411	1390	1379	1372	1361	1366	1370	1378	1377	1379	1386	1388	1390	1382	1376	1380	1379	1375	1372	1370	1377	1376	1378	1384	1382	1380	1376	1375	1383	1379	1375	1373	1375	1381	1382	1383	1381	1378	1375	1382	1391	1396	1393	1376	1376	1392	1400	1397	1382	1409	1564	1603	1647	0	0	0	0	0	0	0	0	0	0	0	0	0	0	0	0	0	0	0	0	0	0	0	0	0	0	0	0	0	0	0	0	0	0	0	0	0	0	0	0	0	0	0	0	0	0	0	0	0	0	0	0	0	0	0	0	0	0	0	0	0	0	0	0	0	0	0	0	0	0	0	0	0	0	0	0	0	0	0	0	0	0	0	0	0	0	0	0	0	0	0	1412	1398	1377	1401	1402	1391	1352	1346	1343	1356	1365	1382	1385	1380	1361	1367	1370	1369	1364	1363	1370	1374	1378	1361	1351	1347	1352	1353	1358	1355	1360	1361	1366	1369	1363	1351	1347	1358	1379	1387	1383	1378	1367	1355	1344	1351	1360	1368	1387	1413	0	0	0	0	0	0	0	0	0	0	0	0	0	0	0	0	0	0	0	0	0	0	0	0	0	0	0	0	0	0	0	0	0	0	0	0	0	0	0	0	0	0	0	0	0	0	0	0	0	0	0	0	0	0	0	0	0	0	0	0	0	0	0	0	0	0	0	0	0	0	0	0	0	0	0	0	0	0	0	0	0	0	0	0	0	0	0	0	0	0	0	0	0	0	0	0	0	0	0	0	0	0	0	0	0	0	0	0	0	0	0	0	0	0	0	0	0	0	0	0	0	0	0	0	0	0	0	0	0	0	0	0	0
0	0	0	0	0	0	0	0	0	0	0	0	0	0	0	0	0	0	0	0	0	0	0	0	0	0	0	0	0	0	0	0	0	0	0	0	0	0	0	0	0	0	0	0	0	0	0	0	0	0	0	0	0	0	0	0	0	0	0	0	0	0	0	0	0	0	0	0	0	0	0	0	0	0	0	0	0	0	0	0	0	0	0	0	0	0	0	0	0	0	0	0	0	1490	1489	1500	1508	1507	1479	1442	1437	1452	1460	1472	1489	1493	1495	1487	1484	1473	1474	1462	1446	1436	1433	1451	1472	1477	1479	1478	1449	1430	1449	1483	1493	1479	1449	0	0	0	0	0	0	0	0	0	0	0	0	0	0	0	0	0	0	0	0	0	0	0	0	0	0	0	0	0	0	0	0	0	0	0	0	0	0	0	0	0	0	0	0	0	0	0	0	0	1465	1421	1408	1402	1405	1411	1414	1409	1395	1384	1385	1400	1412	1419	1414	1396	1398	1412	1426	1422	1413	1411	1412	1423	1436	1443	1438	1431	1433	1448	1426	1381	1373	1386	1404	1411	1412	1406	1406	1401	1403	1402	1407	1419	1440	1451	1452	1418	0	0	0	0	0	0	0	0	0	0	0	0	0	0	0	0	0	0	0	0	0	0	0	0	0	0	0	0	0	0	0	0	0	0	0	0	0	0	0	0	0	0	0	0	0	0	0	0	0	0	0	0	0	0	0	0	0	0	0	0	0	0	0	0	0	0	0	0	0	0	0	0	0	0	0	0	0	0	0	0	0	0	0	0	0	0	0	1456	1407	1392	1377	1370	1369	1364	1366	1369	1372	1370	1375	1376	1380	1382	1377	1374	1378	1379	1376	1363	1361	1369	1371	1378	1378	1378	1378	1375	1372	1385	1385	1376	1371	1375	1379	1379	1378	1379	1375	1383	1392	1398	1403	1396	1383	1384	1394	1395	1386	1376	1386	1528	1583	1650	0	0	0	0	0	0	0	0	0	0	0	0	0	0	0	0	0	0	0	0	0	0	1766	1763	0	0	0	0	0	0	0	0	0	0	0	0	0	0	0	0	0	0	0	0	0	0	0	0	0	0	0	0	0	0	0	0	0	0	0	0	0	0	0	0	0	0	0	0	0	0	0	0	0	0	0	0	0	0	0	0	0	0	0	0	0	0	0	0	0	0	0	1358	1333	1343	1374	1382	1378	1352	1349	1350	1351	1359	1375	1382	1381	1363	1361	1357	1353	1347	1357	1367	1373	1372	1360	1355	1351	1347	1349	1361	1370	1374	1377	1371	1370	1366	1357	1349	1355	1361	1373	1375	1366	1363	1346	1343	1358	1371	1398	1399	1420	0	0	0	0	0	0	0	0	0	0	0	0	0	0	0	0	0	0	0	0	0	0	0	0	0	0	0	0	0	0	0	0	0	0	0	0	0	0	0	0	0	0	0	0	0	0	0	0	0	0	0	0	0	0	0	0	0	0	0	0	0	0	0	0	0	0	0	0	0	0	0	0	0	0	0	0	0	0	0	0	0	0	0	0	0	0	0	0	0	0	0	0	0	0	0	0	0	0	0	0	0	0	0	0	0	0	0	0	0	0	0	0	0	0	0	0	0	0	0	0	0	0	0	0	0	0	0	0	0	0	0	0	0
0	0	0	0	0	0	0	0	0	0	0	0	0	0	0	0	0	0	0	0	0	0	0	0	0	0	0	0	0	0	0	0	0	0	0	0	0	0	0	0	0	0	0	0	0	0	0	0	0	0	0	0	0	0	0	0	0	0	0	0	0	0	0	0	0	0	0	0	0	0	0	0	0	0	0	0	0	0	0	0	0	0	0	0	0	0	0	0	0	0	0	0	0	1489	1490	1494	1497	1500	1483	1443	1436	1442	1451	1463	1479	1487	1490	1491	1489	1488	1482	1462	1443	1423	1425	1447	1467	1479	1485	1489	1460	1423	1446	1475	1481	1478	1470	0	0	0	0	0	0	0	0	0	0	0	0	0	0	0	0	0	0	0	0	0	0	0	0	0	0	0	0	0	0	0	0	0	0	0	0	0	0	0	0	0	0	0	0	0	0	0	0	0	1438	1406	1406	1395	1393	1399	1403	1408	1397	1384	1380	1399	1411	1419	1406	1387	1400	1412	1420	1418	1404	1402	1407	1412	1419	1421	1413	1414	1423	1431	1413	1393	1390	1393	1407	1407	1400	1398	1401	1397	1398	1400	1402	1418	1422	1448	1468	1437	0	0	0	0	0	0	0	0	0	0	0	0	0	0	0	0	0	0	0	0	0	0	0	0	0	0	0	0	0	0	0	0	0	0	0	0	0	0	0	0	0	0	0	0	0	0	0	0	0	0	0	0	0	0	0	0	0	0	0	0	0	0	0	0	0	0	0	0	0	0	0	0	0	0	0	0	0	0	0	0	0	0	0	0	0	0	0	1440	1427	1393	1381	1377	1373	1367	1368	1371	1367	1368	1367	1370	1371	1374	1373	1375	1370	1370	1374	1372	1378	1384	1374	1378	1377	1378	1379	1378	1389	1399	1390	1376	1364	1370	1370	1374	1373	1376	1383	1392	1404	1407	1409	1401	1387	1386	1396	1401	1393	1372	1377	1505	1559	1637	0	0	0	0	0	0	0	0	0	0	0	0	0	0	0	0	0	0	0	0	0	0	1728	1730	0	0	0	0	0	0	0	0	0	0	0	0	0	0	0	0	0	0	0	0	0	0	0	0	0	0	0	0	0	0	0	0	0	0	0	0	0	0	0	0	0	0	0	0	0	0	0	0	0	0	0	0	0	0	0	0	0	0	0	0	0	0	0	0	0	0	0	1350	1322	1319	1336	1350	1355	1359	1361	1358	1364	1360	1361	1373	1381	1368	1356	1337	1326	1326	1341	1359	1363	1357	1355	1351	1347	1345	1350	1357	1372	1368	1378	1379	1380	1367	1345	1343	1344	1354	1360	1368	1364	1358	1335	1341	1356	1370	1395	1407	1423	0	0	0	0	0	0	0	0	0	0	0	0	0	0	0	0	0	0	0	0	0	0	0	0	0	0	0	0	0	0	0	0	0	0	0	0	0	0	0	0	0	0	0	0	0	0	0	0	0	0	0	0	0	0	0	0	0	0	0	0	0	0	0	0	0	0	0	0	0	0	0	0	0	0	0	0	0	0	0	0	0	0	0	0	0	0	0	0	0	0	0	0	0	0	0	0	0	0	0	0	0	0	0	0	0	0	0	0	0	0	0	0	0	0	0	0	0	0	0	0	0	0	0	0	0	0	0	0	0	0	0	0	0
0	0	0	0	0	0	0	0	0	0	0	0	0	0	0	0	0	0	0	0	0	0	0	0	0	0	0	0	0	0	0	0	0	0	0	0	0	0	0	0	0	0	0	0	0	0	0	0	0	0	0	0	0	0	0	0	0	0	0	0	0	0	0	0	0	0	0	0	0	0	0	0	0	0	0	0	0	0	0	0	0	0	0	0	0	0	0	0	0	0	0	0	0	1480	1480	1483	1487	1493	1468	1447	1429	1435	1443	1453	1456	1470	1481	1494	1495	1489	1477	1466	1440	1424	1425	1439	1451	1468	1476	1468	1452	1420	1431	1458	1481	1490	0	0	0	0	0	0	0	0	0	0	0	0	0	0	0	0	0	0	0	0	0	0	0	0	0	0	0	0	0	0	0	0	0	0	0	0	0	0	0	0	0	0	0	0	0	0	0	0	0	0	1405	1389	1402	1396	1391	1387	1395	1400	1396	1381	1380	1397	1410	1410	1402	1386	1407	1421	1415	1415	1405	1397	1397	1405	1412	1409	1396	1403	1411	1413	1403	1405	1404	1411	1414	1404	1391	1399	1400	1399	1391	1387	1390	1417	1415	1423	1468	0	0	0	0	0	0	0	0	0	0	0	0	0	0	0	0	0	0	0	0	0	0	0	0	0	0	0	0	0	0	0	0	0	0	0	0	0	0	0	0	0	0	0	0	0	0	0	0	0	0	0	0	0	0	0	0	0	0	0	0	0	0	0	0	0	0	0	0	0	0	0	0	0	0	0	0	0	0	0	0	0	0	0	0	0	0	0	0	1436	1429	1403	1393	1384	1379	1375	1374	1374	1374	1368	1368	1363	1362	1364	1363	1360	1365	1369	1371	1369	1382	1387	1385	1379	1377	1379	1383	1387	1396	1403	1389	1375	1351	1358	1363	1370	1369	1375	1379	1396	1408	1418	1415	1411	1394	1384	1400	1411	1399	1375	1373	1487	1536	1619	0	0	0	0	0	0	0	0	0	0	0	0	0	0	0	0	0	0	0	0	0	0	0	0	0	0	0	0	0	0	0	0	0	0	0	0	0	0	0	0	0	0	0	0	0	0	0	0	0	0	0	0	0	0	0	0	0	0	0	0	0	0	0	0	0	0	0	0	0	0	0	0	0	0	0	0	0	0	0	0	0	0	0	0	0	0	0	0	0	0	0	1358	1330	1332	1315	1323	1338	1357	1368	1367	1362	1360	1358	1368	1374	1364	1346	1328	1317	1316	1328	1349	1356	1350	1346	1339	1341	1341	1346	1350	1362	1364	1375	1378	1371	1360	1339	1343	1346	1356	1360	1361	1354	1352	1328	1343	1354	1373	1388	1407	1434	1455	0	0	0	0	0	0	0	0	0	0	0	0	0	0	0	0	0	0	0	0	0	0	0	0	0	0	0	0	0	0	0	0	0	0	0	0	0	0	0	0	0	0	0	0	0	0	0	0	0	0	0	0	0	0	0	0	0	0	0	0	0	0	0	0	0	0	0	0	0	0	0	0	0	0	0	0	0	0	0	0	0	0	0	0	0	0	0	0	0	0	1452	1463	1471	0	0	0	0	0	0	0	0	0	0	1499	1499	1490	1481	1474	1479	0	0	1442	1418	1400	1399	1409	1422	1427	1430	1430	1435	1427	1424	1425	1424	0	0	0	0	0	0	0
0	0	0	0	0	0	0	0	0	0	0	0	0	0	0	0	0	0	0	0	0	0	0	0	0	0	0	0	0	0	0	0	0	0	0	0	0	0	0	0	0	0	0	0	0	0	0	0	0	0	0	0	0	0	0	0	0	0	0	0	0	0	0	0	0	0	0	0	0	0	0	0	0	0	0	0	0	0	0	0	0	0	0	0	0	0	0	0	0	0	0	0	0	1472	1475	1475	1489	1486	1477	1463	1436	1428	1436	1444	1450	1458	1469	1495	1488	1484	1470	1461	1449	1428	1426	1428	1435	1451	1458	1460	1433	1422	1433	1457	1486	1485	0	0	0	0	0	0	0	0	0	0	0	0	0	0	0	0	0	0	0	0	0	0	0	0	0	0	0	0	0	0	0	0	0	0	0	0	0	0	0	0	0	0	0	0	0	0	0	0	0	0	1405	1383	1398	1396	1389	1386	1390	1401	1402	1396	1391	1399	1404	1409	1405	1397	1414	1423	1420	1414	1407	1397	1400	1404	1409	1402	1403	1407	1409	1396	1396	1421	1429	1430	1420	1404	1396	1403	1404	1400	1387	1376	1394	1413	1417	1408	1425	0	0	0	0	0	0	0	0	0	0	0	0	0	0	0	0	0	0	0	0	0	0	0	0	0	0	0	0	0	0	0	0	0	0	0	1250	1259	0	0	0	0	0	0	0	0	0	0	0	0	0	0	0	0	0	0	0	0	0	0	0	0	0	0	0	0	0	0	0	0	0	0	0	0	0	0	0	0	0	0	0	0	0	0	0	0	0	0	0	1447	1432	1408	1399	1397	1390	1386	1384	1386	1385	1383	1378	1367	1360	1364	1361	1366	1382	1379	1367	1369	1378	1383	1385	1381	1378	1377	1381	1387	1397	1400	1385	1371	1360	1355	1362	1370	1378	1374	1382	1399	1402	1424	1425	1413	1397	1386	1409	1426	1421	1392	1382	1453	1519	1587	0	0	0	0	0	0	0	0	0	0	0	0	0	0	0	0	0	0	0	0	0	0	0	0	0	0	0	0	0	0	0	0	0	0	0	0	0	0	0	0	0	0	0	0	0	0	0	0	0	0	0	0	0	0	0	0	0	0	0	0	0	0	0	0	0	0	0	0	0	0	0	0	0	0	0	0	0	0	0	0	1252	1287	1340	1384	1423	0	0	0	0	0	0	1370	1343	1354	1334	1327	1346	1362	1372	1373	1362	1354	1355	1367	1363	1355	1345	1330	1322	1322	1329	1344	1341	1337	1336	1340	1336	1339	1343	1350	1365	1369	1369	1371	1356	1346	1337	1340	1347	1354	1355	1351	1350	1338	1324	1335	1348	1370	1381	1414	1439	1462	1477	1490	1522	1541	1576	1591	1582	1540	1518	1484	1458	1459	1480	1489	1490	1478	1466	1467	1468	1477	1497	1515	1527	1542	1533	1515	1485	1473	1468	1464	1489	1509	1502	1483	1466	1444	1433	1412	1409	1426	1465	1489	1504	1517	1519	1488	1482	1477	1477	1469	1469	1467	1463	1458	1475	1525	1547	1529	1486	1466	1454	1448	1448	1453	1448	1445	1452	1444	1437	1438	1452	1459	1468	1481	1476	1464	1452	1441	1440	1465	1494	1509	1510	1510	1512	1498	1478	1474	1483	1488	1484	1479	1481	1484	1491	1480	1470	1454	1453	1455	1460	1465	1469	1465	1465	1465	1465	1472	1471	1467	1456	1432	1420	1409	1410	1414	1422	1431	1438	1438	1444	1431	1429	1439	1446	0	0	0	0	0	0	0
0	0	0	0	0	0	0	0	0	0	0	0	0	0	0	0	0	0	0	0	0	0	0	0	0	0	0	0	0	0	0	0	0	0	0	0	0	0	0	0	0	0	0	0	0	0	0	0	0	0	0	0	0	0	0	0	0	0	0	0	0	0	0	0	0	0	0	0	0	0	0	0	0	0	0	0	0	0	0	0	0	0	0	0	0	0	0	0	0	0	0	0	0	1466	1478	1479	1491	1492	1493	1493	1466	1438	1442	1445	1455	1463	1473	1491	1482	1479	1473	1466	1452	1439	1425	1421	1423	1437	1459	1468	1454	1442	1457	1475	1481	1479	1455	0	0	0	0	0	0	0	0	0	0	0	0	0	0	0	0	0	0	0	0	0	0	0	0	0	0	0	0	0	0	0	0	0	0	0	0	0	0	0	0	0	0	0	0	0	0	0	0	0	1430	1394	1395	1398	1392	1392	1396	1405	1411	1409	1410	1408	1408	1413	1420	1411	1417	1425	1426	1419	1406	1392	1393	1398	1400	1407	1418	1423	1413	1400	1413	1438	1449	1438	1421	1403	1407	1410	1410	1396	1382	1379	1394	1421	1422	1406	1394	1413	0	0	0	1387	1376	1369	0	0	0	0	0	0	0	0	0	0	0	0	0	0	0	0	0	0	0	0	0	0	0	0	0	0	1131	1135	1140	1137	1145	1164	1186	0	0	0	0	0	0	0	0	0	0	0	0	0	0	0	0	0	0	0	0	0	0	0	0	0	0	0	0	0	0	0	0	0	0	0	0	0	0	0	0	0	0	0	0	0	0	0	1469	1457	1434	1416	1399	1388	1389	1394	1397	1401	1402	1398	1396	1382	1373	1369	1372	1384	1389	1387	1371	1369	1374	1373	1376	1376	1376	1375	1377	1384	1391	1395	1386	1374	1362	1361	1375	1384	1388	1384	1383	1390	1403	1418	1424	1415	1401	1397	1407	1421	1419	1407	1411	1414	1500	1553	1568	1557	1543	1536	1537	1543	1542	1458	1436	1450	1461	1455	1449	1450	1459	1487	1506	1509	1477	1462	1456	1468	1490	1497	1475	1456	1466	1484	1498	1510	1507	1506	1514	1517	1495	1481	1445	0	0	0	0	0	0	0	0	0	0	0	0	0	0	0	1118	1097	1085	1097	1116	1136	1145	1137	1122	1120	1101	1091	1095	1111	1127	1125	1122	1132	1137	1158	1172	1203	1219	0	0	1113	1121	1136	1163	1217	1284	1325	1371	1395	1415	0	0	0	0	1389	1348	1368	1365	1353	1363	1372	1382	1383	1376	1367	1368	1367	1361	1351	1353	1348	1333	1331	1333	1331	1328	1327	1331	1339	1339	1342	1346	1369	1371	1370	1369	1360	1346	1330	1331	1334	1347	1353	1349	1340	1334	1314	1323	1337	1352	1371	1382	1420	1443	1450	1451	1457	1468	1473	1483	1495	1485	1463	1465	1464	1456	1452	1460	1472	1481	1496	1500	1496	1471	1442	1435	1446	1466	1519	1516	1518	1504	1488	1456	1435	1446	1469	1490	1480	1462	1449	1436	1426	1425	1434	1460	1504	1511	1477	1463	1462	1472	1486	1501	1501	1494	1481	1466	1467	1471	1472	1482	1473	1464	1464	1466	1463	1452	1447	1444	1456	1454	1448	1437	1433	1445	1458	1463	1477	1484	1485	1469	1450	1452	1466	1495	1507	1514	1508	1503	1483	1471	1468	1474	1470	1464	1462	1459	1469	1473	1478	1476	1465	1454	1459	1458	1453	1443	1443	1432	1453	1459	1465	1454	1449	1430	1423	1425	1414	1410	1417	1434	1441	1448	1448	1445	1428	1428	1438	1447	0	0	0	0	0	0	0
0	0	0	0	0	0	0	0	0	0	0	0	0	0	0	0	0	0	0	0	0	0	0	0	0	0	0	0	0	0	0	0	0	0	0	0	0	0	0	0	0	0	0	0	0	0	0	0	0	0	0	0	0	0	0	0	0	0	0	0	0	0	0	0	0	0	0	0	0	0	0	0	0	0	0	0	0	0	0	0	0	0	0	0	0	0	0	0	0	0	0	0	0	1465	1475	1477	1493	1501	1511	1515	1504	1467	1456	1458	1462	1462	1474	1480	1481	1484	1482	1471	1461	1454	1436	1427	1423	1437	1448	1464	1488	1479	1490	1496	1486	1453	1415	1390	0	0	0	0	0	0	0	0	0	0	0	0	0	0	0	0	0	0	0	0	0	0	0	0	0	0	0	0	0	0	0	0	0	0	0	0	0	0	0	0	0	0	0	0	0	0	0	1458	1450	1405	1385	1380	1383	1402	1422	1424	1424	1417	1412	1413	1416	1420	1425	1424	1417	1428	1432	1421	1402	1390	1378	1381	1384	1403	1420	1439	1430	1416	1403	1442	1452	1439	1414	1399	1405	1414	1406	1393	1384	1388	1400	1419	1425	1402	1375	1395	1406	1381	1357	1334	1322	1300	1286	0	0	0	0	0	0	0	0	0	0	0	0	0	0	1107	1109	1118	1100	1066	1068	1099	1102	1093	1080	1072	1063	1071	1074	1078	1087	1081	1072	1067	1110	1139	0	0	0	0	0	1428	1464	1536	1550	1529	1488	1510	1526	1549	1567	1575	1557	1526	1505	1519	1533	1528	1500	1467	1440	1434	1434	1455	1477	1488	1498	1513	1531	1542	1538	1530	1530	1537	1538	1523	1512	1515	1513	1500	1485	1471	1439	1415	1393	1385	1380	1395	1411	1416	1408	1403	1397	1383	1374	1376	1373	1383	1389	1395	1388	1366	1368	1368	1369	1373	1374	1374	1373	1379	1386	1395	1390	1376	1365	1363	1372	1390	1397	1392	1385	1382	1388	1404	1411	1407	1396	1392	1395	1401	1408	1406	1424	1436	1457	1473	1479	1488	1492	1493	1491	1477	1475	1464	1464	1461	1468	1490	1507	1507	1502	1496	1489	1491	1481	1467	1460	1470	1476	1477	1476	1469	1462	1451	1445	1451	1468	1492	1504	1491	1482	1479	1455	1401	1290	0	0	0	0	0	0	0	0	0	0	0	0	0	1098	1091	1079	1080	1093	1107	1109	1102	1080	1066	1064	1061	1055	1078	1101	1106	1097	1089	1084	1093	1101	1113	1075	1080	1076	1073	1071	1074	1100	1128	1169	1219	1295	1347	1375	1392	1437	0	1455	1403	1360	1370	1369	1362	1367	1381	1387	1389	1380	1371	1364	1364	1356	1356	1361	1360	1349	1342	1330	1314	1306	1314	1327	1341	1346	1350	1362	1385	1378	1371	1362	1350	1331	1326	1317	1319	1333	1343	1345	1338	1327	1310	1324	1345	1352	1369	1391	1414	1428	1440	1443	1455	1463	1474	1475	1477	1468	1463	1470	1472	1466	1466	1462	1468	1480	1487	1494	1490	1470	1457	1450	1446	1466	1496	1496	1496	1489	1477	1459	1445	1452	1471	1487	1492	1481	1462	1453	1443	1439	1449	1463	1487	1500	1464	1452	1455	1463	1480	1502	1510	1504	1482	1472	1465	1458	1467	1468	1467	1469	1467	1474	1471	1460	1456	1453	1464	1463	1459	1451	1447	1452	1460	1460	1468	1488	1499	1487	1476	1467	1475	1496	1512	1510	1506	1491	1471	1460	1464	1463	1452	1439	1436	1435	1446	1469	1480	1494	1496	1482	1470	1456	1442	1427	1427	1426	1441	1450	1444	1420	1401	1406	1422	1431	1428	1424	1433	1439	1453	1453	1454	1438	1421	1426	1443	1446	0	0	0	0	0	0	0
0	0	0	0	0	0	0	0	0	0	0	0	0	0	0	0	0	0	0	0	0	0	0	0	0	0	0	0	0	0	0	0	0	0	0	0	0	0	0	0	0	0	0	0	0	0	0	0	0	0	0	0	0	0	0	0	0	0	0	0	0	0	0	0	0	0	0	0	0	0	0	0	0	0	0	0	0	0	0	0	0	0	0	0	0	0	0	0	0	0	0	0	0	1468	1469	1469	1478	1493	1500	1514	1516	1485	1469	1468	1466	1461	1461	1465	1478	1486	1490	1480	1473	1465	1453	1448	1444	1445	1450	1460	1469	1493	1524	1516	1491	1455	1402	1378	1383	0	0	1441	0	0	0	0	1501	1488	1465	1444	1444	0	0	0	0	1464	1446	1425	1444	0	0	1476	1445	1446	1471	1495	1502	1484	1450	1433	1439	1444	1444	1410	1426	1448	1456	1477	1485	1484	1479	1462	1458	1461	1455	1460	1455	1410	1375	1370	1375	1403	1430	1436	1423	1404	1409	1406	1410	1417	1430	1438	1415	1411	1415	1416	1406	1390	1378	1375	1381	1394	1424	1432	1426	1427	1426	1435	1439	1435	1408	1398	1400	1399	1407	1403	1402	1407	1411	1417	1405	1393	1374	1373	1381	1358	1302	1265	1243	1218	1208	1170	1121	1090	1075	1074	0	0	0	1085	1087	1082	0	0	1065	1058	1037	1030	1022	1024	1031	1033	1036	1044	1052	1046	1043	1037	1040	1048	1051	1053	1043	1034	1044	1079	1107	1146	0	0	1308	1381	1445	1478	1495	1499	1499	1488	1506	1522	1534	1525	1511	1501	1503	1518	1530	1535	1517	1504	1475	1474	1477	1482	1474	1468	1468	1486	1494	1502	1506	1513	1510	1508	1504	1505	1510	1518	1527	1511	1496	1483	1468	1426	1396	1373	1376	1401	1417	1424	1415	1403	1392	1383	1371	1356	1369	1375	1386	1392	1390	1378	1362	1359	1364	1375	1385	1385	1376	1378	1380	1385	1394	1387	1370	1362	1373	1385	1401	1405	1388	1376	1376	1390	1394	1392	1389	1381	1380	1385	1391	1408	1427	1445	1468	1476	1476	1467	1466	1464	1478	1479	1482	1483	1475	1464	1462	1491	1500	1503	1498	1483	1475	1469	1468	1471	1465	1466	1474	1478	1480	1475	1463	1446	1434	1438	1440	1445	1461	1478	1483	1470	1461	1417	1282	0	0	0	0	0	0	0	0	0	0	0	0	0	1081	1085	1079	1072	1079	1079	1077	1057	1046	1037	1042	1042	1039	1050	1084	1084	1073	1063	1052	1017	1024	1038	1051	1059	1060	1048	1044	1050	1068	1084	1098	1109	1121	1158	1228	1336	1363	1398	1406	1385	1372	1371	1370	1365	1371	1381	1385	1385	1377	1363	1353	1349	1358	1368	1375	1370	1357	1349	1344	1324	1305	1304	1323	1341	1345	1357	1376	1400	1389	1375	1358	1346	1333	1329	1329	1327	1329	1334	1340	1334	1317	1314	1325	1339	1378	1385	1396	1408	1423	1430	1441	1455	1471	1485	1486	1479	1476	1469	1478	1485	1486	1482	1474	1471	1472	1476	1481	1483	1473	1468	1461	1455	1462	1477	1477	1476	1481	1481	1474	1462	1464	1477	1492	1510	1496	1482	1483	1476	1466	1467	1476	1487	1500	1465	1454	1455	1461	1477	1493	1502	1497	1486	1479	1459	1456	1460	1468	1474	1474	1474	1478	1482	1470	1466	1460	1472	1480	1485	1477	1463	1462	1468	1457	1459	1483	1503	1504	1488	1477	1476	1492	1514	1516	1494	1467	1456	1445	1442	1433	1428	1434	1435	1436	1437	1456	1483	1501	1514	1507	1485	1466	1445	1434	1434	1431	1444	1449	1439	1422	1410	1410	1432	1437	1445	1455	1457	1452	1441	1441	1429	1418	1425	1438	1445	1441	0	0	0	0	0	0	0
0	0	0	0	0	0	0	0	0	0	0	0	0	0	0	0	0	0	0	0	0	0	0	0	0	0	0	0	0	0	0	0	0	0	0	0	0	0	0	0	0	0	0	0	0	0	0	0	0	0	0	0	0	0	0	0	0	0	0	0	0	0	0	0	0	0	0	0	0	0	0	0	0	0	0	0	0	0	0	0	0	0	0	0	0	0	0	0	0	0	0	0	0	1475	1472	1475	1470	1473	1482	1497	1507	1499	1483	1470	1461	1456	1451	1457	1469	1480	1486	1486	1485	1485	1487	1476	1463	1460	1455	1461	1469	1475	1492	1509	1496	1473	1460	1461	1462	1468	1470	1471	1469	1476	1484	1484	1475	1464	1449	1436	1426	1430	1440	1449	1451	1442	1443	1452	1460	1487	1487	1473	1458	1447	1451	1458	1456	1449	1432	1426	1437	1446	1457	1472	1473	1467	1469	1483	1505	1515	1503	1481	1459	1445	1435	1440	1451	1430	1399	1380	1378	1392	1406	1412	1408	1406	1395	1393	1401	1405	1423	1430	1407	1414	1433	1444	1423	1412	1405	1397	1400	1408	1424	1430	1424	1422	1429	1424	1424	1422	1417	1410	1412	1413	1420	1424	1431	1429	1425	1414	1389	1374	1361	1367	1368	1317	1228	1167	1141	1139	1133	1111	1077	1056	1038	1030	1030	1032	1033	1024	1021	1044	1040	1040	1047	1037	1026	1010	1004	1006	1015	1019	1027	1034	1043	1041	1029	1028	1025	1036	1041	1046	1038	1030	1033	1057	1085	1102	1124	1155	1264	1428	1450	1458	1473	1487	1491	1494	1495	1503	1508	1497	1502	1504	1503	1503	1511	1509	1501	1500	1491	1487	1486	1486	1479	1480	1485	1493	1495	1499	1511	1512	1510	1505	1505	1504	1496	1500	1501	1506	1498	1488	1478	1465	1418	1390	1388	1403	1425	1436	1430	1424	1427	1428	1421	1401	1400	1392	1391	1391	1389	1379	1375	1369	1373	1387	1399	1401	1401	1384	1385	1389	1391	1393	1388	1369	1373	1387	1405	1416	1420	1407	1389	1381	1384	1387	1394	1405	1389	1386	1397	1413	1432	1458	1478	1483	1476	1459	1454	1455	1470	1488	1497	1495	1492	1480	1483	1496	1506	1506	1494	1481	1472	1464	1470	1465	1468	1468	1472	1479	1489	1484	1471	1449	1435	1441	1441	1439	1441	1472	1476	1472	1433	0	0	0	0	0	0	0	0	0	0	0	0	0	0	0	1076	1083	1080	1061	1057	1052	1044	1039	1031	1029	1034	1037	1038	1060	1069	1068	1053	1009	999	994	1008	1025	1043	1053	1051	1042	1041	1049	1064	1072	1074	1075	1078	1099	1146	1244	1299	1327	1355	1370	1363	1376	1384	1384	1389	1397	1407	1427	1439	1450	1442	1432	1416	1410	1412	1401	1398	1400	1401	1385	1362	1362	1378	1392	1381	1382	1400	1432	1417	1407	1395	1394	1394	1390	1378	1374	1372	1365	1346	1331	1318	1320	1344	1379	1414	1424	1411	1413	1424	1432	1452	1462	1477	1487	1495	1482	1476	1475	1486	1490	1493	1482	1479	1472	1466	1467	1473	1476	1475	1476	1467	1460	1459	1472	1477	1471	1475	1492	1489	1484	1477	1482	1494	1502	1501	1491	1489	1481	1475	1482	1488	1490	1489	1470	1461	1457	1461	1471	1487	1490	1490	1488	1480	1472	1468	1472	1484	1490	1490	1486	1484	1486	1484	1475	1475	1477	1492	1501	1500	1484	1472	1470	1462	1461	1474	1479	1479	1478	1483	1485	1491	1499	1487	1463	1451	1445	1437	1437	1427	1430	1441	1449	1444	1439	1450	1481	1499	1514	1515	1500	1471	1453	1444	1444	1441	1449	1450	1442	1437	1434	1428	1446	1452	1456	1470	1466	1451	1417	1417	1412	1410	1414	1435	1443	1437	0	0	0	0	0	0	0
0	0	0	0	0	0	0	0	0	0	0	0	0	0	0	0	0	0	0	0	0	0	0	0	0	0	0	0	0	0	0	0	0	0	0	0	0	0	0	0	0	0	0	0	0	0	0	0	0	0	0	0	0	0	0	0	0	0	0	0	0	0	0	0	0	0	0	0	0	0	0	0	0	0	0	0	0	0	0	0	0	0	0	0	0	0	0	0	0	0	0	0	0	1510	1493	1477	1471	1462	1452	1469	1487	1495	1488	1473	1463	1456	1453	1454	1455	1459	1472	1474	1488	1497	1497	1489	1483	1472	1470	1467	1475	1472	1460	1443	1438	1442	1463	1471	1486	1493	1496	1479	1464	1482	1493	1485	1476	1472	1466	1450	1446	1452	1467	1465	1452	1434	1440	1447	1465	1468	1463	1450	1444	1443	1450	1458	1465	1455	1440	1434	1435	1439	1447	1469	1466	1454	1458	1479	1507	1517	1504	1483	1465	1455	1448	1437	1435	1442	1406	1399	1406	1409	1413	1415	1419	1413	1402	1396	1395	1403	1412	1415	1412	1422	1437	1448	1435	1435	1433	1432	1429	1432	1429	1437	1438	1428	1422	1420	1423	1424	1433	1431	1431	1432	1438	1447	1445	1443	1432	1420	1408	1377	1350	1326	1180	1146	1120	1100	1093	1094	1086	1076	1060	1042	1022	1005	994	997	1000	997	1003	1008	1013	1019	1034	1034	1017	1003	993	995	1002	1016	1027	1033	1039	1033	1025	1021	1018	1024	1027	1039	1045	1041	1042	1060	1075	1092	1114	1151	1251	1428	1459	1462	1476	1482	1496	1508	1507	1506	1502	1502	1497	1496	1488	1491	1476	1474	1481	1497	1505	1511	1512	1508	1497	1497	1506	1497	1495	1496	1496	1494	1499	1509	1513	1506	1492	1481	1484	1488	1495	1486	1490	1478	1425	1405	1411	1430	1450	1450	1441	1428	1426	1426	1425	1433	1424	1409	1410	1418	1426	1422	1414	1406	1418	1441	1453	1427	1416	1406	1416	1425	1428	1404	1396	1382	1384	1401	1417	1428	1455	1461	1454	1447	1443	1441	1434	1424	1405	1397	1407	1415	1436	1465	1457	1458	1459	1459	1459	1464	1476	1491	1498	1501	1501	1506	1508	1505	1508	1506	1494	1490	1488	1482	1476	1462	1467	1470	1481	1487	1492	1486	1472	1457	1450	1455	1454	1451	1443	1466	1475	1469	1421	0	0	0	0	0	0	0	0	0	0	0	0	0	1058	1057	1074	1083	1077	1058	1043	1036	1033	1030	1031	1036	1044	1044	1045	1059	1049	1032	1012	993	984	989	1000	1023	1045	1050	1044	1038	1044	1054	1070	1070	1069	1064	1060	1072	1116	1150	1195	1266	1296	1327	1335	1366	1384	1383	1382	1413	1434	1454	1466	1469	1470	1456	1442	1436	1438	1443	1446	1455	1448	1427	1402	1402	1418	1439	1445	1447	1439	1438	1436	1430	1432	1433	1437	1422	1407	1392	1385	1380	1380	1377	1376	1387	1398	1421	1443	1443	1436	1439	1444	1456	1465	1465	1481	1494	1479	1472	1471	1467	1465	1476	1477	1478	1478	1472	1474	1471	1475	1473	1470	1477	1477	1470	1464	1470	1468	1467	1474	1495	1501	1491	1473	1470	1470	1493	1503	1499	1494	1494	1491	1497	1490	1484	1471	1465	1463	1465	1467	1472	1482	1485	1489	1485	1488	1482	1477	1483	1490	1497	1500	1495	1490	1489	1490	1487	1484	1480	1486	1499	1492	1478	1467	1465	1456	1453	1460	1465	1458	1458	1469	1487	1492	1485	1464	1445	1441	1440	1441	1441	1436	1438	1446	1456	1458	1453	1459	1483	1501	1515	1515	1496	1471	1452	1445	1445	1452	1447	1447	1452	1453	1454	1448	1448	1452	1452	1455	1455	1440	1422	1422	1414	1415	1419	1424	1431	1435	0	0	0	0	0	0	0
0	0	0	0	0	0	0	0	0	0	0	0	0	0	0	0	0	0	0	0	0	0	0	0	0	0	0	0	0	0	0	0	0	0	0	0	0	0	0	0	0	0	0	0	0	0	0	0	0	0	0	0	0	0	0	0	0	0	0	0	0	0	0	0	0	0	0	0	0	0	0	0	0	0	0	0	0	0	0	0	0	0	0	0	0	0	0	0	0	0	0	0	0	1556	1508	1483	1471	1456	1445	1454	1469	1482	1484	1473	1469	1467	1468	1468	1452	1428	1419	1430	1451	1481	1487	1490	1492	1491	1492	1481	1479	1471	1459	1448	1437	1437	1447	1471	1484	1493	1503	1467	1460	1469	1478	1485	1467	1469	1459	1459	1461	1473	1474	1465	1446	1436	1440	1447	1461	1455	1445	1441	1441	1439	1446	1468	1470	1465	1459	1451	1450	1446	1456	1469	1460	1446	1448	1474	1504	1510	1503	1492	1477	1471	1467	1464	1452	1448	1425	1423	1430	1455	1455	1452	1432	1425	1408	1399	1400	1413	1416	1414	1411	1422	1439	1440	1447	1452	1461	1465	1473	1469	1474	1478	1467	1472	1460	1446	1453	1460	1465	1455	1447	1445	1445	1446	1436	1413	1408	1393	1380	1358	1317	1257	1102	1090	1083	1080	1079	1082	1072	1065	1054	1047	1022	1005	986	977	971	973	982	987	997	1000	1012	1013	1013	998	986	981	986	1006	1017	1022	1025	1029	1023	1018	1013	1011	1020	1035	1048	1055	1059	1069	1081	1092	0	1179	1256	1434	1472	1480	1487	1489	1496	1509	1521	1516	1509	1498	1492	1481	1467	1454	1445	1454	1463	1493	1509	1517	1523	1523	1523	1517	1508	1495	1499	1493	1497	1497	1500	1500	1507	1504	1500	1492	1494	1510	1511	1506	1500	1477	1441	1422	1420	1435	1445	1446	1439	1429	1426	1429	1433	1439	1434	1421	1422	1432	1438	1442	1425	1413	1415	1430	1445	1441	1452	1488	1489	1507	1504	1491	1492	1510	1510	1495	1459	1447	1453	1467	1463	1460	1453	1449	1444	1443	1448	1472	1487	1494	1485	1462	1447	1444	1454	1462	1473	1475	1485	1489	1492	1498	1497	1501	1501	1503	1495	1493	1498	1506	1509	1501	1486	1468	1461	1464	1470	1481	1486	1485	1478	1469	1462	1454	1465	1460	1458	1466	1477	1475	1435	0	0	0	0	0	0	0	0	0	0	0	0	0	1062	1056	1068	0	0	1059	1045	1031	1030	1036	1038	1046	1055	1058	1060	1040	1026	1010	1000	987	977	975	989	1013	1030	1033	1034	1037	0	0	0	0	0	1066	1058	1054	1058	1061	1072	1096	1168	1211	1276	1335	1371	1375	1387	1412	1423	1450	1476	1483	1486	1474	1453	1451	1454	1463	1475	1492	1491	1475	1446	1440	1454	1472	1479	1480	1461	1461	1462	1472	1475	1476	1479	1463	1447	1428	1414	1404	1403	1409	1417	1422	1439	1446	1466	1472	1460	1455	1464	1469	1472	1473	1484	1488	1475	1458	1457	1446	1441	1444	1447	1456	1467	1477	1480	1489	1492	1479	1463	1477	1479	1480	1469	1464	1456	1453	1462	1472	1490	1478	1468	1453	1461	1481	1498	1495	1494	1504	1505	1500	1488	1469	1456	1455	1463	1462	1468	1474	1477	1483	1487	1492	1491	1489	1486	1486	1492	1495	1497	1496	1489	1493	1492	1489	1481	1474	1475	1474	1468	1462	1458	1454	1453	1446	1451	1444	1441	1456	1475	1489	1481	1472	1456	1442	1438	1443	1450	1453	1449	1453	1461	1467	1472	1473	1480	1492	1504	1503	1503	1480	1458	1441	1452	1452	1452	1454	1455	1461	1467	1468	1459	1445	1448	1445	1447	1443	1436	1440	1440	1440	1430	1420	1426	1431	1436	0	0	0	0	0	0	0
0	0	0	0	0	0	0	0	0	0	0	0	0	0	0	0	0	0	0	0	0	0	0	0	0	0	0	0	0	0	0	0	0	0	0	0	0	0	0	0	0	0	0	0	0	0	0	0	0	0	0	0	0	0	0	0	0	0	0	0	0	0	0	0	0	0	0	0	0	0	0	0	0	0	0	0	0	0	0	0	0	0	0	0	0	0	0	0	0	0	0	0	0	1570	1509	1487	1474	1457	1443	1439	1453	1462	1468	1463	1471	1474	1485	1482	1473	1436	1388	1398	1420	1445	1464	1480	1487	1502	1510	1498	1488	1474	1464	1451	1445	1438	1448	1461	1484	1488	1495	1487	1466	1461	1463	1457	1459	1453	1448	1451	1467	1479	1482	1457	1438	1433	1442	1451	1456	1442	1437	1438	1440	1450	1464	1471	1473	1473	1477	1469	1474	1476	1475	1477	1456	1442	1453	1468	1498	1505	1498	1488	1480	1476	1473	1469	1478	1471	1445	1451	1458	1462	1468	1473	1477	1471	1464	1464	1462	1462	1456	1447	1406	1411	1437	1454	1455	1459	1468	1487	1477	1479	1478	1477	1476	1477	1471	1459	1458	1459	1458	1465	1459	1441	1430	1421	1413	1396	1392	1362	1270	1197	1122	1089	1066	1065	1069	1082	1085	1081	1071	1060	1061	1051	1033	1010	986	973	961	960	960	969	978	986	995	999	991	983	977	970	974	984	996	1005	1017	1018	1020	1020	1015	1010	1007	1026	1052	1063	1079	0	0	0	0	0	1301	1436	1472	1482	1483	1488	1494	1504	1524	1516	1501	1492	1477	1464	1448	1434	1439	1446	1456	1475	1500	1514	1522	1524	1520	1519	1508	1507	1502	1499	1503	1505	1508	1506	1502	1501	1499	1494	1493	1497	1497	1494	1496	1498	1500	1493	1483	1470	1462	1473	1457	1458	1444	1440	1443	1452	1452	1449	1456	1478	1487	1483	1465	1438	1423	1424	1433	1463	1480	1492	1492	1502	1503	1490	1494	1508	1511	1492	1471	1455	1453	1455	1459	1467	1470	1467	1457	1460	1473	1488	1499	1498	1489	1465	1452	1448	1448	1459	1475	1487	1485	1475	1479	1487	1485	1485	1488	1486	1475	1474	1487	1511	1521	1515	1504	1483	1463	1462	1469	1478	1482	1488	1494	1489	1469	1462	1468	1463	1463	1469	1477	1479	1468	0	0	0	0	0	0	0	0	0	0	0	0	0	0	0	0	0	0	0	1038	1025	1024	1026	1039	1049	0	0	1052	1017	1013	1004	1000	992	976	974	982	998	1013	1010	1012	0	0	0	0	0	0	0	0	0	1022	1028	1041	1062	1080	1093	1136	1198	1292	1345	1391	1390	1403	1433	1464	1481	1485	1475	1461	1455	1462	1462	1467	1486	1501	1505	1502	1495	1494	1497	1504	1510	1496	1488	1499	1510	1507	1525	1520	1514	1501	1490	1479	1475	1469	1473	1473	1482	1481	1474	1472	1464	1448	1446	1452	1459	1471	1469	1478	1479	1474	1458	1444	1431	1424	1418	1421	1435	1462	1479	1501	1512	1522	1498	1479	1473	1467	1464	1462	1455	1455	1452	1453	1459	1462	1458	1458	1455	1461	1467	1478	1479	1494	1500	1504	1491	1474	1461	1454	1461	1463	1465	1470	1475	1480	1481	1488	1493	1487	1489	1486	1481	1476	1477	1478	1481	1486	1486	1494	1495	1484	1465	1464	1468	1461	1453	1452	1453	1453	1436	1444	1439	1447	1461	1486	1491	1483	1465	1451	1435	1438	1441	1456	1466	1474	1482	1483	1489	1489	1499	1502	1501	1499	1489	1479	1466	1445	1442	1442	1453	1456	1459	1455	1465	1469	1469	1460	1445	1437	1438	1443	1445	1444	1447	1447	1441	1440	1431	1441	1445	1445	0	0	0	0	0	0	0
0	0	0	0	0	0	0	0	0	0	0	0	0	0	0	0	0	0	0	0	0	0	0	0	0	0	0	0	0	0	0	0	0	0	0	0	0	0	0	0	0	0	0	0	0	0	0	0	0	0	0	0	0	0	0	0	0	0	0	0	0	0	0	0	0	0	0	0	0	0	0	0	0	0	0	0	0	0	0	0	0	0	0	0	0	0	0	0	0	0	0	0	0	1556	1501	1489	1472	1457	1450	1445	1442	1441	1450	1455	1467	1475	1491	1493	1490	1468	1443	1401	1428	1451	1459	1468	1483	1499	1519	1504	1500	1488	1471	1458	1448	1445	1455	1465	1487	1495	1492	1487	1480	1470	1460	1455	1449	1442	1443	1455	1467	1468	1460	1439	1423	1428	1438	1451	1458	1443	1436	1435	1435	1448	1464	1472	1471	1482	1483	1486	1483	1481	1475	1476	1460	1454	1466	1483	1503	1501	1492	1482	1468	1459	1464	1473	1483	1481	1450	1452	1452	1452	1458	1466	1465	1464	1464	1465	1464	1461	1467	1457	1418	1420	1442	1469	1468	1469	1479	1491	1481	1475	1479	1482	1482	1475	1466	1469	1458	1446	1441	1442	1446	1437	1418	1398	1379	1319	1239	1198	1149	1113	1085	1071	1059	1063	1075	1083	1084	1083	1071	1062	1051	1048	1034	1014	985	970	961	963	962	965	971	976	980	980	981	972	962	955	960	965	978	988	998	1005	1015	1022	1019	1015	1016	1039	1069	1087	0	0	0	0	0	1267	1365	1426	1469	1475	1481	1486	1492	1500	1511	1510	1498	1486	1471	1456	1442	1438	1440	1447	1454	1467	1482	1500	1510	1518	1519	1506	1504	1505	1502	1503	1506	1508	1510	1506	1505	1505	1501	1497	1492	1492	1493	1487	1488	1495	1499	1493	1477	1456	1453	1464	1453	1455	1453	1450	1455	1460	1458	1452	1454	1468	1487	1485	1470	1441	1428	1427	1436	1461	1469	1478	1495	1478	1477	1478	1493	1514	1505	1471	1465	1462	1452	1448	1448	1458	1467	1467	1464	1467	1479	1488	1491	1496	1487	1468	1453	1442	1435	1438	1462	1472	1471	1458	1460	1467	1468	1466	1471	1480	1479	1472	1474	1502	1522	1523	1502	1485	1480	1480	1484	1491	1497	1500	1510	1519	1500	1477	1467	1465	1468	1474	1478	1486	1509	1497	0	0	0	0	0	0	0	0	0	0	0	0	0	0	0	0	0	0	0	1018	1013	1019	0	0	0	0	0	997	998	1008	1007	995	983	971	983	993	993	994	1000	0	0	0	0	0	0	0	0	0	0	0	0	0	1058	1059	1064	1071	1103	1109	1173	1321	1375	1410	1437	1461	1468	1472	1461	1476	1463	1458	1468	1474	1487	1497	1501	1499	1493	1485	1486	1489	1492	1493	1503	1513	1521	1537	1529	1513	1498	1488	1485	1484	1488	1486	1485	1487	1487	1465	1460	1450	1446	1442	1449	1455	1457	1469	1477	1478	1482	1477	1454	1442	1431	1418	1419	1428	1446	1473	1492	1519	1529	1516	1483	1455	1452	1448	1449	1453	1454	1450	1450	1455	1450	1450	1455	1461	1463	1465	1465	1472	1476	1484	1488	1477	1471	1464	1466	1477	1473	1468	1464	1471	1477	1486	1492	1485	1483	1478	1473	1464	1457	1457	1462	1466	1468	1475	1484	1489	1478	1468	1472	1464	1459	1448	1453	1455	1449	1445	1440	1437	1453	1468	1485	1486	1478	1465	1443	1436	1434	1444	1464	1485	1504	1508	1518	1512	1510	1511	1504	1500	1489	1478	1459	1446	1439	1442	1442	1453	1459	1462	1457	1460	1458	1458	1453	1446	1446	1448	1454	1457	1454	1455	1455	1453	1449	1447	1454	1451	1451	0	0	0	0	0	0	0
0	0	0	0	0	0	0	0	0	0	0	0	0	0	0	0	0	0	0	0	0	0	0	0	0	0	0	0	0	0	0	0	0	0	0	0	0	0	0	0	0	0	0	0	0	0	0	0	0	0	0	0	0	0	0	0	0	0	0	0	0	0	0	0	0	0	0	0	0	0	0	0	0	0	0	0	0	0	0	0	0	0	0	0	0	0	0	0	0	0	0	0	0	1533	1500	1490	1478	1464	1462	1463	1449	1445	1449	1456	1462	1466	1483	1493	1499	1492	1481	1475	1464	1462	1462	1467	1478	1497	1520	1516	1504	1496	1485	1475	1461	1447	1454	1468	1487	1495	1492	1492	1485	1481	1463	1454	1441	1439	1451	1459	1459	1460	1448	1437	1429	1429	1439	1454	1461	1452	1443	1434	1433	1450	1465	1472	1469	1478	1485	1487	1483	1475	1474	1473	1469	1476	1486	1503	1503	1506	1486	1474	1457	1449	1460	1473	1500	1496	1478	1471	1461	1456	1459	1462	1461	1460	1460	1458	1455	1462	1458	1458	1430	1429	1472	1486	1482	1486	1504	1513	1493	1482	1491	1500	1499	1483	1471	1472	1463	1433	1420	1420	1426	1423	1380	1315	1292	1235	1212	1194	1161	0	0	0	0	1070	1068	1073	1065	1065	1059	1054	1044	1032	1018	998	973	960	948	952	953	960	963	961	961	962	972	969	961	949	945	942	961	973	984	1000	1008	1022	1030	1035	1054	0	0	0	0	0	0	0	0	1355	1429	1468	1469	1476	1477	1483	1492	1499	1501	1495	1494	1488	1484	1465	1448	1444	1448	1453	1455	1460	1471	1488	1499	1507	1517	1503	1497	1496	1502	1504	1504	1505	1506	1508	1507	1512	1512	1500	1492	1491	1490	1488	1487	1489	1496	1476	1459	1446	1446	1449	1459	1463	1459	1459	1469	1477	1469	1466	1468	1472	1489	1485	1473	1447	1436	1434	1442	1447	1457	1472	1481	1473	1470	1467	1476	1486	1481	1479	1469	1453	1441	1431	1435	1443	1454	1462	1479	1483	1488	1486	1486	1493	1483	1464	1450	1422	1412	1428	1444	1452	1452	1445	1445	1451	1459	1460	1468	1477	1480	1472	1476	1493	1518	1517	1500	1494	1487	1494	1496	1508	1512	1514	1520	1518	1497	1478	1464	1473	1471	1476	1482	1495	1526	1523	0	0	0	0	0	0	0	0	0	0	0	0	0	0	0	0	0	0	0	0	0	0	0	0	0	0	0	0	0	0	0	0	0	0	0	989	982	0	0	0	0	0	0	0	0	0	0	0	0	0	0	0	0	1043	1034	1026	1019	1014	1014	1045	1150	1296	1390	1415	1435	1449	1460	1463	1469	1467	1469	1469	1475	1483	1497	1498	1481	1469	1464	1472	1473	1485	1491	1499	1509	1529	1511	1495	1486	1482	1480	1487	1487	1489	1486	1483	1469	1464	1457	1451	1449	1446	1445	1450	1447	1459	1477	1493	1493	1493	1466	1459	1449	1438	1432	1438	1461	1465	1469	1492	1519	1512	1482	1459	1452	1447	1447	1442	1449	1451	1451	1451	1447	1451	1460	1468	1475	1473	1463	1468	1479	1484	1485	1473	1466	1473	1483	1487	1487	1475	1472	1472	1480	1482	1477	1472	1464	1460	1460	1464	1456	1461	1462	1460	1459	1463	1479	1476	1480	1473	1463	1456	1455	1452	1452	1455	1450	1447	1448	1456	1459	1465	1467	1480	1474	1465	1450	1440	1441	1446	1464	1487	1520	1532	1536	1524	1509	1501	1485	1452	1443	1450	1447	1438	1433	1439	1439	1453	1458	1454	1452	1450	1440	1442	1451	1453	1451	1452	1456	1459	1453	1453	1457	1462	1460	1452	1458	1458	1452	0	0	0	0	0	0	0
0	0	0	0	0	0	0	0	0	0	0	0	0	0	0	0	0	0	0	0	0	0	0	0	0	0	0	0	0	0	0	0	0	0	0	0	0	0	0	0	0	0	0	0	0	0	0	0	0	0	0	0	0	0	0	0	0	0	0	0	0	0	0	0	0	0	0	0	0	0	0	0	0	0	0	0	0	0	0	0	0	0	0	0	0	0	0	0	0	0	0	0	0	1503	1489	1457	1461	1474	1484	1471	1457	1453	1458	1464	1469	1462	1460	1478	1493	1488	1479	1467	1464	1469	1468	1467	1474	1495	1527	1528	1520	1510	1484	1479	1466	1457	1456	1461	1478	1484	1482	1483	1481	1477	1468	1455	1443	1445	1455	1463	1464	1467	1458	1450	1458	1450	1445	1450	1456	1461	1450	1450	1449	1454	1468	1479	1482	1482	1488	1485	1475	1473	1468	1468	1480	1483	1491	1500	1499	1501	1486	1481	1459	1447	1459	1490	1503	1507	1496	1492	1490	1473	1469	1468	1463	1459	1452	1445	1443	1452	1457	1463	1454	1468	1496	1498	1499	1505	1515	1523	1511	1499	1506	1508	1509	1482	1472	1468	1453	1418	1393	1373	1353	1346	1309	1248	1220	1211	1207	1197	0	0	0	0	0	0	1050	1034	1028	1040	1047	1045	1029	1015	1001	982	959	947	941	931	934	940	948	953	958	957	967	968	964	948	934	936	948	965	977	992	1015	1026	1028	1043	0	0	0	0	0	0	0	0	1349	1443	1473	1491	1475	1469	1464	1455	1444	1446	1462	1504	1509	1504	1499	1492	1496	1505	1506	1499	1491	1485	1491	1495	1498	1498	1493	1479	1456	1446	1465	1481	1495	1500	1494	1486	1496	1501	1496	1492	1480	1485	1485	1493	1471	1474	1469	1459	1453	1447	1453	1460	1469	1477	1473	1472	1471	1473	1468	1469	1473	1481	1478	1483	1471	1451	1441	1435	1439	1451	1464	1488	1497	1481	1481	1484	1498	1499	1494	1485	1481	1467	1450	1437	1437	1444	1447	1463	1491	1500	1504	1509	1509	1507	1496	1469	1446	1422	1411	1417	1439	1446	1447	1442	1444	1445	1446	1451	1459	1465	1463	1463	1477	1498	1514	1515	1501	1500	1489	1498	1511	1518	1529	1527	1509	1495	1476	1470	1471	1478	1481	1484	1493	1498	1513	1522	1467	0	0	0	0	0	0	0	0	0	0	0	0	0	0	0	0	0	0	0	0	0	0	0	0	0	0	0	0	0	0	0	0	0	0	0	0	0	0	0	0	0	0	0	0	0	0	0	0	0	0	0	1042	1030	1019	1003	994	984	990	1019	1038	1091	1222	1284	1340	1409	1411	1432	1452	1471	1472	1469	1472	1483	1496	1500	1481	1466	1455	1460	1475	1480	1480	1481	1489	1485	1485	1477	1472	1473	1476	1484	1485	1487	1483	1464	1460	1458	1460	1462	1461	1455	1451	1441	1448	1459	1483	1498	1509	1507	1481	1467	1458	1452	1452	1445	1457	1450	1460	1481	1500	1497	1476	1454	1449	1451	1458	1454	1446	1449	1444	1450	1451	1460	1461	1473	1477	1476	1469	1475	1484	1489	1489	1479	1475	1478	1486	1493	1494	1489	1478	1474	1479	1475	1471	1467	1454	1448	1460	1467	1469	1469	1470	1465	1458	1461	1472	1481	1481	1479	1465	1449	1449	1448	1457	1455	1447	1445	1450	1462	1463	1454	1454	1463	1469	1467	1461	1456	1455	1455	1461	1476	1515	1535	1531	1518	1499	1483	1464	1440	1433	1434	1441	1442	1442	1446	1446	1449	1455	1448	1440	1431	1428	1432	1452	1457	1456	1450	1454	1455	1454	1454	1467	1471	1462	1449	1442	1458	1461	0	0	0	0	0	0	0
0	0	0	0	0	0	0	0	0	0	0	0	0	0	0	0	0	0	0	0	0	0	0	0	0	0	0	0	0	0	0	0	0	0	0	0	0	0	0	0	0	0	0	0	0	0	0	0	0	0	0	0	0	0	0	0	0	0	0	0	0	0	0	0	0	0	0	0	0	0	0	0	0	0	0	0	0	0	0	0	0	0	0	0	0	0	0	0	0	0	0	0	0	1482	1441	1450	1456	1477	1494	1487	1468	1459	1453	1455	1468	1467	1464	1480	1488	1484	1467	1452	1444	1459	1462	1456	1463	1478	1509	1529	1517	1490	1472	1458	1463	1458	1457	1457	1455	1458	1463	1466	1466	1467	1464	1460	1456	1453	1455	1474	1473	1472	1480	1473	1469	1455	1446	1443	1442	1452	1459	1460	1468	1475	1481	1486	1490	1488	1496	1492	1478	1477	1470	1471	1473	1475	1482	1485	1488	1484	1486	1489	1470	1456	1462	1486	1495	1504	1509	1512	1504	1484	1470	1470	1474	1469	1446	1428	1430	1439	1454	1468	1478	1489	1497	1499	1509	1496	1507	1510	1498	1491	1493	1498	1495	1480	1468	1464	1410	1348	1315	1233	1242	1240	1232	1214	1195	1194	1192	1183	0	0	0	0	0	0	0	1004	996	1009	1028	1030	1013	994	975	959	947	936	926	919	918	920	934	940	941	952	970	972	963	937	928	931	948	962	973	989	1008	1025	1036	0	0	0	0	0	0	0	0	1330	1407	1476	1492	1483	1466	1467	1465	1458	1447	1451	1464	1504	1509	1508	1496	1484	1487	1500	1503	1495	1489	1485	1485	1485	1489	1492	1492	1480	1458	1456	1466	1487	1499	1500	1497	1487	1489	1495	1492	1486	1477	1478	1489	1483	1475	1473	1473	1467	1460	1458	1463	1474	1478	1490	1487	1481	1475	1467	1462	1464	1472	1474	1480	1473	1467	1452	1438	1436	1441	1460	1482	1510	1514	1510	1492	1490	1504	1505	1502	1501	1495	1481	1457	1444	1437	1438	1446	1467	1484	1500	1513	1514	1521	1516	1508	1483	1458	1437	1428	1435	1444	1453	1449	1442	1439	1437	1428	1434	1439	1443	1438	1445	1467	1492	1512	1522	1509	1513	1504	1505	1510	1517	1525	1518	1501	1472	1458	1462	1476	1483	1486	1487	1493	1503	1494	1490	1485	0	0	0	0	0	0	0	0	0	0	0	0	0	0	0	959	963	0	1004	1010	994	965	963	973	0	946	943	952	954	948	940	940	944	949	952	943	944	964	0	0	0	0	0	0	0	0	0	0	0	0	1030	1016	1004	991	981	973	971	981	999	1013	1036	1072	1110	1138	1325	1370	1405	1431	1453	1468	1473	1476	1480	1489	1498	1503	1481	1463	1463	1469	1477	1472	1467	1469	1469	1459	1458	1455	1461	1467	1468	1478	1474	1473	1454	1450	1454	1460	1467	1466	1467	1463	1459	1461	1472	1491	1503	1505	1500	1478	1467	1460	1459	1456	1455	1451	1450	1455	1464	1479	1480	1458	1448	1452	1474	1469	1454	1449	1437	1435	1452	1466	1470	1468	1471	1478	1480	1478	1476	1488	1503	1497	1484	1474	1470	1476	1488	1494	1492	1485	1477	1476	1483	1475	1462	1452	1456	1462	1471	1482	1480	1475	1465	1458	1460	1469	1478	1484	1480	1467	1438	1437	1446	1464	1464	1453	1454	1463	1465	1459	1447	1443	1454	1473	1475	1465	1467	1466	1461	1456	1459	1500	1518	1512	1501	1482	1465	1449	1435	1429	1432	1436	1442	1448	1458	1458	1465	1464	1454	1441	1434	1426	1436	1459	1466	1464	1452	1446	1444	1444	1444	1453	1456	1450	1439	1442	1460	1456	0	0	0	0	0	0	0
0	0	0	0	0	0	0	0	0	0	0	0	0	0	0	0	0	0	0	0	0	0	0	0	0	0	0	0	0	0	0	0	0	0	0	0	0	0	0	0	0	0	0	0	0	0	0	0	0	0	0	0	0	0	0	0	0	0	0	0	0	0	0	0	0	0	0	0	0	0	0	0	0	0	0	0	0	0	0	0	0	0	0	0	0	0	0	0	0	0	0	0	0	1451	1446	1453	1473	1484	1493	1485	1464	1446	1449	1457	1468	1471	1486	1491	1494	1482	1464	1451	1456	1459	1455	1456	1459	1474	1496	1511	1502	1483	1466	1456	1454	1458	1461	1466	1463	1461	1464	1469	1469	1470	1468	1469	1462	1447	1437	1449	1459	1481	1491	1479	1468	1462	1459	1463	1461	1454	1464	1475	1481	1485	1492	1496	1488	1490	1499	1508	1508	1487	1476	1471	1470	1469	1469	1464	1466	1469	1481	1485	1478	1465	1472	1485	1490	1488	1511	1519	1514	1484	1473	1474	1477	1464	1439	1425	1422	1430	1449	1470	1484	1495	1495	1488	1472	1479	1484	1484	1468	1462	1465	1467	1476	1455	1426	1392	1232	1150	1162	1179	1192	1197	1191	1176	1162	1154	1147	1148	0	0	0	0	0	0	0	968	970	986	1011	1010	990	970	955	944	934	924	919	907	901	901	916	918	925	938	963	962	943	930	931	937	957	967	977	998	0	0	0	0	0	0	0	0	0	0	1356	1404	1457	1475	1491	1484	1477	1472	1471	1462	1462	1466	1474	1490	1512	1503	1491	1478	1484	1497	1496	1493	1483	1484	1485	1479	1480	1488	1489	1478	1464	1459	1477	1489	1500	1503	1498	1493	1493	1498	1497	1490	1494	1496	1498	1500	1498	1482	1477	1474	1472	1469	1463	1479	1487	1496	1496	1488	1472	1461	1447	1453	1455	1465	1465	1468	1466	1456	1438	1433	1446	1474	1504	1517	1520	1523	1510	1503	1507	1512	1517	1517	1511	1490	1465	1443	1430	1429	1438	1454	1478	1493	1503	1502	1504	1503	1499	1491	1471	1441	1443	1449	1454	1453	1451	1443	1435	1433	1425	1417	1413	1421	1418	1428	1451	1484	1514	1525	1529	1522	1509	1506	1504	1515	1519	1508	1489	1452	1447	1452	1496	1494	1491	1491	1497	1488	1479	1467	1462	1452	0	0	0	0	0	0	0	0	0	0	0	0	0	0	968	961	969	984	985	971	940	926	931	936	923	923	933	936	929	929	927	925	914	909	912	924	943	950	948	940	936	925	914	912	925	965	972	983	986	974	970	972	970	973	970	970	977	983	996	1014	1032	1044	1056	1093	1193	1262	1340	1406	1437	1453	1466	1470	1476	1488	1492	1498	1481	1472	1469	1472	1471	1461	1458	1457	1439	1428	1440	1446	1454	1455	1459	1457	1465	1454	1452	1466	1468	1474	1475	1481	1480	1481	1476	1482	1484	1491	1494	1491	1477	1474	1474	1480	1478	1462	1459	1451	1448	1458	1462	1459	1455	1450	1463	1479	1482	1466	1456	1447	1447	1468	1477	1484	1479	1478	1479	1473	1471	1467	1476	1490	1494	1486	1477	1463	1457	1471	1479	1479	1476	1481	1492	1491	1482	1472	1466	1471	1479	1483	1492	1493	1491	1475	1456	1450	1460	1477	1468	1472	1454	1448	1445	1455	1464	1462	1460	1459	1469	1476	1475	1462	1455	1463	1477	1481	1478	1481	1480	1470	1452	1454	1481	1491	1489	1482	1476	1456	1444	1435	1428	1428	1429	1440	1453	1453	1473	1483	1477	1463	1451	1442	1445	1450	1467	1476	1473	1449	1440	1435	1438	1438	1445	1448	1423	1434	1442	1458	1434	0	0	0	0	0	0	0
0	0	0	0	0	0	0	0	0	0	0	0	0	0	0	0	0	0	0	0	0	0	0	0	0	0	0	0	0	0	0	0	0	0	0	0	0	0	0	0	0	0	0	0	0	0	0	0	0	0	0	0	0	0	0	0	0	0	0	0	0	0	0	0	0	0	0	0	0	0	0	0	0	0	0	0	0	0	0	0	0	0	0	0	0	0	0	0	0	0	0	0	0	1433	1445	1460	1477	1484	1481	1476	1458	1451	1449	1460	1469	1461	1479	1488	1489	1482	1470	1460	1458	1459	1465	1464	1472	1480	1494	1494	1486	1478	1468	1460	1453	1455	1460	1466	1461	1467	1473	1476	1468	1476	1475	1473	1463	1449	1435	1441	1447	1458	1470	1467	1469	1477	1471	1465	1476	1494	1494	1493	1483	1469	1466	1477	1493	1493	1500	1512	1518	1506	1487	1478	1465	1461	1460	1460	1460	1459	1472	1482	1479	1469	1470	1476	1477	1478	1507	1522	1522	1492	1474	1472	1466	1455	1435	1428	1439	1441	1455	1472	1483	1492	1493	1480	1468	1468	1468	1457	1445	1430	1422	1394	1357	1303	1231	1169	1105	1104	1117	1130	1143	1137	1129	1118	1102	1097	1090	1087	1094	0	0	1102	1078	1011	968	944	947	966	982	979	965	949	938	930	920	916	906	894	883	887	900	914	921	925	946	943	940	935	940	955	974	988	0	0	0	0	0	0	0	0	0	0	0	1297	1382	1413	1461	1464	1481	1477	1483	1482	1479	1476	1477	1488	1499	1510	1509	1500	1484	1478	1477	1500	1499	1489	1492	1484	1480	1481	1483	1488	1485	1475	1466	1468	1483	1501	1505	1503	1496	1493	1497	1503	1485	1489	1519	1538	1527	1520	1507	1486	1481	1476	1477	1460	1467	1462	1471	1494	1491	1479	1466	1451	1442	1439	1443	1447	1451	1465	1471	1459	1440	1441	1457	1493	1499	1504	1518	1521	1519	1513	1512	1513	1511	1516	1507	1486	1465	1444	1437	1431	1438	1453	1466	1478	1479	1476	1465	1468	1481	1481	1458	1446	1449	1455	1458	1453	1448	1433	1424	1417	1417	1409	1409	1413	1415	1422	1438	1468	1492	1513	1518	1510	1504	1501	1497	1501	1504	1495	1476	1450	1444	1446	1486	1500	1506	1502	1492	1479	1467	1461	1453	1451	1438	0	0	0	0	0	0	0	0	0	0	0	0	0	0	951	941	927	915	899	902	906	916	911	911	918	928	921	918	917	916	910	906	903	905	918	930	933	927	923	919	914	908	902	920	950	957	959	958	953	948	949	954	959	961	955	958	960	968	973	997	1008	1005	990	987	1015	1055	1202	1361	1415	1442	1446	1456	1474	1479	1474	1473	1467	1457	1461	1460	1455	1456	1451	1436	1427	1435	1448	1444	1445	1441	1444	1455	1457	1455	1462	1465	1469	1471	1479	1491	1487	1482	1475	1475	1480	1479	1479	1475	1474	1486	1498	1492	1470	1457	1450	1452	1456	1459	1471	1461	1445	1436	1443	1468	1466	1457	1455	1456	1469	1482	1490	1483	1479	1473	1470	1465	1460	1472	1483	1492	1488	1479	1470	1463	1466	1467	1461	1470	1475	1477	1478	1474	1475	1474	1481	1489	1495	1493	1495	1488	1480	1467	1448	1465	1472	1465	1449	1435	1440	1454	1460	1450	1445	1450	1455	1475	1485	1492	1490	1480	1469	1474	1483	1482	1471	1479	1467	1449	1446	1461	1464	1456	1460	1464	1463	1457	1448	1438	1426	1422	1434	1459	1459	1476	1485	1477	1459	1454	1452	1458	1459	1468	1483	1481	1467	1451	1437	1439	1439	1443	1449	1436	1442	1451	1452	1422	0	0	0	0	0	0	0
0	0	0	0	0	0	0	0	0	0	0	0	0	0	0	0	0	0	0	0	0	0	0	0	0	0	0	0	0	0	0	0	0	0	0	0	0	0	0	0	0	0	0	0	0	0	0	0	0	0	0	0	0	0	0	0	0	0	0	0	0	0	0	0	0	0	0	0	0	0	0	0	0	0	0	0	0	0	0	0	0	0	0	0	0	0	0	0	0	0	0	0	0	1418	1429	1451	1467	1476	1466	1459	1455	1447	1457	1463	1465	1465	1471	1469	1475	1469	1444	1446	1456	1459	1468	1475	1477	1485	1492	1484	1479	1481	1473	1453	1437	1446	1455	1460	1456	1454	1467	1469	1471	1464	1464	1468	1465	1458	1455	1456	1455	1452	1449	1449	1461	1471	1477	1475	1480	1484	1495	1495	1477	1458	1453	1458	1472	1480	1486	1487	1487	1480	1481	1477	1459	1450	1453	1460	1457	1457	1458	1470	1470	1474	1477	1474	1471	1469	1481	1510	1513	1495	1480	1465	1452	1441	1433	1437	1447	1446	1454	1466	1478	1473	1467	1455	1440	1436	1442	1438	1420	1393	1333	1237	1207	1167	1132	1119	1072	1063	1071	1088	1080	1079	1075	1072	1060	1052	1046	1044	1046	1042	1026	1021	1015	980	955	943	948	969	974	966	948	936	927	922	912	902	894	890	884	893	908	930	926	922	921	925	929	939	959	0	0	0	0	0	0	0	0	0	0	0	0	0	1304	1352	1401	1425	1444	1463	1472	1478	1484	1495	1488	1487	1494	1509	1518	1525	1509	1498	1475	1458	1453	1461	1474	1495	1498	1502	1494	1497	1505	1502	1496	1485	1472	1472	1487	1503	1509	1499	1497	1494	1495	1487	1477	1495	1520	1538	1530	1508	1490	1487	1472	1474	1470	1467	1472	1469	1489	1494	1489	1477	1458	1445	1437	1435	1433	1441	1454	1472	1474	1469	1451	1446	1462	1487	1506	1514	1513	1512	1510	1506	1500	1499	1501	1497	1497	1487	1469	1466	1463	1464	1459	1460	1462	1467	1466	1454	1441	1439	1442	1442	1439	1441	1456	1465	1460	1450	1435	1426	1419	1419	1417	1418	1420	1429	1428	1424	1436	1452	1473	1486	1490	1490	1486	1469	1476	1486	1485	1472	1467	1460	1458	1469	1481	1506	1517	1512	1501	1480	1464	1464	1458	1443	1434	1447	0	0	0	0	0	0	0	0	0	0	0	0	0	935	909	887	877	874	887	893	912	910	909	914	924	916	913	908	915	902	909	913	921	923	920	912	906	894	893	894	895	900	908	936	939	940	937	933	927	929	934	940	942	938	936	938	938	944	959	967	958	943	941	950	973	1008	1102	1174	1363	1406	1437	1454	1459	1455	1454	1457	1455	1453	1456	1458	1460	1462	1452	1455	1458	1458	1451	1456	1450	1453	1456	1452	1458	1454	1453	1452	1459	1470	1479	1478	1470	1465	1469	1472	1472	1467	1467	1475	1492	1502	1479	1466	1457	1460	1470	1478	1479	1478	1467	1451	1436	1427	1462	1461	1458	1451	1457	1461	1472	1480	1478	1468	1473	1477	1472	1459	1461	1482	1484	1490	1488	1485	1484	1475	1469	1463	1467	1467	1471	1470	1476	1482	1493	1504	1509	1499	1494	1495	1492	1483	1475	1458	1462	1473	1461	1449	1443	1447	1444	1441	1438	1430	1440	1450	1458	1472	1471	1482	1479	1463	1466	1471	1476	1482	1473	1457	1443	1438	1442	1437	1434	1438	1455	1459	1465	1455	1451	1430	1432	1432	1446	1446	1461	1468	1455	1448	1442	1451	1460	1464	1467	1474	1482	1476	1465	1453	1451	1451	1454	1454	1449	1454	1458	1451	1414	0	0	0	0	0	0	0
0	0	0	0	0	0	0	0	0	0	0	0	0	0	0	0	0	0	0	0	0	0	0	0	0	0	0	0	0	0	0	0	0	0	0	0	0	0	0	0	0	0	0	0	0	0	0	0	0	0	0	0	0	0	0	0	0	0	0	0	0	0	0	0	0	0	0	0	0	0	0	0	0	0	0	0	0	0	0	0	0	0	0	0	0	0	0	0	0	0	0	0	0	1406	1426	1435	1452	1458	1468	1463	1459	1457	1462	1478	1475	1470	1463	1457	1461	1447	1426	1425	1460	1458	1468	1476	1476	1477	1480	1473	1474	1478	1473	1453	1429	1436	1453	1453	1446	1444	1449	1455	1460	1456	1457	1463	1466	1467	1464	1465	1464	1447	1432	1422	1434	1452	1470	1481	1478	1473	1488	1490	1471	1452	1440	1445	1457	1481	1484	1477	1472	1455	1443	1452	1460	1455	1465	1480	1462	1460	1459	1456	1471	1485	1490	1488	1482	1473	1473	1491	1492	1476	1472	1461	1448	1438	1435	1443	1452	1450	1463	1472	1475	1461	1456	1437	1421	1419	1412	1336	1245	1217	1138	1079	1089	1099	1100	1092	1055	1047	1047	1046	1050	1055	1056	1050	1039	1037	1032	1024	1017	1003	990	975	972	969	960	956	969	977	976	967	946	929	918	918	909	907	899	894	896	903	916	934	935	918	907	911	919	954	0	0	0	0	0	0	0	0	0	0	0	0	1363	1448	1403	1427	1420	1452	1479	1477	1476	1482	1494	1496	1490	1486	1497	1506	1515	1524	1524	1495	1473	1448	1437	1458	1473	1481	1495	1496	1495	1508	1514	1517	1514	1499	1487	1483	1489	1497	1500	1499	1494	1494	1501	1507	1529	1492	1508	1491	1471	1495	1480	1475	1464	1462	1463	1463	1473	1472	1487	1487	1490	1480	1466	1449	1437	1435	1437	1458	1471	1478	1483	1479	1461	1443	1457	1481	1495	1502	1505	1512	1513	1513	1504	1493	1493	1492	1495	1487	1484	1480	1471	1465	1462	1455	1462	1462	1460	1453	1437	1427	1429	1433	1437	1448	1455	1466	1457	1443	1431	1420	1414	1410	1417	1426	1434	1436	1439	1428	1428	1435	1451	1465	1473	1466	1466	1468	1479	1480	1473	1464	1470	1481	1478	1475	1488	1508	1521	1518	1503	1489	1481	1479	1470	1447	1436	1445	0	0	0	0	0	0	0	0	0	0	0	0	0	0	892	860	847	849	860	882	909	918	911	921	924	915	903	896	898	899	903	917	931	924	910	895	881	869	866	869	875	881	891	918	921	920	917	915	910	909	919	926	927	925	916	910	912	919	930	937	924	915	915	917	924	936	971	1011	1072	1285	1326	1351	1400	1435	1443	1445	1455	1463	1464	1469	1477	1477	1481	1479	1475	1469	1460	1465	1472	1476	1473	1456	1452	1436	1436	1430	1437	1449	1460	1463	1456	1459	1462	1469	1466	1455	1460	1464	1486	1483	1472	1455	1458	1466	1484	1485	1473	1479	1474	1459	1448	1441	1451	1458	1449	1447	1458	1467	1468	1469	1472	1469	1476	1486	1486	1478	1475	1486	1485	1485	1491	1497	1504	1489	1487	1484	1485	1479	1475	1476	1478	1482	1496	1507	1507	1496	1492	1492	1491	1488	1487	1472	1470	1466	1462	1468	1459	1464	1448	1447	1440	1437	1440	1443	1444	1450	1456	1470	1472	1462	1449	1450	1457	1457	1456	1450	1444	1444	1438	1428	1418	1427	1442	1459	1463	1467	1463	1451	1434	1432	1438	1438	1443	1444	1438	1427	1425	1435	1441	1443	1450	1456	1468	1480	1479	1472	1465	1465	1467	1458	1455	1458	1461	1458	0	0	0	0	0	0	0	0
0	0	0	0	0	0	0	0	0	0	0	0	0	0	0	0	0	0	0	0	0	0	0	0	0	0	0	0	0	0	0	0	0	0	0	0	0	0	0	0	0	0	0	0	0	0	0	0	0	0	0	0	0	0	0	0	0	0	0	0	0	0	0	0	0	0	0	0	0	0	0	0	0	0	0	0	0	0	0	0	0	0	0	0	0	0	0	0	0	0	0	0	0	1414	1434	1439	1453	1472	1487	1465	1465	1474	1478	1482	1485	1477	1465	1455	1455	1444	1431	1436	1467	1467	1470	1471	1470	1465	1460	1458	1465	1478	1479	1481	1452	1470	1471	1465	1457	1447	1447	1455	1463	1463	1461	1456	1458	1462	1465	1463	1458	1449	1427	1413	1418	1439	1467	1481	1479	1472	1478	1474	1455	1437	1438	1450	1468	1481	1481	1469	1461	1444	1431	1436	1442	1453	1467	1487	1499	1491	1479	1472	1474	1495	1500	1498	1492	1478	1470	1467	1471	1467	1468	1469	1458	1443	1440	1443	1451	1468	1479	1482	1485	1463	1432	1406	1375	1325	1272	1144	1062	1047	1038	1051	1066	1077	1085	1082	1075	1052	1043	1041	1044	1045	1048	1050	1055	1047	1041	1029	1009	991	972	960	957	957	968	979	993	997	982	966	946	928	916	922	918	917	908	909	903	907	911	920	919	905	887	907	930	0	0	0	0	0	0	0	0	0	0	0	1326	1381	1453	1455	1461	1467	1471	1478	1496	1496	1495	1496	1500	1497	1490	1480	1486	1492	1501	1512	1510	1495	1488	1463	1446	1466	1489	1492	1500	1491	1486	1511	1521	1519	1516	1509	1497	1492	1491	1493	1496	1496	1499	1508	1520	1514	1551	1550	1483	1471	1477	1460	1480	1482	1463	1463	1465	1470	1484	1485	1483	1483	1484	1479	1470	1456	1445	1445	1446	1454	1461	1482	1485	1480	1468	1451	1467	1479	1491	1499	1508	1518	1534	1532	1517	1499	1486	1482	1484	1484	1483	1476	1463	1455	1441	1444	1445	1457	1460	1458	1455	1455	1452	1448	1446	1449	1458	1459	1455	1446	1436	1428	1409	1404	1411	1425	1434	1440	1436	1429	1434	1436	1445	1458	1466	1470	1472	1488	1494	1496	1486	1480	1487	1497	1496	1479	1486	1499	1516	1517	1503	1489	1493	1496	1485	1460	1446	1434	1437	0	0	0	0	0	0	0	0	0	0	0	0	0	0	844	828	825	835	857	888	912	911	917	921	909	898	886	876	874	888	906	915	910	894	875	866	857	851	849	854	862	889	899	898	894	895	892	894	900	909	920	914	908	900	899	901	907	912	912	909	900	901	905	908	916	922	922	931	955	1046	1120	1257	1376	1415	1434	1458	1467	1479	1483	1488	1501	1501	1495	1482	1471	1462	1474	1480	1485	1482	1463	1458	1448	1436	1429	1435	1447	1455	1481	1476	1473	1481	1485	1475	1468	1458	1462	1464	1470	1459	1456	1452	1469	1473	1474	1480	1476	1479	1481	1469	1456	1456	1449	1448	1450	1460	1465	1466	1465	1466	1474	1486	1503	1508	1500	1499	1502	1497	1492	1496	1506	1507	1504	1499	1494	1485	1472	1467	1473	1472	1478	1487	1494	1491	1480	1480	1480	1491	1494	1486	1481	1468	1465	1472	1478	1479	1477	1471	1466	1461	1451	1441	1429	1431	1438	1457	1471	1470	1463	1451	1451	1457	1458	1453	1446	1446	1460	1462	1439	1427	1420	1441	1454	1464	1468	1469	1462	1437	1425	1420	1420	1431	1437	1430	1426	1425	1423	1426	1420	1421	1432	1452	1472	1481	1481	1481	1477	1471	1461	1464	1462	1470	1457	0	0	0	0	0	0	0	0
0	0	0	0	0	0	0	0	0	0	0	0	0	0	0	0	0	0	0	0	0	0	0	0	0	0	0	0	0	0	0	0	0	0	0	0	0	0	0	0	0	0	0	0	0	0	0	0	0	0	0	0	0	0	0	0	0	0	0	0	0	0	0	0	0	0	0	0	0	0	0	0	0	0	0	0	0	0	0	0	0	0	0	0	0	0	0	0	0	0	0	0	0	1411	1436	1449	1475	1511	1508	1488	1476	1489	1487	1483	1482	1478	1481	1467	1464	1451	1445	1450	1467	1476	1482	1476	1464	1457	1445	1446	1454	1469	1485	1488	1487	1487	1492	1491	1481	1470	1452	1461	1466	1468	1465	1457	1450	1450	1456	1460	1451	1439	1435	1429	1430	1450	1474	1482	1478	1462	1455	1450	1443	1436	1440	1459	1474	1483	1475	1458	1451	1438	1429	1433	1433	1446	1463	1490	1505	1504	1495	1480	1479	1488	1499	1501	1501	1485	1473	1463	1469	1474	1467	1470	1456	1447	1441	1436	1443	1459	1470	1476	1481	1430	1378	1272	1165	1122	1089	1063	1052	1047	1043	1052	1059	1078	1088	1090	1093	1078	1063	1053	1049	1046	1048	1062	1074	1066	1056	1045	1030	0	0	982	975	969	0	0	0	0	0	0	0	0	0	0	939	934	930	928	910	896	889	0	0	0	0	896	0	0	0	0	0	0	0	0	0	0	0	1315	1401	1458	1456	1455	1461	1492	1491	1492	1491	1503	1503	1508	1505	1499	1484	1475	1470	1476	1487	1495	1495	1487	1487	1487	1481	1522	1514	1526	1522	1483	1473	1507	1512	1520	1515	1512	1503	1494	1495	1490	1489	1491	1503	1522	1535	1538	1519	1486	1473	1460	1456	1451	1469	1483	1473	1477	1480	1485	1492	1490	1485	1480	1481	1482	1479	1471	1457	1445	1442	1449	1459	1477	1475	1470	1464	1467	1476	1485	1489	1492	1503	1518	1541	1536	1521	1494	1480	1476	1476	1481	1480	1470	1457	1442	1430	1427	1429	1445	1455	1476	1477	1470	1461	1450	1443	1440	1444	1452	1456	1453	1453	1435	1411	1405	1406	1418	1427	1429	1432	1422	1422	1430	1445	1464	1476	1489	1495	1511	1518	1520	1502	1500	1504	1511	1493	1480	1475	1487	1499	1504	1498	1499	1499	1511	1499	1476	1464	1452	1466	1449	0	0	0	0	0	0	0	0	0	0	0	0	0	0	821	808	820	841	875	882	882	898	912	907	894	882	866	860	866	878	887	879	875	860	854	850	840	837	838	849	877	882	878	874	878	875	875	877	892	900	899	893	889	892	897	895	894	897	899	892	895	898	903	903	908	903	910	924	941	971	1016	1107	1187	1415	1439	1458	1471	1482	1493	1509	1514	1503	1480	1463	1455	1458	1468	1479	1479	1475	1468	1461	1464	1468	1481	1488	1494	1489	1482	1471	1476	1480	1480	1472	1471	1458	1458	1453	1455	1447	1444	1448	1453	1459	1472	1485	1489	1502	1496	1478	1455	1451	1448	1454	1458	1462	1449	1459	1456	1470	1484	1500	1507	1513	1518	1520	1522	1512	1501	1500	1498	1504	1504	1498	1482	1464	1457	1457	1456	1467	1466	1466	1457	1459	1463	1460	1476	1493	1493	1483	1471	1468	1479	1490	1497	1491	1492	1486	1481	1465	1438	1424	1433	1447	1461	1472	1470	1463	1460	1457	1464	1463	1458	1449	1446	1452	1459	1459	1447	1436	1448	1457	1465	1467	1471	1464	1447	1429	1429	1421	1429	1439	1445	1454	1444	1431	1420	1414	1413	1421	1436	1459	1466	1474	1474	1474	1468	1459	1459	1462	1464	1450	0	0	0	0	0	0	0	0
0	0	0	0	0	0	0	0	0	0	0	0	0	0	0	0	0	0	0	0	0	0	0	0	0	0	0	0	0	0	0	0	0	0	0	0	0	0	0	0	0	0	0	0	0	0	0	0	0	0	0	0	0	0	0	0	0	0	0	0	0	0	0	0	0	0	0	0	0	0	0	0	0	0	0	0	0	0	0	0	0	0	0	0	0	0	0	0	0	0	0	0	0	1408	1433	1448	1487	1510	1511	1490	1485	1491	1494	1485	1485	1486	1486	1477	1472	1463	1453	1458	1460	1475	1487	1486	1471	1457	1440	1438	1447	1457	1473	1483	1489	1499	1506	1507	1502	1490	1471	1465	1466	1452	1450	1448	1444	1445	1453	1456	1445	1442	1448	1454	1454	1465	1482	1490	1487	1464	1447	1439	1430	1436	1438	1464	1471	1468	1458	1450	1443	1436	1439	1447	1453	1446	1457	1476	1501	1504	1507	1498	1488	1489	1490	1497	1489	1485	1465	1464	1472	1479	1477	1463	1456	1438	1439	1436	1431	1435	1450	1448	1427	1319	1160	1105	1085	1089	1082	1077	1075	1069	1065	1071	1078	1096	1105	1106	1119	1123	1117	1091	1067	1057	1067	1086	1092	1092	1083	0	0	0	0	0	0	0	0	0	0	0	0	0	0	0	0	0	0	0	0	0	0	0	0	0	0	0	0	0	0	0	0	0	0	0	0	0	0	0	1310	1392	1444	1454	1457	1459	1480	1458	1468	1476	1487	1494	1508	1513	1506	1497	1485	1473	1469	1471	1479	1487	1492	1483	1495	1495	1502	1495	1555	1552	1555	1506	1486	1498	1502	1506	1516	1510	1500	1491	1494	1491	1487	1492	1507	1525	1538	1531	1511	1484	1470	1450	1443	1448	1460	1477	1483	1481	1480	1487	1497	1494	1488	1482	1482	1490	1484	1481	1463	1455	1449	1451	1459	1482	1482	1467	1466	1470	1479	1478	1481	1488	1501	1519	1526	1532	1512	1494	1478	1468	1461	1468	1476	1476	1466	1440	1429	1424	1431	1444	1462	1480	1484	1486	1463	1436	1428	1426	1427	1444	1451	1455	1452	1439	1421	1407	1408	1419	1423	1428	1422	1414	1422	1427	1449	1474	1491	1502	1503	1514	1517	1518	1502	1496	1499	1510	1492	1483	1471	1480	1485	1485	1494	1504	1512	1518	1509	1493	1479	1485	1474	1471	1481	0	0	0	0	0	0	0	0	0	0	0	0	0	870	828	827	844	850	850	853	870	881	886	883	876	860	852	846	854	862	868	860	850	842	837	832	829	830	839	869	872	867	863	863	862	864	872	889	887	881	881	878	881	885	879	878	887	884	878	879	882	885	890	888	884	892	898	910	928	955	973	998	1260	1381	1428	1448	1461	1480	1489	1494	1484	1466	1452	1448	1443	1457	1469	1481	1482	1481	1473	1478	1487	1501	1503	1498	1491	1480	1472	1463	1462	1467	1466	1464	1462	1454	1461	1461	1450	1438	1444	1443	1445	1462	1483	1504	1510	1503	1491	1455	1450	1453	1453	1456	1456	1456	1460	1449	1455	1474	1486	1499	1511	1521	1535	1536	1529	1515	1497	1484	1489	1498	1493	1475	1452	1439	1439	1448	1453	1453	1447	1439	1439	1451	1455	1472	1485	1496	1488	1476	1469	1492	1502	1504	1500	1502	1498	1494	1478	1449	1434	1441	1456	1468	1475	1467	1465	1462	1476	1485	1479	1471	1466	1451	1444	1455	1455	1455	1455	1468	1468	1467	1468	1475	1474	1456	1441	1441	1432	1438	1453	1474	1474	1467	1453	1441	1426	1426	1430	1443	1459	1459	1454	1454	1459	1463	1461	1456	1447	1446	1429	0	0	0	0	0	0	0	0
0	0	0	0	0	0	0	0	0	0	0	0	0	0	0	0	0	0	0	0	0	0	0	0	0	0	0	0	0	0	0	0	0	0	0	0	0	0	0	0	0	0	0	0	0	0	0	0	0	0	0	0	0	0	0	0	0	0	0	0	0	0	0	0	0	0	0	0	0	0	0	0	0	0	0	0	0	0	0	0	0	0	0	0	0	0	0	0	0	0	0	0	0	1406	1437	1453	1482	1507	1498	1495	1488	1494	1490	1491	1493	1489	1486	1480	1472	1466	1453	1443	1446	1464	1479	1487	1478	1465	1448	1433	1440	1448	1456	1466	1479	1499	1517	1522	1521	1503	1484	1473	1459	1443	1437	1435	1442	1452	1458	1447	1439	1440	1449	1464	1466	1470	1482	1492	1487	1480	1452	1441	1434	1439	1450	1451	1455	1451	1454	1450	1442	1443	1444	1456	1465	1458	1446	1445	1464	1481	1493	1497	1496	1489	1493	1487	1483	1469	1450	1443	1466	1470	1456	1455	1455	1449	1441	1427	1417	1410	1376	1283	1217	1132	1070	1065	1078	1086	1095	1099	1101	1107	1108	1112	1127	1136	1143	1147	1149	1169	1176	1166	1132	1118	1126	1132	0	0	0	0	0	0	0	0	0	0	0	0	0	0	0	0	0	0	0	0	0	0	0	0	0	0	0	0	0	0	0	0	0	0	0	0	0	0	0	0	0	1312	1385	1454	1459	1458	1461	1469	1465	1447	1438	1456	1483	1497	1504	1510	1508	1497	1484	1472	1466	1469	1481	1494	1497	1499	1499	1503	1506	1513	1550	1569	1568	1541	1498	1494	1496	1510	1515	1510	1499	1495	1497	1493	1490	1493	1504	1522	1528	1518	1506	1489	1477	1463	1450	1454	1466	1496	1494	1485	1479	1478	1503	1501	1496	1493	1490	1485	1483	1475	1473	1467	1461	1468	1479	1492	1488	1483	1472	1476	1480	1470	1480	1485	1500	1513	1514	1515	1507	1496	1481	1473	1459	1465	1467	1471	1462	1447	1436	1429	1433	1445	1457	1471	1478	1476	1447	1430	1430	1431	1441	1445	1444	1451	1441	1434	1417	1412	1417	1425	1424	1421	1410	1408	1403	1425	1454	1483	1496	1491	1485	1492	1496	1497	1488	1484	1488	1499	1485	1473	1473	1484	1488	1487	1493	1508	1514	1522	1517	1511	1498	1481	1478	1481	1509	1517	0	0	0	0	0	0	0	0	0	0	0	0	0	0	855	857	847	837	834	844	856	857	860	859	852	843	832	838	849	863	862	858	847	839	826	825	826	842	859	862	862	859	854	855	853	863	878	876	883	873	868	869	863	862	857	875	871	863	861	865	869	870	871	869	879	882	885	896	897	906	914	977	1086	1217	1361	1395	1425	1449	1450	1444	1433	1432	1420	1434	1448	1458	1469	1474	1474	1466	1473	1493	1508	1511	1508	1495	1485	1477	1475	1457	1448	1441	1460	1462	1465	1465	1462	1457	1446	1442	1444	1444	1457	1484	1499	1505	1492	1478	1459	1462	1466	1461	1455	1459	1460	1457	1453	1460	1464	1479	1485	1493	1510	1529	1536	1526	1514	1494	1470	1484	1493	1489	1467	1445	1437	1436	1446	1455	1452	1443	1434	1439	1462	1473	1479	1486	1498	1490	1476	1475	1488	1506	1498	1493	1489	1500	1503	1485	1470	1461	1460	1467	1473	1475	1466	1468	1468	1495	1509	1496	1490	1472	1458	1451	1450	1455	1464	1476	1482	1481	1475	1481	1484	1489	1475	1459	1459	1445	1448	1469	1481	1490	1478	1467	1461	1454	1453	1456	1456	1457	1458	1447	1447	1447	1454	1457	1453	1449	1438	1427	0	0	0	0	0	0	0	0
0	0	0	0	0	0	0	0	0	0	0	0	0	0	0	0	0	0	0	0	0	0	0	0	0	0	0	0	0	0	0	0	0	0	0	0	0	0	0	0	0	0	0	0	0	0	0	0	0	0	0	0	0	0	0	0	0	0	0	0	0	0	0	0	0	0	0	0	0	0	0	0	0	0	0	0	0	0	0	0	0	0	0	0	0	0	0	0	0	0	0	0	0	1440	1456	1468	1471	1482	1490	1486	1491	1485	1481	1486	1481	1497	1489	1477	1474	1467	1450	1441	1437	1449	1467	1479	1480	1468	1456	1438	1437	1444	1446	1460	1473	1496	1520	1530	1526	1515	1496	1486	1463	1450	1441	1443	1449	1453	1454	1443	1435	1438	1449	1460	1467	1471	1475	1486	1492	1490	1468	1451	1450	1451	1451	1439	1438	1447	1459	1460	1459	1453	1452	1452	1466	1456	1451	1448	1455	1467	1483	1488	1485	1488	1493	1492	1482	1449	1436	1423	1443	1450	1440	1438	1402	1317	1285	1340	1291	1258	1179	1165	1125	1103	0	1089	1098	0	0	0	0	1132	1153	0	0	0	1188	1185	1181	1201	1207	1194	1183	1165	1166	0	0	0	0	0	0	0	0	0	0	0	0	0	0	0	0	0	0	0	0	0	0	0	0	0	0	0	0	0	0	0	0	0	0	0	0	0	0	0	0	0	1290	1386	1474	1477	1475	1460	1466	1468	1482	1447	1431	1435	1430	1475	1480	1487	1488	1497	1498	1503	1490	1475	1464	1469	1500	1501	1505	1507	1502	1518	1524	1552	1558	1555	1515	1503	1499	1506	1482	1480	1484	1496	1494	1488	1468	1455	1462	1509	1512	1507	1497	1487	1483	1484	1476	1470	1513	1515	1495	1485	1476	1475	1508	1509	1506	1498	1484	1483	1477	1474	1470	1468	1472	1475	1486	1496	1497	1487	1476	1474	1481	1484	1488	1493	1500	1513	1518	1514	1505	1498	1490	1476	1464	1463	1463	1456	1449	1438	1437	1439	1430	1434	1442	1453	1456	1447	1432	1425	1437	1446	1457	1455	1450	1446	1438	1425	1420	1421	1429	1433	1427	1412	1396	1386	1390	1419	1456	1481	1489	1485	1475	1475	1472	1477	1476	1479	1482	1488	1481	1476	1483	1495	1498	1493	1503	1511	1514	1500	1497	1498	1488	1481	1478	1489	1507	1530	1572	0	0	0	0	0	0	0	0	0	0	0	0	0	0	881	855	839	831	833	839	838	834	835	838	834	824	829	839	862	868	860	852	842	830	826	831	854	852	855	850	849	848	846	844	851	863	869	877	871	863	852	849	847	850	855	853	849	849	849	855	856	854	869	876	880	874	863	853	853	862	902	937	984	1072	1186	1289	1378	1292	1342	1352	1357	1382	1409	1429	1428	1438	1456	1461	1459	1477	1487	1503	1508	1506	1503	1499	1496	1482	1467	1448	1440	1458	1457	1455	1458	1464	1462	1460	1455	1450	1446	1458	1482	1496	1474	1460	1460	1460	1473	1476	1470	1461	1455	1459	1460	1459	1462	1468	1475	1474	1488	1507	1520	1527	1515	1508	1490	1460	1451	1472	1475	1472	1459	1453	1451	1459	1466	1464	1451	1447	1451	1468	1486	1486	1487	1476	1482	1477	1476	1488	1503	1487	1476	1477	1498	1505	1501	1485	1480	1477	1484	1485	1488	1483	1470	1471	1492	1509	1498	1492	1479	1462	1451	1451	1457	1479	1498	1496	1496	1488	1482	1488	1483	1475	1465	1469	1458	1463	1472	1486	1489	1477	1471	1469	1472	1477	1470	1470	1463	1460	1453	1453	1446	1451	1454	1453	1448	1452	1449	0	0	0	0	0	0	0	0
0	0	0	0	0	0	0	0	0	0	0	0	0	0	0	0	0	0	0	0	0	0	0	0	0	0	0	0	0	0	0	0	0	0	0	0	0	0	0	0	0	0	0	0	0	0	0	0	0	0	0	0	0	0	0	0	0	0	0	0	0	0	0	0	0	0	0	0	0	0	0	0	0	0	0	0	0	0	0	0	0	0	0	0	0	0	0	0	0	0	0	0	0	0	1497	1483	1476	1468	1477	1479	1486	1484	1478	1476	1476	1487	1486	1476	1472	1464	1454	1440	1429	1436	1450	1465	1469	1466	1458	1447	1439	1441	1444	1451	1471	1490	1516	1523	1527	1514	1501	1489	1479	1465	1460	1453	1458	1459	1447	1431	1425	1429	1443	1449	1454	1460	1465	1478	1491	1483	1474	1463	1461	1458	1448	1441	1440	1444	1465	1475	1476	1471	1454	1454	1463	1465	1464	1457	1464	1474	1475	1480	1475	1481	1485	1494	1484	1465	1437	1418	1419	1420	1411	1391	1241	1181	0	0	0	0	1128	1119	1103	1106	0	0	0	0	0	0	0	0	0	0	0	0	1232	1216	1204	1209	1212	1207	1195	1191	1196	0	0	0	0	0	0	0	0	0	0	0	0	0	0	0	0	0	0	0	0	0	0	0	0	0	0	0	0	0	0	0	0	0	0	0	0	0	0	0	0	1269	1384	1486	1492	1484	1483	1478	1470	1466	1480	1473	1429	1427	1430	1464	1468	1478	1480	1463	1475	1479	1472	1460	1449	1485	1489	1491	1503	1506	1506	1506	1509	1519	1518	1531	1518	1512	1513	1498	1484	1470	1470	1486	1504	1515	1508	1481	1448	1469	1490	1499	1476	1470	1474	1483	1492	1537	1542	1515	1494	1481	1479	1474	1497	1505	1499	1491	1480	1470	1467	1475	1472	1473	1480	1482	1494	1496	1495	1474	1473	1477	1487	1494	1499	1505	1507	1519	1528	1533	1519	1510	1498	1485	1475	1469	1459	1455	1452	1445	1445	1445	1432	1427	1429	1427	1428	1419	1408	1422	1442	1464	1472	1464	1453	1434	1422	1422	1425	1431	1440	1439	1428	1400	1380	1370	1382	1429	1466	1493	1499	1479	1468	1455	1465	1471	1465	1470	1480	1489	1485	1480	1494	1505	1499	1504	1510	1493	1485	1476	1475	1473	1475	1476	1483	1494	1507	1522	1589	0	0	0	0	0	0	0	0	0	0	0	0	0	0	895	866	849	830	824	823	824	819	820	826	822	818	814	826	843	854	856	854	845	834	828	836	850	848	842	842	839	837	830	830	840	855	862	865	862	845	837	843	851	853	851	844	837	834	835	837	839	853	864	872	868	859	841	832	828	835	862	884	920	966	897	916	919	960	1057	1163	1263	1300	1328	1360	1384	1405	1427	1448	1461	1477	1486	1493	1497	1496	1499	1513	1510	1503	1487	1466	1460	1458	1460	1453	1452	1462	1468	1467	1470	1466	1451	1457	1473	1484	1458	1446	1454	1463	1460	1465	1470	1470	1460	1457	1460	1460	1461	1467	1469	1469	1490	1503	1511	1506	1501	1495	1492	1463	1446	1466	1467	1478	1467	1469	1475	1477	1477	1479	1466	1455	1457	1464	1463	1467	1469	1474	1479	1476	1480	1493	1498	1485	1470	1471	1490	1500	1498	1489	1485	1485	1480	1492	1497	1484	1476	1468	1476	1479	1480	1475	1464	1458	1448	1447	1465	1489	1508	1513	1499	1489	1484	1479	1473	1468	1468	1459	1452	1462	1477	1485	1482	1471	1465	1471	1483	1486	1474	1466	1465	1464	1464	1464	1459	1460	1456	1458	1454	1459	1477	0	0	0	0	0	0	0	0
0	0	0	0	0	0	0	0	0	0	0	0	0	0	0	0	0	0	0	0	0	0	0	0	0	0	0	0	0	0	0	0	0	0	0	0	0	0	0	0	0	0	0	0	0	0	0	0	0	0	0	0	0	0	0	0	0	0	0	0	0	0	0	0	0	0	0	0	0	0	0	0	0	0	0	0	0	0	0	0	0	0	0	0	0	0	0	0	0	0	0	0	0	0	1528	1486	1475	1472	1467	1474	1482	1483	1476	1466	1457	1461	1469	1466	1461	1463	1456	1447	1438	1435	1441	1451	1450	1461	1465	1464	1447	1437	1439	1444	1458	1477	1503	1514	1511	1505	1493	1484	1488	1479	1474	1468	1463	1459	1450	1430	1425	1429	1443	1454	1452	1456	1460	1458	1469	1481	1469	1459	1463	1464	1454	1439	1443	1458	1474	1483	1481	1472	1455	1449	1460	1466	1468	1477	1482	1487	1483	1477	1470	1472	1470	1473	1473	1464	1443	1408	1340	1235	1196	1156	0	0	0	0	0	0	0	0	0	0	0	0	0	0	0	0	0	0	0	0	0	0	1238	1224	1217	1212	1200	1189	1178	1185	1199	1206	0	0	0	0	0	0	0	0	0	0	0	0	0	0	0	0	0	0	0	0	0	0	0	0	0	0	0	0	0	0	0	0	0	0	0	0	0	0	0	1347	1466	1500	1497	1495	1495	1493	1490	1470	1469	1469	1438	1430	1437	1460	1467	1468	1479	1487	1484	1484	1491	1464	1461	1485	1504	1493	1500	1504	1501	1499	1506	1487	1487	1508	1509	1514	1504	1510	1489	1461	1457	1481	1504	1516	1514	1494	1461	1467	1474	1469	1460	1462	1468	1488	1538	1545	1542	1521	1494	1481	1479	1477	1485	1491	1491	1474	1464	1460	1463	1479	1478	1479	1487	1489	1490	1491	1471	1452	1451	1458	1466	1480	1488	1487	1475	1483	1511	1514	1506	1491	1500	1494	1477	1484	1481	1468	1451	1450	1451	1448	1438	1418	1404	1407	1405	1404	1413	1419	1435	1458	1468	1455	1439	1427	1435	1436	1440	1441	1438	1426	1407	1376	1345	1340	1376	1442	1481	1501	1503	1479	1471	1456	1456	1461	1459	1463	1494	1497	1496	1493	1499	1499	1496	1472	1462	1459	1465	1470	1470	1470	1468	1463	1477	1496	1508	1509	1502	1548	0	0	0	0	0	0	0	0	0	0	0	0	0	0	886	857	828	815	811	808	807	808	811	805	801	795	805	821	837	843	845	838	833	832	833	845	840	835	830	828	823	820	822	833	845	853	851	844	828	828	837	847	857	854	838	829	815	810	816	827	841	857	863	859	845	828	820	822	823	829	805	813	818	838	853	869	885	907	984	1083	1166	1217	1253	1294	1374	1412	1448	1470	1478	1482	1482	1483	1483	1489	1517	1530	1522	1511	1500	1485	1482	1473	1453	1449	1454	1472	1475	1477	1468	1452	1448	1458	1473	1465	1465	1470	1457	1449	1455	1464	1466	1463	1455	1449	1442	1444	1449	1459	1466	1486	1495	1501	1496	1493	1485	1488	1482	1473	1470	1474	1467	1475	1483	1484	1486	1484	1479	1474	1466	1465	1457	1454	1452	1458	1458	1465	1469	1478	1495	1499	1487	1472	1470	1474	1491	1489	1475	1463	1465	1475	1492	1498	1490	1474	1463	1459	1464	1463	1460	1459	1454	1453	1454	1471	1490	1507	1507	1497	1484	1478	1476	1474	1467	1467	1455	1448	1456	1468	1474	1475	1464	1465	1471	1479	1486	1481	1467	1463	1463	1463	1465	1467	1465	1462	1459	1465	1474	1498	0	0	0	0	0	0	0	0
0	0	0	0	0	0	0	0	0	0	0	0	0	0	0	0	0	0	0	0	0	0	0	0	0	0	0	0	0	0	0	0	0	0	0	0	0	0	0	0	0	0	0	0	0	0	0	0	0	0	0	0	0	0	0	0	0	0	0	0	0	0	0	0	0	0	0	0	0	0	0	0	0	0	0	0	0	0	0	0	0	0	0	0	0	0	0	0	0	0	0	0	0	0	1559	1483	1471	1465	1465	1467	1473	1476	1475	1468	1448	1445	1446	1453	1456	1460	1456	1452	1446	1439	1441	1452	1457	1473	1474	1467	1455	1440	1432	1434	1448	1462	1474	1495	1496	1488	1476	1469	1482	1478	1478	1474	1469	1468	1454	1436	1427	1430	1443	1457	1467	1461	1458	1458	1458	1473	1463	1465	1468	1470	1456	1448	1446	1461	1476	1482	1481	1467	1458	1452	1462	1465	1477	1486	1495	1496	1485	1471	1459	1452	1440	1444	1447	1423	1343	1256	0	0	0	0	0	0	0	0	0	0	0	0	0	0	0	0	0	0	0	0	0	0	0	0	0	1226	1218	1214	1223	1221	1186	1167	1167	1167	1178	1190	1175	0	0	0	0	0	0	0	0	0	0	0	0	0	0	0	0	0	0	0	0	0	0	0	0	0	0	0	0	0	0	0	0	0	0	0	0	0	0	1389	1474	1498	1500	1500	1501	1480	1473	1467	1468	1456	1451	1450	1449	1464	1459	1482	1491	1493	1481	1474	1488	1509	1522	1529	1509	1497	1494	1501	1499	1491	1514	1475	1467	1446	1496	1494	1496	1499	1503	1497	1492	1499	1509	1518	1520	1507	1487	1464	1457	1472	1470	1470	1475	1495	1532	1542	1536	1522	1489	1476	1483	1483	1494	1493	1481	1466	1457	1461	1464	1481	1481	1485	1488	1488	1481	1468	1461	1462	1459	1460	1458	1468	1480	1477	1469	1481	1485	1507	1511	1500	1487	1492	1475	1471	1478	1466	1459	1457	1460	1456	1446	1427	1402	1395	1395	1403	1409	1415	1423	1441	1448	1441	1435	1434	1442	1449	1447	1442	1432	1419	1397	1371	1348	1347	1387	1454	1490	1502	1490	1476	1464	1461	1457	1457	1450	1456	1490	1500	1498	1494	1488	1479	1474	1462	1454	1450	1463	1478	1480	1479	1476	1476	1480	1499	1504	1511	1505	1454	0	0	0	0	0	0	0	0	0	0	0	0	0	0	0	0	836	808	796	791	797	801	803	796	784	777	785	799	817	822	828	825	824	822	827	841	838	827	815	812	808	803	809	819	831	837	829	821	822	827	837	843	848	843	830	817	802	800	805	812	827	839	849	844	831	815	813	801	797	792	793	795	801	822	830	834	838	851	877	928	1001	1067	1107	1158	1307	1361	1418	1452	1459	1455	1456	1456	1467	1487	1507	1524	1525	1517	1509	1492	1486	1467	1457	1452	1457	1468	1478	1478	1472	1448	1440	1458	1485	1486	1495	1499	1455	1444	1448	1454	1457	1457	1451	1442	1435	1433	1438	1442	1460	1482	1493	1491	1490	1480	1479	1476	1495	1479	1471	1460	1459	1474	1480	1480	1477	1478	1475	1477	1475	1473	1468	1458	1450	1446	1448	1453	1463	1472	1482	1493	1493	1485	1480	1476	1481	1479	1471	1457	1457	1473	1485	1493	1487	1470	1460	1460	1467	1462	1461	1461	1459	1465	1468	1479	1490	1501	1505	1492	1477	1468	1464	1469	1465	1465	1460	1454	1456	1464	1468	1470	1466	1464	1471	1481	1487	1486	1476	1469	1463	1463	1465	1469	1473	1471	1461	1461	1471	1500	1498	0	0	0	0	0	0	0
0	0	0	0	0	0	0	0	0	0	0	0	0	0	0	0	0	0	0	0	0	0	0	0	0	0	0	0	0	0	0	0	0	0	0	0	0	0	0	0	0	0	0	0	0	0	0	0	0	0	0	0	0	0	0	0	0	0	0	0	0	0	0	0	0	0	0	0	0	0	0	0	0	0	0	0	0	0	0	0	0	0	0	0	0	0	0	0	0	0	0	0	0	0	1552	1479	1465	1459	1456	1461	1474	1475	1480	1472	1450	1446	1447	1454	1449	1456	1451	1456	1453	1449	1451	1467	1474	1480	1478	1468	1458	1439	1432	1431	1431	1452	1467	1476	1476	1469	1462	1470	1478	1476	1475	1468	1467	1465	1459	1446	1436	1439	1450	1454	1468	1465	1448	1450	1460	1470	1465	1486	1490	1487	1465	1450	1451	1458	1468	1479	1474	1460	1451	1454	1457	1469	1470	1478	1487	1493	1481	1458	1430	1408	1403	1390	1359	1258	1089	0	0	0	0	0	0	0	0	0	0	0	0	0	0	0	0	0	0	0	0	0	0	0	0	0	1189	1206	1205	1209	1215	1207	1163	0	1146	1151	1163	1158	1143	0	0	0	0	0	0	0	0	0	0	0	0	0	0	0	0	0	0	0	0	0	0	0	0	0	0	0	0	0	0	0	0	0	0	0	0	0	1397	1416	1477	1490	1498	1507	1511	1476	1467	1471	1474	1469	1462	1463	1462	1459	1471	1483	1491	1489	1480	1478	1493	1511	1516	1516	1512	1500	1497	1493	1498	1497	1513	1467	1458	1435	1477	1483	1483	1494	1510	1519	1526	1518	1513	1509	1507	1503	1494	1487	1469	1474	1497	1492	1483	1491	1494	1489	1479	1458	1463	1485	1488	1499	1492	1494	1481	1458	1452	1462	1475	1478	1478	1480	1482	1482	1479	1474	1474	1470	1466	1466	1462	1469	1466	1469	1496	1496	1494	1485	1502	1511	1515	1506	1495	1484	1481	1471	1465	1464	1466	1459	1452	1430	1403	1391	1386	1391	1401	1405	1415	1426	1428	1425	1424	1427	1441	1450	1444	1437	1429	1417	1398	1375	1362	1368	1402	1445	1471	1484	1480	1468	1467	1467	1458	1455	1445	1461	1480	1494	1493	1471	1467	1471	1472	1461	1455	1452	1467	1486	1488	1492	1492	1489	1494	1492	1498	1503	1498	1480	1436	0	0	0	0	0	0	0	0	0	0	0	0	0	0	0	0	0	792	780	789	797	794	788	776	768	770	779	791	802	800	798	797	808	834	839	829	813	802	794	792	790	793	802	810	809	813	812	817	829	835	833	829	827	820	809	794	790	792	802	806	813	817	817	788	783	780	785	792	790	788	788	801	817	821	810	809	815	820	832	862	913	953	1084	1197	1265	1329	1380	1407	1413	1417	1426	1450	1471	1492	1505	1488	1485	1490	1475	1470	1464	1457	1453	1459	1462	1469	1470	1472	1461	1453	1470	1489	1505	1512	1479	1463	1454	1449	1460	1463	1461	1458	1459	1446	1435	1434	1433	1453	1470	1486	1485	1481	1481	1471	1469	1481	1483	1470	1464	1467	1479	1478	1482	1476	1471	1467	1470	1477	1480	1477	1475	1467	1454	1453	1457	1461	1467	1476	1485	1498	1499	1490	1489	1481	1481	1478	1470	1464	1483	1488	1485	1476	1467	1465	1477	1482	1476	1477	1474	1480	1479	1486	1489	1492	1496	1499	1490	1479	1461	1464	1468	1468	1476	1469	1459	1455	1457	1463	1470	1464	1461	1474	1485	1489	1493	1485	1480	1470	1470	1465	1469	1476	1479	1461	1454	1451	1471	1498	0	0	0	0	0	0	0
