0	0	0	0	0	0	0	0	0	0	0	0	0	0	0	0	0	0	0	0	0	0	0	0	0	0	0	0	0	0	0	0	0	0	0	0	0	0	0	0	0	0	0	0	0	0	0	0	0	0	0	0	0	0	0	0	0	0	0	0	0	0	0	0	0	0	0	0	0	0	0	0	0	0	0	0	0	0	0	0	0	0	0	0	0	0	0	0	0	0	0	0	1411	1412	1425	1438	1451	1456	1466	1470	1468	1452	1460	1473	1479	1475	1462	1454	1453	1441	1425	0	1395	1405	1451	1469	1476	1486	1487	1485	1478	1472	1472	1460	0	0	0	0	0	0	0	1522	0	0	0	0	0	0	0	0	0	0	0	0	0	0	0	0	0	0	0	0	0	0	0	0	0	0	0	0	0	0	0	0	0	0	0	0	0	0	0	0	0	0	0	0	1390	1381	1372	1371	1371	1387	1408	1424	1423	1411	1409	1420	1432	1435	1416	1398	1395	1397	1414	1432	1442	1435	1417	1392	1371	1364	1364	1372	1383	1380	1387	1394	1402	1399	1398	1415	1431	1430	1414	1379	1387	1414	1415	1422	1429	1436	1422	1412	1419	0	0	0	0	0	0	0	0	0	0	0	1615	1652	1664	1677	1682	1684	1685	1675	1681	1691	1700	1688	1673	1673	1663	1656	1670	1677	1671	1664	1660	0	0	0	0	0	0	0	0	0	0	0	0	0	0	0	0	0	0	0	0	0	0	0	0	0	0	0	0	0	0	0	0	0	0	0	0	0	0	0	0	0	0	0	0	0	0	0	0	0	0	0	0	0	0	1441	1410	1402	1405	1411	1418	1411	1388	1383	1374	1364	1364	1368	1370	1367	1368	1364	1367	1355	1363	1367	1367	1366	1359	1363	1366	1371	1371	1377	1377	1376	1371	1366	1366	1368	1374	1377	1376	1369	1367	1375	1367	1361	1362	1384	1397	1388	1374	1368	1369	1381	1442	1520	1552	1601	0	0	0	0	0	0	0	0	0	0	0	0	0	0	0	0	0	0	0	0	0	0	0	0	0	0	0	0	0	0	0	0	0	0	0	0	0	0	0	0	0	0	0	0	0	0	0	0	0	0	0	0	0	0	0	0	0	0	0	0	0	0	0	0	0	0	0	0	0	0	0	1683	1710	1729	1716	1691	1673	1694	1731	1725	0	0	0	0	0	0	0	0	0	1401	1393	1399	1393	1381	1381	1382	1374	1354	1345	1342	1356	1350	1346	1349	1365	1369	1351	1334	1331	1327	1339	1345	1348	1351	1352	1353	1357	1362	1363	1355	1352	1349	1351	1354	1347	1345	1349	1351	1355	1371	1373	1371	1355	1350	1347	1355	1377	1395	1399	1428	1426	0	0	0	0	0	0	0	0	0	0	0	0	0	0	0	0	0	0	0	0	0	0	0	0	0	0	0	0	0	0	0	0	0	0	0	0	0	0	0	0	0	0	0	0	0	0	0	0	0	0	0	0	0	0	0	0	0	0	0	0	0	0	0	0	0	0	0	0	0	0	0	0	0	0	0	0	0	0	0	0	0	0	0	0	0	0	0	0	0	0	0	0	0	0	0	0	0	0	0	0	0	0	0	0	0	0	0	0	0	0	0	0	0	0	0	0	0	0	0	0	0	0	0	0	0	0	0	0	0	0	0	0	0
0	0	0	0	0	0	0	0	0	0	0	0	0	0	0	0	0	0	0	0	0	0	0	0	0	0	0	0	0	0	0	0	0	0	0	0	0	0	0	0	0	0	0	0	0	0	0	0	0	0	0	0	0	0	0	0	0	0	0	0	0	0	0	0	0	0	0	0	0	0	0	0	0	0	0	0	0	0	0	0	0	0	0	0	0	0	0	0	0	0	0	0	1410	1412	1430	1446	1459	1459	1462	1467	1471	1468	1468	1471	1473	1462	1458	1448	1454	1446	0	0	0	1429	1467	1485	1495	1492	1490	1477	1471	1478	1475	1478	0	0	0	0	0	0	0	0	0	0	0	0	0	0	0	0	0	0	0	0	0	0	0	0	0	0	0	0	0	0	0	0	0	0	0	0	0	0	0	0	0	0	0	0	0	0	0	0	0	0	0	0	1408	1402	1394	1391	1388	1389	1408	1420	1424	1416	1409	1412	1420	1428	1410	1406	1402	1405	1418	1429	1437	1435	1414	1389	1372	1366	1368	1383	1391	1386	1385	1390	1393	1386	1383	1416	1433	1433	1415	1380	1388	1405	1407	1419	1428	1432	1414	1411	1423	1425	0	0	0	0	0	0	0	0	0	0	1599	1637	1661	1665	1657	1665	1647	1639	1658	1676	1691	1696	1687	1681	1680	1683	1684	1677	1676	1653	1640	0	0	0	0	0	0	0	0	0	0	0	0	0	0	0	0	0	0	0	0	0	0	0	0	0	0	0	0	0	0	0	0	0	0	0	0	0	0	0	0	0	0	0	0	0	0	0	0	0	0	0	0	0	0	1439	1398	1376	1390	1400	1404	1390	1376	1380	1362	1357	1350	1353	1356	1356	1361	1358	1354	1362	1371	1377	1373	1370	1363	1366	1371	1375	1376	1379	1378	1372	1359	1358	1358	1368	1376	1372	1372	1370	1363	1363	1362	1358	1360	1386	1396	1384	1371	1365	1365	1377	1426	1500	1552	1611	0	0	0	0	0	0	0	0	0	0	0	0	0	0	0	0	0	0	0	0	0	0	0	0	0	0	0	0	0	0	0	0	0	0	0	0	0	0	0	0	0	0	0	0	0	0	0	0	0	0	0	0	0	0	0	0	0	0	0	0	0	0	0	0	0	0	0	0	0	0	0	1675	1702	1716	1701	1678	1679	1703	0	0	0	0	0	0	0	0	0	0	0	1388	1375	1390	1398	1389	1375	1374	1368	1362	1366	1360	1356	1352	1346	1350	1358	1361	1347	1333	1330	1336	1341	1346	1342	1346	1350	1357	1364	1362	1370	1370	1363	1354	1358	1356	1355	1354	1358	1358	1365	1378	1383	1376	1361	1343	1336	1342	1373	1389	1393	1400	1416	0	0	0	0	0	0	0	0	0	0	0	0	0	0	0	0	0	0	0	0	0	0	0	0	0	0	0	0	0	0	0	0	0	0	0	0	0	0	0	0	0	0	0	0	0	0	0	0	0	0	0	0	0	0	0	0	0	0	0	0	0	0	0	0	0	0	0	0	0	0	0	0	0	0	0	0	0	0	0	0	0	0	0	0	0	0	0	0	0	0	0	0	0	0	0	0	0	0	0	0	0	0	0	0	0	0	0	0	0	0	0	0	0	0	0	0	0	0	0	0	0	0	0	0	0	0	0	0	0	0	0	0	0
0	0	0	0	0	0	0	0	0	0	0	0	0	0	0	0	0	0	0	0	0	0	0	0	0	0	0	0	0	0	0	0	0	0	0	0	0	0	0	0	0	0	0	0	0	0	0	0	0	0	0	0	0	0	0	0	0	0	0	0	0	0	0	0	0	0	0	0	0	0	0	0	0	0	0	0	0	0	0	0	0	0	0	0	0	0	0	0	0	0	0	0	1433	1422	1436	1445	1456	1454	1452	1461	1468	1492	1491	1484	1473	1463	1473	1459	1454	1461	1470	1477	1471	1460	1465	1472	1482	1482	1461	1447	1449	1458	1474	0	0	0	0	0	0	0	0	0	0	0	0	0	0	0	0	0	0	0	0	0	0	0	0	0	0	0	0	0	0	0	0	0	0	0	0	0	0	0	0	0	0	0	0	0	0	0	0	0	0	0	0	0	1404	1409	1411	1408	1398	1392	1397	1406	1407	1402	1395	1394	1400	1409	1397	1396	1411	1414	1420	1425	1427	1427	1414	1390	1375	1372	1383	1391	1391	1386	1389	1393	1390	1381	1372	1393	1425	1418	1405	1384	1387	1394	1394	1405	1415	1414	1407	1402	1412	0	0	0	0	0	0	0	0	0	0	0	0	1622	1641	0	0	0	1623	1625	1636	1656	1674	1677	1676	1679	1685	1683	1679	1662	1661	1641	1609	0	0	0	0	0	0	0	0	0	0	0	0	0	0	0	0	0	0	0	0	0	0	0	0	0	0	0	0	0	0	0	0	0	0	0	0	0	0	0	0	0	0	0	0	0	0	0	0	0	0	0	0	0	0	1453	1403	1372	1371	1388	1388	1370	1371	1374	1368	1357	1349	1350	1359	1367	1364	1360	1349	1358	1375	1383	1380	1379	1384	1382	1397	1397	1393	1389	1383	1366	1353	1349	1358	1368	1372	1373	1368	1364	1361	1364	1362	1354	1355	1385	1403	1379	1366	1362	1361	1375	1419	1477	1545	1632	0	0	0	0	0	0	0	0	0	0	0	0	0	0	0	0	0	0	0	0	0	0	0	0	0	0	0	0	0	0	0	0	0	0	0	0	0	0	0	0	0	0	0	0	0	0	0	0	0	0	0	0	0	0	0	0	0	0	0	0	0	0	0	0	0	0	0	0	0	0	0	0	1692	1696	1681	1671	1672	0	0	0	0	0	0	0	0	0	0	0	0	1386	1374	1383	1401	1390	1373	1367	1370	1370	1378	1373	1366	1353	1347	1350	1359	1357	1345	1336	1337	1342	1349	1345	1339	1339	1346	1353	1362	1372	1374	1373	1374	1361	1365	1369	1363	1358	1358	1358	1364	1373	1376	1377	1365	1350	1335	1336	1357	1376	1382	1376	1395	0	0	0	0	0	0	0	0	0	0	0	0	0	0	0	0	0	0	0	0	0	0	0	0	0	0	0	0	0	0	0	0	0	0	0	0	0	0	0	0	0	0	0	0	0	0	0	0	0	0	0	0	0	0	0	0	0	0	0	0	0	0	0	0	0	0	0	0	0	0	0	0	0	0	0	0	0	0	0	0	0	0	0	0	0	0	0	0	0	0	0	0	0	0	0	0	0	0	0	0	0	0	0	0	0	0	0	0	0	0	0	0	0	0	0	0	0	0	0	0	0	0	0	0	0	0	0	0	0	0	0	0	0
0	0	0	0	0	0	0	0	0	0	0	0	0	0	0	0	0	0	0	0	0	0	0	0	0	0	0	0	0	0	0	0	0	0	0	0	0	0	0	0	0	0	0	0	0	0	0	0	0	0	0	0	0	0	0	0	0	0	0	0	0	0	0	0	0	0	0	0	0	0	0	0	0	0	0	0	0	0	0	0	0	0	0	0	0	0	0	0	0	0	0	0	1471	1470	1455	1440	1446	1449	1453	1459	1464	1482	1488	1486	1486	1480	1487	1469	1464	1462	1457	1439	1446	1457	1469	1475	1476	1467	1452	1435	1445	1458	1466	0	0	0	0	0	0	0	0	0	0	0	0	0	0	0	0	0	0	0	0	0	0	0	0	0	0	0	0	0	0	0	0	0	0	0	0	0	0	0	0	0	0	0	0	0	0	0	0	0	0	0	0	0	1388	1406	1420	1415	1402	1394	1393	1392	1384	1376	1377	1383	1396	1403	1390	1399	1414	1418	1413	1417	1423	1421	1416	1393	1385	1382	1390	1398	1398	1386	1390	1389	1386	1378	1375	1381	1401	1396	1392	1392	1399	1389	1384	1389	1404	1415	1400	1390	1387	0	0	0	0	0	0	0	0	0	0	0	0	0	0	0	0	0	0	0	0	0	0	1638	0	0	0	1657	1648	1649	1643	1612	0	0	0	0	0	0	0	0	0	0	0	0	0	0	0	0	0	0	0	0	0	0	0	0	0	0	0	0	0	0	0	0	0	0	0	0	0	0	0	0	0	0	0	0	0	0	0	0	0	0	0	0	0	0	0	1458	1422	1382	1365	1386	1387	1366	1368	1369	1370	1366	1359	1361	1367	1374	1378	1364	1357	1364	1373	1382	1380	1375	1382	1391	1396	1396	1391	1386	1379	1366	1354	1355	1363	1376	1375	1369	1364	1358	1363	1372	1369	1362	1365	1377	1401	1377	1365	1365	1370	1385	1427	1504	1574	0	0	0	0	0	0	0	0	0	0	0	0	0	0	0	0	0	0	0	0	0	0	0	0	0	0	0	0	0	0	0	0	0	0	0	0	0	0	0	0	0	0	0	0	0	0	0	0	0	0	0	0	0	0	0	0	0	0	0	0	0	0	0	0	0	0	0	0	0	0	0	0	0	0	0	0	0	0	0	0	0	0	0	0	0	0	0	0	0	0	1407	1370	1374	1398	1391	1374	1363	1365	1376	1384	1382	1369	1358	1352	1357	1365	1355	1348	1344	1345	1355	1358	1351	1342	1343	1338	1342	1355	1363	1365	1365	1360	1366	1372	1371	1367	1358	1355	1355	1357	1358	1364	1366	1360	1343	1329	1325	1344	1356	1364	1365	1380	0	0	0	0	0	0	0	0	0	0	0	0	0	0	0	0	0	0	0	0	0	0	0	0	0	0	0	0	0	0	0	0	0	0	0	0	0	0	0	0	0	0	0	0	0	0	0	0	0	0	0	0	0	0	0	0	0	0	0	0	0	0	0	0	0	0	0	0	0	0	0	0	0	0	0	0	0	0	0	0	0	0	0	0	0	0	0	0	0	0	0	0	0	0	0	0	0	0	0	0	0	0	0	0	0	0	0	0	0	0	0	0	0	0	0	0	0	0	0	0	0	0	0	0	0	0	0	0	0	0	0	0	0
0	0	0	0	0	0	0	0	0	0	0	0	0	0	0	0	0	0	0	0	0	0	0	0	0	0	0	0	0	0	0	0	0	0	0	0	0	0	0	0	0	0	0	0	0	0	0	0	0	0	0	0	0	0	0	0	0	0	0	0	0	0	0	0	0	0	0	0	0	0	0	0	0	0	0	0	0	0	0	0	0	0	0	0	0	0	0	0	0	0	0	0	1454	1466	1451	1445	1445	1447	1459	1452	1459	1470	1482	1490	1494	1488	1491	1473	1464	1457	1439	1429	1429	1463	1476	1475	1467	1457	1443	1442	1449	1468	1472	1475	0	0	0	0	0	0	0	0	0	0	0	0	0	0	0	0	0	0	0	0	0	0	0	0	0	0	0	0	0	0	0	0	0	0	0	0	0	0	0	0	0	0	0	0	0	0	0	0	0	0	0	0	1380	1408	1414	1410	1401	1395	1392	1381	1374	1357	1361	1377	1398	1406	1403	1411	1420	1420	1407	1405	1411	1415	1419	1404	1390	1389	1403	1409	1401	1384	1376	1381	1374	1368	1367	1367	1383	1381	1382	1389	1401	1396	1391	1387	1412	1428	1408	1392	1377	0	0	0	0	0	0	0	0	0	0	0	0	0	0	0	0	0	0	0	0	0	0	0	0	0	0	0	0	0	0	0	0	0	0	0	0	0	0	0	0	0	0	0	0	0	0	0	0	0	0	0	0	0	0	0	0	0	0	0	0	0	0	0	0	0	0	0	0	0	0	0	0	0	0	0	0	0	0	0	0	0	0	0	0	0	1423	1441	1403	1369	1359	1384	1388	1371	1367	1371	1372	1368	1368	1367	1374	1380	1381	1379	1367	1363	1362	1371	1377	1368	1377	1386	1391	1392	1387	1384	1377	1364	1359	1361	1373	1381	1383	1374	1363	1361	1372	1383	1383	1376	1374	1386	1395	1374	1367	1369	1384	1394	1432	1506	1595	0	0	0	0	0	0	0	0	0	0	0	0	0	0	0	0	0	0	0	0	0	0	0	0	0	0	0	0	0	0	0	0	0	0	0	0	0	0	0	0	0	0	0	0	0	0	0	0	0	0	0	0	0	0	0	0	0	0	0	0	0	0	0	0	0	0	0	0	0	0	0	0	0	0	0	0	0	0	0	0	0	0	0	0	0	0	0	0	0	0	0	1371	1353	1369	1375	1367	1353	1360	1371	1378	1378	1368	1358	1363	1366	1370	1348	1349	1345	1347	1351	1356	1347	1339	1340	1335	1337	1345	1350	1354	1354	1356	1359	1366	1369	1369	1365	1360	1361	1365	1365	1361	1351	1349	1338	1326	1313	1327	1339	1353	1362	1380	0	0	0	0	0	0	0	0	0	0	0	0	0	0	0	0	0	0	0	0	0	0	0	0	0	0	0	0	0	0	0	0	0	0	0	0	0	0	0	0	0	0	0	0	0	0	0	0	0	0	0	0	0	0	0	0	0	0	0	0	0	0	0	0	0	0	0	0	0	0	0	0	0	0	0	0	0	0	0	0	0	0	0	0	0	0	0	0	0	0	0	0	0	0	0	0	0	0	0	0	0	0	0	0	0	0	0	0	0	0	0	0	0	0	0	0	0	0	0	0	0	0	0	0	0	0	0	0	0	0	0	0	0
0	0	0	0	0	0	0	0	0	0	0	0	0	0	0	0	0	0	0	0	0	0	0	0	0	0	0	0	0	0	0	0	0	0	0	0	0	0	0	0	0	0	0	0	0	0	0	0	0	0	0	0	0	0	0	0	0	0	0	0	0	0	0	0	0	0	0	0	0	0	0	0	0	0	0	0	0	0	0	0	0	0	0	0	0	0	0	0	0	0	0	0	1449	1449	1437	1438	1442	1459	1460	1462	1462	1476	1491	1492	1491	1484	1473	1465	1457	1442	1432	1426	1434	1455	1473	1469	1460	1448	1443	1465	1463	1474	1469	1470	0	0	0	0	0	0	0	0	0	0	0	0	0	0	0	0	0	0	0	0	0	0	0	0	0	0	0	0	0	0	0	0	0	0	0	0	0	0	0	0	0	0	0	0	0	0	0	0	0	0	0	0	1397	1400	1400	1402	1401	1406	1393	1379	1351	1343	1357	1377	1401	1414	1411	1416	1420	1413	1404	1399	1401	1409	1411	1404	1392	1392	1409	1408	1403	1380	1373	1375	1368	1356	1358	1362	1373	1375	1375	1393	1398	1391	1385	1391	1429	1444	1417	1396	1377	0	0	0	0	0	0	0	0	0	0	0	0	0	0	0	0	0	0	0	0	0	0	0	0	0	0	0	0	0	0	0	0	0	0	0	0	0	0	0	0	0	0	0	0	0	0	0	0	0	0	0	0	0	0	0	0	0	0	0	0	0	0	0	0	0	0	0	0	0	0	0	0	0	0	0	0	0	0	0	0	0	0	0	0	0	0	1405	1386	1364	1368	1374	1379	1365	1365	1377	1371	1369	1372	1371	1374	1380	1381	1380	1372	1364	1354	1364	1366	1372	1370	1377	1382	1383	1383	1376	1371	1364	1363	1365	1378	1387	1388	1380	1369	1371	1382	1387	1395	1395	1396	1396	1387	1376	1363	1379	1390	1396	1434	1518	1586	0	0	0	0	0	0	0	0	0	0	0	0	0	0	0	0	0	0	0	0	0	0	0	0	0	0	0	0	0	0	0	0	0	0	0	0	0	0	0	0	0	0	0	0	0	0	0	0	0	0	0	0	0	0	0	0	0	0	0	0	0	0	0	0	0	0	0	0	0	0	0	0	0	0	0	0	0	0	0	0	0	0	0	0	0	0	0	0	0	0	0	1366	1347	1344	1354	1347	1343	1349	1358	1364	1364	1361	1366	1372	1373	1368	1353	1344	1346	1348	1345	1347	1344	1341	1338	1340	1341	1344	1345	1341	1354	1354	1356	1362	1367	1368	1363	1367	1365	1369	1364	1358	1337	1331	1328	1321	1314	1322	1326	1338	1358	1383	1406	0	0	0	0	0	0	0	0	0	0	0	0	0	0	0	0	0	0	0	0	0	0	0	0	0	0	0	0	0	0	0	0	0	0	0	0	0	0	0	0	0	0	0	0	0	0	0	0	0	0	0	0	0	0	0	0	0	0	0	0	0	0	0	0	0	0	0	0	0	0	0	0	0	0	0	0	0	0	0	0	0	0	0	0	0	0	0	0	0	0	0	0	0	0	0	0	0	0	0	0	0	0	0	0	0	0	0	0	0	0	0	0	0	0	0	0	0	0	0	0	0	0	0	0	0	0	0	0	0	0	0	0
0	0	0	0	0	0	0	0	0	0	0	0	0	0	0	0	0	0	0	0	0	0	0	0	0	0	0	0	0	0	0	0	0	0	0	0	0	0	0	0	0	0	0	0	0	0	0	0	0	0	0	0	0	0	0	0	0	0	0	0	0	0	0	0	0	0	0	0	0	0	0	0	0	0	0	0	0	0	0	0	0	0	0	0	0	0	0	0	0	0	0	0	1439	1437	1415	1427	1441	1457	1472	1473	1476	1483	1493	1496	1485	1471	1455	1453	1448	1440	1437	1437	1443	1456	1470	1469	1454	1447	1458	1487	1479	1475	1466	1469	0	0	0	0	0	0	0	0	0	0	0	0	0	0	0	0	0	0	0	0	0	0	0	0	0	0	0	0	0	0	0	0	0	0	0	0	0	0	0	0	0	0	0	0	0	0	0	0	0	0	0	0	1402	1386	1378	1383	1392	1406	1406	1384	1365	1342	1358	1379	1395	1412	1411	1411	1413	1415	1409	1402	1403	1401	1401	1402	1395	1398	1405	1405	1400	1383	1378	1372	1365	1354	1352	1355	1369	1375	1377	1403	1404	1392	1382	1404	1427	1455	1429	1390	0	0	0	0	0	0	0	0	0	0	0	0	0	0	0	0	0	0	0	0	0	0	0	0	0	0	0	0	0	0	0	0	0	0	0	0	0	0	0	0	0	0	0	0	0	0	0	0	0	0	0	0	0	0	0	0	0	0	0	0	0	0	0	0	0	0	0	0	0	0	0	0	0	0	0	0	0	0	0	0	0	0	0	0	0	0	0	1407	1377	1367	1369	1372	1371	1361	1373	1382	1375	1369	1364	1371	1374	1378	1381	1383	1374	1361	1355	1354	1360	1367	1375	1375	1370	1373	1375	1375	1369	1366	1358	1360	1381	1389	1392	1382	1379	1374	1379	1391	1401	1404	1403	1390	1381	1365	1361	1377	1378	1386	1432	1520	1571	0	0	0	0	0	0	0	0	0	0	0	0	0	0	0	0	0	0	0	0	0	0	0	0	0	0	0	0	0	0	0	0	0	0	0	0	0	0	0	0	0	0	0	0	0	0	0	0	0	0	0	0	0	0	0	0	0	0	0	0	0	0	0	0	0	0	0	0	0	0	0	0	0	0	0	0	0	0	0	0	0	0	0	0	0	0	0	0	0	0	0	1363	1332	1328	1345	1336	1334	1338	1345	1349	1351	1350	1364	1376	1376	1368	1349	1347	1348	1354	1358	1354	1349	1345	1343	1344	1340	1333	1332	1339	1354	1358	1360	1361	1369	1369	1368	1359	1353	1356	1354	1347	1339	1335	1335	1327	1323	1332	1330	1329	1367	1389	0	0	0	0	0	0	0	0	0	0	0	0	0	0	0	0	0	0	0	0	0	0	0	0	0	0	0	0	0	0	0	0	0	0	0	0	0	0	0	0	0	0	0	0	0	0	0	0	0	0	0	0	0	0	0	0	0	0	0	0	0	0	0	0	0	0	0	0	0	0	0	0	0	0	0	0	0	0	0	0	0	0	0	0	0	0	0	0	0	0	0	0	0	0	0	0	0	0	0	0	0	0	0	0	0	0	0	0	0	0	0	0	0	0	0	0	0	0	0	0	0	0	0	0	0	0	0	0	0	0	0	0	0
0	0	0	0	0	0	0	0	0	0	0	0	0	0	0	0	0	0	0	0	0	0	0	0	0	0	0	0	0	0	0	0	0	0	0	0	0	0	0	0	0	0	0	0	0	0	0	0	0	0	0	0	0	0	0	0	0	0	0	0	0	0	0	0	0	0	0	0	0	0	0	0	0	0	0	0	0	0	0	0	0	0	0	0	0	0	0	0	0	0	0	0	1479	1467	1435	1424	1440	1461	1473	1472	1476	1487	1494	1493	1483	1464	1448	1445	1448	1447	1449	1448	1448	1449	1459	1458	1457	1459	1477	1502	1489	1475	1460	1478	0	0	0	0	0	0	0	0	0	0	0	0	0	0	0	0	0	0	0	0	0	0	0	0	0	0	0	0	0	0	0	0	0	0	0	0	0	0	0	0	0	0	0	0	0	0	0	0	0	0	0	0	1394	1358	1366	1375	1395	1407	1409	1405	1379	1370	1369	1363	1364	1373	1383	1391	1409	1410	1417	1409	1404	1399	1399	1403	1405	1407	1409	1403	1399	1386	1380	1377	1369	1360	1359	1359	1365	1369	1376	1404	1400	1385	1378	1392	1412	1446	1442	1407	0	0	0	0	0	0	0	0	0	0	0	0	0	0	0	0	0	0	0	0	0	0	0	0	0	0	0	0	0	0	0	0	0	0	0	0	0	0	0	0	0	0	0	0	0	0	0	0	0	0	0	0	0	0	0	0	0	0	0	0	0	0	0	0	0	0	0	0	0	0	0	0	0	0	0	0	0	0	0	0	0	0	0	0	0	0	0	1428	1382	1374	1378	1380	1371	1368	1378	1382	1384	1375	1366	1359	1375	1380	1382	1380	1372	1364	1351	1352	1357	1370	1379	1378	1370	1367	1369	1376	1369	1366	1374	1376	1379	1391	1390	1383	1371	1367	1371	1383	1399	1406	1403	1393	1381	1368	1364	1374	1361	1361	1412	1503	1572	0	0	0	0	0	0	0	0	0	0	0	0	0	0	0	0	0	0	0	0	0	0	0	0	0	0	0	0	0	0	0	0	0	0	0	0	0	0	0	0	0	0	0	0	0	0	0	0	0	0	0	0	0	0	0	0	0	0	0	0	0	0	0	0	0	0	0	0	0	0	0	0	0	0	0	0	0	0	0	0	0	0	0	0	0	0	0	0	0	0	0	1394	1317	1323	1326	1330	1331	1335	1337	1334	1334	1342	1361	1368	1368	1362	1351	1347	1353	1360	1363	1361	1356	1350	1343	1339	1325	1325	1330	1338	1357	1364	1367	1370	1369	1370	1365	1355	1350	1351	1349	1348	1342	1342	1342	1333	1334	1341	1332	1320	1365	1422	0	0	0	0	0	0	0	0	0	0	0	0	0	0	0	0	0	0	0	0	0	0	0	0	0	0	0	0	0	0	0	0	0	0	0	0	0	0	0	0	0	0	0	0	0	0	0	0	0	0	0	0	0	0	0	0	0	0	0	0	0	0	0	0	0	0	0	0	0	0	0	0	0	0	0	0	0	0	0	0	0	0	0	0	0	0	0	0	0	0	0	0	0	0	0	0	0	0	0	0	0	0	0	0	0	0	0	0	0	0	0	0	0	0	0	0	0	0	0	0	0	0	0	0	0	0	0	0	0	0	0	0	0
0	0	0	0	0	0	0	0	0	0	0	0	0	0	0	0	0	0	0	0	0	0	0	0	0	0	0	0	0	0	0	0	0	0	0	0	0	0	0	0	0	0	0	0	0	0	0	0	0	0	0	0	0	0	0	0	0	0	0	0	0	0	0	0	0	0	0	0	0	0	0	0	0	0	0	0	0	0	0	0	0	0	0	0	0	0	0	0	0	0	0	0	1473	1501	1461	1441	1445	1457	1470	1474	1481	1488	1492	1485	1482	1469	1450	1441	1458	1464	1463	1457	1450	1445	1450	1454	1456	1461	1469	1501	1482	1463	1453	1475	0	0	0	0	0	0	0	0	0	0	0	0	0	0	0	0	0	0	0	0	0	0	0	0	0	0	0	0	0	0	0	0	0	0	0	0	0	0	0	0	0	0	0	0	0	0	0	0	0	0	0	0	1381	1351	1357	1371	1387	1405	1409	1408	1396	1381	1370	1361	1363	1365	1374	1384	1396	1408	1417	1412	1404	1403	1410	1417	1425	1423	1410	1400	1396	1389	1386	1379	1376	1372	1368	1365	1362	1366	1370	1387	1398	1391	1383	1376	1395	1423	1449	1418	1400	0	0	0	0	0	0	0	0	0	0	0	0	0	0	0	0	0	0	0	0	0	0	0	0	0	0	0	0	0	0	0	0	0	0	0	0	0	0	0	0	0	0	0	0	0	0	0	0	0	0	0	0	0	0	0	0	0	0	0	0	0	0	0	0	0	0	0	0	0	0	0	0	0	0	0	0	0	0	0	0	0	0	0	0	0	0	1428	1387	1385	1385	1384	1374	1367	1377	1386	1395	1386	1373	1363	1357	1366	1374	1374	1375	1367	1361	1364	1374	1386	1400	1404	1385	1375	1373	1374	1369	1365	1376	1385	1386	1389	1392	1389	1376	1366	1369	1377	1392	1403	1406	1399	1388	1370	1372	1372	1359	1346	1403	1499	1570	0	0	0	0	0	0	0	0	0	0	0	0	0	0	0	0	0	0	0	0	0	0	0	0	0	0	0	0	0	0	0	0	0	0	0	0	0	0	0	0	0	0	0	0	0	0	0	0	0	0	0	0	0	0	0	0	0	0	0	0	0	0	0	0	0	0	0	0	0	0	0	0	0	0	0	0	0	0	0	0	0	0	0	0	0	0	0	0	0	0	0	0	1361	1329	1336	1337	1332	1334	1337	1334	1331	1329	1351	1360	1364	1359	1353	1351	1355	1361	1368	1364	1359	1358	1350	1337	1331	1335	1346	1351	1360	1360	1358	1362	1370	1374	1370	1361	1353	1356	1355	1354	1349	1354	1350	1340	1335	1335	1317	1312	1354	1429	0	0	0	0	0	0	0	0	0	0	0	0	0	0	0	0	0	0	0	0	0	0	0	0	0	0	0	0	0	0	0	0	0	0	0	0	0	0	0	0	0	0	0	0	0	0	0	0	0	0	0	0	0	0	0	0	0	0	0	0	0	0	0	0	0	0	0	0	0	0	0	0	0	0	0	0	0	0	0	0	0	0	0	0	0	0	0	0	0	0	0	0	0	0	0	0	0	0	0	0	0	0	0	0	0	0	0	0	0	0	0	0	0	0	0	0	0	0	0	0	0	0	0	0	0	0	0	0	0	0	0	0	0
0	0	0	0	0	0	0	0	0	0	0	0	0	0	0	0	0	0	0	0	0	0	0	0	0	0	0	0	0	0	0	0	0	0	0	0	0	0	0	0	0	0	0	0	0	0	0	0	0	0	0	0	0	0	0	0	0	0	0	0	0	0	0	0	0	0	0	0	0	0	0	0	0	0	0	0	0	0	0	0	0	0	0	0	0	0	0	0	0	0	0	0	1441	1474	1456	1442	1445	1450	1459	1472	1487	1497	1489	1480	1480	1467	1449	1451	1464	1470	1466	1456	1451	1447	1445	1446	1448	1451	1455	1486	1485	1468	1454	1461	1476	0	0	0	0	0	0	0	0	0	0	0	0	0	0	0	0	0	0	0	0	0	0	0	0	0	0	0	0	0	0	0	0	0	0	0	0	0	0	0	0	0	0	0	0	0	0	0	0	0	0	0	1384	1365	1361	1377	1393	1392	1391	1393	1388	1382	1378	1376	1379	1378	1373	1382	1396	1410	1412	1406	1405	1406	1415	1423	1422	1410	1404	1402	1405	1395	1385	1382	1387	1381	1375	1373	1366	1369	1373	1382	1394	1394	1385	1380	1396	1418	1463	1424	1400	0	0	0	0	0	0	0	0	0	0	0	0	0	0	0	0	0	0	0	0	0	0	0	0	0	0	0	0	0	0	0	0	0	0	0	0	0	0	0	0	0	0	0	0	0	0	0	0	0	0	0	0	0	0	0	0	0	0	0	0	0	0	0	0	0	0	0	0	0	0	0	0	0	0	0	0	0	0	0	0	0	0	0	0	0	0	1413	1399	1396	1389	1385	1379	1375	1376	1390	1398	1398	1391	1376	1347	1358	1376	1375	1376	1366	1361	1364	1372	1383	1402	1403	1388	1377	1368	1377	1363	1364	1380	1383	1380	1379	1386	1383	1376	1374	1375	1380	1390	1399	1403	1409	1398	1376	1381	1375	1366	1362	1398	1508	0	0	0	0	0	0	0	0	0	0	0	0	0	0	0	0	0	0	0	0	0	0	0	0	0	0	0	0	0	0	0	0	0	0	0	0	0	0	0	0	0	0	0	0	0	0	0	0	0	0	0	0	0	0	0	0	0	0	0	0	0	0	0	0	0	0	0	0	0	0	0	0	0	0	0	0	0	0	0	0	0	0	0	0	0	0	0	0	0	0	0	0	0	1393	1363	1352	1344	1337	1336	1336	1335	1334	1325	1341	1354	1356	1360	1361	1357	1356	1359	1366	1368	1366	1363	1352	1342	1336	1340	1347	1354	1356	1348	1352	1357	1365	1373	1368	1362	1358	1358	1358	1370	1376	1365	1353	1348	1329	1323	1306	1319	1347	1406	0	0	0	0	0	0	0	0	0	0	0	0	0	0	0	0	0	0	0	0	0	0	0	0	0	0	0	0	0	0	0	0	0	0	0	0	0	0	0	0	0	0	0	0	0	0	0	0	0	0	0	0	0	0	0	0	0	0	0	0	0	0	0	0	0	0	0	0	0	0	0	0	0	0	0	0	0	0	0	0	0	0	0	0	0	0	0	0	0	0	0	0	0	0	0	0	0	0	0	0	0	0	0	0	0	0	0	0	0	0	0	0	0	0	0	0	0	0	0	0	0	0	0	0	0	0	0	0	0	0	0	0	0
0	0	0	0	0	0	0	0	0	0	0	0	0	0	0	0	0	0	0	0	0	0	0	0	0	0	0	0	0	0	0	0	0	0	0	0	0	0	0	0	0	0	0	0	0	0	0	0	0	0	0	0	0	0	0	0	0	0	0	0	0	0	0	0	0	0	0	0	0	0	0	0	0	0	0	0	0	0	0	0	0	0	0	0	0	0	0	0	0	0	0	0	1413	1449	1440	1443	1441	1443	1450	1474	1496	1507	1492	1486	1482	1467	1448	1457	1453	1466	1468	1459	1447	1444	1448	1448	1443	1439	1439	1469	1489	1478	1468	1464	1467	1477	0	0	0	0	0	0	0	0	0	0	0	0	0	0	0	0	0	0	0	0	0	0	0	0	0	0	0	0	0	0	0	0	0	0	0	0	0	0	0	0	0	0	0	0	0	0	0	0	0	0	1363	1379	1388	1392	1394	1391	1372	1377	1376	1389	1391	1390	1387	1385	1382	1393	1411	1416	1412	1401	1400	1416	1423	1422	1405	1391	1391	1392	1399	1400	1377	1374	1380	1393	1380	1373	1380	1381	1381	1386	1389	1392	1390	1398	1415	1443	1472	1430	0	0	0	0	0	0	0	0	0	0	0	0	0	0	0	0	0	0	0	0	0	0	0	0	0	0	0	0	0	0	0	0	0	0	0	0	0	0	0	0	0	0	0	0	0	0	0	0	0	0	0	0	0	0	0	0	0	0	0	0	0	0	0	0	0	0	0	0	0	0	0	0	0	0	0	0	0	0	0	0	0	0	0	0	0	0	0	1400	1401	1401	1390	1385	1380	1377	1376	1386	1395	1407	1407	1386	1370	1364	1373	1379	1374	1366	1364	1356	1360	1366	1383	1399	1397	1379	1369	1378	1382	1387	1393	1404	1385	1381	1383	1383	1379	1373	1379	1379	1390	1398	1401	1408	1399	1380	1385	1387	1388	1384	1415	1515	0	0	0	0	0	0	0	0	0	0	0	0	0	0	0	0	0	0	0	0	0	0	0	0	0	0	0	0	0	0	0	0	0	0	0	0	0	0	0	0	0	0	0	0	0	0	0	0	0	0	0	0	0	0	0	0	0	0	0	0	0	0	0	0	0	0	0	0	0	0	0	0	0	0	0	0	0	0	0	0	0	0	0	0	0	0	0	0	0	0	0	0	1469	1397	1381	1377	1367	1356	1340	1338	1336	1339	1343	1345	1364	1368	1368	1375	1366	1360	1364	1371	1370	1367	1360	1355	1342	1339	1342	1347	1352	1356	1346	1347	1355	1363	1363	1360	1356	1354	1364	1373	1376	1363	1360	1357	1354	1331	1313	1301	1318	1337	1397	0	0	0	0	0	0	0	0	0	0	0	0	0	0	0	0	0	0	0	0	0	0	0	0	0	0	0	0	0	0	0	0	0	0	0	0	0	0	0	0	0	0	0	0	0	0	0	0	0	0	0	0	0	0	0	0	0	0	0	0	0	0	0	0	0	0	0	0	0	0	0	0	0	0	0	0	0	0	0	0	0	0	0	0	0	0	0	0	0	0	0	0	0	0	0	0	0	0	0	0	0	0	0	0	0	0	0	0	0	0	0	0	0	0	0	0	0	0	0	0	0	0	0	0	0	0	0	0	0	0	0	0	0
0	0	0	0	0	0	0	0	0	0	0	0	0	0	0	0	0	0	0	0	0	0	0	0	0	0	0	0	0	0	0	0	0	0	0	0	0	0	0	0	0	0	0	0	0	0	0	0	0	0	0	0	0	0	0	0	0	0	0	0	0	0	0	0	0	0	0	0	0	0	0	0	0	0	0	0	0	0	0	0	0	0	0	0	0	0	0	0	0	0	0	0	0	1451	1445	1451	1446	1451	1450	1473	1495	1507	1497	1488	1479	1464	1448	1452	1449	1462	1462	1453	1444	1441	1448	1444	1437	1434	1432	1469	1494	1492	1474	1462	1460	1476	0	0	0	0	0	0	0	0	0	0	0	0	0	0	0	0	0	0	0	0	0	0	0	0	0	0	0	0	0	0	0	0	0	0	0	0	0	0	0	0	0	0	0	0	0	0	0	0	0	0	1358	1385	1408	1411	1399	1387	1371	1365	1375	1384	1401	1397	1395	1382	1388	1420	1429	1415	1411	1399	1406	1429	1434	1424	1401	1384	1373	1372	1378	1380	1366	1367	1373	1381	1374	1380	1384	1387	1384	1379	1389	1397	1409	1422	1436	1463	1457	1441	0	0	0	0	0	0	0	0	0	0	0	0	0	0	0	0	0	0	0	0	0	0	0	0	0	0	0	0	0	0	0	0	0	0	0	0	0	0	0	0	0	0	0	0	0	0	0	0	0	0	0	0	0	0	0	0	0	0	0	0	0	0	0	0	0	0	0	0	0	0	0	0	0	0	0	0	0	0	0	0	0	0	0	0	0	0	0	1450	1406	1402	1397	1385	1383	1380	1375	1377	1392	1406	1404	1391	1380	1389	1396	1398	1385	1369	1365	1357	1360	1365	1381	1383	1390	1388	1384	1382	1389	1390	1376	1367	1375	1390	1397	1394	1384	1376	1380	1385	1391	1398	1399	1396	1397	1391	1388	1388	1398	1410	1429	1508	0	0	0	0	0	0	0	0	0	0	0	0	0	0	0	0	0	0	0	0	0	0	0	0	0	0	0	0	0	0	0	0	0	0	0	0	0	0	0	0	0	0	0	0	0	0	0	0	0	0	0	0	0	0	0	0	0	0	0	0	0	0	0	0	0	0	0	0	0	0	0	0	0	0	0	0	0	0	0	0	0	0	0	0	0	0	0	0	0	0	0	0	1443	1391	1391	1396	1387	1368	1351	1357	1362	1366	1366	1363	1367	1367	1366	1373	1368	1375	1386	1386	1368	1358	1349	1347	1341	1343	1343	1344	1354	1359	1362	1362	1359	1357	1357	1353	1351	1354	1356	1370	1372	1361	1347	1349	1354	1333	1320	1307	1325	1350	1410	0	0	0	0	0	0	0	0	0	0	0	0	0	0	0	0	0	0	0	0	0	0	0	0	0	0	0	0	0	0	0	0	0	0	0	0	0	0	0	0	0	0	0	0	0	0	0	0	0	0	0	0	0	0	0	0	0	0	0	0	0	0	0	0	0	0	0	0	0	0	0	0	0	0	0	0	0	0	0	0	0	0	0	0	0	0	0	0	0	0	0	0	0	0	0	0	0	0	0	0	0	0	0	0	0	0	0	0	0	0	0	0	0	0	0	0	0	0	0	0	0	0	0	0	0	0	0	0	0	0	0	0	0
0	0	0	0	0	0	0	0	0	0	0	0	0	0	0	0	0	0	0	0	0	0	0	0	0	0	0	0	0	0	0	0	0	0	0	0	0	0	0	0	0	0	0	0	0	0	0	0	0	0	0	0	0	0	0	0	0	0	0	0	0	0	0	0	0	0	0	0	0	0	0	0	0	0	0	0	0	0	0	0	0	0	0	0	0	0	0	0	0	0	0	0	0	1458	1450	1455	1452	1455	1459	1471	1488	1496	1494	1496	1483	1459	1447	1440	1439	1454	1456	1444	1436	1435	1436	1442	1437	1434	1437	1466	1499	1483	1466	1456	1473	0	0	0	0	0	0	0	0	0	0	0	0	0	0	0	0	0	0	0	0	0	0	0	0	0	0	0	0	0	0	0	0	0	0	0	0	0	0	0	0	0	0	0	0	0	0	0	0	0	0	0	1370	1391	1414	1419	1401	1383	1364	1357	1367	1387	1400	1408	1399	1389	1392	1424	1422	1414	1409	1406	1418	1439	1441	1425	1410	1387	1373	1370	1372	1377	1366	1369	1372	1379	1374	1382	1389	1389	1395	1402	1409	1413	1427	1431	1438	1449	1440	1425	0	0	0	0	0	0	0	0	0	0	0	0	0	0	0	0	0	0	0	0	0	0	0	0	0	0	0	0	0	0	0	0	0	0	0	0	0	0	0	0	0	0	0	0	0	0	0	0	0	0	0	0	0	0	0	0	0	0	0	0	0	0	0	0	0	0	0	0	0	0	0	0	0	0	0	0	0	0	0	0	0	0	0	0	0	0	0	1458	1402	1404	1393	1383	1378	1379	1378	1373	1383	1387	1390	1383	1372	1376	1380	1383	1395	1389	1376	1369	1363	1372	1373	1377	1383	1383	1383	1384	1389	1388	1376	1370	1372	1387	1404	1403	1395	1388	1390	1392	1394	1397	1390	1384	1389	1390	1386	1379	1389	1407	1434	1506	0	0	0	0	0	0	0	0	0	0	0	0	0	0	0	0	0	0	0	0	0	0	0	0	0	0	0	0	0	0	0	0	0	0	0	0	0	0	0	0	0	0	0	0	0	0	0	0	0	0	0	0	0	0	0	0	0	0	0	0	0	0	0	0	0	0	0	0	0	0	0	0	0	0	0	0	0	0	0	0	0	0	0	0	0	0	0	0	0	0	0	0	1436	1387	1391	1387	1366	1358	1357	1361	1366	1362	1365	1362	1366	1369	1370	1366	1371	1384	1386	1383	1363	1344	1334	1336	1336	1343	1351	1359	1354	1359	1360	1364	1361	1355	1349	1347	1351	1354	1358	1364	1365	1355	1345	1343	1344	1337	1332	1330	1343	1376	1420	0	0	0	0	0	0	0	0	0	0	0	0	0	0	0	0	0	0	0	0	0	0	0	0	0	0	0	0	0	0	0	0	0	0	0	0	0	0	0	0	0	0	0	0	0	0	0	0	0	0	0	0	0	0	0	0	0	0	0	0	0	0	0	0	0	0	0	0	0	0	0	0	0	0	0	0	0	0	0	0	0	0	0	0	0	0	0	0	0	0	0	0	0	0	0	0	0	0	0	0	0	0	0	0	0	0	0	0	0	0	0	0	0	0	0	0	0	0	0	0	0	0	0	0	0	0	0	0	0	0	0	0	0
0	0	0	0	0	0	0	0	0	0	0	0	0	0	0	0	0	0	0	0	0	0	0	0	0	0	0	0	0	0	0	0	0	0	0	0	0	0	0	0	0	0	0	0	0	0	0	0	0	0	0	0	0	0	0	0	0	0	0	0	0	0	0	0	0	0	0	0	0	0	0	0	0	0	0	0	0	0	0	0	0	0	0	0	0	0	0	0	0	0	0	0	0	1453	1458	1457	1460	1460	1462	1479	1488	1492	1496	1494	1482	1463	1449	1426	1433	1434	1457	1457	1440	1431	1434	1439	1443	1442	1442	1463	1487	1467	1457	1458	0	0	0	0	0	0	0	0	0	0	0	0	0	0	0	0	0	0	0	0	0	0	0	0	0	0	0	0	0	0	0	0	0	0	0	0	0	0	0	0	0	0	0	0	0	0	0	0	0	0	0	0	1401	1391	1415	1421	1411	1388	1371	1366	1374	1385	1397	1407	1405	1401	1398	1416	1409	1406	1408	1416	1427	1436	1435	1432	1426	1415	1401	1390	1385	1403	1381	1373	1372	1374	1375	1381	1391	1395	1397	1407	1419	1432	1439	1434	1413	1424	1410	1416	0	0	0	0	0	0	0	0	0	0	0	0	0	0	0	0	0	0	0	0	0	0	0	0	0	0	0	0	0	0	0	0	0	0	0	0	0	0	0	0	0	0	0	0	0	0	0	0	0	0	0	0	0	0	0	0	0	0	0	0	0	0	0	0	0	0	0	0	0	0	0	0	0	0	0	0	0	0	0	0	0	0	0	0	0	0	0	1407	1397	1406	1395	1375	1371	1368	1366	1364	1366	1372	1377	1372	1363	1365	1377	1383	1388	1389	1381	1366	1358	1363	1362	1368	1372	1377	1383	1387	1386	1387	1376	1370	1371	1391	1402	1404	1402	1400	1394	1399	1399	1393	1389	1379	1386	1388	1386	1382	1382	1418	1439	1513	1581	0	0	0	0	0	0	0	0	0	0	0	0	0	0	0	0	0	0	0	0	0	0	0	0	0	0	0	0	0	0	0	0	0	0	0	0	0	0	0	0	0	0	0	0	0	0	0	0	0	0	0	0	0	0	0	0	0	0	0	0	0	0	0	0	0	0	0	0	0	0	0	0	0	0	0	0	0	0	0	0	0	0	0	0	0	0	0	0	0	0	0	0	1445	1416	1390	1356	1352	1359	1363	1363	1363	1360	1357	1361	1363	1362	1361	1364	1375	1379	1375	1354	1333	1326	1325	1335	1348	1355	1354	1353	1356	1356	1363	1369	1351	1343	1345	1349	1356	1360	1360	1359	1350	1342	1344	1344	1348	1355	1353	1361	1370	1396	0	0	0	0	0	0	0	0	0	0	0	0	0	0	0	0	0	0	0	0	0	0	0	0	0	0	0	0	0	0	0	0	0	0	0	0	0	0	0	0	0	0	0	0	0	0	0	0	0	0	0	0	0	0	0	0	0	0	0	0	0	0	0	0	0	0	0	0	0	0	0	0	0	0	0	0	0	0	0	0	0	0	0	0	0	0	0	0	0	0	0	0	0	0	0	0	0	0	0	0	0	0	0	0	0	0	0	0	0	0	0	0	0	0	0	0	0	0	0	0	0	0	0	0	0	0	0	0	0	0	0	0	0
0	0	0	0	0	0	0	0	0	0	0	0	0	0	0	0	0	0	0	0	0	0	0	0	0	0	0	0	0	0	0	0	0	0	0	0	0	0	0	0	0	0	0	0	0	0	0	0	0	0	0	0	0	0	0	0	0	0	0	0	0	0	0	0	0	0	0	0	0	0	0	0	0	0	0	0	0	0	0	0	0	0	0	0	0	0	0	0	0	0	0	0	0	1452	1462	1468	1462	1463	1466	1477	1485	1487	1495	1498	1495	1476	1462	1434	1439	1451	1464	1465	1454	1437	1440	1448	1450	1454	1449	1457	1455	1454	1443	1451	1460	0	0	0	0	0	0	0	0	0	0	0	0	0	0	0	0	0	0	0	0	0	0	0	0	0	0	0	0	0	0	0	0	0	0	0	0	0	0	0	0	0	0	0	0	0	0	0	0	0	0	0	1411	1392	1413	1424	1420	1408	1390	1384	1387	1399	1406	1409	1403	1410	1411	1401	1395	1396	1404	1414	1417	1418	1427	1439	1451	1443	1424	1414	1409	1419	1395	1384	1381	1373	1375	1379	1388	1393	1399	1404	1413	1424	1438	1433	1408	1404	1398	1410	0	0	0	0	0	0	0	0	0	0	0	0	0	0	0	0	0	0	0	0	0	0	0	0	0	0	0	0	0	0	0	0	0	0	0	0	0	0	0	0	0	0	0	0	0	0	0	0	0	0	0	0	0	0	0	0	0	0	0	0	0	0	0	0	0	0	0	0	0	0	0	0	0	0	0	0	0	0	0	0	0	0	0	0	0	0	0	1394	1399	1411	1396	1368	1358	1352	1354	1353	1357	1365	1373	1370	1364	1364	1379	1386	1379	1375	1376	1369	1370	1373	1364	1370	1376	1378	1385	1387	1386	1385	1371	1365	1368	1381	1389	1396	1396	1402	1398	1396	1398	1395	1389	1385	1389	1393	1391	1388	1379	1410	1447	1511	1573	1614	0	0	0	0	0	0	0	0	0	0	0	0	0	0	0	0	0	0	0	0	0	0	0	0	0	0	0	0	0	0	0	0	0	0	0	0	0	0	0	0	0	0	0	0	0	0	0	0	0	0	0	0	0	0	0	0	0	0	0	0	0	0	0	0	0	0	0	0	0	0	0	0	0	0	0	0	0	0	0	0	0	0	0	0	0	0	0	0	0	0	0	1461	1431	1388	1357	1353	1356	1364	1365	1361	1365	1356	1348	1353	1357	1360	1362	1367	1372	1372	1356	1341	1325	1325	1335	1350	1355	1352	1348	1346	1345	1341	1348	1342	1338	1343	1343	1354	1356	1356	1351	1346	1346	1348	1357	1365	1368	1357	1356	1354	1378	1455	0	0	0	0	0	0	0	0	0	0	0	0	0	0	0	0	0	0	0	0	0	0	0	0	0	0	0	0	0	0	0	0	0	0	0	0	0	0	0	0	0	0	0	0	0	0	0	0	0	0	0	0	0	0	0	0	0	0	0	0	0	0	0	0	0	0	0	0	0	0	0	0	0	0	0	0	0	0	0	0	0	0	0	0	0	0	0	0	0	0	0	0	0	0	0	0	0	0	0	0	0	0	0	0	0	0	0	0	0	0	0	0	0	0	0	0	0	0	0	0	0	0	0	0	0	0	0	0	0	0	0	0
0	0	0	0	0	0	0	0	0	0	0	0	0	0	0	0	0	0	0	0	0	0	0	0	0	0	0	0	0	0	0	0	0	0	0	0	0	0	0	0	0	0	0	0	0	0	0	0	0	0	0	0	0	0	0	0	0	0	0	0	0	0	0	0	0	0	0	0	0	0	0	0	0	0	0	0	0	0	0	0	0	0	0	0	0	0	0	0	0	0	0	0	1416	1466	1479	1477	1472	1462	1459	1463	1465	1479	1492	1495	1492	1475	1469	1455	1456	1459	1466	1461	1456	1445	1450	1458	1463	1465	1461	1447	1430	1429	1418	1419	1430	0	0	0	0	0	0	0	0	0	0	0	0	0	0	0	0	0	0	0	0	0	0	0	0	0	0	0	0	0	0	0	0	0	0	0	0	0	0	0	0	0	0	0	0	0	0	0	0	0	0	0	1419	1394	1412	1425	1429	1415	1410	1402	1406	1417	1417	1404	1403	1405	1412	1393	1390	1396	1395	1404	1399	1401	1420	1444	1458	1458	1434	1418	1418	1421	1401	1386	1380	1377	1370	1371	1380	1391	1393	1399	1402	1403	1418	1420	1413	1410	1401	0	0	0	0	0	0	0	0	0	0	0	0	0	0	0	0	0	0	0	0	0	0	0	0	0	0	0	0	0	0	0	0	0	0	0	0	0	0	0	0	0	0	0	0	0	0	0	0	0	0	0	0	0	0	0	0	0	0	0	0	0	0	0	0	0	0	0	0	0	0	0	0	0	0	0	0	0	0	0	0	0	0	0	0	0	0	0	0	1404	1409	1418	1402	1371	1357	1345	1344	1352	1363	1367	1380	1381	1377	1377	1383	1374	1375	1377	1376	1367	1372	1373	1376	1374	1378	1383	1389	1388	1386	1377	1367	1361	1358	1373	1379	1385	1386	1394	1391	1388	1392	1394	1392	1396	1391	1396	1395	1388	1378	1383	1448	1519	1542	1571	1613	0	0	0	0	0	0	0	0	0	0	0	0	0	0	0	0	0	0	0	0	0	0	0	0	0	0	0	0	0	0	0	0	0	0	0	0	0	0	0	0	0	0	0	0	0	0	0	0	0	0	0	0	0	0	0	0	0	0	0	0	0	0	0	0	0	0	0	0	0	0	0	0	0	0	0	0	0	0	0	0	0	0	0	0	0	0	0	0	0	0	1455	1426	1383	1366	1354	1354	1360	1362	1360	1359	1350	1345	1344	1359	1367	1367	1370	1372	1371	1362	1348	1336	1337	1344	1352	1355	1343	1332	1328	1324	1326	1330	1331	1335	1345	1341	1355	1354	1354	1345	1342	1339	1349	1361	1373	1375	1368	1358	1355	1369	1447	0	0	0	0	0	0	0	0	0	0	0	0	0	0	0	0	0	0	0	0	0	0	0	0	0	0	0	0	0	0	0	0	0	0	0	0	0	0	0	0	0	0	0	0	0	0	0	0	0	0	0	0	0	0	0	0	0	0	0	0	0	0	0	0	0	0	0	0	0	0	0	0	0	0	0	0	0	0	0	0	0	0	0	0	0	0	0	0	0	0	0	0	0	0	0	0	0	0	0	0	0	0	0	0	0	0	0	0	0	0	0	0	0	0	0	0	0	0	0	0	0	0	0	0	0	0	0	0	0	0	0	0
0	0	0	0	0	0	0	0	0	0	0	0	0	0	0	0	0	0	0	0	0	0	0	0	0	0	0	0	0	0	0	0	0	0	0	0	0	0	0	0	0	0	0	0	0	0	0	0	0	0	0	0	0	0	0	0	0	0	0	0	0	0	0	0	0	0	0	0	0	0	0	0	0	0	0	0	0	0	0	0	0	0	0	0	0	0	0	0	0	0	0	0	1433	1481	1487	1485	1476	1458	1447	1450	1455	1460	1474	1478	1479	1469	1455	1459	1465	1465	1463	1461	1455	1454	1457	1461	1466	1472	1463	1452	1432	1411	1402	1402	1421	1439	0	0	0	0	0	0	0	0	0	0	0	0	0	0	0	0	0	0	0	0	0	0	0	0	0	0	0	0	0	0	0	0	0	0	0	0	0	0	0	0	0	0	0	0	0	0	0	0	0	0	1446	1409	1414	1426	1416	1414	1408	1413	1417	1424	1424	1411	1402	1408	1405	1391	1388	1390	1384	1383	1388	1395	1424	1442	1445	1440	1420	1406	1412	1412	1390	1389	1383	1380	1375	1373	1379	1386	1381	1391	1392	1378	1383	1405	1417	1409	1404	0	0	0	0	0	0	0	0	0	0	0	0	0	0	0	0	0	0	0	0	0	0	0	0	0	0	0	0	0	0	0	0	0	0	0	0	0	0	0	0	0	0	0	0	0	0	0	0	0	0	0	0	0	0	0	0	0	0	0	0	0	0	0	0	0	0	0	0	0	0	0	0	0	0	0	0	0	0	0	0	0	0	0	0	0	0	0	0	1427	1414	1415	1406	1383	1363	1347	1347	1363	1381	1391	1394	1393	1387	1396	1382	1376	1386	1386	1384	1382	1382	1380	1384	1381	1382	1387	1389	1391	1389	1377	1368	1364	1367	1369	1367	1372	1381	1380	1379	1382	1376	1394	1399	1399	1390	1401	1400	1392	1389	1386	1456	1500	1512	1526	1556	0	0	0	0	0	0	0	0	0	0	0	0	0	0	0	0	0	0	0	0	0	0	0	0	0	0	0	0	0	0	0	0	0	0	0	0	0	0	0	0	0	0	0	0	0	0	0	0	0	0	0	0	0	0	0	0	0	0	0	0	0	0	0	0	0	0	0	0	0	0	0	0	0	0	0	0	0	0	0	0	0	1360	1378	0	0	0	0	0	0	0	1425	1390	1377	1369	1367	1364	1353	1351	1352	1348	1342	1335	1340	1359	1372	1377	1374	1376	1376	1361	1348	1342	1342	1348	1356	1348	1335	1326	1316	1318	1320	1323	1328	1335	1343	1347	1347	1350	1345	1335	1337	1343	1346	1356	1363	1367	1374	1363	1362	1387	1404	1455	0	0	0	0	0	0	0	0	0	0	0	0	0	0	0	0	0	0	0	0	0	0	0	0	0	0	0	0	0	0	0	0	0	0	0	0	0	0	0	0	0	0	0	0	0	0	0	0	0	0	0	0	0	0	0	0	0	0	0	0	0	1446	1417	1410	1423	1447	1455	1456	1439	1437	1446	1462	1476	1464	1449	0	0	1510	1480	1462	1446	1452	1467	1448	1428	1419	1436	1454	1479	1477	1476	1485	1480	1475	1457	1438	1437	1445	1448	1453	1466	1479	1474	1474	1462	1446	1445	1450	1460	1469	1466	1449	1422	1410	1413	1443	1464	1476	1476	1474	1467	1472	1487	1501	0	0	0	0	0	0	0
0	0	0	0	0	0	0	0	0	0	0	0	0	0	0	0	0	0	0	0	0	0	0	0	0	0	0	0	0	0	0	0	0	0	0	0	0	0	0	0	0	0	0	0	0	0	0	0	0	0	0	0	0	0	0	0	0	0	0	0	0	0	0	0	0	0	0	0	0	0	0	0	0	0	0	0	0	0	0	0	0	0	0	0	0	0	0	0	0	0	0	0	0	1498	1496	1485	1467	1449	1451	1455	1451	1453	1458	1454	1456	1452	1446	1465	1470	1468	1464	1456	1455	1452	1458	1460	1467	1474	1483	1475	1444	1405	1392	1405	1433	1466	0	0	0	0	0	0	0	0	0	0	0	0	0	0	0	0	0	0	0	0	0	0	0	0	0	0	0	0	0	0	0	0	0	0	0	0	0	0	0	0	0	0	0	0	0	0	0	0	0	0	1458	1420	1419	1424	1415	1402	1403	1401	1411	1421	1424	1411	1402	1404	1403	1388	1387	1384	1379	1377	1381	1389	1407	1423	1421	1411	1395	1387	1395	1403	1392	1386	1381	1379	1378	1376	1382	1379	1375	1378	1383	1368	1364	1395	1408	1404	1395	0	0	0	0	1395	1385	0	0	0	0	0	0	0	0	0	0	0	0	0	0	0	0	0	0	0	0	0	0	0	0	0	0	0	0	0	0	0	0	0	0	0	0	0	0	0	0	0	0	0	0	0	0	0	0	0	0	0	0	0	0	0	0	0	0	0	0	0	0	0	0	0	0	0	0	0	0	0	0	0	0	0	0	0	0	0	0	0	1495	1452	1429	1419	1412	1394	1364	1358	1366	1386	1402	1408	1410	1397	1392	1394	1388	1387	1383	1385	1380	1389	1392	1386	1382	1380	1386	1393	1397	1396	1388	1377	1371	1369	1378	1381	1374	1372	1376	1376	1374	1376	1383	1392	1397	1394	1394	1403	1399	1391	1388	1393	1452	1466	1485	1483	0	0	0	0	0	0	0	0	0	0	0	0	0	0	0	0	0	0	0	0	0	1502	1467	1466	0	0	0	0	0	0	0	0	0	0	0	0	0	0	0	0	0	0	0	0	0	0	0	0	0	0	0	0	0	0	0	0	1167	1139	1161	0	0	0	0	0	0	0	0	0	0	0	0	0	0	0	0	0	0	1153	1182	1201	1230	1260	1292	1347	1363	1367	1397	0	0	0	0	1401	1369	1360	1363	1365	1360	1343	1335	1334	1339	1337	1339	1342	1361	1368	1368	1368	1374	1378	1363	1347	1341	1344	1348	1353	1349	1338	1329	1329	1330	1329	1329	1329	1336	1339	1343	1344	1347	1341	1331	1326	1330	1328	1350	1360	1367	1372	1371	1382	1411	1413	1423	1445	1472	1496	1518	1527	1516	1453	1463	1492	1508	1500	1489	1477	1477	1483	1505	1510	1506	1486	1462	1453	1446	1453	1452	1466	1473	1478	1471	1458	1447	1447	1442	1438	1429	1438	1445	1442	1440	1452	1483	1521	1529	1502	1484	1472	1468	1473	1467	1460	1479	1477	1467	1449	1440	1431	1439	1449	1467	1481	1479	1465	1454	1442	1446	1453	1460	1459	1454	1444	1446	1461	1469	1477	1474	1457	1460	1471	1475	1457	1441	1430	1426	1421	1432	1431	1445	1474	1492	1497	1495	1483	1482	1482	1475	1456	1447	1446	1461	1476	1480	1486	1474	1474	1465	1461	1441	1442	1449	1467	1478	1477	1457	1431	1410	1420	1443	1461	1468	1468	1463	1457	1457	1449	1474	0	0	0	0	0	0	0
0	0	0	0	0	0	0	0	0	0	0	0	0	0	0	0	0	0	0	0	0	0	0	0	0	0	0	0	0	0	0	0	0	0	0	0	0	0	0	0	0	0	0	0	0	0	0	0	0	0	0	0	0	0	0	0	0	0	0	0	0	0	0	0	0	0	0	0	0	0	0	0	0	0	0	0	0	0	0	0	0	0	0	0	0	0	0	0	0	0	0	0	0	1534	1496	1478	1457	1452	1451	1461	1462	1455	1449	1446	1440	1440	1450	1461	1474	1472	1464	1456	1450	1448	1451	1458	1463	1475	1489	1489	1460	1425	1410	1420	1447	1476	0	0	0	0	0	0	0	0	0	0	0	0	0	0	0	0	0	0	0	0	0	0	0	0	0	0	0	0	0	0	0	0	0	0	0	0	0	0	0	0	0	0	0	0	0	0	0	0	0	0	1449	1436	1426	1422	1415	1406	1402	1396	1403	1417	1417	1408	1400	1403	1397	1382	1380	1386	1388	1385	1387	1390	1392	1397	1395	1386	1374	1379	1396	1403	1393	1372	1370	1373	1375	1376	1376	1371	1368	1377	1373	1369	1381	1379	1391	1396	1393	1427	0	1431	1403	1365	1323	1294	1261	1227	1192	1183	1171	0	0	0	0	0	0	0	0	0	0	0	1204	1192	0	0	0	0	0	0	0	0	0	0	0	0	0	1214	1208	1195	1205	1200	0	0	0	0	0	0	0	0	0	1465	1464	1495	0	0	0	0	0	0	0	0	0	0	1465	1458	1471	0	0	0	0	0	0	0	0	0	0	1507	1512	1511	1508	1473	1464	1465	1481	1494	1492	1481	1440	1429	1416	1397	1369	1371	1390	1407	1414	1415	1408	1390	1381	1385	1386	1383	1379	1374	1372	1383	1392	1393	1391	1389	1393	1398	1397	1394	1379	1374	1376	1376	1382	1390	1388	1380	1379	1379	1379	1377	1387	1396	1398	1397	1398	1403	1397	1390	1393	1395	1410	1437	1445	1462	1479	1499	1496	1488	1489	1495	1509	1511	1517	1507	1495	1483	1492	1489	1480	1469	1460	1475	1490	1492	1479	1467	1471	1483	1512	1540	1538	1516	1497	1482	1480	1476	1489	1474	1468	1461	1452	1365	0	0	0	0	1165	0	0	0	0	0	0	0	0	0	0	1146	1134	1112	1101	1105	1107	1114	1106	1090	1073	1072	1078	1087	1072	1068	1068	1073	1079	1095	1128	1159	1086	1103	1107	1111	1129	1150	1167	1178	1210	1323	1338	1344	1358	0	0	0	0	1384	1360	1345	1346	1347	1348	1338	1324	1322	1326	1333	1357	1361	1356	1362	1360	1366	1372	1378	1371	1349	1340	1344	1352	1356	1354	1346	1344	1362	1359	1343	1331	1328	1334	1343	1343	1338	1331	1327	1322	1316	1316	1316	1339	1360	1363	1365	1383	1406	1420	1423	1431	1448	1470	1499	1511	1519	1506	1457	1450	1469	1488	1499	1485	1466	1450	1464	1474	1480	1485	1494	1484	1464	1454	1459	1468	1472	1477	1487	1494	1482	1472	1457	1441	1424	1422	1423	1434	1434	1435	1436	1446	1463	1481	1476	1471	1472	1472	1472	1464	1452	1454	1456	1453	1445	1433	1425	1430	1446	1465	1479	1484	1476	1466	1455	1453	1462	1468	1466	1453	1435	1425	1430	1462	1456	1456	1457	1467	1475	1473	1450	1436	1428	1429	1431	1433	1424	1438	1463	1486	1493	1493	1481	1478	1483	1477	1464	1455	1455	1470	1490	1493	1483	1467	1467	1451	1446	1442	1444	1452	1464	1476	1481	1459	1438	1419	1433	1444	1452	1452	1457	1451	1436	1430	1426	1440	0	0	0	0	0	0	0
0	0	0	0	0	0	0	0	0	0	0	0	0	0	0	0	0	0	0	0	0	0	0	0	0	0	0	0	0	0	0	0	0	0	0	0	0	0	0	0	0	0	0	0	0	0	0	0	0	0	0	0	0	0	0	0	0	0	0	0	0	0	0	0	0	0	0	0	0	0	0	0	0	0	0	0	0	0	0	0	0	0	0	0	0	0	0	0	0	0	0	0	0	1557	1508	1484	1462	1457	1451	1465	1476	1471	1453	1445	1443	1444	1448	1457	1464	1466	1460	1449	1445	1442	1448	1456	1474	1485	1496	1497	1486	1445	1427	1434	1449	1471	1474	0	0	0	0	0	0	0	0	0	0	0	0	0	0	0	0	0	0	0	0	0	0	0	0	0	0	0	0	0	0	0	0	0	0	0	0	0	0	0	0	0	0	0	0	0	0	0	0	1444	1439	1446	1433	1422	1413	1404	1399	1399	1405	1417	1417	1400	1391	1387	1390	1388	1383	1391	1392	1397	1397	1390	1385	1382	1376	1375	1380	1405	1413	1419	1398	1369	1366	1372	1376	1372	1371	1366	1375	1384	1390	1398	1384	1376	1381	1396	1399	1395	1400	1388	1362	1314	1265	1227	1190	1156	1126	1110	1108	1109	0	0	0	0	0	0	0	0	1186	1163	1147	1138	1134	1148	0	0	0	0	0	1128	1128	0	0	0	1158	1138	1119	1108	1107	1118	1134	0	0	1243	1298	1371	1450	1472	1477	1469	1467	1489	1484	1461	1449	1424	1410	1426	1490	1503	1503	1497	1489	1475	1450	1445	1455	1466	1464	1458	1460	1464	1458	1449	1443	1459	1478	1488	1487	1494	1494	1487	1503	1527	1524	1505	1458	1438	1426	1404	1379	1387	1404	1419	1423	1414	1394	1380	1370	1365	1373	1369	1364	1363	1361	1379	1390	1393	1395	1396	1398	1403	1396	1387	1373	1360	1374	1385	1383	1390	1399	1405	1400	1401	1394	1394	1400	1409	1406	1406	1404	1400	1395	1398	1396	1397	1415	1428	1445	1455	1466	1483	1493	1486	1473	1469	1460	1441	1430	1426	1425	1445	1451	1454	1451	1447	1451	1452	1464	1476	1483	1490	1496	1511	1510	1498	1476	1458	1457	1460	1463	1474	1481	1479	1476	1472	1456	1394	0	0	0	1156	1145	0	0	0	0	1118	1106	1103	1100	1112	1113	1117	1098	1082	1072	1072	1074	1070	1066	1060	1054	1057	1061	1071	1060	1053	1051	1048	1044	1020	1020	1019	1031	1049	1060	1076	1085	1103	1117	1114	1101	1103	1140	1266	1300	1335	1374	0	0	1365	1356	1336	1324	1325	1334	1331	1312	1314	1325	1365	1389	1388	1366	1365	1367	1365	1377	1383	1387	1370	1357	1354	1360	1363	1355	1356	1362	1372	1368	1351	1331	1335	1341	1349	1352	1345	1329	1317	1315	1310	1301	1314	1338	1344	1357	1373	1396	1417	1429	1432	1449	1461	1483	1505	1514	1517	1501	1450	1448	1457	1475	1477	1470	1451	1443	1457	1468	1480	1484	1508	1497	1476	1467	1478	1480	1478	1484	1497	1501	1509	1494	1474	1447	1428	1419	1419	1434	1438	1439	1433	1437	1446	1461	1451	1454	1466	1483	1484	1469	1453	1446	1456	1452	1443	1440	1438	1443	1451	1467	1480	1491	1493	1483	1473	1466	1468	1471	1466	1450	1423	1414	1423	1437	1447	1448	1450	1453	1472	1468	1451	1437	1439	1440	1446	1430	1431	1413	1418	1445	1463	1478	1471	1478	1488	1485	1478	1462	1462	1465	1477	1484	1468	1452	1452	1439	1441	1447	1453	1458	1465	1468	1473	1430	1419	1430	1442	1444	1435	1435	1419	1415	1420	1427	1426	1433	0	0	0	0	0	0	0
0	0	0	0	0	0	0	0	0	0	0	0	0	0	0	0	0	0	0	0	0	0	0	0	0	0	0	0	0	0	0	0	0	0	0	0	0	0	0	0	0	0	0	0	0	0	0	0	0	0	0	0	0	0	0	0	0	0	0	0	0	0	0	0	0	0	0	0	0	0	0	0	0	0	0	0	0	0	0	0	0	0	0	0	0	0	0	0	0	0	0	0	0	1547	1504	1499	1473	1459	1455	1465	1473	1480	1468	1455	1454	1454	1450	1454	1457	1457	1453	1450	1454	1455	1465	1469	1481	1488	1487	1481	1470	1475	1458	1446	1443	1445	1448	1440	1432	1430	1444	1455	1446	1446	1456	1466	1473	1483	1496	1506	1502	1488	1481	1477	1470	1451	1435	1428	1431	1419	1401	1393	1406	1424	1449	1464	1472	1470	1464	1457	1458	1453	1455	1490	1503	1507	1499	1495	1500	1514	1516	1510	1492	1474	1449	1443	1437	1429	1418	1402	1391	1383	1384	1396	1410	1425	1413	1397	1381	1375	1382	1391	1405	1416	1427	1421	1411	1405	1399	1386	1387	1410	1438	1444	1436	1429	1410	1396	1405	1404	1397	1371	1365	1372	1385	1407	1416	1398	1385	1375	1389	1399	1404	1416	1380	1342	1299	1264	1203	1158	1130	1101	1068	1056	1059	1064	0	0	0	1087	1097	1136	0	0	1142	1124	1108	1098	1100	1102	1119	1122	1113	1115	1109	1105	1102	1117	0	0	1132	1119	1104	1101	1103	1116	1128	1136	1157	1191	1263	1415	1470	1493	1484	1464	1460	1477	1475	1480	1465	1454	1464	1480	1489	1488	1486	1489	1498	1498	1488	1479	1487	1483	1480	1475	1472	1475	1471	1474	1479	1489	1497	1495	1490	1493	1495	1493	1498	1519	1535	1515	1485	1453	1435	1421	1412	1404	1418	1429	1428	1407	1387	1373	1364	1355	1365	1346	1334	1345	1366	1387	1399	1399	1395	1399	1400	1401	1397	1384	1376	1361	1369	1391	1398	1397	1404	1407	1414	1405	1405	1406	1410	1409	1412	1413	1397	1389	1395	1397	1402	1410	1424	1440	1459	1463	1475	1484	1491	1485	1477	1470	1458	1445	1439	1428	1430	1446	1452	1458	1461	1463	1464	1467	1471	1471	1483	1490	1503	1503	1495	1489	1473	1458	1451	1452	1456	1466	1478	1489	1486	1493	1441	1349	0	0	0	1150	1139	0	0	0	0	1107	1105	1099	1093	1092	1097	1090	1078	1056	1050	1050	1045	1041	1037	1044	1043	1053	1059	1061	1054	1042	1034	1005	999	992	997	991	993	1010	1027	1046	1057	1069	1081	1070	1070	1070	1092	1157	1206	1278	1293	1322	1340	1352	1353	1355	1340	1332	1330	1326	1316	1323	1351	1382	1389	1384	1373	1386	1409	1414	1410	1400	1394	1382	1370	1367	1370	1377	1379	1375	1375	1372	1356	1347	1340	1343	1354	1367	1361	1349	1332	1323	1315	1322	1347	1354	1344	1361	1370	1395	1410	1419	1429	1445	1468	1469	1485	1496	1512	1507	1492	1458	1456	1460	1469	1469	1461	1449	1445	1457	1469	1481	1489	1509	1502	1491	1481	1493	1493	1488	1485	1489	1505	1510	1509	1484	1452	1420	1418	1419	1436	1444	1443	1450	1457	1463	1456	1438	1445	1473	1484	1491	1472	1459	1450	1453	1461	1453	1457	1454	1461	1469	1482	1490	1501	1505	1496	1484	1473	1462	1464	1461	1446	1424	1422	1436	1442	1453	1453	1448	1438	1451	1452	1451	1436	1435	1445	1447	1447	1444	1424	1420	1449	1464	1468	1464	1473	1475	1486	1482	1471	1466	1465	1465	1466	1457	1440	1440	1439	1442	1456	1461	1472	1473	1452	1442	1417	1409	1429	1443	1442	1428	1428	1422	1424	1428	1435	1434	1435	0	0	0	0	0	0	0
0	0	0	0	0	0	0	0	0	0	0	0	0	0	0	0	0	0	0	0	0	0	0	0	0	0	0	0	0	0	0	0	0	0	0	0	0	0	0	0	0	0	0	0	0	0	0	0	0	0	0	0	0	0	0	0	0	0	0	0	0	0	0	0	0	0	0	0	0	0	0	0	0	0	0	0	0	0	0	0	0	0	0	0	0	0	0	0	0	0	0	0	0	1511	1485	1488	1482	1457	1436	1442	1466	1481	1477	1472	1467	1469	1454	1452	1455	1456	1458	1468	1473	1481	1487	1482	1480	1473	1474	1471	1470	1465	1475	1470	1460	1453	1455	1470	1485	1504	1504	1491	1467	1454	1451	1455	1464	1487	1497	1498	1491	1481	1477	1481	1473	1464	1466	1467	1455	1439	1442	1445	1453	1462	1470	1481	1485	1476	1469	1471	1470	1470	1463	1465	1461	1453	1461	1467	1486	1497	1505	1508	1496	1477	1455	1443	1433	1421	1392	1382	1378	1382	1389	1407	1447	1474	1471	1426	1401	1403	1412	1418	1432	1441	1442	1441	1438	1435	1430	1414	1420	1439	1459	1466	1459	1441	1429	1427	1434	1431	1411	1389	1383	1389	1401	1418	1427	1409	1390	1384	1381	1390	1398	1409	1343	1293	1202	1132	1114	1103	1091	1071	1050	1035	1034	1045	1047	1057	1061	1074	1084	1102	1117	1115	1135	1091	1075	1067	1067	1076	1086	1091	1095	1094	1103	1098	1093	1093	1103	1114	1115	1113	1103	1091	1100	1117	1126	1135	1144	1179	1251	1430	1486	1491	1488	1470	1469	1482	1485	1483	1469	1472	1473	1481	1485	1480	1476	1484	1494	1499	1502	1500	1499	1498	1489	1489	1483	1482	1481	1483	1487	1493	1496	1492	1491	1490	1497	1493	1492	1506	1528	1514	1474	1460	1445	1438	1427	1429	1431	1440	1440	1438	1433	1424	1413	1407	1395	1401	1400	1411	1426	1437	1443	1437	1425	1422	1425	1438	1424	1396	1387	1388	1377	1397	1414	1421	1425	1421	1412	1411	1405	1404	1407	1396	1391	1389	1383	1379	1392	1404	1415	1419	1443	1475	1476	1476	1481	1494	1497	1493	1486	1480	1472	1464	1449	1445	1448	1453	1460	1469	1476	1484	1482	1482	1481	1479	1484	1487	1490	1487	1485	1482	1475	1462	1453	1451	1450	1462	1480	1494	1496	1504	1454	0	0	0	0	0	0	0	0	0	0	1092	1093	1093	1086	1081	1084	1072	1060	1046	1040	1037	1028	1023	1018	1022	1031	1040	1046	1050	1040	1027	1010	1001	991	993	987	985	989	1002	1021	1035	1042	1057	1062	1063	1059	1065	1085	1111	1159	1177	1213	1234	1265	1319	1352	1364	1362	1353	1343	1362	1375	1393	1398	1392	1379	1369	1392	1413	1439	1466	1474	1451	1425	1414	1413	1421	1409	1395	1396	1404	1423	1402	1386	1379	1378	1382	1390	1400	1411	1394	1375	1360	1368	1402	1439	1450	1408	1398	1401	1419	1432	1444	1448	1471	1478	1467	1458	1483	1499	1498	1488	1466	1465	1474	1481	1475	1468	1458	1455	1459	1472	1479	1488	1494	1501	1487	1493	1510	1510	1502	1493	1492	1491	1497	1496	1472	1439	1429	1422	1426	1440	1453	1460	1472	1479	1485	1473	1441	1444	1459	1485	1493	1482	1461	1453	1454	1462	1467	1475	1480	1487	1482	1483	1483	1489	1487	1484	1467	1459	1452	1451	1456	1445	1429	1425	1441	1454	1452	1454	1449	1429	1422	1439	1447	1446	1448	1451	1455	1456	1455	1447	1456	1468	1482	1473	1474	1463	1468	1474	1478	1478	1472	1464	1461	1452	1444	1441	1441	1442	1444	1458	1464	1471	1470	1451	1424	1409	1412	1427	1445	1439	1434	1434	1430	1441	1444	1448	1445	1447	0	0	0	0	0	0	0
0	0	0	0	0	0	0	0	0	0	0	0	0	0	0	0	0	0	0	0	0	0	0	0	0	0	0	0	0	0	0	0	0	0	0	0	0	0	0	0	0	0	0	0	0	0	0	0	0	0	0	0	0	0	0	0	0	0	0	0	0	0	0	0	0	0	0	0	0	0	0	0	0	0	0	0	0	0	0	0	0	0	0	0	0	0	0	0	0	0	0	0	0	1475	1476	1479	1469	1459	1436	1444	1462	1482	1488	1482	1482	1479	1459	1456	1456	1462	1472	1467	1477	1500	1493	1478	1467	1463	1464	1468	1481	1483	1479	1465	1445	1433	1436	1460	1489	1510	1531	1494	1470	1444	1428	1437	1452	1475	1485	1496	1491	1482	1478	1468	1465	1471	1477	1479	1481	1445	1447	1455	1463	1478	1478	1494	1486	1485	1477	1479	1481	1480	1471	1458	1444	1440	1446	1462	1470	1472	1493	1500	1501	1489	1478	1455	1446	1432	1385	1372	1371	1386	1402	1425	1462	1486	1484	1442	1423	1429	1438	1442	1443	1447	1456	1461	1462	1457	1451	1433	1437	1448	1476	1485	1468	1462	1454	1463	1459	1446	1426	1405	1398	1407	1412	1424	1433	1441	1439	1410	1361	1350	1345	1351	1126	1110	1092	1083	1066	1061	1057	1049	1037	1035	1036	1045	1048	1046	1041	1042	1052	1066	1073	1062	1054	1034	1050	1037	1038	1042	1054	1073	1081	1084	1088	1091	1076	1072	1079	1089	1095	1092	1085	1088	1102	0	0	0	0	1176	1252	1423	1471	1491	1491	1486	1484	1483	1494	1497	1493	1486	1478	1482	1481	1474	1474	1479	1489	1499	1507	1514	1513	1503	1502	1501	1496	1497	1506	1493	1492	1480	1483	1484	1490	1489	1495	1498	1497	1505	1507	1495	1476	1465	1455	1448	1436	1428	1427	1437	1445	1450	1447	1439	1430	1434	1438	1431	1429	1429	1435	1442	1444	1434	1424	1415	1422	1446	1436	1457	1485	1495	1497	1469	1430	1440	1434	1429	1420	1418	1416	1424	1420	1412	1415	1416	1409	1384	1397	1414	1441	1460	1476	1487	1491	1488	1489	1498	1502	1499	1502	1495	1492	1476	1463	1451	1450	1452	1455	1463	1480	1497	1500	1488	1486	1481	1481	1484	1488	1489	1488	1486	1479	1464	1456	1448	1465	1472	1500	1504	1499	1501	1479	0	0	0	0	0	0	0	0	0	0	0	1071	1078	1081	1071	1075	1059	1047	1037	1035	1030	1026	1016	1010	1010	1012	1020	1001	1022	1022	1014	1005	1006	1002	1007	1011	1023	1039	1039	1041	1046	1042	1051	1055	1055	1061	1067	1076	1092	1099	1104	1123	1152	1221	1290	1339	1361	1378	1373	1364	1377	1387	1409	1423	1411	1397	1399	1409	1431	1459	1482	1482	1471	1449	1425	1429	1432	1432	1420	1415	1426	1438	1427	1414	1402	1394	1397	1411	1417	1426	1418	1396	1387	1406	1425	1450	1459	1450	1435	1441	1458	1472	1484	1478	1474	1462	1434	1433	1457	1483	1483	1478	1468	1478	1492	1497	1500	1488	1473	1465	1469	1478	1477	1474	1484	1485	1495	1502	1520	1517	1509	1501	1487	1475	1459	1446	1422	1437	1437	1435	1435	1441	1451	1467	1485	1498	1503	1481	1448	1451	1462	1484	1493	1489	1474	1460	1462	1472	1479	1492	1495	1493	1484	1468	1462	1464	1470	1472	1460	1446	1445	1443	1442	1436	1434	1439	1444	1455	1460	1466	1448	1431	1422	1432	1445	1450	1456	1464	1465	1461	1457	1455	1460	1475	1490	1494	1484	1472	1463	1465	1472	1475	1472	1464	1452	1445	1437	1440	1440	1447	1450	1449	1450	1457	1459	1449	1430	1423	1423	1431	1437	1446	1445	1445	1449	1456	1456	1453	1447	1454	0	0	0	0	0	0	0
0	0	0	0	0	0	0	0	0	0	0	0	0	0	0	0	0	0	0	0	0	0	0	0	0	0	0	0	0	0	0	0	0	0	0	0	0	0	0	0	0	0	0	0	0	0	0	0	0	0	0	0	0	0	0	0	0	0	0	0	0	0	0	0	0	0	0	0	0	0	0	0	0	0	0	0	0	0	0	0	0	0	0	0	0	0	0	0	0	0	0	0	0	1451	1463	1468	1468	1454	1439	1436	1460	1488	1496	1493	1491	1488	1467	1463	1462	1481	1483	1495	1496	1502	1493	1474	1455	1451	1459	1478	1491	1490	1475	1457	1441	1432	1434	1440	1483	1513	1522	1521	1460	1432	1423	1427	1450	1460	1473	1483	1489	1482	1476	1462	1458	1465	1484	1503	1494	1452	1455	1462	1465	1475	1475	1475	1481	1469	1478	1478	1492	1493	1484	1477	1439	1442	1449	1457	1470	1470	1477	1490	1507	1505	1497	1489	1494	1479	1452	1446	1434	1434	1449	1461	1467	1474	1473	1462	1452	1456	1463	1464	1450	1453	1467	1476	1479	1476	1438	1438	1431	1451	1465	1457	1454	1469	1478	1487	1473	1458	1440	1443	1439	1432	1424	1419	1424	1428	1433	1409	1344	1267	1216	1146	1098	1089	1072	1064	1047	1041	1037	1027	1029	1032	1046	1051	1053	1042	1034	1037	1042	1048	1051	1046	1026	999	1004	1006	1019	1026	1043	1059	1073	1074	1076	1071	1064	1048	1054	1066	1061	1060	1063	1074	0	0	0	0	0	0	1277	1426	1464	1488	1497	1496	1490	1486	1486	1487	1486	1482	1481	1481	1477	1473	1474	1473	1480	1492	1504	1511	1507	1495	1490	1497	1502	1507	1505	1496	1487	1484	1488	1496	1497	1499	1486	1471	1470	1476	1487	1478	1470	1468	1473	1470	1456	1447	1448	1456	1485	1474	1449	1439	1446	1460	1475	1484	1480	1476	1464	1459	1461	1458	1463	1475	1486	1494	1504	1494	1489	1491	1491	1497	1515	1498	1483	1480	1487	1491	1491	1491	1488	1483	1476	1463	1447	1441	1444	1457	1479	1483	1485	1488	1486	1486	1492	1503	1511	1513	1508	1493	1491	1484	1467	1458	1452	1453	1447	1461	1483	1498	1502	1491	1486	1477	1477	1483	1484	1491	1489	1493	1485	1469	1451	1465	1486	1496	1509	1503	1495	1498	1496	0	0	0	0	0	0	0	0	0	0	0	0	0	0	0	0	0	0	1032	1032	1029	1023	1011	1006	997	991	983	976	991	995	991	994	1000	1003	1015	1024	1040	1051	1061	0	0	0	0	0	0	0	0	0	0	1074	1070	1072	1093	1117	1148	1202	1318	1342	1375	1398	1396	1414	1433	1444	1430	1422	1452	1467	1470	1494	1502	1508	1494	1465	1446	1443	1458	1469	1473	1467	1473	1480	1488	1485	1470	1454	1458	1457	1460	1464	1461	1452	1447	1452	1474	1487	1505	1505	1498	1496	1486	1479	1475	1469	1464	1449	1438	1438	1456	1482	1486	1467	1462	1480	1498	1509	1511	1500	1486	1479	1480	1483	1478	1476	1472	1469	1488	1511	1518	1516	1507	1499	1485	1461	1442	1421	1420	1435	1450	1450	1442	1441	1446	1459	1481	1500	1498	1468	1447	1454	1467	1483	1491	1488	1480	1470	1470	1474	1481	1491	1496	1484	1468	1447	1443	1452	1459	1465	1461	1454	1446	1445	1447	1453	1454	1452	1456	1455	1441	1451	1445	1438	1435	1437	1452	1463	1470	1472	1471	1468	1462	1454	1455	1488	1501	1509	1495	1473	1462	1465	1464	1471	1466	1460	1457	1449	1441	1441	1444	1447	1445	1438	1431	1432	1432	1435	1436	1440	1443	1449	1444	1448	1455	1455	1454	1456	1446	1451	1457	1463	0	0	0	0	0	0	0
0	0	0	0	0	0	0	0	0	0	0	0	0	0	0	0	0	0	0	0	0	0	0	0	0	0	0	0	0	0	0	0	0	0	0	0	0	0	0	0	0	0	0	0	0	0	0	0	0	0	0	0	0	0	0	0	0	0	0	0	0	0	0	0	0	0	0	0	0	0	0	0	0	0	0	0	0	0	0	0	0	0	0	0	0	0	0	0	0	0	0	0	0	1448	1453	1461	1462	1453	1444	1441	1468	1492	1497	1493	1491	1486	1469	1464	1466	1498	1499	1516	1512	1514	1490	1469	1456	1454	1461	1478	1484	1485	1472	1452	1433	1433	1441	1442	1471	1491	1500	1490	1456	1442	1435	1441	1448	1460	1469	1488	1489	1490	1476	1460	1448	1458	1480	1500	1500	1462	1463	1465	1465	1465	1456	1439	1437	1449	1458	1473	1485	1495	1483	1475	1437	1445	1458	1470	1479	1478	1485	1498	1501	1489	1488	1481	1474	1460	1457	1456	1444	1435	1444	1455	1461	1466	1471	1481	1480	1466	1457	1438	1424	1429	1447	1458	1457	1447	1432	1429	1412	1410	1424	1436	1445	1450	1461	1483	1472	1462	1459	1453	1452	1441	1422	1412	1416	1407	1360	1276	1190	1131	1117	1108	1089	1084	1074	1064	1049	1042	1038	1031	1020	1027	1039	1047	1038	1035	1034	1031	1039	1044	1044	1036	1019	982	985	999	1022	1039	1040	1050	1056	1063	1064	1047	1036	1032	1033	1039	1043	1043	1046	0	0	0	0	0	0	1212	1314	1437	1478	1491	1499	1499	1487	1477	1473	1479	1478	1481	1483	1487	1487	1483	1477	1477	1478	1490	1504	1506	1496	1489	1484	1486	1492	1496	1494	1491	1490	1485	1491	1499	1508	1501	1481	1468	1464	1467	1473	1469	1464	1469	1478	1477	1475	1461	1458	1461	1495	1479	1470	1455	1463	1475	1489	1492	1482	1469	1464	1457	1460	1460	1471	1477	1489	1496	1497	1482	1484	1490	1490	1490	1504	1491	1477	1477	1494	1499	1498	1494	1481	1476	1476	1461	1448	1442	1448	1462	1479	1492	1493	1483	1478	1478	1487	1497	1505	1505	1497	1484	1476	1467	1463	1462	1460	1464	1466	1469	1477	1492	1502	1496	1479	1472	1472	1479	1484	1487	1491	1486	1477	1471	1476	1501	1519	1521	1514	1500	1489	1489	1502	0	0	0	0	0	0	0	0	0	0	0	0	0	0	0	0	0	0	0	1023	1029	1026	1012	0	0	0	0	0	969	979	981	988	998	1003	1010	1019	1025	1040	1048	0	0	0	0	0	0	0	0	0	0	0	1063	1068	1071	1057	1053	1074	1142	1191	1264	1347	1399	1419	1429	1434	1426	1422	1455	1474	1504	1504	1504	1502	1483	1454	1444	1452	1471	1483	1486	1484	1482	1486	1487	1487	1476	1463	1460	1456	1461	1461	1461	1460	1463	1480	1487	1491	1492	1504	1476	1478	1466	1461	1458	1458	1454	1455	1456	1464	1463	1478	1480	1465	1462	1477	1499	1510	1502	1493	1482	1474	1479	1479	1478	1468	1457	1461	1481	1501	1512	1506	1495	1486	1474	1458	1429	1417	1416	1437	1457	1458	1447	1444	1447	1458	1468	1481	1482	1460	1456	1465	1473	1484	1487	1484	1480	1479	1476	1478	1470	1472	1472	1469	1452	1436	1438	1444	1452	1465	1468	1457	1456	1459	1454	1459	1465	1474	1474	1470	1454	1445	1441	1450	1452	1450	1462	1474	1488	1483	1482	1494	1485	1461	1460	1477	1504	1516	1495	1471	1461	1458	1462	1463	1464	1470	1473	1463	1453	1453	1453	1455	1447	1436	1423	1416	1416	1426	1438	1457	1463	1460	1452	1457	1459	1459	1451	1445	1441	1450	1458	1464	0	0	0	0	0	0	0
0	0	0	0	0	0	0	0	0	0	0	0	0	0	0	0	0	0	0	0	0	0	0	0	0	0	0	0	0	0	0	0	0	0	0	0	0	0	0	0	0	0	0	0	0	0	0	0	0	0	0	0	0	0	0	0	0	0	0	0	0	0	0	0	0	0	0	0	0	0	0	0	0	0	0	0	0	0	0	0	0	0	0	0	0	0	0	0	0	0	0	0	0	1441	1451	1459	1459	1452	1443	1441	1468	1493	1490	1482	1479	1474	1470	1465	1466	1497	1503	1515	1524	1491	1477	1471	1466	1455	1455	1460	1469	1477	1472	1448	1441	1441	1445	1459	1475	1489	1491	1481	1452	1446	1443	1449	1451	1456	1466	1472	1485	1487	1479	1470	1461	1446	1433	1442	1453	1470	1470	1464	1458	1458	1442	1425	1420	1425	1437	1455	1476	1486	1483	1468	1448	1454	1470	1480	1486	1493	1491	1493	1484	1474	1469	1466	1460	1442	1463	1462	1450	1440	1447	1455	1459	1462	1469	1477	1480	1477	1460	1447	1424	1423	1435	1446	1440	1436	1428	1424	1412	1415	1423	1438	1439	1445	1452	1468	1474	1474	1474	1471	1459	1439	1400	1346	1285	1225	1171	1142	1121	1117	1115	1103	1103	0	0	0	0	0	0	0	1013	1006	1017	1019	1020	1019	1016	1020	1027	1032	1033	1025	1019	1006	981	999	1027	1047	1039	1038	1045	1045	1035	1034	1022	1023	1026	1028	1029	1038	0	0	0	0	0	0	0	1287	1426	1481	1488	1496	1498	1498	1487	1480	1471	1467	1472	1483	1491	1499	1499	1496	1501	1495	1486	1487	1500	1502	1493	1485	1482	1485	1487	1485	1490	1491	1495	1492	1498	1509	1514	1502	1464	1454	1457	1468	1474	1473	1471	1475	1489	1489	1483	1478	1486	1501	1506	1499	1484	1474	1480	1488	1496	1497	1492	1473	1476	1469	1471	1465	1468	1469	1482	1480	1471	1456	1461	1458	1457	1445	1441	1449	1463	1481	1488	1491	1497	1493	1487	1475	1465	1449	1448	1438	1452	1466	1479	1474	1480	1476	1472	1462	1462	1475	1484	1491	1492	1483	1466	1464	1469	1473	1471	1475	1477	1474	1482	1502	1507	1498	1478	1465	1465	1474	1479	1488	1488	1481	1475	1470	1474	1500	1521	1523	1510	1498	1484	1491	1506	0	0	0	0	0	0	0	0	0	0	0	0	0	0	0	0	0	0	0	0	0	0	0	0	0	0	0	0	0	0	1005	1011	1014	1011	1002	1005	1010	1020	1032	0	0	0	0	0	0	0	0	0	0	0	0	0	0	0	1041	1039	1052	1072	1092	1117	1171	1348	1406	1410	1414	1418	1460	1493	1502	1503	1500	1486	1464	1447	1446	1462	1475	1477	1477	1481	1481	1485	1477	1477	1478	1469	1458	1448	1445	1449	1453	1456	1464	1479	1477	1472	1489	1480	1468	1461	1454	1454	1446	1444	1451	1457	1465	1467	1474	1473	1481	1461	1467	1477	1493	1495	1484	1487	1471	1458	1457	1467	1462	1451	1450	1450	1466	1478	1487	1488	1480	1477	1471	1450	1435	1422	1423	1444	1454	1460	1459	1458	1457	1460	1465	1470	1468	1455	1463	1481	1477	1471	1473	1472	1470	1468	1475	1476	1463	1452	1449	1445	1439	1439	1442	1443	1452	1460	1461	1467	1465	1467	1473	1476	1484	1493	1491	1485	1472	1453	1456	1464	1465	1458	1474	1491	1501	1498	1502	1498	1485	1460	1454	1465	1484	1495	1479	1465	1455	1453	1457	1456	1470	1482	1492	1491	1485	1485	1468	1462	1448	1434	1430	1423	1423	1431	1442	1461	1466	1461	1459	1453	1453	1457	1452	1444	1444	1454	1462	1471	0	0	0	0	0	0	0
0	0	0	0	0	0	0	0	0	0	0	0	0	0	0	0	0	0	0	0	0	0	0	0	0	0	0	0	0	0	0	0	0	0	0	0	0	0	0	0	0	0	0	0	0	0	0	0	0	0	0	0	0	0	0	0	0	0	0	0	0	0	0	0	0	0	0	0	0	0	0	0	0	0	0	0	0	0	0	0	0	0	0	0	0	0	0	0	0	0	0	0	0	1441	1453	1457	1455	1451	1442	1446	1461	1475	1482	1477	1471	1469	1467	1464	1461	1483	1498	1497	1487	1479	1472	1465	1459	1459	1447	1449	1459	1463	1447	1444	1445	1453	1457	1464	1479	1486	1480	1470	1448	1444	1447	1451	1455	1454	1454	1455	1463	1478	1490	1484	1468	1447	1425	1430	1443	1472	1470	1457	1449	1438	1432	1423	1420	1423	1432	1449	1466	1475	1473	1464	1459	1474	1481	1486	1486	1490	1486	1472	1467	1463	1463	1462	1456	1443	1465	1463	1462	1461	1465	1468	1463	1458	1460	1472	1478	1485	1483	1472	1444	1433	1436	1439	1441	1437	1436	1435	1437	1442	1444	1445	1447	1439	1446	1446	1465	1478	1483	1470	1417	1365	1289	1221	1212	1204	1179	1148	1138	0	0	0	0	0	0	0	0	0	0	0	0	986	985	988	994	998	997	997	1007	1012	1010	1017	1032	1036	1019	0	0	0	1031	1029	1019	1016	1023	1013	1019	1023	1029	1030	1031	0	0	0	0	0	0	0	1295	1450	1498	1499	1495	1490	1494	1497	1494	1492	1487	1483	1491	1494	1499	1502	1509	1521	1520	1516	1507	1498	1499	1502	1506	1503	1506	1500	1496	1486	1493	1503	1520	1526	1516	1493	1472	1458	1456	1463	1464	1477	1478	1477	1459	1477	1493	1506	1501	1497	1505	1513	1517	1512	1504	1494	1491	1490	1496	1503	1498	1490	1478	1484	1483	1482	1474	1467	1472	1475	1472	1469	1466	1458	1453	1451	1453	1460	1472	1482	1489	1488	1489	1495	1498	1488	1465	1449	1448	1447	1453	1468	1471	1469	1472	1472	1466	1452	1442	1448	1468	1481	1496	1492	1483	1478	1483	1487	1475	1471	1468	1476	1493	1505	1507	1491	1466	1465	1461	1471	1487	1486	1485	1482	1472	1468	1473	1491	1512	1514	1503	1493	1494	1492	1500	1495	0	0	0	0	0	0	0	0	0	0	0	0	0	0	0	0	0	0	0	0	0	0	0	0	0	0	0	0	0	0	0	0	0	0	0	0	0	0	0	0	0	0	0	0	0	0	0	0	0	0	0	0	0	0	1035	1035	1039	1036	1039	1053	1080	1153	1230	1335	1413	1479	1485	1480	1480	1477	1467	1445	1438	1442	1460	1457	1453	1456	1464	1478	1475	1471	1468	1467	1466	1456	1447	1441	1438	1440	1447	1460	1475	1471	1461	1467	1478	1473	1467	1464	1454	1447	1446	1450	1467	1473	1475	1473	1473	1480	1472	1470	1474	1483	1483	1469	1474	1466	1462	1457	1448	1444	1438	1439	1443	1453	1477	1482	1482	1481	1476	1470	1457	1445	1433	1434	1448	1458	1462	1456	1456	1455	1457	1452	1464	1470	1459	1472	1484	1482	1465	1458	1463	1461	1459	1468	1462	1453	1438	1434	1428	1434	1439	1448	1450	1448	1457	1470	1479	1483	1490	1492	1496	1501	1501	1504	1494	1473	1467	1464	1477	1481	1482	1490	1499	1506	1505	1491	1473	1456	1441	1438	1452	1468	1469	1463	1456	1454	1453	1457	1460	1471	1491	1508	1511	1504	1504	1485	1465	1446	1443	1441	1439	1442	1445	1449	1459	1466	1460	1457	1451	1451	1455	1453	1451	1454	1450	1462	1470	0	0	0	0	0	0	0
0	0	0	0	0	0	0	0	0	0	0	0	0	0	0	0	0	0	0	0	0	0	0	0	0	0	0	0	0	0	0	0	0	0	0	0	0	0	0	0	0	0	0	0	0	0	0	0	0	0	0	0	0	0	0	0	0	0	0	0	0	0	0	0	0	0	0	0	0	0	0	0	0	0	0	0	0	0	0	0	0	0	0	0	0	0	0	0	0	0	0	0	0	1446	1461	1475	1471	1458	1465	1471	1469	1456	1447	1448	1460	1459	1468	1476	1489	1504	1510	1501	1484	1471	1464	1448	1446	1450	1461	1451	1442	1438	1447	1449	1455	1456	1458	1457	1455	1455	1459	1462	1459	1459	1463	1478	1483	1476	1460	1449	1457	1466	1492	1499	1506	1479	1446	1425	1438	1475	1482	1465	1442	1430	1428	1427	1425	1435	1445	1449	1460	1468	1462	1460	1467	1487	1496	1482	1477	1472	1464	1459	1456	1464	1467	1466	1459	1446	1459	1466	1471	1478	1481	1487	1477	1458	1450	1456	1467	1487	1488	1478	1464	1441	1442	1443	1453	1435	1440	1450	1455	1458	1459	1457	1439	1430	1428	1434	1453	1454	1439	1339	1275	1233	1210	1196	1201	1204	1191	1163	0	0	0	0	0	0	0	0	0	0	0	0	0	979	961	965	978	982	981	976	978	981	978	998	1015	1029	1018	0	0	0	1007	0	0	0	0	0	0	0	0	0	0	0	0	0	0	0	0	1323	1455	1509	1514	1501	1483	1484	1487	1497	1498	1491	1478	1477	1492	1502	1500	1491	1490	1505	1510	1505	1496	1496	1499	1506	1509	1508	1510	1511	1510	1505	1504	1510	1518	1515	1506	1483	1469	1456	1455	1459	1459	1468	1476	1468	1464	1479	1499	1506	1507	1507	1505	1511	1515	1523	1512	1500	1480	1475	1484	1492	1498	1496	1491	1487	1494	1492	1488	1472	1470	1469	1473	1472	1472	1469	1466	1460	1462	1465	1476	1480	1479	1476	1483	1495	1499	1491	1471	1465	1448	1449	1464	1467	1472	1471	1474	1468	1465	1455	1447	1447	1462	1485	1501	1501	1495	1505	1501	1497	1479	1466	1463	1476	1486	1486	1485	1477	1459	1462	1470	1482	1485	1489	1490	1487	1491	1485	1471	1479	1502	1506	1494	1488	1489	1503	1507	1506	1492	0	0	0	0	0	0	0	0	0	0	0	0	0	0	0	0	0	947	950	950	939	928	943	0	0	0	0	0	0	0	0	0	0	0	0	0	0	0	0	0	0	0	0	0	0	0	0	0	0	0	0	0	1023	1017	1016	1015	1003	1001	1006	1017	1044	1061	1171	1270	1397	1470	1469	1463	1452	1444	1432	1433	1444	1446	1441	1440	1445	1456	1467	1470	1460	1451	1453	1456	1450	1438	1440	1436	1435	1440	1454	1472	1472	1458	1468	1473	1478	1473	1468	1460	1457	1460	1466	1478	1486	1490	1489	1485	1480	1472	1473	1474	1478	1469	1466	1465	1470	1464	1447	1440	1433	1428	1433	1452	1469	1480	1480	1476	1478	1478	1475	1466	1460	1462	1462	1474	1471	1455	1448	1440	1440	1436	1441	1463	1474	1468	1475	1487	1478	1459	1460	1458	1464	1461	1455	1453	1437	1424	1421	1425	1428	1439	1449	1451	1446	1457	1475	1488	1495	1498	1493	1497	1496	1500	1494	1479	1473	1464	1472	1482	1493	1496	1499	1507	1505	1496	1474	1461	1446	1431	1438	1445	1464	1460	1460	1452	1450	1452	1454	1464	1474	1487	1497	1513	1506	1506	1490	1463	1453	1447	1453	1453	1455	1458	1449	1453	1454	1453	1448	1443	1443	1447	1446	1456	1453	1454	1459	1465	0	0	0	0	0	0	0
0	0	0	0	0	0	0	0	0	0	0	0	0	0	0	0	0	0	0	0	0	0	0	0	0	0	0	0	0	0	0	0	0	0	0	0	0	0	0	0	0	0	0	0	0	0	0	0	0	0	0	0	0	0	0	0	0	0	0	0	0	0	0	0	0	0	0	0	0	0	0	0	0	0	0	0	0	0	0	0	0	0	0	0	0	0	0	0	0	0	0	0	0	1465	1474	1469	1462	1462	1468	1480	1471	1453	1449	1452	1468	1470	1465	1481	1498	1510	1510	1500	1477	1461	1456	1451	1441	1443	1457	1464	1461	1456	1460	1465	1458	1454	1456	1451	1446	1438	1435	1441	1461	1470	1477	1488	1490	1486	1478	1481	1476	1473	1475	1485	1492	1488	1476	1472	1475	1483	1498	1482	1461	1435	1427	1429	1428	1443	1449	1458	1458	1461	1464	1457	1472	1487	1483	1472	1463	1456	1450	1452	1452	1464	1472	1472	1465	1449	1453	1465	1481	1490	1492	1490	1469	1448	1441	1446	1458	1477	1485	1473	1462	1448	1449	1449	1443	1445	1451	1464	1463	1458	1450	1446	1428	1414	1406	1407	1307	1255	1217	1198	1196	1191	1181	1176	1189	1190	0	0	0	0	0	0	0	0	1086	1060	1050	1028	1012	1004	996	981	965	964	975	971	971	960	952	949	953	963	985	1001	994	976	960	957	973	0	0	0	0	0	0	0	0	0	0	0	0	0	0	0	0	1445	1490	1504	1499	1490	1483	1473	1475	1475	1477	1474	1462	1462	1492	1502	1495	1484	1480	1487	1499	1503	1499	1496	1504	1504	1508	1511	1514	1517	1517	1512	1508	1510	1515	1512	1498	1479	1462	1458	1453	1452	1457	1475	1490	1484	1465	1478	1495	1507	1508	1508	1494	1503	1504	1520	1510	1491	1470	1461	1460	1474	1486	1492	1495	1490	1498	1504	1499	1485	1471	1472	1474	1483	1488	1488	1487	1481	1478	1476	1481	1480	1471	1468	1481	1488	1485	1480	1467	1455	1450	1453	1463	1460	1459	1465	1479	1480	1468	1445	1448	1456	1470	1487	1494	1495	1499	1505	1511	1502	1485	1471	1469	1470	1475	1473	1467	1464	1456	1461	1471	1486	1493	1504	1502	1500	1507	1488	1480	1484	1503	1495	1482	1477	1490	1499	1506	1510	1510	1495	0	0	0	0	0	0	0	0	0	0	0	0	0	0	0	932	932	934	932	924	907	898	902	0	0	0	963	955	951	942	930	934	943	944	940	946	955	0	0	974	0	0	0	0	997	971	956	956	951	951	957	969	979	991	990	977	972	968	978	992	1000	1012	1021	1166	1306	1360	1398	1424	1427	1428	1433	1441	1438	1432	1437	1455	1460	1465	1466	1462	1448	1445	1445	1448	1438	1433	1443	1434	1441	1460	1474	1471	1467	1467	1468	1479	1474	1467	1464	1463	1464	1476	1487	1500	1501	1499	1495	1490	1469	1470	1468	1472	1470	1461	1466	1470	1456	1446	1432	1434	1446	1468	1491	1496	1483	1476	1474	1474	1471	1463	1461	1458	1455	1454	1439	1439	1445	1430	1421	1411	1410	1418	1431	1459	1476	1497	1486	1467	1460	1467	1470	1453	1453	1454	1447	1438	1431	1435	1442	1446	1447	1440	1436	1435	1452	1467	1481	1493	1488	1485	1482	1479	1478	1477	1473	1469	1473	1480	1486	1492	1496	1497	1503	1505	1489	1472	1454	1440	1429	1434	1450	1461	1460	1454	1448	1443	1449	1471	1480	1480	1478	1478	1476	1476	1480	1472	1465	1455	1458	1478	1464	1456	1449	1447	1444	1447	1448	1448	1448	1448	1450	1450	1448	1458	1454	1450	0	0	0	0	0	0	0	0
0	0	0	0	0	0	0	0	0	0	0	0	0	0	0	0	0	0	0	0	0	0	0	0	0	0	0	0	0	0	0	0	0	0	0	0	0	0	0	0	0	0	0	0	0	0	0	0	0	0	0	0	0	0	0	0	0	0	0	0	0	0	0	0	0	0	0	0	0	0	0	0	0	0	0	0	0	0	0	0	0	0	0	0	0	0	0	0	0	0	0	0	0	1474	1472	1464	1448	1456	1467	1476	1472	1461	1451	1464	1485	1481	1473	1486	1499	1510	1497	1483	1456	1449	1448	1442	1445	1447	1458	1469	1474	1472	1479	1481	1481	1467	1461	1457	1446	1438	1428	1434	1460	1472	1481	1485	1482	1492	1496	1496	1486	1476	1469	1471	1482	1488	1481	1479	1493	1501	1499	1487	1475	1455	1440	1428	1439	1446	1449	1458	1455	1460	1469	1468	1474	1473	1467	1461	1458	1456	1455	1454	1458	1466	1473	1467	1457	1444	1457	1467	1480	1488	1488	1479	1466	1446	1442	1447	1470	1487	1493	1478	1466	1460	1468	1468	1468	1470	1472	1472	1459	1444	1432	1419	1404	1370	1302	1301	1162	1161	1146	1138	1136	1136	1140	1144	1157	0	0	0	0	0	0	0	0	1057	1043	1016	996	983	975	974	968	964	964	967	971	968	960	950	942	935	937	947	963	972	971	957	946	950	958	980	0	0	0	0	0	0	0	0	0	0	0	0	0	0	1437	1460	1479	1481	1487	1473	1466	1462	1460	1456	1454	1453	1453	1459	1488	1500	1491	1488	1486	1491	1501	1486	1481	1494	1501	1508	1512	1515	1519	1527	1525	1511	1505	1506	1504	1505	1496	1484	1474	1462	1451	1459	1480	1521	1529	1524	1453	1462	1486	1491	1495	1486	1479	1472	1477	1504	1497	1486	1471	1455	1455	1459	1470	1481	1474	1482	1490	1496	1496	1490	1478	1480	1471	1482	1499	1507	1506	1500	1501	1496	1492	1480	1476	1475	1476	1479	1479	1470	1462	1456	1455	1453	1456	1451	1438	1446	1478	1487	1463	1449	1444	1463	1477	1484	1484	1481	1490	1490	1498	1493	1485	1479	1470	1470	1467	1468	1459	1451	1445	1451	1469	1486	1501	1509	1511	1511	1514	1494	1482	1478	1500	1490	1474	1465	1470	1488	1500	1505	1506	1494	1488	0	0	0	0	0	0	0	0	0	0	0	0	0	0	925	914	919	911	902	889	877	882	921	942	954	946	932	919	917	911	912	924	931	929	926	936	945	955	953	947	945	958	958	961	939	934	931	932	934	939	940	945	953	959	954	943	940	938	948	954	966	986	1001	1037	1140	1240	1358	1396	1410	1425	1438	1438	1434	1441	1451	1460	1464	1462	1459	1455	1446	1450	1451	1439	1436	1447	1451	1451	1470	1472	1474	1474	1462	1464	1465	1471	1466	1465	1472	1480	1483	1493	1497	1492	1499	1499	1491	1466	1458	1457	1461	1458	1460	1464	1464	1456	1443	1434	1462	1474	1488	1491	1488	1465	1466	1470	1475	1469	1453	1441	1442	1444	1443	1435	1433	1445	1448	1435	1420	1412	1410	1422	1442	1463	1478	1481	1468	1477	1483	1475	1454	1450	1454	1457	1459	1456	1454	1454	1447	1447	1440	1433	1430	1439	1458	1473	1474	1465	1457	1455	1460	1453	1456	1459	1463	1480	1484	1497	1495	1496	1494	1499	1497	1494	1469	1464	1442	1426	1431	1446	1455	1450	1438	1436	1444	1467	1491	1493	1481	1469	1462	1461	1461	1460	1459	1460	1468	1485	1490	1468	1450	1444	1447	1447	1448	1452	1457	1459	1459	1461	1460	1461	1466	1459	1441	0	0	0	0	0	0	0	0
0	0	0	0	0	0	0	0	0	0	0	0	0	0	0	0	0	0	0	0	0	0	0	0	0	0	0	0	0	0	0	0	0	0	0	0	0	0	0	0	0	0	0	0	0	0	0	0	0	0	0	0	0	0	0	0	0	0	0	0	0	0	0	0	0	0	0	0	0	0	0	0	0	0	0	0	0	0	0	0	0	0	0	0	0	0	0	0	0	0	0	0	0	1478	1471	1457	1457	1450	1463	1465	1460	1455	1458	1473	1491	1524	1501	1494	1498	1492	1491	1476	1465	1459	1460	1453	1452	1460	1470	1484	1494	1491	1498	1499	1498	1491	1482	1476	1460	1455	1447	1436	1460	1468	1472	1467	1479	1494	1504	1499	1490	1475	1459	1460	1477	1483	1475	1474	1486	1477	1478	1473	1472	1466	1450	1438	1436	1439	1441	1440	1444	1451	1472	1472	1467	1461	1453	1453	1458	1472	1469	1458	1457	1461	1471	1468	1456	1446	1453	1461	1470	1478	1482	1478	1461	1455	1451	1461	1474	1484	1489	1489	1482	1479	1477	1473	1471	1467	1462	1458	1443	1417	1386	1320	1267	1193	1093	1083	1100	1102	1093	1089	1080	1083	1086	1109	1125	1118	0	0	0	0	0	0	0	1013	997	980	974	961	948	941	937	942	955	963	966	958	953	946	936	932	936	949	961	965	960	949	945	954	965	0	0	0	0	0	0	0	0	0	0	0	0	0	0	1402	1456	1459	1459	1465	1468	1467	1467	1469	1456	1444	1442	1442	1448	1457	1488	1495	1494	1510	1557	1555	1502	1496	1534	1485	1505	1513	1519	1521	1527	1532	1519	1503	1494	1494	1501	1501	1504	1501	1491	1473	1474	1485	1498	1506	1507	1481	1450	1436	1460	1473	1475	1477	1472	1466	1494	1503	1496	1484	1473	1464	1460	1455	1455	1463	1462	1465	1471	1482	1491	1491	1484	1483	1490	1502	1503	1505	1506	1508	1505	1507	1510	1501	1493	1485	1478	1478	1475	1468	1462	1465	1465	1470	1464	1451	1441	1441	1457	1462	1455	1445	1451	1457	1469	1472	1474	1476	1478	1482	1480	1481	1482	1478	1481	1476	1481	1484	1473	1457	1437	1443	1465	1477	1494	1500	1499	1499	1499	1498	1491	1486	1491	1483	1469	1459	1463	1474	1489	1505	1499	1489	1473	0	0	0	0	0	0	0	0	0	0	0	0	0	0	931	903	906	901	891	877	871	881	919	949	951	939	919	902	898	896	896	910	918	920	920	924	938	944	937	930	931	937	941	941	927	920	916	919	920	921	924	925	925	929	930	924	917	910	913	920	928	954	970	992	1006	1033	1112	1300	1384	1406	1427	1443	1440	1447	1455	1462	1465	1457	1458	1456	1457	1452	1456	1447	1441	1451	1458	1465	1475	1476	1476	1469	1453	1457	1464	1464	1470	1486	1500	1502	1498	1493	1488	1483	1489	1495	1495	1467	1456	1449	1447	1437	1442	1446	1446	1443	1443	1454	1469	1481	1489	1485	1468	1452	1457	1471	1476	1466	1441	1426	1422	1427	1437	1438	1444	1457	1466	1456	1443	1426	1425	1432	1442	1453	1458	1465	1471	1482	1488	1482	1462	1458	1464	1470	1476	1471	1461	1455	1451	1449	1447	1445	1442	1447	1458	1454	1461	1454	1452	1451	1444	1445	1446	1448	1450	1456	1468	1473	1493	1500	1493	1495	1496	1489	1479	1466	1440	1428	1431	1453	1457	1448	1434	1435	1445	1472	1482	1486	1472	1472	1461	1463	1463	1464	1460	1455	1469	1485	1490	1474	1457	1449	1451	1458	1464	1470	1475	1473	1473	1474	1470	1472	1471	1469	1447	0	0	0	0	0	0	0	0
0	0	0	0	0	0	0	0	0	0	0	0	0	0	0	0	0	0	0	0	0	0	0	0	0	0	0	0	0	0	0	0	0	0	0	0	0	0	0	0	0	0	0	0	0	0	0	0	0	0	0	0	0	0	0	0	0	0	0	0	0	0	0	0	0	0	0	0	0	0	0	0	0	0	0	0	0	0	0	0	0	0	0	0	0	0	0	0	0	0	0	0	0	1485	1471	1462	1455	1446	1454	1455	1450	1450	1458	1482	1499	1519	1511	1498	1492	1479	1491	1497	1479	1475	1472	1472	1468	1475	1483	1499	1507	1503	1507	1508	1505	1503	1496	1488	1481	1476	1463	1445	1452	1461	1449	1443	1457	1479	1490	1484	1476	1457	1452	1455	1467	1475	1478	1474	1477	1461	1467	1459	1464	1470	1464	1457	1457	1456	1453	1451	1452	1445	1445	1443	1453	1449	1451	1460	1468	1474	1469	1452	1454	1466	1475	1479	1469	1462	1458	1469	1458	1459	1467	1470	1468	1464	1465	1466	1479	1484	1499	1490	1482	1477	1476	1469	1458	1450	1432	1428	1382	1326	1200	1127	1087	1065	1057	1059	1076	1075	1069	1060	1053	1059	1066	1068	1086	1090	1084	1077	0	0	0	0	1026	1004	976	959	951	939	924	917	913	923	940	949	954	952	943	938	936	938	942	950	956	957	941	941	944	958	974	0	0	0	0	0	0	0	0	0	0	0	1357	1437	1400	1445	1466	1479	1444	1449	1459	1468	1475	1474	1456	1443	1437	1438	1449	1464	1483	1489	1510	1549	1536	1470	1480	1478	1500	1565	1528	1515	1519	1524	1523	1518	1507	1493	1486	1487	1495	1505	1511	1514	1511	1476	1500	1504	1505	1485	1477	1456	1439	1434	1432	1451	1456	1464	1475	1481	1501	1503	1499	1488	1487	1484	1470	1461	1454	1455	1459	1459	1467	1479	1489	1482	1482	1487	1495	1501	1503	1502	1505	1507	1508	1508	1514	1512	1508	1496	1494	1487	1480	1472	1468	1466	1475	1485	1477	1465	1444	1443	1449	1454	1451	1450	1451	1456	1462	1467	1473	1474	1476	1467	1470	1475	1473	1467	1473	1478	1497	1503	1503	1477	1448	1437	1451	1462	1474	1481	1477	1476	1478	1478	1477	1481	1482	1477	1470	1457	1458	1479	1490	1494	1498	1488	1473	1457	0	0	0	0	0	0	0	0	0	0	0	0	0	0	903	896	890	885	872	872	884	923	939	948	928	903	885	880	886	893	895	905	909	908	917	915	916	908	909	905	904	918	919	909	908	908	907	909	911	910	911	912	913	911	908	897	894	896	901	907	920	934	950	955	961	983	1032	1112	1186	1265	1341	1420	1434	1456	1464	1457	1435	1438	1444	1453	1455	1458	1457	1454	1460	1462	1464	1463	1473	1481	1476	1457	1464	1459	1466	1476	1497	1518	1527	1515	1505	1491	1478	1482	1485	1486	1474	1452	1451	1448	1439	1442	1446	1445	1447	1457	1465	1485	1491	1497	1488	1467	1438	1453	1470	1472	1467	1441	1418	1408	1413	1422	1428	1439	1461	1473	1477	1469	1451	1441	1446	1446	1441	1446	1459	1477	1485	1491	1488	1483	1473	1479	1487	1487	1474	1462	1455	1457	1457	1457	1458	1457	1460	1459	1446	1459	1453	1457	1442	1442	1434	1433	1446	1453	1456	1466	1463	1482	1488	1490	1484	1477	1469	1462	1463	1451	1443	1448	1457	1457	1456	1446	1449	1453	1470	1473	1470	1465	1470	1473	1476	1476	1473	1462	1454	1460	1475	1481	1469	1452	1450	1461	1474	1481	1492	1488	1486	1486	1487	1477	1471	1472	1478	1455	0	0	0	0	0	0	0	0
0	0	0	0	0	0	0	0	0	0	0	0	0	0	0	0	0	0	0	0	0	0	0	0	0	0	0	0	0	0	0	0	0	0	0	0	0	0	0	0	0	0	0	0	0	0	0	0	0	0	0	0	0	0	0	0	0	0	0	0	0	0	0	0	0	0	0	0	0	0	0	0	0	0	0	0	0	0	0	0	0	0	0	0	0	0	0	0	0	0	0	0	0	1467	1467	1460	1451	1452	1455	1453	1450	1449	1461	1471	1489	1504	1498	1493	1486	1467	1481	1487	1482	1482	1482	1483	1482	1486	1497	1511	1519	1517	1510	1509	1500	1501	1496	1487	1486	1484	1469	1455	1460	1457	1436	1416	1414	1447	1455	1452	1453	1440	1435	1436	1450	1464	1463	1457	1452	1451	1451	1451	1456	1463	1473	1476	1475	1481	1473	1470	1469	1462	1453	1451	1447	1454	1455	1457	1462	1462	1457	1451	1445	1464	1482	1493	1483	1473	1470	1471	1470	1460	1465	1473	1471	1469	1468	1463	1470	1490	1491	1482	1468	1455	1454	1448	1436	1413	1352	1223	1165	1103	1064	1053	1062	1059	1057	1058	1070	1060	1054	1044	1049	1054	1051	1050	1054	1062	1066	1062	0	0	0	1041	1016	991	961	958	942	930	919	912	910	911	932	948	948	948	938	942	938	937	939	941	940	932	917	923	0	0	0	0	0	0	0	0	0	0	0	0	0	1374	1445	1503	1511	1511	1487	1494	1452	1450	1464	1474	1474	1466	1459	1449	1443	1446	1460	1481	1487	1486	1508	1524	1510	1455	1476	1483	1506	1562	1528	1519	1522	1521	1515	1508	1491	1480	1481	1484	1495	1508	1516	1522	1515	1503	1486	1517	1511	1500	1469	1462	1445	1442	1424	1441	1450	1464	1497	1508	1505	1500	1493	1490	1490	1485	1479	1468	1462	1449	1447	1461	1470	1483	1490	1474	1484	1486	1494	1497	1495	1494	1499	1507	1509	1510	1510	1507	1498	1492	1494	1491	1482	1481	1462	1469	1482	1485	1480	1471	1459	1459	1459	1464	1460	1455	1455	1459	1455	1468	1478	1482	1471	1470	1472	1476	1468	1456	1459	1474	1506	1512	1506	1488	1459	1449	1449	1453	1453	1464	1468	1462	1459	1456	1462	1475	1482	1483	1475	1471	1470	1481	1487	1492	1494	1492	1494	1479	1468	0	0	0	0	0	0	0	0	0	0	0	0	0	923	890	875	862	853	859	879	919	928	922	908	886	876	874	876	881	885	889	886	883	885	892	888	878	866	863	875	886	894	888	891	893	895	899	906	906	904	904	904	904	903	898	898	899	903	900	895	904	914	909	907	929	963	1009	1047	1088	1145	1264	1322	1383	1425	1432	1413	1417	1438	1454	1452	1462	1463	1470	1470	1469	1462	1461	1469	1473	1468	1465	1477	1483	1477	1477	1497	1524	1535	1532	1520	1503	1499	1490	1480	1480	1470	1466	1459	1462	1450	1451	1451	1459	1461	1470	1482	1491	1493	1497	1486	1463	1440	1449	1465	1468	1457	1442	1425	1411	1410	1411	1415	1424	1441	1450	1455	1463	1456	1453	1451	1444	1450	1455	1473	1481	1477	1481	1481	1487	1487	1488	1495	1490	1478	1463	1458	1469	1470	1466	1455	1464	1461	1458	1459	1452	1454	1452	1448	1432	1428	1431	1450	1466	1470	1474	1479	1485	1485	1487	1488	1479	1472	1473	1472	1464	1460	1472	1480	1471	1468	1464	1468	1472	1472	1465	1461	1466	1475	1490	1493	1493	1483	1470	1456	1461	1470	1472	1466	1453	1449	1460	1487	1497	1507	1499	1499	1496	1489	1479	1476	1474	1485	1474	0	0	0	0	0	0	0	0
0	0	0	0	0	0	0	0	0	0	0	0	0	0	0	0	0	0	0	0	0	0	0	0	0	0	0	0	0	0	0	0	0	0	0	0	0	0	0	0	0	0	0	0	0	0	0	0	0	0	0	0	0	0	0	0	0	0	0	0	0	0	0	0	0	0	0	0	0	0	0	0	0	0	0	0	0	0	0	0	0	0	0	0	0	0	0	0	0	0	0	0	0	1446	1446	1447	1450	1454	1461	1469	1464	1458	1458	1442	1451	1481	1492	1490	1484	1464	1462	1457	1462	1469	1482	1484	1487	1488	1501	1509	1510	1503	1493	1493	1490	1488	1486	1483	1483	1481	1461	1458	1463	1458	1431	1407	1400	1417	1430	1438	1440	1436	1420	1418	1431	1453	1457	1447	1435	1432	1444	1446	1458	1468	1475	1477	1476	1484	1487	1488	1492	1484	1469	1469	1457	1456	1463	1466	1457	1463	1458	1451	1448	1465	1484	1497	1497	1478	1468	1470	1474	1483	1482	1501	1492	1476	1460	1457	1466	1480	1483	1465	1452	1426	1419	1327	1268	1234	1150	1097	1070	1061	1045	1049	1054	1060	1061	1071	1084	1065	1045	1050	1059	1061	1058	1052	1054	1060	1054	1053	1046	0	1040	1031	1017	997	977	0	0	0	0	0	0	930	944	957	957	948	941	948	940	937	0	0	0	919	907	919	0	0	0	0	0	0	0	0	0	0	0	0	1399	1466	1485	1501	1518	1515	1505	1510	1465	1470	1481	1483	1473	1469	1462	1454	1455	1460	1470	1481	1484	1480	1485	1503	1497	1484	1475	1503	1521	1533	1503	1522	1522	1521	1509	1498	1483	1471	1475	1483	1495	1505	1517	1520	1515	1510	1496	1494	1493	1492	1489	1459	1453	1451	1429	1455	1462	1472	1503	1515	1512	1503	1488	1491	1491	1490	1477	1454	1448	1451	1454	1470	1476	1477	1478	1472	1468	1475	1480	1481	1481	1480	1506	1508	1515	1513	1507	1505	1497	1494	1496	1501	1496	1485	1470	1473	1474	1485	1478	1479	1469	1466	1464	1465	1468	1462	1469	1461	1466	1465	1481	1484	1482	1483	1484	1489	1476	1452	1445	1467	1497	1512	1514	1498	1485	1476	1464	1461	1464	1476	1475	1470	1460	1456	1472	1478	1484	1490	1483	1482	1483	1494	1487	1487	1493	1499	1507	1499	1477	1456	0	0	0	0	0	0	0	0	0	0	0	0	0	892	860	843	830	821	876	899	900	904	893	872	865	870	870	872	872	875	871	865	869	869	863	853	846	844	847	854	864	872	877	880	884	894	899	890	887	884	893	898	900	900	910	911	912	898	888	885	885	879	878	889	914	942	969	985	1000	1054	1151	1251	1303	1390	1399	1416	1434	1450	1458	1464	1467	1468	1476	1474	1469	1467	1466	1469	1471	1480	1498	1494	1497	1482	1474	1472	1489	1503	1507	1504	1495	1495	1488	1482	1479	1470	1467	1456	1458	1455	1462	1463	1466	1474	1474	1482	1477	1485	1481	1463	1445	1459	1470	1461	1450	1443	1430	1431	1411	1407	1401	1404	1415	1429	1444	1451	1449	1450	1446	1447	1462	1472	1487	1490	1485	1484	1482	1480	1488	1496	1493	1486	1474	1464	1469	1469	1473	1469	1456	1456	1454	1455	1460	1456	1453	1447	1444	1434	1434	1449	1471	1489	1494	1492	1486	1484	1480	1484	1485	1484	1484	1482	1476	1464	1457	1463	1486	1492	1481	1472	1477	1475	1474	1467	1465	1474	1485	1500	1500	1501	1493	1480	1471	1475	1477	1481	1473	1459	1456	1468	1494	1507	1511	1491	1491	1487	1484	1474	1468	1469	1488	1477	0	0	0	0	0	0	0	0
0	0	0	0	0	0	0	0	0	0	0	0	0	0	0	0	0	0	0	0	0	0	0	0	0	0	0	0	0	0	0	0	0	0	0	0	0	0	0	0	0	0	0	0	0	0	0	0	0	0	0	0	0	0	0	0	0	0	0	0	0	0	0	0	0	0	0	0	0	0	0	0	0	0	0	0	0	0	0	0	0	0	0	0	0	0	0	0	0	0	0	0	0	1448	1443	1439	1443	1453	1465	1482	1497	1475	1456	1446	1447	1485	1487	1486	1478	1469	1455	1453	1446	1453	1461	1478	1482	1489	1494	1503	1498	1483	1469	1465	1471	1479	1481	1473	1476	1474	1464	1459	1474	1460	1426	1404	1407	1424	1431	1438	1438	1438	1426	1419	1428	1443	1451	1443	1428	1437	1439	1449	1455	1460	1462	1466	1454	1444	1470	1484	1491	1476	1467	1465	1462	1475	1479	1485	1493	1487	1475	1469	1457	1458	1473	1484	1475	1466	1456	1465	1473	1481	1502	1498	1495	1467	1456	1446	1448	1464	1463	1434	1395	1352	1280	1210	1116	1112	0	0	0	1066	1062	1061	1063	1066	1074	1077	1096	1085	1065	1069	1074	1075	1076	1072	1087	1076	1066	1062	1047	0	1040	1039	0	0	0	0	0	0	0	0	0	0	0	0	986	982	967	959	947	0	0	0	0	0	0	0	0	0	0	0	0	0	0	0	0	0	0	1397	1463	1481	1490	1498	1478	1445	1487	1490	1469	1480	1492	1490	1477	1469	1464	1460	1464	1468	1475	1486	1487	1485	1487	1491	1501	1485	1486	1492	1504	1498	1497	1520	1519	1507	1504	1490	1480	1463	1467	1475	1485	1505	1514	1512	1503	1490	1486	1493	1493	1482	1445	1454	1460	1461	1465	1474	1469	1467	1487	1512	1512	1499	1492	1495	1489	1490	1470	1454	1450	1452	1462	1481	1480	1472	1466	1463	1460	1458	1464	1473	1472	1475	1478	1515	1511	1508	1509	1509	1505	1506	1503	1508	1505	1501	1489	1482	1479	1481	1483	1484	1480	1482	1479	1476	1476	1474	1471	1470	1468	1466	1468	1485	1494	1500	1505	1504	1488	1465	1455	1476	1499	1507	1508	1510	1499	1491	1476	1474	1475	1484	1487	1482	1469	1465	1477	1486	1484	1488	1479	1477	1480	1487	1490	1494	1498	1507	1502	1486	1473	1462	1409	0	0	0	0	0	0	0	0	0	0	0	0	0	860	828	812	808	838	868	878	883	869	857	854	857	860	860	857	848	848	853	851	853	850	838	833	831	828	837	854	858	859	860	869	877	878	874	875	868	874	883	889	900	913	918	918	896	888	881	873	862	856	867	881	897	909	912	919	941	977	1055	1109	1345	1378	1412	1430	1447	1463	1464	1459	1457	1467	1474	1479	1472	1471	1472	1487	1495	1510	1503	1493	1475	1466	1449	1459	1482	1499	1504	1491	1486	1483	1476	1480	1480	1466	1458	1457	1457	1464	1467	1463	1458	1454	1451	1463	1470	1476	1469	1464	1468	1469	1456	1442	1447	1451	1444	1422	1411	1411	1413	1422	1431	1434	1443	1445	1453	1454	1458	1471	1486	1492	1501	1507	1495	1483	1482	1488	1489	1493	1482	1476	1468	1470	1466	1469	1463	1461	1456	1449	1456	1458	1454	1445	1444	1449	1448	1449	1462	1484	1494	1501	1493	1486	1485	1478	1480	1488	1490	1488	1483	1475	1467	1450	1460	1479	1484	1471	1462	1462	1460	1458	1469	1475	1481	1485	1488	1488	1489	1486	1479	1484	1475	1488	1490	1488	1473	1470	1481	1494	1505	1492	1474	1474	1480	1476	1473	1464	1459	1463	1457	0	0	0	0	0	0	0	0
0	0	0	0	0	0	0	0	0	0	0	0	0	0	0	0	0	0	0	0	0	0	0	0	0	0	0	0	0	0	0	0	0	0	0	0	0	0	0	0	0	0	0	0	0	0	0	0	0	0	0	0	0	0	0	0	0	0	0	0	0	0	0	0	0	0	0	0	0	0	0	0	0	0	0	0	0	0	0	0	0	0	0	0	0	0	0	0	0	0	0	0	0	1489	1450	1447	1453	1468	1477	1499	1511	1502	1471	1458	1464	1493	1492	1484	1474	1466	1461	1453	1448	1451	1460	1468	1472	1483	1496	1495	1485	1469	1451	1442	1448	1476	1490	1478	1471	1470	1462	1457	1475	1460	1436	1418	1425	1443	1450	1445	1446	1443	1446	1439	1436	1439	1448	1435	1427	1431	1446	1447	1444	1445	1455	1450	1441	1435	1448	1467	1474	1465	1455	1459	1470	1485	1486	1489	1498	1493	1482	1473	1463	1457	1457	1459	1465	1460	1465	1467	1469	1477	1480	1499	1496	1476	1449	1434	1436	1438	1421	1295	1264	1207	1105	1093	1089	0	0	0	0	0	0	1099	1090	1088	1093	1095	0	1122	1131	1136	1152	1132	1135	1149	1153	0	0	0	0	0	0	0	0	0	0	0	0	0	0	0	0	0	0	0	0	0	0	0	0	0	0	0	0	0	0	0	0	0	0	0	0	0	0	0	0	0	1369	1441	1457	1478	1494	1493	1466	1434	1443	1467	1460	1457	1469	1489	1485	1470	1463	1463	1469	1473	1481	1489	1492	1498	1495	1496	1502	1503	1496	1483	1484	1472	1492	1508	1507	1502	1494	1485	1478	1472	1466	1468	1480	1501	1506	1500	1488	1477	1478	1489	1494	1464	1439	1452	1464	1480	1492	1487	1473	1460	1457	1486	1505	1495	1488	1488	1491	1489	1487	1479	1463	1466	1470	1484	1486	1482	1471	1465	1462	1455	1465	1466	1467	1468	1473	1490	1497	1503	1509	1519	1518	1520	1513	1517	1514	1514	1502	1489	1479	1479	1481	1486	1487	1491	1482	1476	1479	1477	1481	1481	1474	1471	1462	1478	1491	1501	1507	1509	1500	1484	1481	1491	1492	1495	1506	1517	1509	1497	1485	1477	1477	1482	1489	1487	1483	1477	1475	1475	1472	1479	1479	1480	1482	1488	1493	1501	1514	1516	1498	1484	1480	1480	1468	1405	0	0	0	0	0	0	0	0	0	0	0	0	0	850	809	804	840	857	867	863	851	843	843	846	855	846	835	827	829	834	845	852	843	832	822	820	821	830	854	853	854	848	852	855	856	852	851	849	864	869	881	897	908	913	911	905	896	886	875	865	860	862	865	868	872	866	863	878	890	910	937	1051	1146	1318	1414	1436	1450	1457	1447	1448	1445	1455	1424	1439	1452	1463	1480	1490	1497	1485	1474	1463	1454	1448	1463	1479	1501	1506	1497	1487	1486	1480	1479	1475	1465	1454	1446	1453	1464	1462	1457	1445	1438	1447	1448	1460	1463	1465	1473	1474	1471	1457	1455	1458	1464	1456	1438	1429	1425	1428	1433	1438	1443	1445	1444	1455	1463	1466	1478	1491	1504	1515	1520	1507	1489	1482	1481	1485	1481	1481	1476	1472	1476	1473	1465	1466	1473	1468	1460	1458	1460	1454	1440	1437	1448	1468	1470	1477	1486	1490	1490	1487	1483	1475	1472	1476	1483	1486	1488	1482	1481	1470	1460	1460	1473	1476	1469	1466	1463	1462	1454	1463	1467	1477	1477	1480	1480	1479	1470	1470	1475	1478	1485	1486	1490	1484	1477	1484	1484	1482	1470	1473	1473	1474	1478	1474	1463	1455	1451	1440	0	0	0	0	0	0	0	0
0	0	0	0	0	0	0	0	0	0	0	0	0	0	0	0	0	0	0	0	0	0	0	0	0	0	0	0	0	0	0	0	0	0	0	0	0	0	0	0	0	0	0	0	0	0	0	0	0	0	0	0	0	0	0	0	0	0	0	0	0	0	0	0	0	0	0	0	0	0	0	0	0	0	0	0	0	0	0	0	0	0	0	0	0	0	0	0	0	0	0	0	0	1560	1477	1468	1471	1475	1491	1505	1517	1496	1482	1472	1467	1507	1502	1479	1461	1448	1452	1458	1455	1462	1470	1476	1474	1480	1489	1492	1483	1472	1456	1442	1441	1461	1488	1488	1473	1461	1449	1445	1458	1467	1451	1444	1449	1467	1470	1466	1456	1461	1462	1458	1447	1446	1445	1441	1438	1440	1451	1439	1434	1431	1438	1446	1445	1445	1447	1450	1450	1446	1453	1459	1475	1476	1480	1483	1487	1488	1484	1476	1463	1455	1453	1449	1450	1448	1465	1468	1461	1467	1474	1486	1481	1463	1429	1427	1420	1393	1281	1178	1134	1103	0	0	0	0	0	0	0	0	0	0	1140	1132	1125	0	0	1129	1146	1161	1192	1214	1231	0	0	0	0	0	0	0	0	0	0	0	0	0	0	0	0	0	0	0	0	0	0	0	0	0	0	0	0	0	0	0	0	0	0	0	0	0	0	0	0	0	0	1350	1432	1449	1461	1466	1479	1487	1473	1453	1464	1469	1460	1443	1450	1462	1501	1474	1467	1472	1479	1486	1489	1493	1493	1497	1503	1501	1497	1507	1493	1465	1467	1475	1499	1506	1495	1494	1477	1461	1454	1454	1458	1474	1492	1500	1501	1491	1472	1466	1471	1484	1476	1450	1441	1449	1475	1489	1493	1488	1473	1462	1453	1483	1490	1485	1475	1486	1490	1496	1492	1489	1481	1470	1484	1494	1496	1491	1477	1473	1472	1472	1471	1469	1468	1470	1469	1478	1483	1492	1508	1520	1526	1526	1520	1508	1500	1503	1498	1489	1475	1472	1471	1476	1484	1488	1486	1480	1488	1483	1490	1490	1485	1473	1464	1459	1469	1482	1498	1506	1506	1500	1503	1498	1483	1484	1501	1517	1517	1505	1492	1483	1474	1473	1484	1488	1485	1481	1479	1478	1474	1478	1485	1481	1488	1497	1502	1496	1498	1498	1485	1481	1485	1489	1502	1448	0	0	0	0	0	0	0	0	0	0	0	0	0	0	818	804	835	846	850	841	830	829	831	837	844	840	827	820	816	825	842	849	842	825	814	810	817	848	857	860	854	845	843	843	841	836	831	832	849	859	876	886	894	896	897	895	899	887	874	868	867	863	853	859	852	847	845	846	851	848	856	907	950	1025	1239	1351	1399	1414	1340	1360	1368	1379	1383	1398	1429	1452	1472	1482	1484	1470	1458	1453	1447	1453	1462	1481	1505	1495	1486	1484	1482	1484	1483	1472	1459	1448	1439	1448	1455	1461	1453	1445	1445	1444	1454	1448	1457	1471	1472	1469	1470	1467	1468	1466	1478	1475	1465	1457	1442	1444	1449	1456	1452	1455	1458	1460	1467	1466	1472	1489	1498	1509	1513	1506	1494	1485	1477	1474	1479	1472	1473	1484	1491	1489	1479	1488	1484	1485	1473	1468	1465	1464	1444	1446	1461	1493	1493	1485	1476	1471	1482	1487	1485	1485	1480	1481	1481	1482	1481	1482	1486	1479	1464	1466	1470	1471	1466	1471	1470	1468	1462	1461	1470	1481	1491	1496	1482	1480	1478	1471	1472	1473	1471	1472	1474	1476	1472	1468	1468	1457	1452	1466	1466	1474	1479	1476	1465	1455	1454	1455	0	0	0	0	0	0	0	0
0	0	0	0	0	0	0	0	0	0	0	0	0	0	0	0	0	0	0	0	0	0	0	0	0	0	0	0	0	0	0	0	0	0	0	0	0	0	0	0	0	0	0	0	0	0	0	0	0	0	0	0	0	0	0	0	0	0	0	0	0	0	0	0	0	0	0	0	0	0	0	0	0	0	0	0	0	0	0	0	0	0	0	0	0	0	0	0	0	0	0	0	0	0	1503	1492	1479	1484	1496	1508	1491	1481	1480	1477	1479	1499	1491	1473	1453	1437	1431	1444	1464	1487	1496	1489	1481	1475	1475	1480	1481	1476	1465	1449	1448	1463	1492	1498	1479	1454	1440	1434	1459	1473	1465	1456	1463	1476	1482	1474	1472	1477	1475	1469	1453	1448	1452	1454	1457	1451	1447	1429	1427	1418	1432	1444	1453	1454	1444	1438	1442	1447	1458	1468	1479	1455	1460	1469	1479	1481	1477	1473	1467	1462	1454	1455	1448	1452	1458	1465	1454	1455	1461	1465	1359	1266	1194	0	0	0	0	1128	0	0	0	0	0	0	0	0	0	0	0	0	0	1180	0	0	0	1152	1145	1174	1209	0	0	0	0	0	0	0	0	0	0	0	0	0	0	0	0	0	0	0	0	0	0	0	0	0	0	0	0	0	0	0	0	0	0	0	0	0	0	0	0	0	0	0	1327	1430	1456	1454	1460	1466	1471	1470	1457	1451	1492	1497	1489	1463	1465	1471	1497	1491	1478	1475	1484	1491	1492	1492	1474	1493	1506	1506	1503	1506	1484	1462	1460	1486	1506	1496	1488	1482	1456	1463	1455	1453	1447	1451	1453	1458	1476	1477	1462	1457	1465	1480	1459	1434	1437	1468	1480	1482	1479	1479	1477	1465	1465	1481	1478	1468	1467	1470	1479	1494	1496	1493	1486	1484	1498	1508	1513	1497	1490	1487	1491	1492	1488	1483	1479	1470	1465	1467	1480	1487	1497	1511	1526	1527	1517	1504	1494	1492	1495	1486	1472	1462	1463	1467	1471	1477	1476	1494	1496	1493	1495	1499	1494	1472	1454	1449	1461	1468	1479	1491	1499	1502	1509	1501	1486	1489	1504	1519	1527	1509	1499	1475	1470	1475	1477	1486	1485	1489	1494	1485	1486	1481	1482	1489	1494	1486	1481	1477	1465	1455	1480	1481	1478	1471	1469	1485	1426	0	0	0	0	0	0	0	0	0	0	0	0	0	0	822	831	833	825	817	810	815	826	829	833	836	827	817	812	824	833	844	838	820	805	801	810	842	850	850	842	834	831	831	831	826	823	827	841	857	869	874	871	871	871	886	878	869	863	865	867	864	862	850	840	836	838	843	840	824	824	858	889	933	973	914	941	969	1034	1207	1267	1278	1308	1342	1384	1419	1454	1465	1468	1461	1458	1451	1452	1456	1466	1486	1499	1494	1487	1486	1485	1474	1471	1477	1461	1447	1444	1450	1466	1473	1470	1460	1458	1456	1464	1456	1459	1470	1469	1473	1476	1481	1480	1471	1482	1487	1494	1481	1463	1456	1450	1470	1485	1477	1476	1470	1464	1460	1460	1476	1486	1487	1491	1491	1490	1485	1478	1481	1477	1474	1473	1480	1497	1499	1490	1499	1512	1501	1484	1472	1470	1469	1461	1468	1496	1505	1505	1491	1470	1473	1483	1485	1491	1494	1486	1483	1479	1478	1480	1479	1484	1478	1471	1460	1460	1467	1468	1474	1481	1478	1469	1472	1477	1494	1507	1507	1506	1499	1495	1472	1474	1467	1460	1454	1457	1462	1460	1442	1429	1431	1438	1438	1462	1472	1477	1482	1472	1468	1461	1457	0	0	0	0	0	0	0	0
0	0	0	0	0	0	0	0	0	0	0	0	0	0	0	0	0	0	0	0	0	0	0	0	0	0	0	0	0	0	0	0	0	0	0	0	0	0	0	0	0	0	0	0	0	0	0	0	0	0	0	0	0	0	0	0	0	0	0	0	0	0	0	0	0	0	0	0	0	0	0	0	0	0	0	0	0	0	0	0	0	0	0	0	0	0	0	0	0	0	0	0	0	0	1489	1476	1482	1485	1489	1479	1464	1467	1473	1469	1465	1478	1481	1466	1448	1440	1432	1437	1458	1492	1511	1507	1483	1471	1468	1464	1466	1467	1468	1461	1459	1477	1498	1507	1480	1450	1434	1433	1459	1475	1470	1461	1467	1480	1480	1477	1477	1483	1485	1486	1469	1463	1465	1451	1451	1451	1446	1431	1426	1426	1430	1446	1465	1461	1447	1444	1439	1452	1469	1479	1483	1454	1460	1472	1479	1477	1474	1465	1474	1473	1462	1452	1446	1443	1439	1437	1431	1413	1351	1212	0	0	0	0	0	0	0	0	0	0	0	0	0	0	0	0	0	0	0	0	0	0	0	0	0	1185	1157	1174	1212	0	0	0	0	0	0	0	0	0	0	0	0	0	0	0	0	0	0	0	0	0	0	0	0	0	0	0	0	0	0	0	0	0	0	0	0	0	0	0	0	0	0	1307	1418	1479	1480	1472	1502	1507	1479	1449	1452	1445	1517	1514	1480	1465	1467	1474	1500	1487	1476	1469	1471	1484	1487	1480	1473	1505	1517	1513	1509	1504	1466	1464	1462	1495	1511	1497	1488	1474	1461	1454	1452	1454	1452	1447	1456	1464	1493	1468	1468	1461	1488	1469	1449	1437	1465	1472	1464	1471	1469	1472	1476	1486	1483	1482	1477	1459	1455	1461	1474	1492	1489	1487	1494	1500	1511	1524	1525	1503	1500	1507	1506	1497	1491	1492	1486	1480	1481	1488	1486	1488	1487	1506	1500	1500	1496	1487	1479	1482	1484	1482	1465	1447	1440	1455	1457	1468	1482	1492	1501	1492	1486	1486	1482	1463	1449	1451	1458	1465	1468	1475	1480	1484	1484	1488	1490	1491	1502	1521	1529	1514	1504	1478	1471	1472	1480	1487	1490	1495	1497	1496	1495	1489	1483	1481	1481	1481	1488	1490	1482	1468	1470	1461	1462	1457	1451	1446	1458	0	0	0	0	0	0	0	0	0	0	0	0	0	0	0	828	818	808	795	796	808	817	826	829	828	827	816	813	819	830	833	830	817	805	798	802	824	830	829	826	818	820	822	828	822	811	814	828	849	859	857	852	853	854	862	853	850	841	845	853	859	859	854	840	833	836	838	833	823	810	817	796	809	828	851	864	884	906	953	1080	1165	1218	1267	1312	1351	1423	1446	1462	1459	1457	1460	1457	1465	1473	1485	1497	1499	1493	1494	1488	1470	1477	1481	1472	1456	1451	1465	1471	1474	1476	1467	1465	1465	1470	1471	1474	1481	1469	1473	1486	1489	1485	1476	1476	1489	1492	1485	1467	1460	1461	1495	1521	1512	1492	1481	1467	1460	1461	1465	1466	1474	1468	1465	1478	1480	1485	1481	1473	1471	1464	1480	1490	1490	1495	1505	1513	1510	1487	1468	1466	1464	1466	1474	1503	1513	1506	1492	1477	1477	1489	1498	1501	1499	1494	1484	1480	1477	1477	1480	1482	1477	1464	1457	1454	1461	1468	1472	1483	1478	1472	1477	1490	1498	1511	1511	1503	1495	1487	1492	1486	1467	1454	1442	1448	1451	1449	1428	1417	1420	1429	1429	1457	1468	1477	1478	1473	1468	1458	1451	0	0	0	0	0	0	0	0
0	0	0	0	0	0	0	0	0	0	0	0	0	0	0	0	0	0	0	0	0	0	0	0	0	0	0	0	0	0	0	0	0	0	0	0	0	0	0	0	0	0	0	0	0	0	0	0	0	0	0	0	0	0	0	0	0	0	0	0	0	0	0	0	0	0	0	0	0	0	0	0	0	0	0	0	0	0	0	0	0	0	0	0	0	0	0	0	0	0	0	0	0	0	1489	1485	1493	1497	1487	1453	1449	1454	1461	1458	1463	1467	1471	1465	1460	1457	1447	1446	1448	1479	1506	1518	1502	1477	1458	1443	1447	1455	1460	1469	1475	1487	1498	1501	1477	1450	1428	1442	1461	1463	1462	1463	1464	1470	1471	1467	1470	1481	1490	1494	1491	1478	1466	1451	1443	1451	1449	1444	1439	1441	1443	1460	1464	1462	1454	1451	1452	1462	1475	1492	1494	1464	1475	1486	1480	1468	1466	1467	1474	1473	1454	1444	1427	1423	1403	1382	1269	1190	0	0	0	0	0	0	0	0	0	0	0	0	0	0	0	0	0	0	0	0	0	0	0	0	0	0	1232	1210	1175	1187	1204	1222	1228	0	0	0	0	0	0	0	0	0	0	0	0	0	0	0	0	0	0	0	0	0	0	0	0	0	0	0	0	0	0	0	0	0	0	0	0	0	0	0	1313	1449	1477	1495	1499	1496	1511	1501	1503	1460	1460	1480	1514	1515	1472	1466	1468	1478	1486	1495	1501	1500	1505	1503	1498	1463	1474	1516	1518	1518	1514	1503	1459	1464	1464	1498	1513	1505	1501	1497	1458	1457	1463	1468	1480	1497	1506	1516	1487	1478	1470	1492	1482	1467	1463	1482	1483	1472	1460	1462	1462	1462	1475	1485	1490	1483	1473	1464	1461	1462	1468	1484	1485	1489	1495	1489	1495	1498	1495	1483	1488	1492	1491	1490	1495	1491	1486	1495	1496	1491	1490	1497	1502	1479	1470	1483	1482	1479	1478	1483	1485	1475	1465	1455	1449	1458	1466	1480	1490	1489	1485	1469	1468	1475	1478	1476	1463	1461	1465	1475	1472	1470	1473	1479	1489	1497	1493	1495	1502	1510	1519	1516	1502	1489	1478	1481	1484	1487	1492	1493	1491	1489	1480	1469	1474	1479	1481	1484	1495	1509	1510	1505	1483	1469	1454	1448	1443	1441	1443	1454	0	0	0	0	0	0	0	0	0	0	0	0	0	0	0	828	804	785	785	796	811	824	826	825	820	813	810	813	818	823	823	815	812	799	796	810	814	815	811	804	807	817	823	817	807	801	812	826	836	842	835	837	842	839	828	821	822	831	841	845	850	847	838	833	837	840	834	833	817	804	793	795	798	812	816	826	837	853	886	1003	1114	1162	1203	1256	1360	1392	1421	1442	1462	1468	1468	1472	1477	1488	1496	1502	1492	1497	1497	1473	1472	1477	1479	1466	1460	1466	1468	1471	1469	1462	1460	1468	1477	1479	1492	1490	1477	1480	1488	1485	1480	1465	1464	1477	1484	1485	1471	1455	1480	1520	1536	1528	1506	1482	1468	1458	1469	1460	1464	1453	1439	1444	1449	1477	1486	1484	1471	1461	1462	1475	1486	1485	1486	1489	1499	1504	1489	1475	1467	1465	1467	1476	1489	1498	1496	1492	1497	1500	1504	1509	1505	1499	1491	1485	1486	1482	1483	1483	1485	1476	1464	1457	1457	1464	1470	1472	1471	1461	1457	1474	1482	1492	1493	1493	1484	1481	1478	1485	1484	1473	1455	1439	1442	1449	1450	1445	1426	1424	1435	1435	1456	1470	1474	1472	1465	1459	1444	1435	0	0	0	0	0	0	0	0
