0	0	0	0	0	0	0	0	0	0	0	0	0	0	0	0	0	0	0	0	0	0	0	0	0	0	0	0	0	0	0	0	0	0	0	0	0	0	0	0	0	0	0	0	0	0	0	0	0	0	0	0	0	0	0	0	0	0	0	0	0	0	0	0	0	0	0	0	0	0	0	0	0	0	0	0	0	0	0	0	0	0	0	0	0	0	0	0	0	0	0	0	0	1414	1463	1486	1500	1482	1450	1440	1439	1445	1443	1436	1432	1441	1458	1467	1485	1509	1518	1510	1498	1476	1456	1442	1440	1442	1458	1470	1479	1489	1493	1484	1480	1481	1490	0	0	0	0	0	0	0	0	0	0	0	0	0	0	0	0	0	0	0	0	0	0	0	0	0	0	0	0	0	0	0	0	0	0	0	0	0	0	0	1402	1401	1421	1452	1457	1434	1421	1435	0	1472	1451	1418	1437	1443	1410	1396	1390	1398	1404	1393	1376	1366	1371	1383	1386	1380	1396	1415	1415	1424	1423	1406	1383	1368	1364	1367	1373	1386	1395	1404	1412	1399	1402	1412	1417	1412	1368	1358	1366	1393	1409	1423	1428	1435	1454	1480	1498	1478	1415	1390	1364	1293	1255	1235	1217	1195	1174	1168	1158	0	0	0	1120	1151	1142	1148	0	0	0	0	1130	1111	1107	1102	1098	1091	1105	1114	1119	1125	1136	1150	1164	1161	1144	1130	1121	1119	1113	1123	1143	1178	0	1277	1314	1367	1474	1472	1452	1442	1454	1482	1506	1542	1566	1553	1525	1515	1523	1526	1526	1532	1532	1537	1524	1512	1502	1493	1481	1468	1465	1473	1500	1521	1530	1525	1517	1500	1477	1451	1425	1419	1440	1426	1414	1415	1409	1399	1394	1380	1379	1380	1369	1368	1367	1369	1373	1385	1397	1405	1418	1413	1401	1389	1369	1372	1380	1395	1400	1398	1387	1381	1367	1364	1364	1372	1387	1386	1383	1385	1388	1389	1395	1404	1394	1397	1404	1408	1397	1380	1372	1392	1395	1388	1393	1405	1418	1438	1468	1481	1481	1483	1478	1482	1502	1506	1489	1467	1459	1458	1458	1469	1475	1481	1488	1487	1487	1483	1475	1465	1454	1448	1449	1461	1473	1471	1468	1463	1478	1494	1494	1481	1468	1466	1466	1463	1455	1396	1254	1206	1166	1137	1125	0	0	0	0	0	0	1075	1072	1079	1083	1092	1097	1084	1087	1083	1084	1074	1068	1060	1061	1055	1050	1052	1060	1057	1070	1073	1069	1040	1050	1059	1060	1049	1031	1029	1028	1038	1063	1095	1124	1136	1184	1261	1314	1347	1438	0	0	1426	1406	1371	1335	1332	1346	1357	1360	1357	1355	1342	1328	1329	1348	1362	1375	1372	1361	1342	1325	1324	1328	1337	1346	1348	1334	1334	1342	1365	1368	1365	1359	1356	1348	1336	1339	1341	1339	1336	1341	1338	1321	1327	1329	1331	1340	1376	1408	1420	1423	1420	1419	1431	1452	1482	1506	1513	1511	1487	1480	1480	1484	1492	1504	1509	1499	1491	1467	1452	1446	1471	1490	1495	1498	1479	1464	1458	1463	1471	1477	1478	1469	1463	1461	1456	1457	1464	1474	1479	1471	1470	1479	1487	1503	1507	1512	1510	1511	1491	1477	1479	1479	1483	1477	1457	1451	1438	1436	1438	1461	1470	1470	1467	1468	1475	1483	1481	1475	1461	1447	1435	1438	1455	1462	1460	1460	1461	1453	1461	1464	1471	1477	1488	1497	1504	1494	1488	1473	1463	1459	1444	1437	1436	1449	1453	1454	1460	1462	1475	1471	1478	1483	1479	1477	1477	1463	1465	1469	1471	1466	1452	1441	1443	1434	1433	1449	1463	1470	1471	1471	1471	1459	1457	1464	1469	1468	0	0	0	0	0	0	0
0	0	0	0	0	0	0	0	0	0	0	0	0	0	0	0	0	0	0	0	0	0	0	0	0	0	0	0	0	0	0	0	0	0	0	0	0	0	0	0	0	0	0	0	0	0	0	0	0	0	0	0	0	0	0	0	0	0	0	0	0	0	0	0	0	0	0	0	0	0	0	0	0	0	0	0	0	0	0	0	0	0	0	0	0	0	0	0	0	0	0	0	0	1406	1459	1486	1492	1456	1422	1423	1431	1437	1435	1432	1430	1432	1444	1457	1474	1498	1504	1497	1482	1463	1448	1441	1440	1450	1458	1463	1470	1474	1478	1481	1475	1463	1451	1449	1474	1469	1449	1434	1441	1446	1431	1416	1410	1399	1394	1412	1457	1498	1516	1508	1469	1432	1442	1467	1500	1506	1493	1486	1488	1497	1519	1548	1554	1553	1528	1497	1477	1463	1452	1454	1465	1463	1461	1457	1464	1465	1455	1458	1465	1473	1483	1475	1468	1441	1455	1466	1447	1416	1414	1413	1400	1376	1362	1361	1374	1380	1382	1378	1395	1404	1399	1399	1402	1403	1386	1366	1358	1361	1375	1390	1404	1414	1427	1407	1405	1412	1426	1430	1413	1359	1375	1395	1420	1439	1449	1445	1449	1459	1452	1411	1374	1348	1302	1249	1188	1175	1175	1164	1136	1121	1104	1094	1101	1096	1100	1107	1105	1114	0	0	0	1112	1086	1085	1086	1087	1086	1086	1086	1094	1097	1099	1109	1123	1126	1120	0	1105	1101	1112	1115	1120	1123	1148	1180	1230	1294	1449	1466	1470	1462	1462	1474	1500	1516	1532	1539	1515	1493	1482	1477	1492	1509	1526	1533	1533	1526	1518	1511	1508	1499	1495	1492	1503	1510	1518	1518	1498	1492	1488	1475	1451	1435	1431	1441	1445	1427	1420	1416	1416	1399	1393	1394	1401	1385	1383	1395	1389	1382	1387	1395	1401	1418	1412	1399	1393	1403	1414	1423	1422	1415	1412	1398	1378	1373	1378	1384	1396	1394	1393	1390	1394	1399	1401	1407	1398	1397	1402	1401	1395	1384	1366	1386	1390	1397	1394	1393	1403	1417	1458	1476	1486	1491	1480	1469	1473	1492	1501	1492	1479	1474	1461	1461	1469	1479	1488	1493	1503	1509	1501	1483	1461	1462	1457	1461	1475	1476	1475	1465	1466	1470	1484	1490	1473	1463	1452	1457	1467	1422	1320	0	0	1169	1139	0	0	0	0	0	0	0	1061	1066	1069	1083	1085	1085	1075	1069	1065	1061	1060	1058	1062	1059	1057	1047	1027	1028	1028	1033	1012	1019	1031	1042	1049	1050	1029	1013	1002	993	998	1013	1065	1089	1100	1110	1139	1197	1281	1297	1330	1375	1406	1400	1383	1359	1352	1344	1344	1346	1344	1337	1356	1358	1359	1362	1379	1381	1371	1358	1339	1318	1310	1313	1330	1357	1382	1390	1392	1375	1361	1350	1358	1373	1387	1395	1396	1406	1403	1395	1368	1356	1369	1380	1376	1336	1336	1358	1389	1411	1429	1443	1445	1438	1443	1454	1471	1499	1511	1516	1490	1481	1481	1489	1493	1513	1518	1519	1505	1480	1459	1452	1476	1492	1500	1493	1473	1461	1455	1462	1477	1487	1487	1486	1481	1469	1458	1453	1456	1478	1483	1476	1475	1479	1484	1485	1502	1520	1525	1517	1500	1481	1471	1474	1473	1470	1464	1456	1447	1440	1438	1451	1463	1459	1463	1470	1476	1483	1475	1464	1451	1440	1426	1433	1449	1452	1464	1463	1464	1456	1455	1457	1476	1485	1492	1497	1496	1490	1474	1459	1453	1452	1446	1444	1440	1459	1459	1460	1466	1468	1465	1466	1469	1474	1478	1464	1464	1465	1471	1484	1476	1461	1439	1425	1435	1438	1433	1458	1465	1470	1464	1464	1470	1464	1460	1468	1476	1475	0	0	0	0	0	0	0
0	0	0	0	0	0	0	0	0	0	0	0	0	0	0	0	0	0	0	0	0	0	0	0	0	0	0	0	0	0	0	0	0	0	0	0	0	0	0	0	0	0	0	0	0	0	0	0	0	0	0	0	0	0	0	0	0	0	0	0	0	0	0	0	0	0	0	0	0	0	0	0	0	0	0	0	0	0	0	0	0	0	0	0	0	0	0	0	0	0	0	0	0	1408	1448	1460	1467	1442	1408	1409	1425	1431	1432	1430	1428	1431	1431	1439	1455	1480	1488	1475	1456	1445	1438	1443	1451	1453	1466	1475	1484	1479	1479	1479	1478	1466	1452	1445	1444	1436	1424	1430	1439	1436	1434	1427	1431	1438	1447	1455	1485	1515	1525	1501	1470	1437	1447	1473	1514	1509	1499	1499	1502	1505	1516	1530	1541	1529	1504	1484	1467	1460	1448	1454	1466	1467	1465	1464	1469	1467	1456	1451	1455	1456	1460	1475	1468	1457	1462	1473	1460	1444	1441	1448	1419	1397	1382	1403	1415	1411	1391	1375	1396	1399	1388	1384	1388	1397	1396	1388	1381	1382	1399	1419	1428	1432	1436	1430	1421	1430	1439	1447	1451	1430	1416	1415	1426	1445	1451	1444	1430	1408	1387	1375	1322	1269	1210	1154	1138	1139	1150	0	1108	1075	1062	1061	1064	1077	1088	1105	1108	1086	1058	1047	0	1075	1068	1073	1075	1074	1079	1081	1079	1075	1074	1083	1086	1090	1089	0	0	0	1093	1111	1122	1121	1128	1143	1167	1209	1310	1445	1470	1472	1471	1470	1485	1511	1516	1520	1514	1508	1492	1485	1483	1484	1499	1516	1522	1523	1526	1524	1525	1523	1518	1515	1512	1516	1518	1505	1487	1479	1483	1491	1489	1466	1455	1443	1450	1459	1449	1420	1424	1418	1405	1400	1406	1424	1450	1467	1463	1449	1429	1411	1395	1392	1389	1385	1385	1404	1422	1424	1414	1402	1404	1412	1403	1405	1410	1401	1400	1407	1417	1412	1404	1404	1415	1425	1417	1406	1393	1389	1401	1416	1416	1406	1397	1409	1412	1407	1397	1392	1424	1469	1479	1488	1487	1483	1469	1468	1485	1502	1498	1495	1481	1476	1473	1477	1492	1502	1506	1518	1523	1514	1494	1471	1462	1458	1473	1482	1488	1485	1478	1471	1476	1486	1485	1478	1459	1444	1448	1464	1417	0	0	0	0	0	0	0	0	0	0	0	0	1043	1056	1060	1074	1072	1067	1058	1046	1037	1033	1036	1039	1054	1060	1047	1031	1020	1023	1018	1009	1004	1004	1017	1031	1044	1039	1022	1003	991	985	987	1020	1065	0	1087	1086	1096	1168	1201	1230	1258	1291	1333	1365	1364	1360	1372	1374	1400	1424	1426	1414	1403	1404	1407	1422	1421	1417	1416	1413	1395	1375	1378	1403	1438	1465	1484	1467	1470	1471	1423	1397	1388	1390	1398	1409	1418	1425	1428	1433	1441	1438	1438	1433	1422	1378	1373	1382	1401	1425	1455	1473	1474	1469	1459	1465	1472	1480	1497	1503	1491	1484	1489	1499	1496	1512	1514	1514	1500	1480	1459	1460	1478	1488	1491	1480	1465	1465	1457	1466	1487	1493	1494	1488	1484	1468	1468	1453	1453	1468	1478	1470	1478	1472	1477	1478	1489	1501	1517	1518	1508	1488	1477	1463	1463	1470	1472	1469	1464	1454	1453	1451	1453	1451	1451	1461	1478	1482	1469	1456	1456	1439	1425	1425	1442	1443	1445	1454	1456	1439	1422	1434	1458	1484	1500	1497	1496	1481	1462	1447	1445	1446	1447	1454	1463	1471	1473	1467	1466	1464	1461	1456	1455	1459	1456	1459	1459	1470	1481	1494	1490	1460	1433	1419	1423	1434	1440	1448	1459	1456	1454	1454	1447	1454	1462	1476	1481	1482	0	0	0	0	0	0	0
0	0	0	0	0	0	0	0	0	0	0	0	0	0	0	0	0	0	0	0	0	0	0	0	0	0	0	0	0	0	0	0	0	0	0	0	0	0	0	0	0	0	0	0	0	0	0	0	0	0	0	0	0	0	0	0	0	0	0	0	0	0	0	0	0	0	0	0	0	0	0	0	0	0	0	0	0	0	0	0	0	0	0	0	0	0	0	0	0	0	0	0	0	1430	1448	1447	1449	1447	1440	1433	1426	1432	1436	1440	1434	1441	1439	1434	1435	1458	1471	1450	1445	1434	1447	1455	1464	1469	1476	1482	1481	1479	1473	1490	1494	1487	1475	1474	1471	1468	1462	1448	1447	1450	1443	1448	1447	1456	1462	1473	1491	1511	1514	1493	1465	1443	1443	1464	1495	1499	1485	1489	1498	1500	1500	1522	1523	1511	1493	1479	1467	1455	1452	1453	1466	1468	1470	1469	1469	1468	1462	1456	1456	1452	1453	1459	1472	1458	1459	1462	1462	1460	1460	1457	1427	1403	1401	1414	1428	1426	1403	1385	1402	1406	1396	1403	1430	1444	1440	1429	1420	1417	1438	1455	1463	1488	1485	1461	1446	1447	1458	1462	1462	1449	1433	1431	1440	1457	1465	1438	1400	1387	1373	1341	1165	1158	1145	1123	1113	1109	1110	1096	1072	1052	1044	1045	1043	1049	1064	1078	1085	1074	1041	1026	1025	1035	1055	1061	1059	1052	1052	1064	1062	1058	1056	1063	1070	1061	1056	1047	1045	1066	1082	1103	1115	1128	0	0	0	0	1327	1450	1475	1474	1475	1479	1479	1490	1510	1500	1500	1497	1499	1494	1494	1493	1501	1500	1500	1511	1511	1507	1508	1521	1530	1522	1516	1524	1528	1506	1474	1457	1470	1483	1497	1484	1470	1462	1461	1477	1477	1459	1439	1425	1408	1412	1417	1435	1457	1471	1470	1458	1443	1421	1404	1392	1392	1392	1396	1407	1420	1424	1413	1401	1400	1402	1398	1408	1419	1478	1468	1463	1458	1447	1443	1431	1427	1431	1423	1407	1395	1407	1417	1432	1431	1418	1416	1426	1428	1433	1455	1454	1461	1467	1471	1472	1466	1465	1465	1468	1488	1499	1502	1498	1485	1470	1467	1478	1489	1502	1510	1518	1520	1510	1492	1472	1460	1452	1458	1479	1495	1495	1491	1489	1486	1483	1492	1476	1446	1437	1440	1442	1433	0	0	0	0	0	0	0	0	0	0	0	0	1029	1039	1053	1062	1056	1046	1028	1014	1007	1006	1009	1021	1033	1040	1039	1017	1026	1029	1026	1017	1011	1006	1007	1023	1039	1044	1028	1009	1016	0	0	0	0	0	0	1075	1082	1082	1106	1118	1106	1166	1280	1314	1332	1371	1378	1377	1409	1424	1435	1438	1441	1445	1445	1441	1441	1448	1452	1444	1423	1400	1402	1420	1453	1484	1495	1485	1482	1480	1441	1417	1405	1403	1414	1420	1429	1452	1463	1458	1460	1454	1453	1455	1437	1403	1396	1410	1444	1472	1495	1506	1489	1483	1477	1474	1474	1467	1469	1482	1492	1496	1505	1498	1493	1492	1497	1499	1489	1476	1462	1461	1475	1480	1477	1467	1455	1457	1461	1474	1497	1500	1494	1491	1485	1483	1474	1461	1458	1460	1478	1473	1469	1465	1463	1459	1467	1491	1498	1503	1498	1482	1466	1451	1452	1461	1470	1479	1478	1477	1470	1464	1462	1453	1448	1455	1464	1461	1461	1452	1444	1433	1428	1428	1429	1439	1441	1459	1454	1436	1425	1431	1446	1472	1496	1501	1496	1475	1450	1433	1432	1443	1451	1464	1474	1481	1482	1473	1462	1457	1451	1446	1447	1447	1455	1474	1474	1492	1506	1510	1500	1474	1443	1435	1432	1444	1444	1445	1445	1444	1449	1449	1443	1450	1459	1469	1480	1482	0	0	0	0	0	0	0
0	0	0	0	0	0	0	0	0	0	0	0	0	0	0	0	0	0	0	0	0	0	0	0	0	0	0	0	0	0	0	0	0	0	0	0	0	0	0	0	0	0	0	0	0	0	0	0	0	0	0	0	0	0	0	0	0	0	0	0	0	0	0	0	0	0	0	0	0	0	0	0	0	0	0	0	0	0	0	0	0	0	0	0	0	0	0	0	0	0	0	0	0	1452	1449	1452	1447	1445	1453	1452	1447	1439	1446	1449	1457	1465	1467	1456	1447	1445	1444	1430	1435	1442	1459	1475	1478	1470	1470	1470	1455	1455	1466	1479	1493	1497	1497	1486	1499	1488	1480	1470	1461	1464	1458	1462	1470	1476	1471	1476	1485	1488	1489	1473	1462	1448	1442	1456	1471	1457	1458	1467	1483	1492	1493	1487	1486	1483	1483	1478	1478	1466	1456	1458	1463	1468	1464	1463	1471	1478	1481	1478	1472	1460	1455	1460	1462	1453	1445	1451	1456	1463	1461	1447	1437	1431	1432	1445	1456	1454	1442	1434	1438	1450	1460	1465	1470	1478	1477	1464	1438	1451	1473	1492	1505	1513	1511	1493	1472	1464	1462	1471	1477	1469	1451	1445	1447	1449	1451	1432	1384	1283	1194	1145	1130	1139	1129	1113	1097	1083	1069	1056	1050	1042	1042	1033	1025	1024	1030	1042	1046	1042	1030	1026	1028	1029	1028	1035	1050	1040	1036	1045	1042	1039	1038	1046	1054	1049	1039	1031	1027	1047	1069	1090	1106	0	0	0	0	0	1341	1460	1478	1481	1466	1463	1470	1479	1504	1494	1490	1493	1498	1504	1506	1506	1505	1493	1490	1489	1496	1493	1485	1482	1490	1496	1507	1526	1529	1515	1491	1483	1491	1496	1491	1485	1479	1476	1474	1481	1488	1485	1478	1471	1480	1483	1480	1483	1481	1473	1481	1486	1468	1459	1456	1460	1460	1464	1461	1492	1505	1518	1521	1492	1475	1452	1452	1465	1475	1472	1472	1495	1491	1508	1537	1504	1465	1466	1475	1480	1488	1501	1503	1498	1492	1485	1477	1477	1482	1488	1493	1491	1482	1476	1473	1470	1464	1461	1467	1478	1489	1492	1493	1492	1477	1462	1461	1468	1472	1487	1495	1504	1505	1504	1496	1483	1463	1454	1453	1477	1490	1502	1504	1500	1487	1487	1494	1481	1446	1440	1436	1437	1481	0	0	0	0	0	0	0	0	0	0	0	0	0	0	0	0	0	0	1010	999	998	999	995	1001	1007	986	996	999	1022	1035	1035	1031	1023	1012	1004	1010	1034	1045	1029	1020	0	0	0	0	0	0	0	0	0	0	1004	1002	1014	1042	1078	1222	1274	1357	1368	1379	1389	1414	1433	1466	1478	1484	1469	1457	1454	1472	1468	1467	1456	1446	1446	1462	1481	1505	1504	1484	1469	1464	1467	1463	1451	1438	1451	1458	1473	1484	1493	1499	1499	1499	1505	1504	1494	1441	1441	1462	1487	1508	1514	1501	1487	1485	1473	1475	1477	1471	1472	1470	1492	1518	1522	1496	1482	1479	1482	1486	1476	1469	1470	1470	1474	1460	1456	1454	1452	1459	1466	1492	1498	1497	1493	1491	1490	1481	1471	1462	1451	1458	1465	1467	1460	1450	1444	1432	1453	1471	1483	1481	1475	1465	1447	1442	1442	1443	1461	1472	1485	1484	1483	1478	1471	1467	1452	1451	1454	1451	1449	1448	1450	1438	1431	1429	1431	1433	1436	1463	1462	1449	1433	1435	1447	1464	1479	1490	1488	1469	1455	1438	1436	1446	1457	1469	1481	1490	1488	1480	1473	1461	1453	1444	1448	1457	1478	1478	1491	1501	1506	1499	1503	1508	1501	1491	1472	1458	1440	1436	1437	1442	1446	1446	1436	1438	1447	1463	1473	1475	0	0	0	0	0	0	0
0	0	0	0	0	0	0	0	0	0	0	0	0	0	0	0	0	0	0	0	0	0	0	0	0	0	0	0	0	0	0	0	0	0	0	0	0	0	0	0	0	0	0	0	0	0	0	0	0	0	0	0	0	0	0	0	0	0	0	0	0	0	0	0	0	0	0	0	0	0	0	0	0	0	0	0	0	0	0	0	0	0	0	0	0	0	0	0	0	0	0	0	0	1478	1465	1460	1454	1441	1442	1450	1451	1446	1456	1461	1472	1485	1496	1488	1478	1457	1438	1422	1438	1454	1475	1481	1475	1463	1463	1456	1447	1448	1465	1472	1491	1500	1511	1503	1503	1490	1482	1471	1476	1473	1476	1486	1491	1483	1478	1473	1476	1470	1460	1455	1447	1451	1449	1450	1454	1436	1435	1446	1467	1483	1491	1492	1489	1487	1484	1485	1480	1476	1460	1460	1452	1451	1457	1455	1467	1480	1485	1486	1480	1466	1457	1456	1456	1452	1450	1455	1457	1452	1450	1451	1446	1450	1457	1465	1468	1456	1454	1445	1442	1456	1466	1480	1488	1494	1479	1463	1441	1454	1485	1501	1509	1507	1499	1496	1479	1470	1471	1474	1487	1477	1457	1441	1438	1411	1305	1261	1211	1145	1125	1113	1120	1131	1130	1099	1076	1056	1043	1034	1035	1035	1028	1021	1008	1007	1004	1012	1015	1023	1024	1027	1026	1017	1014	1016	1018	1020	1025	1028	1036	1032	1030	1028	1038	1044	1042	1044	1043	1055	1070	1085	0	0	0	0	0	0	1376	1479	1487	1478	1469	1463	1462	1471	1500	1496	1494	1494	1497	1502	1506	1510	1508	1499	1486	1490	1492	1491	1483	1477	1482	1490	1501	1512	1519	1515	1510	1498	1501	1499	1494	1486	1482	1475	1470	1471	1475	1472	1464	1471	1486	1485	1491	1491	1491	1472	1482	1480	1474	1471	1468	1473	1476	1477	1481	1482	1507	1517	1524	1504	1486	1459	1457	1465	1471	1465	1468	1494	1491	1501	1529	1499	1462	1463	1481	1489	1501	1511	1505	1498	1490	1483	1479	1480	1487	1495	1499	1495	1484	1472	1470	1465	1464	1461	1469	1480	1488	1486	1483	1479	1470	1466	1471	1480	1482	1469	1464	1477	1490	1496	1490	1484	1479	1467	1473	1482	1499	1517	1534	1513	1500	1497	1501	1488	1451	1445	1439	1441	1513	0	0	0	0	0	0	0	0	0	1034	1020	0	0	0	0	0	0	0	0	1001	997	997	987	0	0	957	969	978	998	1015	1032	1036	1035	1027	1015	1010	1013	1031	1024	1010	1010	0	0	0	0	0	0	0	0	0	0	0	975	985	1001	1019	1036	1123	1237	1265	1345	1398	1424	1461	1478	1489	1474	1458	1476	1470	1467	1459	1444	1447	1456	1482	1497	1507	1499	1483	1467	1466	1467	1468	1467	1469	1473	1480	1487	1489	1499	1508	1512	1515	1518	1517	1502	1461	1452	1469	1497	1518	1518	1502	1489	1473	1473	1480	1477	1484	1483	1483	1487	1505	1502	1484	1472	1470	1469	1468	1470	1466	1464	1469	1463	1461	1457	1455	1476	1482	1481	1487	1493	1487	1485	1488	1487	1479	1459	1451	1444	1448	1453	1458	1452	1442	1429	1430	1446	1466	1477	1462	1452	1445	1442	1442	1434	1431	1441	1458	1476	1490	1490	1490	1487	1480	1468	1454	1451	1447	1451	1460	1454	1450	1437	1434	1435	1442	1458	1471	1473	1468	1456	1442	1446	1460	1474	1474	1479	1476	1465	1460	1456	1459	1468	1479	1484	1492	1492	1491	1486	1480	1467	1464	1462	1477	1489	1489	1493	1484	1465	1461	1468	1494	1506	1505	1494	1477	1448	1432	1432	1447	1453	1453	1446	1442	1452	1468	1470	1466	0	0	0	0	0	0	0
0	0	0	0	0	0	0	0	0	0	0	0	0	0	0	0	0	0	0	0	0	0	0	0	0	0	0	0	0	0	0	0	0	0	0	0	0	0	0	0	0	0	0	0	0	0	0	0	0	0	0	0	0	0	0	0	0	0	0	0	0	0	0	0	0	0	0	0	0	0	0	0	0	0	0	0	0	0	0	0	0	0	0	0	0	0	0	0	0	0	0	0	0	1482	1475	1465	1452	1437	1435	1444	1452	1453	1455	1469	1487	1496	1504	1503	1494	1488	1465	1456	1464	1472	1473	1469	1459	1447	1458	1455	1451	1453	1472	1485	1492	1501	1511	1511	1493	1476	1466	1466	1478	1485	1494	1499	1498	1488	1477	1464	1460	1455	1434	1430	1446	1461	1464	1461	1451	1436	1437	1446	1465	1487	1492	1491	1491	1490	1489	1492	1492	1479	1468	1450	1437	1441	1448	1461	1461	1478	1483	1486	1475	1470	1461	1456	1453	1453	1464	1461	1455	1450	1452	1454	1453	1455	1464	1465	1464	1465	1453	1443	1440	1450	1462	1480	1490	1489	1476	1461	1454	1477	1513	1519	1516	1505	1494	1492	1485	1479	1479	1481	1488	1467	1418	1372	1321	1242	1187	1181	1159	1135	1125	0	0	0	0	1090	1054	1034	1019	1017	1017	1013	1004	994	986	985	978	988	990	1000	1007	1018	1032	1026	1002	1001	1006	1017	1015	1025	1034	1034	1024	1025	1031	1043	1053	1059	1067	1074	0	0	0	0	0	0	0	1351	1488	1498	1483	1473	1471	1469	1463	1477	1487	1502	1495	1498	1503	1505	1507	1513	1511	1505	1495	1492	1499	1493	1485	1482	1484	1489	1497	1499	1513	1512	1507	1506	1503	1504	1498	1490	1484	1473	1461	1465	1469	1471	1468	1470	1490	1494	1498	1501	1510	1511	1497	1486	1477	1482	1483	1479	1478	1486	1490	1475	1476	1473	1488	1500	1493	1474	1469	1469	1474	1504	1513	1512	1508	1492	1480	1470	1460	1457	1460	1472	1502	1504	1497	1475	1465	1464	1478	1473	1488	1496	1490	1473	1454	1455	1456	1456	1463	1483	1488	1479	1472	1470	1462	1463	1468	1474	1492	1495	1490	1476	1467	1473	1485	1490	1483	1484	1483	1482	1485	1501	1511	1522	1535	1515	1502	1499	1496	1472	1454	1453	1449	1456	1493	1532	0	0	0	0	0	0	0	0	0	1022	0	0	0	0	0	0	0	0	0	0	0	0	0	0	0	0	0	0	0	0	0	0	0	0	1026	1014	1012	1007	998	997	0	0	0	0	0	0	0	0	0	0	0	994	983	984	989	995	1007	1033	1064	1150	1273	1310	1390	1435	1460	1457	1474	1480	1470	1458	1440	1427	1433	1465	1488	1504	1493	1482	1473	1462	1460	1476	1481	1487	1489	1492	1495	1493	1492	1494	1499	1500	1507	1514	1510	1479	1457	1457	1472	1496	1515	1521	1500	1483	1478	1472	1477	1495	1497	1501	1489	1486	1479	1472	1465	1469	1474	1471	1458	1454	1458	1464	1472	1482	1479	1473	1468	1476	1487	1483	1477	1471	1466	1463	1476	1484	1478	1460	1440	1440	1451	1453	1451	1455	1455	1442	1435	1450	1468	1469	1462	1443	1442	1444	1443	1434	1432	1431	1442	1455	1477	1494	1497	1497	1484	1468	1454	1444	1452	1454	1463	1463	1455	1447	1441	1453	1457	1469	1481	1489	1482	1465	1450	1449	1454	1466	1481	1489	1493	1488	1478	1469	1468	1472	1477	1487	1488	1494	1495	1492	1490	1478	1474	1479	1488	1491	1491	1484	1461	1440	1427	1439	1466	1496	1512	1501	1484	1449	1428	1437	1449	1449	1461	1466	1444	1447	1457	1463	1464	0	0	0	0	0	0	0
0	0	0	0	0	0	0	0	0	0	0	0	0	0	0	0	0	0	0	0	0	0	0	0	0	0	0	0	0	0	0	0	0	0	0	0	0	0	0	0	0	0	0	0	0	0	0	0	0	0	0	0	0	0	0	0	0	0	0	0	0	0	0	0	0	0	0	0	0	0	0	0	0	0	0	0	0	0	0	0	0	0	0	0	0	0	0	0	0	0	0	0	0	1482	1482	1467	1447	1439	1435	1439	1448	1462	1476	1493	1498	1498	1486	1486	1487	1485	1480	1479	1478	1473	1468	1467	1456	1447	1460	1465	1461	1474	1476	1480	1489	1495	1509	1502	1488	1466	1451	1459	1485	1497	1503	1506	1502	1488	1466	1456	1449	1452	1441	1433	1454	1476	1482	1475	1469	1446	1440	1461	1480	1483	1485	1478	1484	1489	1486	1491	1486	1477	1464	1449	1432	1438	1451	1459	1468	1478	1479	1475	1476	1466	1462	1453	1452	1456	1476	1477	1469	1461	1458	1455	1457	1465	1470	1471	1471	1469	1462	1449	1438	1440	1457	1472	1483	1480	1467	1460	1469	1498	1527	1538	1528	1506	1489	1480	1476	1470	1472	1478	1442	1384	1337	1256	1201	1186	1177	1169	1164	0	0	0	0	0	0	0	1038	1020	1009	1002	0	0	996	986	975	968	969	974	985	994	1004	0	1029	1024	1001	1001	1011	1016	0	0	0	0	1016	1009	1024	1035	1062	1076	0	0	0	0	0	0	0	0	1319	1468	1483	1473	1469	1468	1476	1481	1487	1492	1494	1487	1476	1467	1468	1479	1492	1506	1515	1523	1519	1514	1508	1492	1486	1484	1493	1498	1506	1505	1513	1505	1507	1509	1519	1520	1509	1495	1483	1471	1462	1477	1486	1496	1472	1474	1481	1483	1476	1507	1521	1516	1506	1499	1495	1494	1490	1480	1480	1489	1489	1481	1461	1466	1479	1497	1498	1474	1465	1473	1485	1490	1488	1488	1491	1491	1483	1474	1467	1459	1464	1466	1472	1478	1475	1471	1459	1457	1471	1481	1492	1493	1481	1466	1452	1451	1451	1445	1453	1466	1477	1469	1463	1455	1451	1447	1457	1470	1489	1502	1493	1485	1482	1486	1486	1480	1470	1478	1476	1487	1503	1508	1512	1522	1512	1505	1495	1491	1485	1467	1463	1466	1474	1471	1471	1480	0	0	0	0	0	0	0	0	0	0	0	0	0	0	0	0	0	0	0	0	0	0	0	0	0	0	0	0	0	0	0	0	0	0	0	0	0	0	0	0	0	0	0	0	0	0	0	0	0	0	0	0	983	976	969	966	981	996	1031	1058	1082	1131	1269	1358	1392	1456	1465	1467	1463	1446	1425	1421	1432	1463	1488	1492	1473	1468	1460	1460	1477	1489	1491	1494	1492	1500	1506	1501	1484	1476	1472	1479	1491	1504	1504	1470	1456	1452	1468	1487	1502	1508	1507	1494	1492	1489	1507	1514	1512	1514	1505	1485	1471	1461	1461	1461	1479	1474	1473	1464	1456	1461	1477	1493	1494	1487	1476	1485	1487	1478	1459	1447	1441	1454	1466	1481	1477	1457	1442	1445	1458	1460	1459	1461	1470	1471	1460	1457	1469	1478	1473	1453	1447	1447	1445	1445	1437	1429	1429	1436	1458	1484	1490	1490	1483	1469	1457	1459	1459	1463	1465	1472	1465	1459	1458	1467	1472	1482	1483	1485	1485	1471	1460	1454	1459	1473	1485	1493	1497	1484	1476	1472	1470	1466	1472	1476	1480	1490	1491	1491	1489	1481	1479	1487	1490	1494	1494	1480	1456	1430	1416	1425	1446	1478	1493	1497	1481	1449	1436	1440	1456	1456	1478	1472	1456	1448	1443	1449	1483	0	0	0	0	0	0	0
0	0	0	0	0	0	0	0	0	0	0	0	0	0	0	0	0	0	0	0	0	0	0	0	0	0	0	0	0	0	0	0	0	0	0	0	0	0	0	0	0	0	0	0	0	0	0	0	0	0	0	0	0	0	0	0	0	0	0	0	0	0	0	0	0	0	0	0	0	0	0	0	0	0	0	0	0	0	0	0	0	0	0	0	0	0	0	0	0	0	0	0	0	1480	1485	1473	1449	1441	1436	1441	1451	1464	1470	1480	1491	1487	1456	1462	1477	1493	1496	1489	1491	1481	1481	1471	1471	1470	1477	1484	1478	1472	1463	1460	1468	1468	1482	1484	1485	1474	1473	1478	1502	1509	1518	1523	1512	1500	1478	1469	1463	1458	1449	1459	1484	1498	1496	1501	1494	1467	1466	1483	1500	1488	1472	1450	1448	1459	1476	1485	1480	1471	1460	1453	1434	1442	1451	1458	1463	1465	1467	1471	1472	1475	1470	1461	1452	1459	1496	1502	1488	1471	1464	1465	1473	1478	1475	1474	1468	1470	1464	1454	1444	1448	1460	1476	1488	1469	1457	1449	1456	1485	1517	1532	1518	1501	1482	1470	1457	1421	1376	1310	1259	1255	1245	1216	1193	1181	1177	1171	0	0	0	0	0	0	0	0	1033	1009	1006	998	998	0	999	988	972	967	965	966	977	985	999	0	1011	1010	995	997	1005	1013	0	0	0	0	0	0	0	0	0	0	0	0	0	0	0	0	0	1295	1423	1469	1472	1480	1474	1477	1476	1475	1472	1483	1488	1475	1462	1454	1456	1466	1485	1504	1517	1519	1513	1508	1495	1487	1486	1492	1499	1503	1501	1504	1500	1496	1497	1500	1509	1511	1501	1489	1472	1460	1456	1469	1488	1487	1481	1482	1486	1480	1471	1463	1516	1520	1509	1498	1490	1490	1485	1480	1486	1488	1492	1484	1472	1458	1469	1489	1492	1470	1469	1481	1502	1507	1503	1498	1497	1490	1481	1473	1468	1463	1463	1459	1457	1468	1469	1472	1470	1479	1475	1485	1495	1491	1484	1475	1462	1459	1460	1455	1462	1469	1472	1466	1457	1453	1447	1447	1447	1473	1485	1490	1486	1480	1484	1485	1487	1481	1469	1473	1475	1488	1499	1498	1500	1502	1514	1510	1494	1484	1477	1468	1469	1486	1487	1479	1452	1441	1435	0	0	0	0	0	0	0	0	0	0	0	0	0	0	0	0	0	0	0	0	0	0	0	0	0	0	0	0	976	972	0	0	0	0	0	0	0	0	0	0	0	0	0	0	0	0	0	0	0	0	980	970	963	956	954	960	979	1008	1035	1039	1039	1055	1098	1198	1426	1447	1451	1448	1430	1423	1424	1431	1454	1471	1473	1466	1461	1451	1457	1481	1485	1488	1486	1491	1503	1496	1498	1479	1462	1453	1456	1480	1505	1514	1483	1462	1462	1471	1479	1492	1507	1512	1518	1521	1521	1517	1514	1499	1494	1498	1487	1476	1469	1459	1465	1471	1477	1474	1467	1462	1465	1476	1493	1497	1498	1487	1485	1481	1468	1447	1436	1436	1454	1473	1478	1470	1460	1451	1461	1466	1478	1472	1473	1480	1476	1467	1459	1472	1482	1483	1473	1463	1461	1452	1444	1439	1436	1427	1430	1442	1461	1476	1481	1478	1475	1475	1478	1468	1464	1467	1460	1465	1460	1464	1470	1479	1479	1477	1480	1478	1472	1457	1454	1469	1485	1491	1491	1480	1471	1473	1477	1467	1467	1467	1472	1476	1480	1484	1481	1481	1474	1476	1480	1499	1497	1497	1489	1464	1436	1415	1417	1434	1459	1473	1469	1465	1450	1441	1443	1461	1461	1471	1475	1456	1448	1444	1466	1486	0	0	0	0	0	0	0
0	0	0	0	0	0	0	0	0	0	0	0	0	0	0	0	0	0	0	0	0	0	0	0	0	0	0	0	0	0	0	0	0	0	0	0	0	0	0	0	0	0	0	0	0	0	0	0	0	0	0	0	0	0	0	0	0	0	0	0	0	0	0	0	0	0	0	0	0	0	0	0	0	0	0	0	0	0	0	0	0	0	0	0	0	0	0	0	0	0	0	0	0	1499	1458	1428	1437	1438	1453	1452	1455	1462	1468	1475	1484	1484	1466	1468	1478	1491	1492	1489	1491	1486	1478	1476	1473	1477	1491	1496	1489	1471	1457	1448	1443	1448	1458	1469	1481	1480	1477	1476	1490	1494	1507	1518	1510	1495	1467	1453	1447	1444	1455	1464	1470	1479	1479	1482	1474	1481	1488	1498	1506	1506	1471	1435	1426	1441	1468	1486	1473	1463	1464	1466	1444	1440	1442	1445	1449	1441	1448	1460	1467	1475	1475	1475	1467	1466	1512	1517	1491	1478	1467	1469	1476	1480	1481	1485	1486	1481	1474	1458	1443	1455	1474	1488	1480	1464	1449	1440	1437	1456	1483	1504	1506	1495	1474	1441	1312	1222	1172	1187	1215	1231	1226	1205	1183	1176	1165	0	0	0	0	0	0	0	1056	1035	1022	1005	999	994	994	1000	1005	1000	976	961	956	958	961	966	978	986	992	987	977	979	981	993	990	979	973	0	0	0	0	0	0	0	0	0	0	0	0	0	1292	1398	1444	1460	1475	1485	1485	1481	1476	1472	1480	1486	1487	1483	1464	1455	1454	1468	1484	1505	1518	1521	1511	1501	1495	1483	1482	1491	1502	1502	1501	1491	1485	1482	1484	1491	1499	1499	1495	1483	1463	1450	1449	1462	1470	1473	1482	1486	1487	1480	1467	1455	1492	1510	1503	1489	1478	1476	1475	1476	1476	1489	1491	1491	1479	1470	1474	1484	1486	1479	1472	1488	1495	1500	1498	1495	1493	1487	1481	1475	1471	1471	1466	1464	1462	1461	1464	1470	1480	1483	1481	1488	1492	1486	1482	1491	1498	1512	1487	1467	1475	1475	1472	1470	1469	1462	1458	1457	1464	1471	1478	1478	1469	1464	1469	1477	1487	1485	1483	1481	1477	1493	1493	1494	1489	1492	1500	1492	1494	1486	1479	1472	1479	1486	1489	1469	1447	1429	1423	1421	0	0	0	0	0	0	0	0	0	0	0	0	0	0	0	0	939	938	946	946	938	930	944	960	0	0	959	953	945	0	0	0	939	940	936	951	961	974	982	0	0	0	0	940	946	960	960	963	950	949	948	947	942	944	955	977	1002	1013	1008	1008	1016	1031	1057	1152	1301	1385	1400	1410	1421	1426	1433	1446	1454	1460	1459	1461	1451	1455	1479	1479	1481	1478	1488	1497	1488	1478	1470	1452	1451	1461	1500	1502	1513	1504	1489	1486	1477	1481	1491	1501	1508	1515	1516	1512	1509	1500	1486	1473	1477	1483	1486	1486	1483	1471	1477	1475	1470	1469	1463	1464	1470	1482	1487	1494	1496	1489	1484	1466	1445	1429	1436	1460	1469	1473	1477	1476	1483	1488	1495	1499	1505	1505	1505	1487	1473	1455	1468	1478	1485	1481	1472	1461	1453	1448	1444	1442	1438	1439	1444	1457	1467	1469	1478	1488	1495	1492	1482	1467	1464	1464	1472	1470	1471	1472	1478	1473	1470	1474	1471	1471	1464	1464	1482	1492	1496	1486	1474	1470	1480	1483	1480	1474	1473	1472	1471	1466	1469	1467	1467	1467	1475	1490	1501	1501	1505	1490	1472	1439	1418	1414	1426	1435	1445	1448	1453	1449	1449	1453	1459	1459	1468	1470	1444	1448	1450	1459	1442	0	0	0	0	0	0	0
0	0	0	0	0	0	0	0	0	0	0	0	0	0	0	0	0	0	0	0	0	0	0	0	0	0	0	0	0	0	0	0	0	0	0	0	0	0	0	0	0	0	0	0	0	0	0	0	0	0	0	0	0	0	0	0	0	0	0	0	0	0	0	0	0	0	0	0	0	0	0	0	0	0	0	0	0	0	0	0	0	0	0	0	0	0	0	0	0	0	0	0	0	1516	1448	1428	1437	1462	1464	1464	1465	1473	1470	1479	1484	1477	1476	1473	1477	1485	1484	1491	1488	1487	1481	1477	1478	1486	1494	1495	1491	1471	1456	1442	1431	1431	1439	1457	1469	1472	1471	1469	1471	1483	1493	1503	1507	1493	1463	1444	1432	1441	1450	1456	1459	1465	1453	1435	1436	1460	1466	1472	1477	1489	1485	1462	1435	1441	1462	1480	1472	1466	1466	1477	1448	1436	1438	1443	1437	1427	1433	1450	1461	1478	1477	1471	1467	1467	1515	1521	1491	1467	1461	1461	1469	1476	1485	1497	1512	1507	1511	1479	1457	1466	1490	1501	1501	1480	1448	1432	1427	1437	1454	1463	1449	1394	1293	1236	1149	1139	1148	1158	1181	1193	1194	1174	1150	1143	0	0	0	0	0	0	0	1042	1016	993	991	975	972	974	979	992	1004	998	986	965	958	952	951	954	952	964	969	962	961	963	966	967	968	962	965	0	0	0	0	0	0	0	0	0	0	0	0	0	1371	1403	1446	1452	1468	1473	1486	1482	1479	1483	1485	1493	1493	1489	1474	1473	1468	1476	1493	1521	1511	1479	1450	1483	1488	1486	1483	1484	1492	1498	1498	1488	1480	1477	1473	1481	1486	1493	1489	1481	1458	1481	1470	1444	1437	1452	1472	1489	1504	1476	1463	1443	1473	1470	1466	1467	1457	1455	1463	1465	1471	1481	1491	1495	1493	1491	1489	1492	1486	1486	1474	1472	1465	1470	1480	1485	1488	1486	1488	1483	1485	1483	1479	1475	1470	1475	1479	1484	1492	1489	1484	1483	1481	1476	1471	1478	1507	1518	1496	1483	1482	1482	1478	1479	1481	1470	1461	1458	1466	1466	1466	1463	1459	1454	1454	1465	1464	1474	1478	1480	1494	1511	1504	1491	1481	1477	1484	1485	1489	1489	1487	1481	1477	1481	1482	1469	1452	1439	1431	1449	1449	0	0	0	0	0	0	0	0	0	0	0	0	0	0	934	923	931	930	922	910	908	921	943	937	939	938	936	932	924	919	911	906	907	911	918	938	950	950	942	927	910	903	908	927	945	944	939	941	934	934	927	922	927	945	963	981	988	977	972	979	986	1022	1034	1082	1191	1251	1339	1391	1421	1425	1434	1447	1453	1456	1459	1459	1460	1463	1468	1463	1468	1475	1488	1479	1470	1470	1474	1473	1488	1484	1490	1507	1514	1509	1500	1490	1488	1488	1493	1501	1502	1500	1497	1491	1492	1480	1466	1459	1469	1479	1488	1479	1473	1478	1482	1482	1469	1461	1457	1447	1446	1449	1460	1497	1516	1520	1502	1466	1441	1442	1455	1475	1485	1488	1479	1488	1485	1490	1496	1496	1500	1500	1497	1477	1455	1454	1467	1475	1475	1469	1462	1452	1449	1443	1440	1440	1450	1461	1469	1471	1467	1473	1470	1480	1487	1483	1476	1466	1466	1483	1497	1489	1469	1460	1458	1465	1464	1463	1464	1469	1473	1484	1491	1496	1478	1478	1476	1495	1509	1502	1491	1480	1474	1467	1463	1455	1452	1450	1456	1472	1485	1492	1492	1486	1482	1465	1439	1430	1427	1431	1435	1440	1445	1448	1448	1451	1455	1460	1460	1463	1464	1452	1454	1452	1443	1413	0	0	0	0	0	0	0
0	0	0	0	0	0	0	0	0	0	0	0	0	0	0	0	0	0	0	0	0	0	0	0	0	0	0	0	0	0	0	0	0	0	0	0	0	0	0	0	0	0	0	0	0	0	0	0	0	0	0	0	0	0	0	0	0	0	0	0	0	0	0	0	0	0	0	0	0	0	0	0	0	0	0	0	0	0	0	0	0	0	0	0	0	0	0	0	0	0	0	0	0	1528	1460	1452	1456	1465	1465	1467	1470	1473	1481	1478	1479	1478	1471	1465	1469	1462	1460	1473	1485	1486	1477	1480	1481	1489	1495	1487	1482	1467	1454	1439	1422	1426	1439	1457	1469	1476	1471	1464	1467	1475	1485	1500	1507	1498	1474	1455	1449	1441	1445	1448	1462	1452	1434	1408	1416	1444	1461	1466	1468	1474	1477	1467	1455	1452	1456	1467	1480	1480	1475	1478	1439	1434	1442	1450	1439	1431	1428	1446	1471	1478	1472	1469	1464	1474	1493	1515	1490	1464	1450	1457	1460	1478	1497	1509	1514	1508	1503	1488	1472	1463	1481	1499	1493	1470	1446	1431	1426	1414	1417	1363	1275	1178	1140	1131	1112	1107	1116	1134	1149	1158	1146	1134	1111	1099	1100	1092	0	0	0	0	0	1000	986	977	970	961	952	953	960	974	994	998	982	968	964	960	956	945	937	940	943	948	949	946	939	947	956	960	0	0	0	0	0	0	0	0	0	0	0	0	0	1359	1398	1411	1442	1448	1458	1468	1474	1479	1477	1485	1490	1495	1499	1496	1489	1491	1488	1508	1530	1542	1512	1509	1515	1467	1495	1499	1487	1490	1494	1500	1500	1494	1487	1483	1479	1482	1488	1494	1487	1471	1505	1495	1473	1460	1445	1448	1458	1472	1491	1493	1471	1465	1475	1464	1466	1461	1454	1453	1454	1459	1467	1474	1481	1496	1501	1502	1495	1495	1481	1469	1458	1449	1450	1458	1461	1468	1475	1480	1491	1497	1501	1486	1484	1487	1479	1479	1485	1492	1496	1497	1492	1485	1479	1463	1455	1459	1472	1489	1485	1482	1489	1489	1488	1491	1485	1476	1462	1460	1457	1458	1460	1465	1469	1461	1459	1452	1447	1451	1459	1477	1507	1515	1503	1493	1479	1469	1472	1479	1491	1502	1495	1483	1477	1477	1483	1477	1468	1461	1452	1470	1474	1415	0	0	0	0	0	0	0	0	0	0	0	0	0	933	923	921	922	910	899	897	915	924	925	915	923	929	933	928	922	900	900	898	902	901	905	914	917	915	908	898	902	907	916	933	929	931	931	929	915	902	898	903	920	941	955	948	944	950	951	948	972	981	979	986	1019	1095	1194	1283	1368	1404	1416	1432	1442	1452	1463	1462	1457	1457	1451	1453	1460	1470	1470	1475	1473	1467	1465	1475	1475	1478	1492	1515	1516	1504	1493	1490	1492	1492	1493	1488	1490	1490	1495	1504	1495	1477	1461	1466	1470	1469	1449	1454	1471	1483	1490	1480	1462	1452	1447	1440	1441	1436	1497	1527	1533	1514	1482	1462	1462	1474	1490	1489	1486	1484	1483	1481	1479	1479	1479	1480	1484	1499	1495	1450	1442	1449	1461	1467	1464	1458	1463	1465	1452	1446	1444	1454	1470	1487	1477	1463	1457	1455	1465	1480	1477	1475	1462	1460	1477	1491	1483	1470	1462	1453	1452	1449	1436	1449	1464	1471	1476	1484	1489	1481	1480	1488	1512	1535	1532	1513	1496	1484	1478	1468	1456	1446	1445	1447	1478	1480	1477	1477	1464	1455	1446	1442	1436	1441	1443	1447	1450	1448	1446	1446	1455	1463	1460	1460	1461	1461	1458	1458	1453	1433	1397	0	0	0	0	0	0	0
0	0	0	0	0	0	0	0	0	0	0	0	0	0	0	0	0	0	0	0	0	0	0	0	0	0	0	0	0	0	0	0	0	0	0	0	0	0	0	0	0	0	0	0	0	0	0	0	0	0	0	0	0	0	0	0	0	0	0	0	0	0	0	0	0	0	0	0	0	0	0	0	0	0	0	0	0	0	0	0	0	0	0	0	0	0	0	0	0	0	0	0	0	1534	1466	1459	1462	1465	1470	1466	1468	1471	1471	1480	1475	1465	1464	1460	1459	1454	1460	1464	1480	1467	1466	1475	1482	1489	1483	1477	1477	1471	1458	1436	1423	1424	1444	1463	1478	1490	1483	1473	1468	1471	1482	1504	1511	1506	1488	1475	1462	1453	1435	1427	1441	1446	1440	1436	1426	1448	1470	1468	1471	1472	1466	1467	1457	1446	1451	1472	1493	1491	1479	1474	1480	1485	1492	1488	1461	1443	1435	1451	1479	1481	1468	1467	1470	1479	1503	1522	1490	1462	1454	1453	1468	1485	1502	1510	1508	1489	1489	1486	1470	1458	1472	1480	1474	1455	1400	1374	1335	1255	1117	1108	1113	1114	1106	1089	1074	1078	1088	1102	1117	1133	1123	1093	1074	1072	1069	1071	1068	1063	0	0	1009	990	974	965	966	958	955	954	956	969	992	998	986	974	966	962	961	942	925	922	926	932	931	923	915	0	0	0	0	0	0	0	0	0	0	0	0	0	1371	1430	1411	1417	1419	1418	1411	1441	1462	1467	1473	1475	1479	1483	1494	1494	1493	1497	1500	1505	1514	1517	1527	1499	1532	1537	1543	1512	1520	1508	1498	1497	1503	1504	1501	1499	1498	1493	1491	1493	1492	1489	1487	1500	1528	1515	1505	1543	1527	1468	1476	1492	1477	1480	1474	1473	1482	1472	1475	1465	1468	1476	1481	1480	1481	1482	1489	1492	1496	1498	1490	1486	1471	1441	1437	1440	1445	1450	1461	1467	1482	1499	1509	1514	1512	1501	1498	1497	1490	1485	1490	1496	1499	1495	1492	1480	1474	1462	1449	1454	1460	1463	1465	1481	1487	1486	1489	1494	1496	1479	1469	1459	1464	1468	1473	1483	1487	1476	1468	1448	1440	1437	1445	1463	1492	1503	1502	1487	1484	1479	1478	1474	1480	1500	1501	1493	1487	1482	1491	1494	1482	1473	1472	1484	1496	1436	0	0	0	0	0	0	0	0	0	0	0	0	0	0	922	914	909	898	890	895	904	917	917	915	918	923	927	925	920	907	898	898	896	887	880	874	885	889	894	891	894	902	907	901	901	906	911	910	897	884	880	889	903	915	923	922	923	928	926	916	922	931	935	924	929	957	1017	1059	1137	1227	1263	1312	1360	1438	1460	1463	1455	1448	1444	1444	1452	1464	1469	1473	1466	1450	1442	1452	1469	1488	1497	1517	1511	1494	1493	1493	1491	1496	1494	1494	1493	1499	1502	1507	1507	1508	1495	1480	1475	1464	1451	1454	1473	1486	1494	1479	1454	1454	1452	1446	1446	1440	1491	1525	1532	1515	1499	1482	1478	1477	1488	1490	1490	1476	1473	1462	1466	1466	1450	1445	1456	1465	1482	1441	1432	1443	1459	1465	1464	1473	1476	1477	1467	1453	1444	1454	1478	1490	1481	1463	1446	1447	1451	1466	1464	1460	1451	1464	1480	1489	1484	1470	1466	1462	1453	1449	1440	1454	1467	1474	1467	1457	1462	1464	1463	1481	1517	1539	1544	1520	1499	1492	1485	1477	1464	1457	1455	1462	1478	1479	1466	1466	1453	1444	1439	1439	1448	1448	1452	1456	1461	1456	1453	1449	1461	1465	1469	1469	1466	1462	1458	1456	1459	1435	1404	0	0	0	0	0	0	0
0	0	0	0	0	0	0	0	0	0	0	0	0	0	0	0	0	0	0	0	0	0	0	0	0	0	0	0	0	0	0	0	0	0	0	0	0	0	0	0	0	0	0	0	0	0	0	0	0	0	0	0	0	0	0	0	0	0	0	0	0	0	0	0	0	0	0	0	0	0	0	0	0	0	0	0	0	0	0	0	0	0	0	0	0	0	0	0	0	0	0	0	0	1524	1471	1470	1465	1467	1465	1463	1469	1469	1473	1470	1463	1458	1458	1453	1453	1449	1459	1458	1462	1455	1455	1466	1477	1486	1479	1473	1478	1478	1469	1457	1445	1446	1454	1473	1497	1510	1509	1492	1475	1476	1491	1504	1511	1509	1498	1483	1471	1458	1431	1419	1427	1447	1450	1457	1471	1471	1478	1478	1467	1459	1464	1467	1461	1450	1444	1476	1504	1510	1489	1474	1477	1496	1496	1487	1471	1452	1440	1454	1471	1490	1479	1469	1475	1490	1503	1513	1494	1466	1455	1455	1470	1482	1500	1503	1498	1490	1484	1479	1473	1451	1455	1451	1421	1381	1274	1199	1158	1090	1073	1080	1094	1097	1089	1072	1059	1056	1066	1080	1097	1100	1095	1078	1068	1065	1073	1075	1069	1059	1043	1021	996	973	961	966	971	971	974	972	966	971	979	989	980	969	963	967	962	947	927	912	910	906	908	913	0	0	0	0	0	0	0	0	0	0	0	0	0	1372	1452	1481	1487	1486	1441	1435	1427	1448	1479	1482	1481	1480	1482	1485	1488	1490	1491	1497	1503	1512	1525	1498	1497	1490	1525	1544	1554	1531	1526	1514	1502	1503	1501	1497	1494	1503	1510	1509	1506	1502	1499	1493	1488	1486	1534	1540	1546	1547	1532	1526	1508	1507	1483	1467	1468	1477	1484	1488	1483	1478	1491	1491	1496	1498	1505	1506	1503	1487	1479	1482	1484	1482	1464	1440	1446	1448	1453	1458	1468	1478	1496	1514	1527	1514	1505	1498	1502	1502	1500	1487	1485	1499	1490	1488	1479	1472	1464	1458	1463	1468	1467	1463	1464	1467	1470	1468	1473	1486	1494	1492	1479	1477	1476	1483	1488	1496	1499	1487	1481	1460	1445	1436	1441	1454	1475	1493	1489	1485	1486	1483	1482	1480	1476	1494	1504	1500	1505	1511	1513	1515	1500	1486	1479	1489	1501	1490	1402	0	0	0	0	0	0	0	0	0	0	0	0	0	933	909	887	877	866	877	892	911	911	907	910	901	906	907	902	895	892	890	887	875	859	852	854	865	871	878	882	889	882	879	878	882	884	884	876	868	867	875	889	894	894	902	906	911	907	896	890	893	895	885	883	896	927	951	977	1034	1156	1219	1293	1367	1435	1442	1435	1437	1446	1453	1456	1465	1468	1472	1464	1445	1437	1445	1468	1485	1498	1517	1511	1506	1502	1489	1482	1482	1481	1471	1485	1486	1487	1501	1506	1510	1502	1492	1484	1471	1455	1459	1468	1481	1483	1473	1452	1447	1453	1455	1452	1446	1482	1508	1512	1504	1487	1480	1477	1476	1483	1493	1493	1478	1464	1456	1453	1461	1452	1442	1444	1454	1445	1435	1433	1442	1453	1469	1480	1488	1496	1491	1478	1463	1455	1467	1482	1495	1482	1463	1446	1449	1454	1459	1460	1461	1451	1463	1485	1490	1485	1477	1479	1470	1456	1450	1455	1462	1473	1473	1470	1459	1461	1467	1471	1468	1474	1485	1484	1504	1494	1486	1488	1477	1471	1470	1467	1478	1486	1489	1479	1479	1470	1450	1435	1444	1452	1455	1460	1462	1458	1459	1458	1458	1469	1475	1475	1478	1470	1456	1454	1454	1463	1444	1427	0	0	0	0	0	0	0
0	0	0	0	0	0	0	0	0	0	0	0	0	0	0	0	0	0	0	0	0	0	0	0	0	0	0	0	0	0	0	0	0	0	0	0	0	0	0	0	0	0	0	0	0	0	0	0	0	0	0	0	0	0	0	0	0	0	0	0	0	0	0	0	0	0	0	0	0	0	0	0	0	0	0	0	0	0	0	0	0	0	0	0	0	0	0	0	0	0	0	0	0	1519	1480	1478	1472	1471	1468	1464	1462	1469	1472	1468	1457	1448	1455	1457	1451	1447	1446	1446	1462	1453	1464	1469	1485	1493	1488	1487	1486	1479	1472	1458	1455	1456	1468	1475	1487	1510	1509	1508	1477	1483	1496	1494	1495	1488	1488	1484	1484	1469	1449	1436	1436	1451	1457	1469	1476	1479	1488	1487	1486	1475	1466	1467	1465	1460	1453	1480	1509	1512	1494	1478	1469	1477	1470	1464	1451	1442	1439	1454	1474	1496	1499	1495	1487	1495	1501	1483	1466	1446	1429	1446	1448	1468	1478	1500	1501	1501	1486	1475	1463	1448	1428	1321	1247	1173	1144	1079	1067	1069	1075	1083	1089	1098	1092	1081	1063	1061	1064	1070	1081	1087	1082	1078	1073	1077	1081	1082	1073	1065	1047	1016	998	978	967	970	977	984	0	0	0	0	967	974	979	961	962	969	968	961	946	0	0	909	0	0	0	0	0	0	0	0	0	0	0	0	0	0	1394	1463	1481	1492	1506	1478	1461	1468	1437	1469	1491	1493	1490	1489	1487	1487	1483	1482	1487	1491	1497	1504	1517	1511	1472	1474	1509	1540	1527	1512	1502	1505	1500	1507	1496	1487	1479	1490	1516	1518	1510	1501	1496	1498	1498	1494	1492	1497	1513	1524	1528	1514	1500	1505	1479	1472	1480	1478	1480	1479	1485	1506	1495	1493	1499	1505	1510	1495	1494	1486	1477	1485	1481	1481	1476	1468	1468	1470	1462	1465	1469	1479	1503	1509	1519	1503	1501	1502	1506	1510	1507	1500	1494	1496	1492	1483	1465	1465	1457	1464	1477	1480	1474	1460	1462	1461	1462	1453	1462	1468	1487	1495	1494	1495	1489	1495	1501	1500	1499	1486	1476	1463	1447	1445	1451	1462	1472	1485	1492	1493	1495	1495	1488	1479	1484	1493	1500	1507	1515	1521	1526	1533	1520	1501	1489	1490	1505	1502	1480	1439	0	0	0	0	0	0	0	0	0	0	0	0	0	911	876	859	850	846	866	896	890	890	882	879	879	880	876	870	866	863	865	859	855	840	840	847	855	862	868	869	862	861	865	868	866	867	863	855	854	859	866	874	876	883	892	898	898	893	876	870	866	861	864	872	890	911	924	941	1004	1043	1109	1196	1324	1389	1393	1410	1437	1460	1473	1471	1466	1469	1468	1454	1442	1447	1466	1478	1500	1502	1502	1506	1511	1502	1481	1447	1445	1445	1462	1467	1481	1498	1508	1511	1512	1493	1476	1453	1458	1460	1463	1473	1477	1463	1448	1444	1441	1454	1464	1452	1469	1487	1491	1471	1461	1459	1450	1470	1474	1493	1494	1479	1468	1464	1468	1474	1482	1472	1462	1463	1459	1445	1443	1447	1464	1486	1501	1507	1509	1506	1495	1478	1474	1479	1494	1492	1484	1467	1456	1455	1467	1475	1480	1480	1467	1466	1474	1486	1486	1484	1483	1481	1472	1460	1459	1460	1474	1475	1471	1465	1464	1471	1480	1476	1473	1471	1476	1482	1478	1480	1485	1479	1472	1471	1475	1489	1495	1504	1504	1498	1492	1468	1454	1462	1460	1463	1461	1462	1466	1462	1460	1461	1466	1479	1479	1479	1467	1456	1449	1452	1467	1460	0	0	0	0	0	0	0	0
0	0	0	0	0	0	0	0	0	0	0	0	0	0	0	0	0	0	0	0	0	0	0	0	0	0	0	0	0	0	0	0	0	0	0	0	0	0	0	0	0	0	0	0	0	0	0	0	0	0	0	0	0	0	0	0	0	0	0	0	0	0	0	0	0	0	0	0	0	0	0	0	0	0	0	0	0	0	0	0	0	0	0	0	0	0	0	0	0	0	0	0	0	1526	1511	1499	1488	1474	1464	1456	1463	1469	1477	1474	1464	1447	1450	1451	1451	1454	1450	1456	1464	1470	1466	1482	1501	1512	1510	1495	1481	1468	1462	1459	1463	1463	1458	1460	1483	1505	1509	1497	1473	1478	1485	1480	1472	1470	1473	1480	1479	1466	1451	1450	1464	1469	1463	1455	1450	1472	1485	1497	1493	1493	1479	1477	1474	1464	1464	1475	1489	1492	1483	1477	1463	1454	1443	1435	1426	1424	1433	1452	1475	1489	1495	1497	1501	1509	1500	1457	1447	1432	1429	1426	1436	1440	1467	1492	1503	1503	1491	1465	1439	1413	1285	1177	1105	1081	1078	0	0	1095	1086	1092	1104	1106	1105	1099	1089	1090	1080	1074	1080	1087	1094	1092	1088	1087	1094	1097	1091	0	0	0	0	0	0	0	0	0	0	0	0	0	0	0	0	0	0	983	981	0	0	0	0	0	0	0	0	0	0	0	0	0	0	0	0	0	0	1402	1437	1468	1488	1504	1482	1453	1458	1480	1508	1505	1502	1504	1500	1500	1497	1494	1487	1477	1474	1473	1468	1464	1506	1515	1516	1475	1493	1508	1511	1513	1495	1493	1497	1491	1489	1476	1472	1483	1507	1510	1502	1494	1491	1499	1505	1503	1494	1494	1496	1501	1477	1477	1488	1470	1469	1485	1487	1483	1472	1474	1487	1504	1498	1497	1501	1507	1500	1495	1491	1490	1487	1500	1505	1490	1486	1489	1490	1478	1463	1459	1460	1476	1482	1498	1495	1490	1489	1489	1500	1506	1511	1504	1494	1494	1489	1478	1467	1461	1466	1476	1488	1497	1486	1476	1466	1461	1452	1452	1452	1456	1466	1482	1488	1489	1491	1503	1509	1515	1506	1497	1492	1469	1459	1467	1474	1483	1486	1489	1501	1512	1512	1507	1488	1472	1480	1502	1503	1501	1500	1502	1526	1534	1526	1507	1483	1484	1494	1478	1475	1462	1447	0	0	0	0	0	0	0	0	0	0	0	0	0	884	854	840	832	838	857	863	867	860	855	854	851	848	845	842	841	849	859	854	841	842	840	848	854	860	860	854	852	856	860	860	860	861	860	861	854	856	864	867	873	877	888	896	888	877	864	855	851	848	855	866	879	893	907	922	944	959	989	1060	1330	1351	1383	1417	1453	1467	1466	1462	1469	1472	1471	1465	1456	1467	1471	1483	1483	1495	1502	1511	1506	1482	1453	1435	1439	1454	1467	1473	1489	1504	1512	1510	1505	1477	1466	1468	1464	1458	1465	1464	1466	1452	1439	1440	1453	1464	1465	1467	1477	1474	1458	1443	1444	1447	1459	1469	1480	1481	1484	1475	1468	1477	1490	1504	1496	1484	1482	1481	1467	1450	1456	1475	1503	1517	1517	1512	1502	1491	1487	1483	1495	1499	1489	1487	1475	1469	1475	1480	1493	1500	1499	1480	1467	1466	1476	1482	1485	1489	1485	1482	1476	1470	1471	1472	1474	1471	1471	1471	1479	1489	1492	1484	1483	1494	1495	1489	1492	1500	1494	1471	1464	1476	1484	1495	1497	1497	1499	1491	1468	1466	1463	1464	1462	1465	1472	1475	1470	1461	1464	1466	1466	1466	1468	1465	1454	1456	1451	1490	1469	0	0	0	0	0	0	0	0
0	0	0	0	0	0	0	0	0	0	0	0	0	0	0	0	0	0	0	0	0	0	0	0	0	0	0	0	0	0	0	0	0	0	0	0	0	0	0	0	0	0	0	0	0	0	0	0	0	0	0	0	0	0	0	0	0	0	0	0	0	0	0	0	0	0	0	0	0	0	0	0	0	0	0	0	0	0	0	0	0	0	0	0	0	0	0	0	0	0	0	0	0	0	1517	1506	1499	1493	1477	1470	1469	1467	1479	1480	1475	1453	1454	1455	1453	1458	1469	1469	1469	1470	1476	1499	1522	1525	1511	1489	1463	1452	1450	1455	1457	1457	1454	1452	1472	1494	1497	1491	1463	1460	1470	1466	1461	1457	1466	1473	1475	1468	1459	1464	1475	1476	1455	1442	1437	1448	1490	1494	1493	1493	1487	1481	1477	1471	1466	1462	1467	1465	1461	1462	1461	1445	1431	1426	1417	1417	1428	1446	1468	1481	1487	1488	1500	1507	1495	1460	1446	1437	1426	1425	1432	1437	1449	1481	1495	1492	1476	1429	1380	1299	1126	1101	1094	0	0	0	0	0	1111	1112	1121	1129	1130	1129	1126	1129	1126	1110	1103	1107	1113	1116	1111	1107	0	0	0	0	0	0	0	0	0	0	0	0	0	0	0	0	0	0	0	0	0	0	0	0	0	0	0	0	0	0	0	0	0	0	0	0	0	0	0	0	1387	1422	1442	1454	1491	1516	1482	1454	1466	1485	1515	1511	1512	1507	1510	1513	1510	1499	1491	1478	1465	1458	1458	1465	1496	1513	1520	1510	1496	1503	1503	1514	1494	1486	1484	1492	1489	1473	1473	1490	1505	1502	1487	1482	1483	1495	1506	1503	1497	1493	1487	1442	1449	1476	1474	1446	1476	1488	1488	1485	1474	1490	1497	1500	1500	1497	1501	1502	1500	1499	1498	1497	1496	1506	1504	1503	1495	1492	1496	1474	1459	1451	1451	1463	1466	1485	1489	1489	1486	1491	1489	1499	1499	1505	1497	1494	1487	1476	1465	1469	1469	1481	1487	1498	1492	1482	1479	1471	1467	1459	1452	1460	1465	1476	1476	1481	1489	1500	1511	1518	1517	1521	1499	1483	1483	1498	1503	1494	1492	1496	1505	1510	1516	1507	1485	1461	1475	1495	1500	1506	1501	1505	1513	1522	1516	1497	1469	1465	1470	1473	1466	1465	1471	0	0	0	0	0	0	0	0	0	0	0	0	0	0	863	837	820	834	847	846	841	841	839	838	834	830	825	826	832	846	860	862	858	851	846	846	849	853	855	851	853	857	856	854	858	859	860	865	857	872	872	873	872	868	870	879	889	880	866	858	851	846	845	854	861	870	873	878	884	886	897	918	1125	1295	1349	1393	1425	1440	1445	1443	1455	1466	1474	1438	1427	1432	1450	1479	1481	1480	1480	1496	1497	1485	1462	1450	1453	1458	1472	1483	1487	1492	1502	1511	1510	1495	1480	1473	1468	1457	1457	1461	1460	1460	1454	1448	1458	1470	1471	1462	1474	1477	1464	1452	1450	1455	1459	1462	1465	1465	1469	1466	1468	1477	1492	1504	1501	1491	1482	1488	1473	1459	1463	1485	1507	1513	1508	1494	1487	1481	1483	1487	1495	1501	1500	1486	1480	1479	1487	1493	1501	1498	1497	1473	1457	1455	1469	1472	1474	1473	1474	1470	1469	1468	1472	1471	1476	1474	1474	1475	1484	1499	1505	1505	1503	1504	1502	1490	1482	1503	1507	1488	1471	1462	1464	1477	1481	1481	1475	1461	1454	1453	1459	1460	1457	1461	1473	1490	1481	1469	1459	1458	1470	1470	1463	1457	1458	1460	1464	1491	1466	0	0	0	0	0	0	0	0
0	0	0	0	0	0	0	0	0	0	0	0	0	0	0	0	0	0	0	0	0	0	0	0	0	0	0	0	0	0	0	0	0	0	0	0	0	0	0	0	0	0	0	0	0	0	0	0	0	0	0	0	0	0	0	0	0	0	0	0	0	0	0	0	0	0	0	0	0	0	0	0	0	0	0	0	0	0	0	0	0	0	0	0	0	0	0	0	0	0	0	0	0	0	1501	1501	1496	1495	1490	1482	1477	1464	1475	1491	1489	1476	1463	1457	1454	1463	1473	1477	1471	1465	1480	1511	1534	1525	1495	1453	1446	1450	1449	1452	1452	1450	1442	1445	1455	1466	1470	1467	1449	1458	1458	1465	1460	1456	1466	1476	1473	1464	1456	1459	1473	1475	1454	1441	1447	1460	1498	1490	1482	1484	1479	1462	1460	1461	1454	1444	1441	1443	1452	1452	1462	1450	1444	1440	1439	1434	1435	1449	1459	1474	1475	1483	1494	1489	1492	1461	1451	1441	1436	1428	1425	1417	1405	1454	1459	1412	1291	1208	1158	1121	0	0	0	0	0	0	0	0	1134	1142	1146	1149	1155	1162	1162	1167	1171	1161	1156	1148	1158	1145	1134	0	0	0	0	0	0	0	0	0	0	0	0	0	0	0	0	0	0	0	0	0	0	0	0	0	0	0	0	0	0	0	0	0	0	0	0	0	0	0	0	1355	1432	1447	1450	1452	1470	1499	1531	1482	1482	1483	1500	1510	1511	1527	1528	1524	1516	1508	1493	1473	1456	1446	1455	1466	1488	1504	1500	1509	1496	1500	1503	1519	1501	1483	1476	1481	1464	1464	1475	1490	1491	1487	1475	1476	1483	1498	1503	1502	1497	1491	1448	1435	1452	1467	1448	1482	1484	1477	1475	1475	1487	1493	1494	1499	1494	1501	1496	1491	1493	1497	1502	1496	1499	1499	1498	1502	1491	1488	1488	1476	1465	1449	1446	1454	1461	1470	1471	1481	1485	1490	1487	1494	1493	1489	1487	1483	1474	1469	1462	1465	1473	1481	1488	1487	1484	1481	1482	1477	1469	1462	1460	1466	1475	1475	1472	1478	1490	1496	1504	1506	1519	1525	1511	1502	1510	1509	1509	1502	1499	1498	1495	1505	1512	1504	1483	1465	1478	1493	1507	1509	1507	1499	1505	1510	1499	1480	1476	1483	1495	1489	1487	1474	1468	1454	0	0	0	0	0	0	0	0	0	0	0	0	0	0	853	823	825	835	827	817	815	819	823	822	822	826	824	834	848	862	865	863	857	851	849	842	838	848	854	857	859	857	851	849	850	854	860	869	884	884	879	867	855	855	866	887	885	875	864	858	852	850	848	854	852	850	842	834	831	839	860	915	965	1020	1112	1297	1381	1392	1346	1369	1388	1401	1406	1408	1417	1438	1459	1467	1473	1468	1482	1486	1480	1460	1454	1460	1468	1473	1471	1486	1496	1504	1510	1502	1496	1484	1470	1464	1459	1454	1458	1460	1468	1469	1471	1466	1467	1480	1480	1481	1486	1483	1475	1469	1467	1469	1466	1466	1453	1454	1452	1449	1463	1482	1499	1495	1479	1473	1477	1467	1456	1465	1485	1511	1511	1502	1485	1476	1478	1478	1486	1489	1503	1507	1499	1486	1476	1485	1493	1493	1493	1485	1465	1463	1460	1470	1466	1460	1462	1455	1451	1456	1462	1473	1481	1482	1475	1475	1478	1512	1521	1513	1502	1503	1499	1495	1479	1478	1491	1509	1501	1483	1474	1469	1471	1472	1470	1462	1458	1444	1443	1454	1452	1449	1452	1465	1484	1483	1471	1464	1467	1472	1472	1462	1460	1454	1461	1465	1488	1457	0	0	0	0	0	0	0	0
0	0	0	0	0	0	0	0	0	0	0	0	0	0	0	0	0	0	0	0	0	0	0	0	0	0	0	0	0	0	0	0	0	0	0	0	0	0	0	0	0	0	0	0	0	0	0	0	0	0	0	0	0	0	0	0	0	0	0	0	0	0	0	0	0	0	0	0	0	0	0	0	0	0	0	0	0	0	0	0	0	0	0	0	0	0	0	0	0	0	0	0	0	0	1482	1476	1491	1496	1500	1493	1481	1470	1478	1491	1492	1476	1468	1459	1458	1466	1468	1470	1459	1464	1474	1500	1518	1511	1481	1453	1451	1454	1454	1457	1451	1445	1445	1439	1441	1445	1453	1451	1450	1455	1456	1460	1458	1454	1457	1466	1466	1461	1457	1453	1463	1465	1463	1458	1471	1489	1497	1473	1461	1444	1426	1430	1443	1442	1438	1436	1438	1443	1451	1462	1474	1464	1465	1471	1472	1461	1456	1462	1466	1474	1473	1481	1479	1486	1484	1475	1446	1437	1429	1399	1283	1272	1216	0	0	0	0	1135	1111	0	0	0	0	0	0	0	0	0	0	1187	1190	1195	1197	1208	1211	1207	1206	1210	1205	1194	1185	1164	0	0	0	0	0	0	0	0	0	0	0	0	0	0	0	0	0	0	0	0	0	0	0	0	0	0	0	0	0	0	0	0	0	0	0	0	0	0	0	0	1332	1441	1458	1452	1455	1459	1469	1480	1499	1521	1474	1474	1479	1524	1526	1516	1530	1490	1464	1461	1466	1465	1454	1441	1455	1479	1494	1498	1496	1509	1494	1500	1507	1512	1507	1487	1482	1463	1466	1477	1492	1508	1516	1514	1504	1516	1493	1499	1499	1497	1493	1459	1423	1430	1438	1467	1492	1497	1475	1461	1460	1468	1477	1485	1490	1496	1493	1485	1472	1478	1483	1493	1500	1498	1499	1497	1503	1498	1495	1485	1480	1472	1463	1455	1454	1465	1460	1448	1449	1455	1468	1485	1490	1488	1489	1487	1489	1485	1475	1470	1467	1471	1480	1486	1483	1477	1469	1476	1484	1480	1482	1477	1476	1476	1479	1474	1473	1474	1489	1493	1490	1494	1507	1514	1518	1518	1512	1513	1510	1495	1492	1480	1487	1502	1504	1501	1483	1471	1480	1495	1509	1508	1497	1495	1498	1493	1487	1489	1495	1513	1528	1525	1506	1487	1466	1437	1413	0	0	0	0	0	0	0	0	0	0	0	0	0	0	823	822	820	810	797	792	802	807	812	814	819	824	832	844	855	857	853	851	850	844	831	819	835	844	852	858	852	843	834	828	836	852	862	878	881	871	856	846	843	850	882	880	876	868	865	861	855	856	853	845	834	820	808	801	806	826	874	905	942	987	926	947	963	1009	1196	1282	1330	1354	1365	1390	1419	1432	1436	1446	1452	1462	1470	1473	1463	1458	1464	1477	1475	1476	1483	1494	1494	1485	1488	1483	1478	1472	1462	1456	1456	1457	1462	1467	1475	1481	1468	1470	1480	1485	1484	1487	1493	1495	1490	1491	1495	1491	1474	1463	1453	1434	1437	1441	1458	1485	1483	1473	1477	1474	1464	1457	1458	1487	1504	1510	1500	1484	1467	1465	1474	1476	1484	1496	1507	1499	1488	1479	1486	1493	1491	1482	1473	1472	1475	1486	1484	1472	1462	1453	1448	1442	1443	1451	1462	1473	1477	1470	1472	1481	1502	1513	1507	1503	1489	1478	1479	1475	1475	1484	1499	1495	1489	1481	1476	1480	1480	1481	1481	1460	1451	1450	1450	1448	1443	1435	1451	1460	1465	1463	1469	1476	1476	1480	1470	1463	1461	1464	1468	1475	1435	0	0	0	0	0	0	0	0
0	0	0	0	0	0	0	0	0	0	0	0	0	0	0	0	0	0	0	0	0	0	0	0	0	0	0	0	0	0	0	0	0	0	0	0	0	0	0	0	0	0	0	0	0	0	0	0	0	0	0	0	0	0	0	0	0	0	0	0	0	0	0	0	0	0	0	0	0	0	0	0	0	0	0	0	0	0	0	0	0	0	0	0	0	0	0	0	0	0	0	0	0	0	1444	1447	1467	1495	1500	1492	1477	1475	1479	1490	1485	1476	1465	1460	1459	1465	1468	1465	1458	1458	1471	1482	1478	1474	1469	1457	1455	1458	1466	1463	1462	1456	1457	1450	1442	1436	1444	1444	1459	1463	1468	1463	1455	1443	1443	1459	1469	1465	1463	1467	1460	1462	1466	1463	1475	1491	1484	1458	1438	1422	1420	1423	1436	1449	1447	1444	1441	1448	1455	1468	1486	1482	1485	1492	1488	1483	1476	1470	1475	1486	1479	1465	1464	1457	1463	1450	1425	1369	1304	1184	0	0	0	0	0	0	0	0	0	0	0	0	0	0	0	0	0	0	0	0	1226	1228	1231	1238	1233	1224	1210	1209	1212	1201	1191	0	0	0	0	0	0	0	0	0	0	0	0	0	0	0	0	0	0	0	0	0	0	0	0	0	0	0	0	0	0	0	0	0	0	0	0	0	0	0	0	1322	1460	1471	1468	1461	1460	1465	1468	1464	1470	1501	1458	1450	1464	1518	1519	1508	1486	1459	1458	1475	1494	1476	1459	1447	1459	1470	1498	1502	1496	1508	1496	1503	1502	1500	1518	1502	1488	1470	1470	1472	1490	1502	1504	1496	1485	1515	1508	1502	1492	1488	1467	1438	1428	1426	1480	1510	1508	1490	1466	1452	1450	1468	1479	1483	1493	1489	1483	1470	1459	1459	1468	1483	1494	1498	1499	1492	1492	1499	1511	1522	1519	1501	1480	1472	1489	1505	1496	1484	1465	1473	1508	1498	1487	1499	1497	1495	1491	1487	1482	1471	1468	1465	1471	1475	1471	1462	1465	1472	1483	1495	1497	1495	1493	1483	1476	1475	1476	1479	1486	1491	1491	1488	1487	1491	1510	1517	1511	1508	1504	1493	1492	1478	1481	1487	1494	1488	1472	1474	1487	1501	1512	1504	1491	1488	1489	1492	1498	1509	1518	1533	1540	1531	1521	1498	1481	1454	1415	1374	0	0	0	0	0	0	0	0	0	0	0	0	0	0	0	815	793	782	785	789	794	795	799	803	813	827	834	845	842	838	840	843	837	826	812	820	829	840	841	838	828	817	809	814	819	837	848	855	855	842	831	824	836	862	864	866	859	855	852	851	850	849	838	827	810	804	796	803	810	832	807	815	826	848	861	870	886	944	1038	1147	1273	1322	1351	1377	1405	1419	1430	1440	1452	1459	1465	1470	1471	1472	1484	1483	1480	1484	1489	1477	1477	1480	1475	1468	1463	1463	1462	1470	1467	1467	1468	1475	1485	1472	1474	1480	1485	1484	1488	1490	1490	1494	1503	1507	1504	1482	1465	1453	1435	1439	1447	1456	1470	1480	1479	1484	1485	1476	1457	1469	1485	1509	1518	1499	1476	1458	1459	1468	1472	1484	1494	1499	1494	1486	1484	1486	1489	1492	1484	1475	1472	1477	1499	1497	1492	1465	1449	1438	1433	1435	1445	1451	1459	1464	1463	1463	1471	1484	1504	1507	1492	1478	1464	1470	1477	1477	1482	1487	1491	1489	1482	1480	1477	1477	1478	1471	1465	1463	1461	1456	1449	1442	1429	1425	1427	1433	1448	1456	1477	1477	1481	1476	1471	1471	1469	1468	1459	1412	0	0	0	0	0	0	0	0
0	0	0	0	0	0	0	0	0	0	0	0	0	0	0	0	0	0	0	0	0	0	0	0	0	0	0	0	0	0	0	0	0	0	0	0	0	0	0	0	0	0	0	0	0	0	0	0	0	0	0	0	0	0	0	0	0	0	0	0	0	0	0	0	0	0	0	0	0	0	0	0	0	0	0	0	0	0	0	0	0	0	0	0	0	0	0	0	0	0	0	0	0	0	1409	1425	1440	1472	1484	1482	1477	1474	1478	1480	1478	1469	1455	1450	1450	1458	1462	1461	1459	1461	1467	1477	1471	1466	1459	1459	1464	1467	1471	1478	1481	1480	1474	1467	1453	1445	1451	1459	1478	1480	1478	1474	1456	1434	1436	1446	1462	1468	1472	1472	1466	1462	1471	1477	1483	1497	1472	1447	1428	1419	1421	1430	1452	1468	1474	1461	1453	1448	1464	1479	1490	1485	1489	1498	1493	1493	1485	1489	1482	1475	1457	1438	1426	1410	1425	1408	1175	0	0	0	0	0	0	0	0	0	0	0	0	0	0	0	0	0	0	0	0	0	0	0	1232	1232	1234	1242	1242	1229	1201	1189	1186	1178	1173	0	0	0	0	0	0	0	0	0	0	0	0	0	0	0	0	0	0	0	0	0	0	0	0	0	0	0	0	0	0	0	0	0	0	0	0	0	0	0	0	1427	1480	1477	1471	1466	1469	1484	1480	1454	1469	1436	1428	1432	1441	1503	1502	1490	1486	1476	1466	1458	1464	1476	1491	1509	1472	1485	1488	1497	1506	1507	1493	1496	1502	1489	1518	1506	1499	1488	1478	1485	1503	1509	1506	1493	1491	1502	1511	1484	1481	1472	1455	1448	1439	1519	1499	1516	1509	1485	1455	1443	1451	1468	1483	1485	1488	1486	1476	1462	1450	1462	1469	1480	1485	1487	1489	1473	1472	1488	1509	1520	1509	1494	1482	1481	1501	1513	1511	1504	1482	1472	1494	1510	1469	1480	1488	1492	1494	1491	1484	1469	1465	1468	1470	1476	1481	1483	1476	1483	1499	1509	1509	1502	1495	1484	1483	1482	1480	1490	1499	1503	1504	1504	1499	1502	1502	1507	1507	1501	1503	1504	1485	1476	1479	1489	1488	1484	1478	1478	1494	1504	1505	1491	1486	1490	1494	1500	1512	1523	1534	1540	1541	1535	1521	1509	1491	1480	1453	1397	0	0	0	0	0	0	0	0	0	0	0	0	0	0	0	0	0	780	778	779	781	784	786	788	800	815	820	828	826	830	836	832	822	815	810	818	816	821	821	818	814	801	789	788	794	806	810	820	825	821	813	809	833	837	832	833	838	835	833	832	838	835	831	821	811	806	807	825	809	795	786	783	787	804	809	819	822	838	858	881	945	1205	1249	1293	1363	1377	1397	1417	1435	1452	1465	1470	1472	1481	1482	1478	1472	1472	1477	1473	1471	1475	1479	1473	1473	1469	1474	1486	1494	1479	1472	1477	1484	1479	1484	1487	1480	1477	1472	1466	1471	1475	1488	1499	1495	1481	1472	1453	1453	1450	1449	1457	1465	1472	1486	1489	1496	1479	1474	1471	1482	1505	1503	1491	1466	1457	1456	1469	1473	1487	1489	1491	1479	1477	1477	1488	1494	1495	1488	1479	1471	1480	1502	1503	1496	1466	1444	1433	1434	1439	1442	1451	1458	1461	1469	1464	1467	1477	1496	1501	1488	1474	1468	1479	1490	1489	1482	1480	1479	1483	1480	1474	1465	1465	1456	1454	1450	1449	1452	1452	1454	1442	1428	1415	1401	1407	1426	1447	1460	1460	1469	1462	1466	1465	1467	1470	1458	1394	0	0	0	0	0	0	0	0
0	0	0	0	0	0	0	0	0	0	0	0	0	0	0	0	0	0	0	0	0	0	0	0	0	0	0	0	0	0	0	0	0	0	0	0	0	0	0	0	0	0	0	0	0	0	0	0	0	0	0	0	0	0	0	0	0	0	0	0	0	0	0	0	0	0	0	0	0	0	0	0	0	0	0	0	0	0	0	0	0	0	0	0	0	0	0	0	0	0	0	0	0	1413	1403	1421	1436	1460	1472	1469	1471	1473	1477	1474	1477	1466	1451	1449	1449	1455	1457	1458	1460	1459	1467	1475	1469	1454	1451	1457	1462	1465	1468	1473	1485	1495	1492	1482	1467	1462	1467	1489	1486	1477	1481	1469	1455	1434	1429	1438	1450	1461	1471	1468	1460	1453	1469	1482	1504	1499	1464	1440	1429	1423	1431	1452	1484	1493	1488	1471	1445	1441	1459	1477	1482	1489	1485	1485	1481	1480	1491	1486	1468	1439	1410	1369	1342	1273	1157	1149	0	0	0	0	0	0	0	0	0	0	0	0	0	0	0	0	0	0	0	0	0	0	0	0	1209	1211	1207	1218	1227	1210	1167	1163	1145	1136	0	0	0	0	0	0	0	0	0	0	0	0	0	0	0	0	0	0	0	0	0	0	0	0	0	0	0	0	0	916	0	0	0	0	0	0	0	0	0	0	1333	1450	1479	1458	1457	1470	1488	1468	1454	1446	1435	1418	1414	1425	1467	1487	1493	1493	1489	1478	1463	1454	1459	1473	1487	1494	1495	1487	1489	1492	1491	1494	1495	1498	1495	1489	1511	1507	1499	1497	1489	1478	1476	1479	1496	1508	1509	1498	1479	1484	1480	1475	1455	1450	1445	1461	1529	1536	1530	1522	1504	1459	1469	1481	1481	1487	1488	1484	1475	1467	1463	1464	1468	1469	1463	1463	1466	1469	1472	1488	1507	1517	1517	1483	1483	1495	1504	1508	1504	1483	1500	1494	1521	1513	1475	1483	1479	1485	1493	1489	1480	1467	1474	1476	1479	1481	1487	1486	1480	1486	1498	1504	1496	1492	1491	1480	1478	1479	1481	1491	1506	1514	1521	1515	1512	1504	1497	1504	1497	1500	1501	1498	1481	1479	1474	1486	1485	1491	1490	1490	1488	1466	1460	1467	1478	1495	1506	1506	1512	1525	1529	1530	1526	1520	1513	1509	1504	1498	1484	1435	1399	0	0	0	0	0	0	0	0	0	0	0	0	0	0	0	0	0	784	770	771	776	779	785	792	803	808	806	809	822	825	815	804	805	814	814	810	806	806	804	804	795	787	780	785	784	788	793	801	808	804	802	810	814	812	811	814	813	810	811	817	824	826	819	810	812	820	823	808	790	780	772	779	781	782	787	793	798	797	812	820	832	925	1117	1228	1293	1328	1370	1415	1441	1459	1470	1473	1480	1481	1472	1463	1460	1460	1461	1468	1477	1484	1489	1483	1476	1483	1498	1511	1501	1485	1483	1487	1492	1491	1485	1475	1468	1454	1447	1443	1454	1471	1482	1480	1471	1467	1459	1462	1457	1450	1449	1456	1474	1486	1490	1485	1488	1476	1472	1474	1489	1500	1494	1474	1465	1471	1481	1478	1484	1483	1478	1470	1469	1475	1482	1488	1491	1490	1475	1468	1474	1489	1501	1502	1484	1455	1441	1431	1437	1446	1454	1464	1473	1474	1474	1473	1479	1493	1504	1497	1486	1482	1492	1496	1490	1473	1464	1472	1478	1476	1464	1464	1455	1445	1443	1443	1444	1442	1448	1458	1459	1435	1417	1398	1398	1419	1441	1456	1456	1451	1444	1447	1461	1470	1474	1464	1454	1390	0	0	0	0	0	0	0
0	0	0	0	0	0	0	0	0	0	0	0	0	0	0	0	0	0	0	0	0	0	0	0	0	0	0	0	0	0	0	0	0	0	0	0	0	0	0	0	0	0	0	0	0	0	0	0	0	0	0	0	0	0	0	0	0	0	0	0	0	0	0	0	0	0	0	0	0	0	0	0	0	0	0	0	0	0	0	0	0	0	0	0	0	0	0	0	0	0	0	0	0	1417	1429	1434	1440	1451	1461	1464	1469	1467	1469	1480	1479	1473	1466	1462	1469	1467	1471	1463	1459	1452	1456	1460	1447	1445	1449	1457	1468	1475	1475	1476	1481	1483	1483	1482	1470	1471	1466	1491	1479	1461	1457	1459	1452	1445	1441	1443	1449	1455	1469	1468	1459	1453	1465	1482	1490	1476	1448	1437	1434	1437	1441	1457	1481	1495	1489	1464	1436	1429	1435	1458	1476	1480	1477	1472	1469	1469	1462	1443	1410	1372	1334	1261	1178	1026	0	0	0	0	0	0	0	0	0	0	0	0	0	0	0	0	0	0	0	0	0	0	0	0	0	0	1199	1188	1186	1188	1193	1181	1131	1118	1108	0	0	0	0	0	0	0	0	0	0	0	0	0	0	0	0	0	0	0	0	0	0	0	0	0	0	0	0	0	903	904	0	0	0	0	0	0	0	0	0	1302	1453	1477	1464	1440	1435	1437	1475	1481	1461	1438	1425	1415	1421	1461	1490	1489	1493	1494	1490	1470	1458	1462	1465	1482	1492	1503	1504	1499	1500	1488	1476	1475	1491	1512	1509	1502	1508	1503	1498	1499	1491	1478	1478	1481	1495	1500	1502	1488	1480	1472	1475	1476	1477	1451	1458	1494	1514	1519	1513	1521	1521	1506	1490	1493	1490	1493	1496	1494	1485	1482	1475	1465	1462	1466	1455	1451	1458	1469	1467	1483	1509	1515	1520	1522	1500	1480	1505	1509	1502	1484	1496	1528	1518	1480	1476	1470	1476	1482	1490	1486	1477	1475	1481	1484	1486	1487	1493	1487	1484	1489	1494	1491	1480	1476	1478	1473	1475	1472	1480	1489	1506	1516	1522	1523	1509	1507	1501	1514	1510	1507	1505	1498	1490	1488	1483	1488	1490	1494	1495	1487	1469	1450	1444	1451	1475	1501	1513	1508	1509	1512	1515	1515	1508	1503	1500	1505	1509	1506	1499	1487	1441	1412	0	0	0	0	0	0	0	0	0	0	0	0	0	0	0	0	0	779	770	778	781	789	791	793	789	782	788	797	804	804	797	799	811	808	804	801	797	798	799	795	791	788	790	783	782	783	793	801	800	797	795	791	789	791	799	799	793	797	805	786	787	794	800	809	807	811	798	788	778	775	772	772	768	768	773	772	768	770	774	784	826	930	1013	1115	1200	1277	1347	1405	1437	1457	1462	1476	1478	1464	1457	1454	1454	1448	1459	1483	1500	1500	1496	1477	1478	1507	1518	1508	1496	1489	1491	1500	1496	1473	1466	1455	1448	1440	1444	1458	1472	1477	1473	1467	1468	1463	1465	1453	1443	1441	1445	1465	1482	1487	1485	1485	1482	1472	1473	1481	1492	1499	1498	1490	1485	1491	1487	1488	1466	1457	1456	1463	1468	1469	1470	1475	1479	1468	1457	1461	1476	1494	1514	1499	1477	1458	1447	1451	1452	1457	1467	1488	1489	1477	1475	1480	1489	1506	1508	1501	1495	1495	1505	1479	1458	1454	1466	1467	1473	1466	1466	1459	1450	1445	1445	1447	1443	1455	1469	1472	1471	1455	1421	1411	1419	1435	1446	1446	1443	1436	1439	1452	1469	1474	1469	1457	1453	0	0	0	0	0	0	0
0	0	0	0	0	0	0	0	0	0	0	0	0	0	0	0	0	0	0	0	0	0	0	0	0	0	0	0	0	0	0	0	0	0	0	0	0	0	0	0	0	0	0	0	0	0	0	0	0	0	0	0	0	0	0	0	0	0	0	0	0	0	0	0	0	0	0	0	0	0	0	0	0	0	0	0	0	0	0	0	0	0	0	0	0	0	0	0	0	0	0	0	0	1418	1466	1451	1446	1445	1450	1460	1460	1461	1464	1478	1487	1486	1477	1480	1485	1483	1484	1474	1455	1442	1442	1437	1438	1442	1453	1468	1473	1479	1481	1479	1480	1476	1472	1465	1466	1462	1454	1458	1459	1448	1453	1458	1457	1458	1460	1454	1457	1464	1475	1475	1467	1461	1458	1461	1462	1451	1439	1429	1430	1429	1445	1450	1469	1474	1475	1454	1427	1421	1421	1430	1449	1466	1462	1456	1456	1446	1421	1388	1263	1191	1102	998	951	0	0	0	0	0	0	0	0	0	0	0	0	0	0	0	0	0	0	1049	0	0	0	0	1107	1103	0	0	0	1173	1161	1148	1148	1137	1118	1090	1078	0	0	0	0	0	0	0	0	0	0	0	0	0	0	0	0	0	0	0	0	0	0	0	0	0	0	0	0	0	903	899	911	0	0	0	0	0	0	1327	1426	1454	1475	1470	1452	1433	1432	1425	1454	1480	1504	1493	1473	1469	1506	1506	1499	1495	1492	1498	1491	1477	1469	1472	1479	1485	1496	1504	1503	1502	1500	1487	1470	1456	1450	1500	1517	1496	1513	1516	1505	1502	1497	1494	1499	1495	1498	1503	1499	1485	1477	1467	1461	1477	1481	1480	1478	1486	1495	1500	1507	1511	1510	1507	1499	1498	1501	1497	1498	1504	1501	1497	1488	1476	1473	1477	1478	1461	1462	1469	1490	1504	1500	1506	1502	1491	1490	1492	1504	1501	1500	1514	1526	1525	1508	1486	1463	1456	1462	1467	1473	1476	1477	1481	1492	1493	1487	1483	1479	1476	1478	1486	1489	1484	1471	1464	1464	1465	1469	1466	1468	1480	1494	1505	1514	1512	1500	1501	1514	1513	1516	1510	1507	1503	1490	1493	1497	1496	1500	1498	1492	1478	1463	1443	1441	1448	1472	1507	1516	1507	1497	1497	1504	1502	1494	1496	1501	1496	1503	1507	1503	1487	1474	1438	0	0	0	0	0	0	0	0	0	0	0	0	0	0	0	0	0	802	779	787	793	797	793	779	768	758	764	772	780	784	784	784	794	804	805	798	789	791	795	798	794	793	793	788	783	784	790	796	799	796	788	780	779	779	784	788	771	767	764	765	765	776	784	786	791	792	788	779	773	770	764	756	749	744	754	760	757	750	755	759	771	821	861	911	1016	1102	1159	1222	1306	1363	1418	1451	1462	1456	1452	1456	1463	1449	1455	1479	1494	1499	1499	1489	1477	1493	1506	1502	1493	1487	1487	1497	1489	1467	1458	1461	1456	1450	1458	1468	1484	1488	1477	1466	1460	1458	1462	1451	1446	1446	1451	1461	1478	1477	1487	1496	1491	1477	1469	1472	1485	1502	1509	1512	1500	1491	1486	1472	1461	1456	1458	1463	1463	1467	1472	1474	1468	1455	1450	1451	1473	1489	1509	1508	1489	1473	1464	1461	1454	1460	1468	1493	1494	1477	1462	1465	1470	1501	1515	1513	1500	1491	1482	1470	1457	1453	1462	1467	1472	1471	1471	1465	1452	1456	1464	1468	1466	1472	1484	1490	1485	1472	1457	1437	1427	1426	1426	1430	1428	1431	1442	1453	1474	1477	1471	1459	1446	0	0	0	0	0	0	0
0	0	0	0	0	0	0	0	0	0	0	0	0	0	0	0	0	0	0	0	0	0	0	0	0	0	0	0	0	0	0	0	0	0	0	0	0	0	0	0	0	0	0	0	0	0	0	0	0	0	0	0	0	0	0	0	0	0	0	0	0	0	0	0	0	0	0	0	0	0	0	0	0	0	0	0	0	0	0	0	0	0	0	0	0	0	0	0	0	0	0	0	0	1413	1489	1473	1448	1437	1445	1456	1456	1453	1458	1477	1483	1489	1491	1489	1497	1499	1496	1484	1458	1426	1429	1430	1434	1448	1460	1475	1478	1478	1476	1480	1480	1479	1476	1460	1463	1459	1449	1437	1442	1451	1458	1463	1468	1474	1471	1468	1472	1474	1475	1474	1469	1462	1451	1445	1442	1437	1440	1437	1437	1432	1435	1439	1447	1461	1461	1453	1435	1421	1414	1416	1433	1450	1432	1433	1398	1313	1247	1126	0	0	0	0	0	0	0	0	0	0	0	0	0	0	0	0	0	0	0	0	0	0	0	0	0	0	0	0	1069	1064	1074	0	0	1085	1085	1119	1114	1108	1090	1066	0	0	0	0	0	0	0	0	0	0	0	0	0	0	0	0	0	0	0	0	0	0	0	0	0	0	0	0	0	0	904	902	912	0	0	0	0	0	0	1474	1500	1495	1486	1477	1465	1448	1437	1431	1461	1473	1487	1485	1492	1501	1514	1509	1505	1494	1492	1494	1481	1479	1470	1472	1476	1479	1487	1498	1497	1500	1499	1493	1476	1467	1462	1465	1478	1492	1508	1518	1513	1503	1494	1493	1500	1502	1501	1499	1489	1473	1464	1460	1463	1463	1473	1483	1492	1493	1488	1473	1467	1478	1491	1500	1496	1490	1495	1493	1490	1502	1505	1507	1501	1498	1499	1503	1508	1505	1502	1501	1500	1496	1495	1494	1500	1489	1485	1479	1476	1489	1497	1507	1514	1515	1502	1485	1472	1467	1464	1468	1486	1492	1494	1492	1499	1501	1494	1478	1477	1475	1477	1482	1484	1480	1474	1466	1467	1473	1464	1462	1467	1467	1476	1487	1493	1498	1499	1508	1516	1520	1518	1513	1512	1498	1489	1489	1498	1507	1505	1491	1481	1467	1463	1456	1453	1460	1477	1503	1508	1493	1488	1491	1497	1499	1497	1500	1495	1491	1501	1507	1506	1493	1484	1480	1471	0	0	0	0	0	0	0	0	0	0	0	0	0	0	0	0	0	823	811	808	804	790	774	756	751	753	759	768	769	770	769	784	789	797	788	779	780	787	791	790	784	780	779	779	784	784	785	788	787	776	772	770	771	757	755	755	754	752	751	757	766	776	773	770	766	769	770	771	767	759	748	737	736	742	749	754	751	750	750	748	751	770	803	840	902	963	1036	1117	1199	1283	1377	1396	1419	1431	1451	1459	1456	1465	1479	1480	1488	1485	1488	1483	1489	1484	1480	1481	1485	1483	1480	1480	1462	1458	1466	1469	1467	1462	1472	1488	1492	1482	1464	1453	1449	1448	1454	1455	1461	1461	1468	1471	1478	1490	1494	1488	1480	1462	1454	1470	1493	1512	1518	1502	1481	1475	1470	1469	1468	1472	1477	1475	1478	1482	1481	1474	1462	1456	1455	1465	1482	1496	1499	1492	1478	1461	1452	1450	1453	1463	1484	1487	1465	1454	1442	1452	1475	1495	1507	1499	1483	1473	1460	1455	1452	1460	1463	1465	1466	1466	1456	1456	1460	1469	1470	1473	1478	1484	1489	1480	1466	1460	1447	1427	1418	1418	1417	1423	1430	1441	1456	1473	1483	1467	1455	1444	1444	0	0	0	0	0	0
0	0	0	0	0	0	0	0	0	0	0	0	0	0	0	0	0	0	0	0	0	0	0	0	0	0	0	0	0	0	0	0	0	0	0	0	0	0	0	0	0	0	0	0	0	0	0	0	0	0	0	0	0	0	0	0	0	0	0	0	0	0	0	0	0	0	0	0	0	0	0	0	0	0	0	0	0	0	0	0	0	0	0	0	0	0	0	0	0	0	0	0	0	0	1487	1493	1472	1452	1446	1454	1453	1450	1452	1474	1484	1485	1490	1499	1506	1501	1511	1491	1452	1438	1420	1429	1439	1454	1470	1472	1467	1462	1463	1467	1477	1474	1473	1466	1462	1459	1450	1440	1451	1458	1465	1470	1476	1481	1480	1475	1477	1477	1478	1472	1473	1467	1455	1445	1441	1441	1449	1452	1456	1453	1446	1439	1444	1453	1457	1455	1450	1439	1426	1426	1430	1423	1344	1279	1099	0	0	0	0	0	0	0	0	0	0	0	0	0	0	0	0	0	0	0	0	0	0	0	0	0	0	0	0	0	0	0	1048	1038	1034	0	0	0	0	1049	1066	1068	1067	1040	1034	0	0	0	0	0	0	0	0	0	0	0	0	0	0	0	0	0	0	0	0	0	0	0	0	0	0	0	0	914	908	905	905	0	0	0	0	0	1343	1493	1491	1490	1482	1479	1478	1477	1475	1467	1469	1474	1485	1492	1491	1507	1517	1513	1503	1495	1488	1484	1487	1479	1467	1463	1457	1456	1471	1473	1480	1489	1504	1509	1485	1479	1475	1495	1494	1495	1500	1504	1507	1495	1490	1491	1492	1494	1492	1487	1467	1449	1444	1449	1453	1464	1476	1488	1493	1489	1481	1470	1461	1473	1479	1482	1491	1488	1491	1483	1485	1493	1503	1502	1511	1517	1519	1523	1517	1515	1520	1512	1511	1503	1493	1483	1485	1489	1484	1477	1474	1490	1497	1500	1504	1503	1498	1490	1486	1480	1477	1475	1493	1505	1513	1506	1509	1514	1505	1489	1473	1458	1459	1464	1477	1480	1480	1475	1474	1471	1472	1473	1477	1474	1472	1475	1483	1490	1509	1510	1519	1517	1517	1514	1508	1492	1486	1490	1508	1521	1512	1499	1486	1474	1461	1464	1468	1474	1483	1494	1484	1479	1477	1484	1492	1499	1503	1498	1495	1492	1502	1507	1503	1493	1487	1489	1506	0	0	0	0	0	0	0	0	0	0	0	0	0	0	0	0	0	0	849	840	817	795	777	763	752	746	747	752	758	758	750	759	773	777	777	769	765	770	774	773	764	759	762	770	775	778	774	773	760	755	730	736	743	746	747	745	745	748	745	747	754	761	758	747	744	757	765	765	758	755	744	734	733	736	741	743	748	744	741	734	724	726	742	756	784	821	872	933	1008	1067	1226	1297	1355	1391	1430	1462	1461	1468	1477	1480	1479	1480	1481	1489	1492	1482	1477	1478	1479	1482	1481	1473	1475	1484	1482	1473	1462	1457	1465	1469	1480	1482	1471	1463	1453	1451	1454	1454	1457	1466	1468	1470	1470	1471	1475	1475	1464	1456	1446	1448	1473	1493	1506	1501	1475	1464	1470	1480	1482	1484	1483	1483	1490	1493	1496	1485	1473	1468	1464	1464	1467	1472	1479	1476	1464	1456	1441	1445	1457	1480	1485	1474	1459	1438	1433	1446	1462	1483	1489	1491	1477	1467	1460	1450	1450	1447	1446	1455	1455	1451	1447	1452	1455	1468	1465	1463	1471	1471	1472	1471	1466	1460	1454	1436	1435	1418	1414	1420	1426	1437	1454	1477	1473	1443	1419	1424	1424	0	0	0	0	0	0
0	0	0	0	0	0	0	0	0	0	0	0	0	0	0	0	0	0	0	0	0	0	0	0	0	0	0	0	0	0	0	0	0	0	0	0	0	0	0	0	0	0	0	0	0	0	0	0	0	0	0	0	0	0	0	0	0	0	0	0	0	0	0	0	0	0	0	0	0	0	0	0	0	0	0	0	0	0	0	0	0	0	0	0	0	0	0	0	0	0	0	0	0	0	1482	1492	1492	1484	1458	1451	1455	1447	1463	1473	1485	1494	1507	1513	1512	1509	1489	1470	1489	1467	1443	1432	1439	1451	1464	1469	1459	1457	1456	1462	1472	1473	1461	1457	1461	1465	1457	1450	1449	1460	1469	1478	1477	1480	1478	1471	1473	1469	1467	1469	1474	1462	1455	1455	1452	1454	1449	1443	1448	1457	1447	1440	1444	1452	1457	1460	1463	1461	1455	1457	1417	1337	1107	0	0	0	0	0	0	0	0	0	0	0	0	0	0	0	0	0	0	0	0	0	0	0	0	0	0	0	0	0	0	0	0	0	0	0	0	0	0	0	0	0	1053	1051	1040	1003	1017	0	0	0	0	0	0	0	0	0	0	0	0	0	0	0	0	0	0	0	0	0	0	0	0	0	0	0	0	921	914	908	920	0	0	0	0	1289	1413	1489	1484	1492	1498	1494	1487	1472	1473	1477	1485	1492	1484	1484	1485	1491	1489	1489	1483	1473	1469	1470	1478	1479	1475	1466	1461	1460	1447	1441	1451	1469	1488	1503	1516	1520	1516	1498	1492	1492	1477	1490	1489	1492	1493	1491	1489	1483	1475	1470	1459	1442	1428	1439	1451	1484	1483	1482	1486	1474	1473	1470	1477	1472	1467	1471	1484	1487	1479	1477	1474	1482	1499	1503	1509	1521	1534	1527	1517	1511	1518	1520	1513	1498	1479	1465	1473	1478	1478	1472	1468	1485	1491	1491	1490	1500	1501	1504	1497	1492	1488	1497	1506	1512	1517	1517	1514	1516	1514	1504	1473	1448	1446	1454	1473	1486	1487	1488	1478	1479	1486	1502	1507	1492	1480	1481	1486	1498	1511	1516	1508	1511	1510	1505	1498	1476	1473	1484	1500	1519	1516	1500	1490	1470	1464	1467	1478	1483	1489	1487	1475	1466	1467	1473	1484	1496	1497	1492	1486	1486	1496	1498	1505	1491	1483	1486	1493	1513	0	0	0	0	0	0	0	0	0	0	0	0	0	0	0	0	0	0	0	837	807	783	765	748	735	735	738	744	745	732	733	744	754	755	747	740	750	750	747	741	737	745	755	769	773	765	756	717	709	714	720	726	729	730	733	734	732	732	731	738	744	745	727	720	732	747	750	744	745	747	741	738	735	735	738	738	733	728	723	718	716	716	715	718	729	750	794	841	882	945	1104	1251	1325	1349	1420	1436	1451	1468	1482	1484	1478	1474	1483	1492	1485	1478	1480	1485	1494	1486	1486	1502	1505	1491	1469	1456	1444	1450	1456	1457	1479	1483	1480	1470	1465	1457	1456	1454	1459	1469	1470	1469	1451	1445	1450	1451	1445	1439	1442	1457	1476	1489	1482	1462	1455	1466	1482	1495	1491	1487	1481	1495	1510	1510	1500	1483	1468	1462	1455	1443	1451	1461	1465	1456	1446	1443	1442	1462	1471	1474	1465	1447	1440	1438	1452	1470	1486	1485	1475	1468	1455	1447	1445	1447	1445	1434	1439	1439	1447	1459	1456	1450	1448	1447	1452	1451	1478	1492	1480	1470	1463	1462	1460	1459	1459	1424	1432	1430	1439	1461	1479	1468	1443	1418	1425	1425	0	0	0	0	0	0
0	0	0	0	0	0	0	0	0	0	0	0	0	0	0	0	0	0	0	0	0	0	0	0	0	0	0	0	0	0	0	0	0	0	0	0	0	0	0	0	0	0	0	0	0	0	0	0	0	0	0	0	0	0	0	0	0	0	0	0	0	0	0	0	0	0	0	0	0	0	0	0	0	0	0	0	0	0	0	0	0	0	0	0	0	0	0	0	0	0	0	0	0	0	1492	1487	1492	1483	1477	1463	1456	1453	1466	1485	1497	1510	1520	1517	1515	1508	1470	1460	1479	1484	1456	1434	1439	1447	1461	1468	1459	1461	1459	1460	1466	1468	1459	1452	1452	1462	1460	1457	1451	1463	1470	1474	1474	1474	1476	1469	1469	1457	1464	1469	1468	1460	1456	1454	1469	1458	1452	1444	1445	1454	1447	1439	1441	1449	1449	1447	1442	1450	1444	1324	0	0	0	0	0	0	0	0	0	0	0	0	0	0	0	0	0	0	0	0	0	0	0	0	0	0	0	0	0	0	0	0	0	0	0	0	0	0	0	0	0	0	0	0	1052	1052	0	0	0	0	0	0	0	0	0	0	0	0	0	0	0	0	0	0	0	0	0	0	0	0	0	0	0	0	0	0	0	0	911	918	938	0	0	0	1256	1412	1464	1480	1485	1496	1510	1511	1496	1484	1477	1481	1489	1487	1488	1487	1490	1490	1489	1485	1479	1475	1468	1466	1475	1479	1483	1474	1465	1454	1449	1444	1457	1476	1494	1510	1524	1525	1522	1511	1499	1498	1483	1472	1469	1486	1501	1510	1510	1497	1486	1479	1487	1487	1476	1465	1473	1477	1481	1478	1474	1465	1470	1465	1475	1471	1470	1471	1479	1483	1482	1484	1483	1490	1499	1506	1513	1520	1525	1524	1505	1493	1505	1513	1511	1498	1471	1454	1458	1471	1472	1469	1470	1479	1482	1478	1481	1495	1501	1507	1504	1503	1503	1507	1513	1515	1513	1510	1510	1512	1515	1500	1472	1446	1442	1456	1481	1496	1498	1485	1476	1478	1490	1512	1519	1511	1491	1485	1497	1514	1522	1516	1504	1496	1471	1469	1477	1474	1474	1475	1487	1499	1508	1507	1494	1475	1464	1460	1475	1487	1503	1491	1473	1457	1451	1470	1479	1483	1485	1480	1476	1485	1496	1494	1495	1491	1473	1476	1476	1480	1505	0	0	0	0	0	0	0	0	0	0	0	0	0	0	0	0	0	0	0	0	804	769	742	722	712	718	726	731	717	721	725	735	736	725	717	716	721	723	718	718	729	743	757	756	748	735	708	704	708	713	713	713	711	712	716	711	707	707	713	723	721	706	689	695	709	711	722	730	743	744	740	729	723	716	705	699	698	707	708	711	707	701	695	691	699	715	739	765	785	829	918	1009	1117	1301	1330	1361	1422	1468	1478	1459	1469	1477	1481	1480	1487	1496	1506	1513	1493	1488	1510	1517	1496	1461	1439	1429	1433	1438	1459	1486	1501	1498	1486	1480	1474	1461	1452	1462	1474	1464	1453	1429	1419	1422	1427	1428	1440	1438	1441	1453	1450	1448	1435	1435	1447	1452	1463	1487	1502	1500	1497	1500	1498	1495	1484	1470	1460	1458	1452	1445	1462	1486	1476	1456	1444	1441	1436	1442	1443	1446	1440	1438	1452	1457	1468	1482	1488	1480	1471	1448	1442	1441	1443	1440	1440	1463	1463	1497	1501	1474	1455	1446	1443	1457	1463	1481	1495	1491	1474	1474	1463	1460	1460	1459	1450	1449	1445	1456	1471	1476	1477	1449	1427	1446	1446	0	0	0	0	0	0
0	0	0	0	0	0	0	0	0	0	0	0	0	0	0	0	0	0	0	0	0	0	0	0	0	0	0	0	0	0	0	0	0	0	0	0	0	0	0	0	0	0	0	0	0	0	0	0	0	0	0	0	0	0	0	0	0	0	0	0	0	0	0	0	0	0	0	0	0	0	0	0	0	0	0	0	0	0	0	0	0	0	0	0	0	0	0	0	0	0	0	0	0	0	1489	1482	1475	1477	1469	1472	1473	1472	1476	1489	1495	1505	1512	1513	1507	1502	1478	1479	1473	1477	1462	1453	1449	1451	1459	1469	1471	1472	1470	1466	1460	1463	1458	1453	1440	1437	1454	1451	1449	1467	1475	1473	1468	1466	1481	1469	1457	1453	1456	1461	1459	1454	1446	1448	1462	1471	1462	1455	1454	1458	1448	1441	1438	1425	1416	1383	1341	1306	1169	0	0	0	0	0	0	0	0	0	0	0	0	0	0	0	0	0	0	0	0	0	0	0	0	0	0	0	0	0	0	0	0	0	0	0	0	0	0	0	0	0	0	0	0	0	0	0	0	0	0	0	0	0	0	0	0	0	0	0	0	0	0	0	0	0	0	0	0	0	0	0	0	0	0	0	0	0	0	0	913	926	951	0	0	1239	1414	1428	1454	1474	1493	1508	1522	1521	1508	1487	1477	1478	1486	1483	1480	1487	1478	1483	1482	1483	1480	1471	1470	1468	1477	1487	1490	1482	1470	1457	1451	1450	1459	1472	1496	1517	1530	1533	1522	1512	1508	1509	1505	1491	1477	1485	1502	1510	1516	1502	1488	1488	1488	1487	1480	1474	1471	1474	1471	1466	1468	1463	1467	1472	1473	1472	1471	1472	1475	1486	1495	1495	1501	1505	1504	1506	1510	1517	1530	1519	1500	1477	1492	1509	1509	1494	1468	1456	1458	1469	1475	1474	1474	1474	1472	1461	1472	1497	1505	1497	1507	1498	1502	1514	1518	1513	1499	1495	1496	1504	1504	1495	1468	1443	1447	1467	1493	1501	1497	1484	1476	1490	1492	1492	1518	1515	1506	1500	1511	1522	1524	1514	1527	1480	1457	1459	1477	1492	1504	1484	1470	1488	1492	1496	1487	1468	1463	1467	1491	1512	1519	1512	1501	1486	1487	1494	1493	1478	1459	1453	1459	1472	1478	1481	1474	1481	1482	1473	1469	1483	1491	0	0	0	0	0	0	0	0	0	0	0	0	0	0	0	0	0	0	0	0	0	790	752	718	700	697	706	719	716	719	723	732	732	718	704	697	694	695	696	697	709	720	735	739	732	724	708	705	712	712	713	706	697	688	685	685	680	680	690	701	704	695	678	674	677	686	702	718	728	733	727	718	709	706	700	694	684	693	699	699	698	693	686	683	684	691	702	714	727	754	790	842	888	1076	1137	1179	1267	1355	1419	1441	1451	1446	1454	1458	1475	1519	1533	1527	1495	1483	1509	1519	1502	1481	1476	1464	1447	1443	1459	1471	1475	1483	1473	1482	1485	1470	1457	1455	1461	1452	1447	1443	1436	1428	1435	1444	1445	1436	1433	1439	1436	1428	1424	1417	1428	1444	1459	1476	1484	1485	1489	1484	1486	1477	1471	1470	1459	1463	1465	1465	1473	1484	1478	1465	1448	1432	1424	1420	1420	1433	1441	1448	1452	1464	1470	1483	1484	1487	1472	1446	1438	1439	1440	1444	1449	1449	1473	1499	1502	1475	1454	1455	1457	1472	1476	1478	1484	1489	1477	1474	1466	1462	1462	1453	1453	1443	1447	1461	1472	1481	1474	1447	1437	1459	1459	0	0	0	0	0	0
0	0	0	0	0	0	0	0	0	0	0	0	0	0	0	0	0	0	0	0	0	0	0	0	0	0	0	0	0	0	0	0	0	0	0	0	0	0	0	0	0	0	0	0	0	0	0	0	0	0	0	0	0	0	0	0	0	0	0	0	0	0	0	0	0	0	0	0	0	0	0	0	0	0	0	0	0	0	0	0	0	0	0	0	0	0	0	0	0	0	0	0	0	0	1463	1464	1473	1474	1474	1481	1483	1482	1486	1485	1490	1485	1493	1494	1491	1486	1493	1502	1503	1497	1478	1470	1457	1456	1466	1471	1478	1482	1478	1471	1466	1464	1463	1452	1433	1432	1452	1454	1455	1469	1475	1469	1469	1476	1472	1461	1446	1441	1450	1453	1450	1440	1436	1441	1454	1462	1468	1469	1463	1459	1443	1430	1415	1380	1274	0	0	0	0	0	0	0	0	0	0	0	0	0	0	0	0	0	0	0	0	0	0	0	0	0	0	0	0	0	0	0	0	0	0	0	0	0	0	0	0	0	0	0	0	0	0	0	0	0	0	0	0	0	0	0	0	0	0	0	0	0	0	0	0	0	0	0	0	0	0	0	0	0	0	0	0	0	0	0	0	0	0	908	925	948	975	1019	1152	1404	1418	1441	1444	1457	1479	1489	1505	1505	1491	1481	1465	1460	1456	1456	1464	1469	1465	1466	1465	1486	1486	1487	1478	1469	1474	1496	1515	1527	1518	1500	1490	1480	1478	1495	1503	1507	1511	1508	1509	1512	1502	1492	1492	1486	1496	1513	1522	1513	1488	1483	1485	1483	1481	1492	1486	1475	1479	1480	1475	1462	1458	1466	1476	1491	1497	1478	1469	1473	1483	1503	1513	1518	1510	1491	1484	1490	1500	1510	1502	1488	1485	1476	1478	1489	1488	1486	1493	1493	1488	1480	1479	1481	1480	1478	1474	1469	1481	1496	1500	1496	1492	1485	1486	1503	1507	1512	1506	1524	1524	1518	1502	1496	1494	1508	1517	1523	1509	1507	1491	1490	1523	1518	1495	1474	1484	1484	1477	1474	1481	1486	1517	1537	1520	1479	1462	1461	1475	1491	1496	1469	1474	1486	1490	1489	1478	1467	1446	1456	1475	1502	1511	1513	1504	1496	1496	1503	1501	1482	1465	1459	1469	1473	1475	1478	1470	1491	1497	1494	1483	1480	1484	0	0	0	0	0	0	0	0	0	0	0	0	0	0	0	0	0	0	0	0	0	0	766	725	700	687	696	719	724	724	730	731	727	710	694	685	684	681	677	678	690	706	720	722	720	714	707	709	711	714	714	703	685	669	661	656	659	664	669	673	682	683	676	673	672	675	684	696	708	712	704	700	697	695	699	691	687	680	678	683	683	682	672	665	674	684	693	698	694	702	728	752	784	870	920	993	1111	1246	1318	1391	1422	1427	1435	1440	1473	1506	1530	1520	1490	1473	1499	1513	1511	1497	1488	1472	1454	1442	1453	1457	1470	1475	1476	1485	1486	1475	1467	1467	1469	1461	1451	1461	1460	1458	1454	1451	1444	1434	1436	1439	1432	1429	1432	1435	1442	1449	1457	1457	1462	1475	1482	1480	1477	1476	1473	1471	1479	1479	1480	1473	1463	1460	1450	1450	1446	1437	1421	1414	1420	1437	1456	1461	1464	1467	1474	1481	1475	1475	1464	1448	1441	1442	1441	1444	1451	1451	1465	1481	1482	1465	1447	1453	1473	1484	1487	1481	1484	1483	1480	1471	1467	1465	1465	1461	1453	1453	1453	1447	1462	1460	1453	1439	1441	1441	1458	0	0	0	0	0	0
0	0	0	0	0	0	0	0	0	0	0	0	0	0	0	0	0	0	0	0	0	0	0	0	0	0	0	0	0	0	0	0	0	0	0	0	0	0	0	0	0	0	0	0	0	0	0	0	0	0	0	0	0	0	0	0	0	0	0	0	0	0	0	0	0	0	0	0	0	0	0	0	0	0	0	0	0	0	0	0	0	0	0	0	0	0	0	0	0	0	0	0	0	0	1431	1441	1456	1460	1471	1479	1481	1473	1477	1478	1469	1460	1466	1471	1472	1474	1489	1500	1507	1489	1484	1481	1475	1469	1462	1467	1476	1479	1486	1481	1478	1475	1471	1461	1457	1455	1483	1479	1466	1466	1469	1470	1464	1464	1464	1455	1441	1443	1449	1449	1441	1434	1432	1426	1433	1441	1435	1452	1463	1451	1424	1386	1255	0	0	0	0	0	0	0	0	0	0	0	0	0	0	0	0	0	0	0	0	0	0	0	0	0	0	0	0	0	0	0	0	0	0	0	0	0	0	0	0	0	0	0	0	0	0	0	0	0	0	0	0	0	0	0	0	0	0	0	0	0	0	0	0	0	0	0	0	0	0	0	0	0	0	0	0	0	0	0	0	0	0	0	0	921	958	983	1019	1101	1389	1417	1424	1432	1446	1440	1449	1475	1483	1490	1490	1484	1472	1467	1454	1447	1444	1454	1467	1485	1491	1499	1491	1492	1485	1474	1475	1487	1512	1524	1517	1512	1504	1488	1485	1491	1502	1498	1494	1498	1500	1509	1501	1488	1480	1475	1488	1502	1515	1510	1489	1482	1489	1500	1510	1519	1522	1523	1522	1524	1526	1516	1507	1491	1478	1477	1479	1485	1481	1481	1474	1471	1473	1478	1478	1480	1478	1487	1499	1509	1500	1484	1472	1465	1456	1462	1466	1478	1487	1497	1497	1487	1489	1493	1490	1486	1468	1472	1480	1498	1512	1500	1492	1479	1486	1495	1509	1507	1510	1523	1531	1511	1499	1498	1503	1512	1518	1508	1504	1505	1510	1520	1523	1521	1490	1473	1492	1500	1490	1506	1484	1476	1476	1491	1485	1464	1459	1460	1473	1478	1482	1466	1475	1485	1498	1503	1493	1476	1447	1432	1461	1485	1504	1509	1509	1501	1499	1509	1503	1494	1488	1479	1480	1479	1474	1469	1475	1492	1504	1503	1491	1484	1484	1503	0	0	0	0	0	0	0	0	0	0	0	0	0	0	0	0	0	0	0	0	0	0	740	701	686	686	711	709	719	729	728	714	700	687	681	678	681	680	683	688	698	706	710	709	707	706	703	705	707	705	696	681	661	642	637	642	649	653	654	659	671	676	671	667	665	665	670	677	683	684	682	678	677	691	680	679	672	668	668	665	664	659	656	657	674	687	691	685	681	680	688	699	745	779	825	886	949	1015	1086	1167	1303	1371	1418	1457	1488	1497	1483	1471	1453	1480	1485	1498	1508	1499	1474	1446	1440	1446	1454	1468	1475	1479	1491	1490	1479	1470	1476	1488	1494	1491	1479	1483	1482	1467	1442	1427	1444	1454	1463	1467	1464	1460	1461	1463	1468	1459	1445	1454	1467	1486	1490	1488	1490	1489	1497	1496	1490	1474	1460	1444	1448	1447	1453	1450	1447	1445	1438	1444	1454	1464	1477	1476	1473	1473	1478	1477	1471	1458	1450	1444	1440	1448	1451	1450	1450	1455	1474	1476	1476	1457	1459	1477	1488	1495	1494	1488	1482	1481	1473	1469	1464	1464	1461	1459	1457	1453	1447	1439	1446	1440	1442	1452	1452	1467	0	0	0	0	0	0
0	0	0	0	0	0	0	0	0	0	0	0	0	0	0	0	0	0	0	0	0	0	0	0	0	0	0	0	0	0	0	0	0	0	0	0	0	0	0	0	0	0	0	0	0	0	0	0	0	0	0	0	0	0	0	0	0	0	0	0	0	0	0	0	0	0	0	0	0	0	0	0	0	0	0	0	0	0	0	0	0	0	0	0	0	0	0	0	0	0	0	0	0	0	1417	1436	1443	1435	1440	1475	1467	1468	1475	1474	1460	1449	1455	1466	1464	1462	1475	1482	1486	1481	1482	1482	1485	1472	1474	1468	1468	1470	1473	1484	1492	1491	1485	1485	1480	1474	1477	1473	1463	1460	1460	1458	1452	1450	1451	1450	1455	1474	1487	1476	1464	1447	1444	1428	1409	1387	1361	1351	0	0	0	0	0	0	0	0	0	0	0	0	0	0	0	0	0	0	0	0	0	0	0	0	0	0	0	0	0	0	0	0	0	0	0	0	0	0	0	0	0	0	0	0	0	0	0	0	0	0	0	0	0	0	0	0	0	0	0	0	0	0	0	0	0	0	0	0	0	0	0	0	0	0	0	0	0	0	0	0	0	0	0	0	0	0	0	0	0	960	1005	1065	1194	1361	1414	1437	1440	1448	1454	1449	1449	1469	1479	1491	1493	1487	1479	1467	1451	1441	1443	1457	1471	1503	1514	1511	1504	1497	1486	1477	1454	1451	1475	1501	1519	1520	1512	1500	1492	1479	1473	1476	1478	1483	1490	1503	1511	1510	1470	1459	1464	1481	1488	1496	1488	1480	1481	1487	1491	1497	1504	1505	1526	1530	1528	1521	1512	1498	1479	1471	1482	1490	1493	1491	1471	1467	1468	1473	1471	1474	1478	1486	1502	1507	1506	1485	1472	1456	1445	1440	1456	1471	1492	1499	1503	1501	1507	1510	1510	1504	1494	1474	1474	1487	1501	1507	1494	1484	1485	1497	1510	1510	1498	1499	1500	1498	1503	1504	1509	1506	1502	1487	1480	1486	1508	1516	1528	1505	1482	1492	1511	1532	1526	1507	1488	1484	1491	1488	1478	1457	1447	1440	1446	1459	1487	1481	1483	1490	1499	1510	1507	1492	1465	1437	1442	1459	1490	1510	1514	1513	1502	1495	1497	1502	1507	1502	1485	1475	1471	1475	1475	1479	1475	1472	1469	1469	1474	1489	1507	0	0	0	0	0	0	0	0	0	0	0	0	0	0	0	0	0	0	0	0	0	0	735	687	683	694	692	688	703	710	701	695	675	675	679	689	693	692	692	688	692	703	708	703	699	700	695	695	695	689	675	654	634	623	622	630	637	644	646	657	660	657	660	650	652	651	656	664	672	675	670	665	665	665	662	657	656	654	650	653	652	649	648	665	673	678	670	662	657	663	670	684	703	722	747	799	869	971	1047	1115	1179	1250	1331	1413	1468	1473	1460	1449	1465	1479	1488	1494	1489	1474	1453	1442	1442	1441	1438	1453	1474	1482	1483	1469	1471	1484	1496	1508	1504	1498	1494	1482	1465	1434	1426	1440	1461	1479	1481	1477	1471	1472	1475	1474	1463	1455	1457	1472	1486	1500	1503	1502	1497	1488	1481	1478	1465	1449	1446	1452	1458	1458	1457	1449	1447	1448	1454	1464	1472	1476	1476	1470	1470	1469	1467	1468	1458	1452	1438	1436	1444	1443	1443	1443	1447	1456	1477	1472	1465	1469	1472	1486	1502	1503	1497	1483	1479	1472	1468	1468	1464	1462	1458	1457	1452	1444	1443	1439	1433	1440	1462	1462	1472	0	0	0	0	0	0
0	0	0	0	0	0	0	0	0	0	0	0	0	0	0	0	0	0	0	0	0	0	0	0	0	0	0	0	0	0	0	0	0	0	0	0	0	0	0	0	0	0	0	0	0	0	0	0	0	0	0	0	0	0	0	0	0	0	0	0	0	0	0	0	0	0	0	0	0	0	0	0	0	0	0	0	0	0	0	0	0	0	0	0	0	0	0	0	0	0	0	0	0	0	1421	1437	1421	1415	1435	1471	1469	1462	1474	1478	1476	1472	1471	1468	1468	1462	1458	1457	1464	1494	1499	1501	1500	1495	1487	1481	1463	1449	1444	1451	1472	1472	1475	1472	1477	1484	1474	1467	1455	1475	1469	1464	1468	1481	1478	1477	1465	1477	1490	1477	1458	1439	1431	1422	1396	1359	1313	0	0	0	0	0	0	0	0	0	0	0	0	0	0	0	0	0	0	0	0	0	0	0	0	0	0	0	0	0	0	0	0	0	0	0	0	0	0	0	0	0	0	0	0	0	0	0	0	0	0	0	0	0	0	0	0	0	0	0	0	0	0	0	0	0	0	0	0	0	0	0	0	0	0	0	0	0	0	0	0	0	0	0	0	0	0	0	0	0	0	1000	1054	1196	1392	1451	1464	1475	1492	1484	1485	1488	1479	1468	1473	1484	1491	1493	1489	1478	1469	1462	1463	1474	1491	1511	1524	1529	1521	1506	1493	1472	1459	1459	1471	1492	1513	1515	1507	1484	1486	1486	1491	1494	1492	1494	1493	1501	1509	1507	1478	1467	1466	1482	1499	1508	1500	1486	1490	1496	1508	1513	1514	1512	1505	1494	1484	1479	1485	1482	1481	1480	1486	1494	1498	1494	1495	1500	1504	1493	1484	1477	1480	1487	1501	1511	1509	1507	1493	1478	1467	1460	1462	1477	1496	1511	1520	1521	1518	1514	1507	1508	1502	1499	1486	1471	1476	1495	1485	1474	1462	1462	1483	1500	1501	1496	1491	1503	1510	1513	1517	1519	1512	1493	1480	1479	1490	1510	1513	1507	1496	1505	1519	1526	1515	1502	1494	1496	1495	1486	1473	1450	1434	1427	1432	1446	1473	1473	1485	1485	1490	1494	1501	1507	1480	1455	1454	1471	1492	1516	1523	1515	1496	1487	1486	1494	1494	1485	1465	1457	1457	1457	1473	1487	1484	1478	1469	1464	1452	1471	1513	1505	0	0	0	0	0	0	0	0	0	0	0	0	0	0	0	0	0	0	0	0	0	0	0	689	689	682	678	669	678	659	659	663	668	675	688	693	693	691	687	689	695	700	695	696	697	697	686	687	684	678	661	637	617	610	614	624	633	642	645	643	645	646	645	647	641	643	646	656	664	667	657	653	650	647	647	645	640	638	645	651	646	646	655	661	660	651	642	640	645	652	659	663	672	675	692	751	837	924	995	1061	1140	1238	1336	1418	1459	1451	1443	1450	1469	1485	1490	1486	1470	1453	1438	1439	1438	1425	1433	1461	1485	1501	1467	1465	1478	1496	1500	1506	1501	1495	1475	1456	1424	1421	1431	1455	1472	1483	1477	1474	1474	1476	1472	1472	1470	1467	1472	1484	1515	1519	1515	1496	1479	1471	1467	1454	1449	1445	1453	1471	1470	1464	1448	1441	1452	1468	1483	1488	1480	1469	1463	1467	1478	1475	1464	1464	1455	1447	1440	1437	1442	1442	1441	1441	1442	1453	1451	1438	1431	1424	1437	1465	1505	1513	1481	1463	1458	1454	1454	1433	1403	1400	0	0	0	0	0	1432	1445	1467	1467	1480	0	0	0	0	0	0
0	0	0	0	0	0	0	0	0	0	0	0	0	0	0	0	0	0	0	0	0	0	0	0	0	0	0	0	0	0	0	0	0	0	0	0	0	0	0	0	0	0	0	0	0	0	0	0	0	0	0	0	0	0	0	0	0	0	0	0	0	0	0	0	0	0	0	0	0	0	0	0	0	0	0	0	0	0	0	0	0	0	0	0	0	0	0	0	0	0	0	0	0	0	1421	1435	1422	1430	1452	1463	1467	1472	1478	1481	1483	1488	1487	1480	1475	1473	1466	1459	1461	1481	1498	1497	1487	1487	1490	1488	1472	1449	1443	1444	1455	1464	1469	1477	1484	1481	1478	1469	1457	1473	1470	1468	1478	1489	1494	1481	1469	1451	1423	1399	1376	1382	1364	0	0	0	0	0	0	0	0	0	0	0	0	0	0	0	0	0	0	0	0	0	0	0	0	0	0	0	0	0	0	0	0	0	0	0	0	0	0	0	0	0	0	0	0	0	0	0	0	0	0	0	0	0	0	0	0	0	0	0	0	0	0	0	0	0	0	0	0	0	0	0	0	0	0	0	0	0	0	0	0	0	0	0	0	0	0	0	0	0	0	0	0	0	989	1071	1255	1413	1450	1453	1453	1467	1480	1499	1512	1510	1491	1472	1466	1468	1480	1483	1480	1468	1460	1464	1473	1481	1502	1524	1538	1541	1531	1517	1494	1472	1468	1465	1476	1495	1517	1520	1505	1487	1485	1499	1505	1510	1506	1494	1500	1501	1502	1498	1491	1467	1468	1480	1499	1511	1505	1494	1496	1509	1538	1542	1533	1515	1501	1498	1490	1486	1476	1473	1473	1478	1479	1486	1496	1498	1505	1507	1507	1498	1488	1474	1469	1468	1477	1475	1488	1490	1484	1490	1476	1472	1474	1483	1498	1507	1511	1517	1500	1492	1486	1490	1487	1488	1496	1493	1478	1448	1460	1466	1466	1465	1472	1483	1490	1483	1483	1503	1516	1515	1519	1518	1518	1502	1487	1488	1500	1523	1535	1531	1507	1512	1517	1505	1496	1492	1498	1499	1490	1481	1469	1461	1425	1421	1424	1449	1457	1466	1486	1491	1468	1474	1517	1527	1518	1497	1487	1489	1499	1516	1524	1511	1487	1470	1471	1482	1488	1471	1449	1434	1439	1454	1473	1493	1500	1497	1482	1468	1469	1470	1526	1481	0	0	0	0	0	0	0	0	0	0	0	0	0	0	0	0	0	0	0	0	0	0	0	708	691	684	670	665	659	654	645	649	652	663	678	682	685	685	683	684	687	685	683	687	683	679	679	681	680	676	664	645	622	613	614	618	628	637	636	634	637	640	646	645	637	633	634	643	655	663	659	652	642	642	646	642	636	638	642	652	657	647	650	649	639	629	621	625	637	640	644	650	652	642	644	657	710	773	820	869	961	1043	1098	1152	1199	1296	1413	1436	1454	1475	1483	1487	1463	1439	1423	1414	1405	1409	1412	1433	1472	1503	1527	1516	1493	1474	1455	1454	1453	1458	1451	1427	1409	1397	1409	1433	1455	1452	1451	0	0	0	0	0	0	1459	1468	1494	1501	1510	1494	0	0	0	0	1363	1349	0	0	0	0	0	0	0	0	0	0	0	0	0	0	0	0	0	0	0	0	0	0	0	0	0	0	0	0	0	0	0	0	0	0	0	0	0	0	0	0	0	0	0	0	0	0	0	0	0	0	0	0	0	0	0	0	0	0	0	0	0
0	0	0	0	0	0	0	0	0	0	0	0	0	0	0	0	0	0	0	0	0	0	0	0	0	0	0	0	0	0	0	0	0	0	0	0	0	0	0	0	0	0	0	0	0	0	0	0	0	0	0	0	0	0	0	0	0	0	0	0	0	0	0	0	0	0	0	0	0	0	0	0	0	0	0	0	0	0	0	0	0	0	0	0	0	0	0	0	0	0	0	0	0	1442	1452	1432	1418	1433	1446	1461	1465	1474	1477	1475	1476	1485	1487	1484	1481	1474	1465	1458	1456	1449	1474	1485	1482	1480	1476	1473	1470	1463	1454	1448	1446	1448	1464	1479	1497	1497	1484	1467	1464	1465	1461	1469	1473	1480	1475	1459	1451	1425	1397	1347	1248	1160	0	0	0	0	0	0	0	0	0	0	0	0	0	0	0	0	0	0	0	0	0	0	0	0	0	0	0	0	0	0	0	0	0	0	0	0	0	0	0	0	0	0	0	0	0	0	0	0	0	0	0	0	0	0	0	0	0	0	0	0	0	0	0	0	0	0	0	0	0	0	0	0	0	0	0	0	0	0	0	0	0	0	0	0	0	0	0	0	0	0	0	0	0	0	1084	1264	1344	1417	1442	1444	1445	1456	1471	1495	1519	1520	1504	1485	1464	1466	1467	1472	1466	1460	1458	1463	1476	1495	1516	1531	1548	1553	1541	1519	1490	1468	1463	1467	1494	1516	1527	1531	1527	1527	1530	1538	1550	1560	1572	1565	1505	1492	1481	1468	1460	1475	1480	1484	1491	1506	1509	1518	1527	1538	1541	1528	1514	1510	1516	1500	1500	1506	1500	1490	1471	1462	1456	1463	1481	1508	1511	1514	1513	1501	1485	1471	1462	1457	1454	1459	1463	1478	1485	1493	1480	1470	1467	1481	1497	1501	1505	1508	1485	1476	1478	1480	1488	1488	1499	1494	1480	1449	1461	1471	1469	1466	1469	1482	1486	1481	1481	1499	1511	1515	1514	1496	1504	1507	1500	1484	1495	1514	1536	1531	1500	1465	1436	1432	0	0	0	0	0	0	0	0	1409	1411	0	0	0	0	0	1382	1400	0	0	0	0	0	0	0	0	0	0	0	0	1436	1422	0	0	0	0	1390	1383	1393	1409	1415	1422	1423	0	0	0	0	0	0	0	0	0	0	0	0	0	0	0	0	0	0	0	0	0	0	0	0	0	0	0	0	0	0	733	759	711	672	651	644	638	635	643	650	662	669	670	673	676	675	675	671	670	673	670	668	667	672	672	668	659	645	630	622	621	623	629	635	630	629	632	639	642	641	633	625	624	632	646	654	655	647	645	644	646	641	638	635	638	645	645	646	647	639	630	622	617	615	624	626	632	637	639	626	616	620	653	696	726	754	793	836	892	955	945	0	0	0	0	0	0	0	0	0	0	0	0	0	0	0	0	0	0	0	0	0	0	0	0	0	0	0	0	0	0	0	0	0	0	0	0	0	0	0	0	0	0	0	0	0	0	0	0	0	0	0	0	0	0	0	0	0	0	0	0	0	0	0	0	0	0	0	0	0	0	0	0	0	0	0	0	0	0	0	0	0	0	0	0	0	0	0	0	0	0	0	0	0	0	0	0	0	0	0	0	0	0	0	0	0	0	0	0	0	0	0	0	0
0	0	0	0	0	0	0	0	0	0	0	0	0	0	0	0	0	0	0	0	0	0	0	0	0	0	0	0	0	0	0	0	0	0	0	0	0	0	0	0	0	0	0	0	0	0	0	0	0	0	0	0	0	0	0	0	0	0	0	0	0	0	0	0	0	0	0	0	0	0	0	0	0	0	0	0	0	0	0	0	0	0	0	0	0	0	0	0	0	0	0	0	0	1473	1490	1484	1484	1472	1472	1466	1477	1476	1484	1476	1477	1487	1487	1489	1482	1473	1463	1460	1453	1454	1456	1465	1467	1465	1464	1459	1460	1465	1454	1443	1442	1438	1443	1456	1478	1487	1487	1481	1478	1462	1439	1433	1434	1438	1434	1418	1388	1286	1174	0	0	0	0	0	0	0	0	0	0	0	0	0	0	0	0	0	0	0	0	0	0	0	0	0	0	0	0	0	0	0	0	0	0	0	0	0	0	0	0	0	0	0	0	0	0	0	0	0	0	0	0	0	0	0	0	0	0	0	0	0	0	0	0	0	0	0	0	0	0	0	0	0	0	0	0	0	0	0	0	0	0	0	0	0	0	0	0	0	0	0	0	0	0	0	0	0	0	1163	1369	1411	1427	1426	1439	1473	1511	1534	1548	1565	1552	1517	1481	1453	1444	1430	1438	1436	1457	1466	1478	1492	1511	1532	1530	1525	1508	1482	1458	1430	1394	1372	1386	1430	1478	1513	1520	1497	1472	1474	1488	1488	1487	1467	1443	1418	1401	0	0	0	1439	1441	1437	0	0	0	0	0	0	0	0	0	0	0	0	0	0	0	0	0	0	0	0	0	0	0	0	1535	1542	1527	1501	1474	1455	1443	1434	1444	1477	1474	1455	1435	1433	1455	1462	1450	1422	1405	1408	1416	1430	1439	1455	1487	1490	1500	1453	1463	1467	1462	1451	1468	1494	1514	1511	1490	0	0	0	0	0	0	0	0	0	0	0	0	0	0	0	0	0	0	0	0	0	0	0	0	0	0	0	0	0	0	0	0	0	0	0	0	0	0	0	0	0	0	0	0	0	0	0	0	0	0	0	0	0	0	0	0	0	0	0	0	0	0	0	0	0	0	0	0	0	0	0	0	0	0	0	0	0	0	0	0	0	0	0	0	0	0	0	0	0	0	0	0	760	712	656	637	630	626	628	637	651	655	657	661	665	671	671	664	664	661	659	655	659	660	659	657	654	643	635	627	624	630	634	627	623	623	628	634	635	634	627	623	619	627	638	645	644	639	638	644	644	642	641	636	637	634	632	637	640	637	633	629	620	620	620	614	619	620	622	616	604	600	618	647	671	689	704	653	646	643	638	632	0	0	0	0	0	0	0	0	0	0	0	0	0	0	0	0	0	0	0	0	0	0	0	0	0	0	0	0	0	0	0	0	0	0	0	0	0	0	0	0	0	0	0	0	0	0	0	0	0	0	0	0	0	0	0	0	0	0	0	0	0	0	0	0	0	0	0	0	0	0	0	0	0	0	0	0	0	0	0	0	0	0	0	0	0	0	0	0	0	0	0	0	0	0	0	0	0	0	0	0	0	0	0	0	0	0	0	0	0	0	0	0
0	0	0	0	0	0	0	0	0	0	0	0	0	0	0	0	0	0	0	0	0	0	0	0	0	0	0	0	0	0	0	0	0	0	0	0	0	0	0	0	0	0	0	0	0	0	0	0	0	0	0	0	0	0	0	0	0	0	0	0	0	0	0	0	0	0	0	0	0	0	0	0	0	0	0	0	0	0	0	0	0	0	0	0	0	0	0	0	0	0	0	0	0	1495	1498	1495	1511	1514	1513	1490	1479	1481	1484	1477	1479	1484	1491	1487	1480	1475	1468	1465	1465	1466	1459	1461	1465	1459	1451	1449	1450	1470	1469	1460	1453	1446	1426	1418	1413	1417	0	0	0	0	0	0	0	0	0	0	0	0	0	0	0	0	0	0	0	0	0	0	0	0	0	0	0	0	0	0	0	0	0	0	0	0	0	0	0	0	0	0	0	0	0	0	0	0	0	0	0	0	0	0	0	0	0	0	0	0	0	0	0	0	0	0	0	0	0	0	0	0	0	0	0	0	0	0	0	0	0	0	0	0	0	0	0	0	0	0	0	0	0	0	0	0	0	0	0	0	0	0	0	0	0	0	0	0	0	0	0	0	0	0	0	0	0	0	0	0	0	0	0	0	0	0	0	0	0	0	0	0	0	0	0	0	0	0	0	0	0	0	0	0	0	0	0	0	0	0	0	0	0	0	0	0	0	0	0	0	0	0	0	0	0	0	0	0	0	0	0	0	0	0	0	0	0	0	0	0	0	0	0	0	0	0	0	0	0	0	0	0	0	0	0	0	0	0	0	0	0	0	0	0	0	0	0	0	0	0	0	0	0	0	0	0	0	0	0	0	0	0	0	0	0	0	0	0	0	0	0	0	0	0	0	0	0	0	0	0	0	0	0	0	0	0	0	0	0	0	0	0	0	0	0	0	0	0	0	0	0	0	0	0	0	0	0	0	0	0	0	0	0	0	0	0	0	0	0	0	0	0	0	0	0	0	0	0	0	0	0	0	0	0	0	0	0	0	0	0	0	0	0	0	0	0	0	0	0	0	0	0	0	0	0	0	0	0	0	742	684	645	624	618	621	630	641	648	653	658	665	673	676	672	670	663	655	648	647	648	646	643	639	629	621	621	627	634	637	624	624	626	629	632	630	629	626	622	619	623	629	630	628	623	627	634	637	638	638	636	633	628	624	624	631	632	635	632	628	621	615	610	607	607	610	609	601	605	609	619	625	628	635	635	634	623	608	595	600	613	624	0	0	0	0	0	0	0	0	0	0	0	0	0	0	0	0	0	0	0	0	0	0	0	0	0	0	0	0	0	0	0	0	0	0	0	0	0	0	0	0	0	0	0	0	0	0	0	0	0	0	0	0	0	0	0	0	0	0	0	0	0	0	0	0	0	0	0	0	0	0	0	0	0	0	0	0	0	0	0	0	0	0	0	0	0	0	0	0	0	0	0	0	0	0	0	0	0	0	0	0	0	0	0	0	0	0	0	0	0
