0	0	0	0	0	0	0	0	0	0	0	0	0	0	0	0	0	0	0	0	0	0	0	0	0	0	0	0	0	0	0	0	0	0	0	0	0	0	0	0	0	0	0	0	0	0	0	0	0	0	0	0	0	0	0	0	0	0	0	0	0	0	0	0	0	0	0	0	0	0	0	0	0	0	0	0	0	0	0	0	0	0	0	0	0	0	0	0	0	0	0	0	0	1507	1505	1495	1481	1468	1452	1454	1464	1478	1492	1465	1457	1468	1464	1456	1449	1439	1436	1426	1438	1469	1487	1502	1510	1488	1479	1474	1467	1462	1453	1457	1463	1463	1465	1458	1466	1458	1460	1455	1463	1469	1476	1473	1463	1449	1437	1440	1445	1454	1458	1459	1467	1465	1463	1475	1480	1507	1507	1498	1485	1469	1467	1476	1487	1488	1491	1468	1469	1477	1473	1490	1493	1466	1436	1438	1451	1457	1461	1467	1472	1472	1471	1463	1465	1471	1461	1448	1441	1437	1451	1468	1480	1480	1468	1473	1480	1484	1478	1471	1449	1445	1445	1457	1476	1483	1474	1467	1448	1450	1457	1467	1481	1493	1501	1488	1479	1465	1451	1451	1454	1451	1441	1433	1435	1429	1415	1396	1355	1201	1167	1132	1099	1094	1097	1086	1070	1049	1036	1028	1043	1064	1081	1083	1082	1073	1060	1043	1018	1021	1017	1014	1012	1041	1034	1026	1053	1043	1034	1025	1028	1054	1069	1060	1046	1038	1045	1065	1055	1059	1069	1084	0	0	0	0	0	0	1393	1475	1504	1499	1481	1465	1463	1466	1472	1490	1509	1516	1509	1497	1493	1492	1495	1491	1499	1512	1525	1531	1526	1509	1492	1481	1469	1457	1451	1453	1466	1487	1512	1535	1553	1561	1549	1519	1489	1472	1482	1482	1481	1475	1466	1456	1455	1464	1478	1496	1496	1505	1495	1487	1486	1483	1479	1475	1465	1462	1456	1456	1461	1457	1456	1456	1461	1475	1482	1507	1496	1466	1481	1496	1490	1500	1494	1469	1479	1475	1481	1491	1499	1487	1488	1487	1487	1489	1481	1478	1479	1476	1473	1471	1482	1493	1492	1482	1481	1484	1483	1478	1479	1480	1471	1463	1471	1493	1494	1499	1494	1485	1484	1481	1485	1489	1502	1500	1494	1493	1505	1511	1517	1510	1496	1478	1480	1483	1495	1470	1480	1487	1526	0	0	0	0	0	0	0	0	0	0	0	1032	1044	1064	1067	0	0	1053	1061	1066	1059	1039	1015	1006	1005	1026	1031	1031	1019	1013	1007	1012	1023	1036	1042	1038	1034	1026	1020	0	0	0	0	0	0	0	0	0	0	1016	1003	1003	1014	1039	1066	1095	1219	1322	1356	1383	1405	1411	1410	1421	1436	1450	1473	1468	1475	1490	1486	1487	1487	1497	1502	1498	1493	1492	1503	1513	1505	1487	1461	1460	1469	1480	1492	1487	1499	1507	1509	1500	1491	1502	1512	1513	1516	1532	1522	1516	1496	1472	1467	1462	1464	1466	1457	1461	1469	1476	1482	1479	1487	1486	1483	1484	1497	1504	1500	1486	1470	1466	1473	1478	1472	1451	1447	1460	1475	1490	1488	1487	1470	1458	1459	1470	1473	1474	1475	1484	1476	1473	1477	1490	1491	1484	1468	1463	1488	1504	1514	1519	1515	1515	1511	1506	1491	1471	1463	1460	1463	1470	1470	1474	1473	1478	1482	1485	1484	1477	1458	1457	1471	1479	1476	1469	1456	1447	1437	1467	1481	1484	1473	1464	1461	1465	1468	1481	1484	1484	1478	1474	1476	1467	1454	1449	1458	1468	1473	1477	1466	1452	1438	1439	1448	1457	1461	1461	1469	1461	1442	1433	1431	1443	1449	1454	1454	1456	1457	1456	1453	1451	1449	1449	1436	1429	1426	1435	1432	1435	0	0	0	0	0	0	0
0	0	0	0	0	0	0	0	0	0	0	0	0	0	0	0	0	0	0	0	0	0	0	0	0	0	0	0	0	0	0	0	0	0	0	0	0	0	0	0	0	0	0	0	0	0	0	0	0	0	0	0	0	0	0	0	0	0	0	0	0	0	0	0	0	0	0	0	0	0	0	0	0	0	0	0	0	0	0	0	0	0	0	0	0	0	0	0	0	0	0	0	0	1513	1510	1495	1475	1458	1450	1450	1459	1472	1476	1456	1453	1455	1451	1449	1444	1442	1459	1454	1470	1471	1479	1489	1499	1488	1491	1489	1497	1476	1462	1459	1461	1458	1461	1455	1459	1457	1454	1458	1482	1489	1489	1485	1471	1451	1436	1443	1450	1453	1445	1444	1441	1447	1444	1447	1465	1500	1506	1502	1497	1480	1465	1472	1487	1496	1486	1471	1470	1474	1467	1473	1470	1442	1435	1428	1440	1446	1458	1471	1479	1480	1476	1472	1478	1482	1467	1454	1439	1430	1442	1461	1477	1485	1481	1476	1477	1474	1480	1471	1462	1455	1453	1462	1477	1487	1484	1474	1452	1444	1455	1471	1482	1486	1482	1487	1488	1474	1463	1458	1459	1457	1439	1426	1392	1342	1263	1207	1164	1147	1133	1124	1095	1087	1083	1069	1049	1036	1024	1024	1036	1050	1062	1063	1047	1042	1029	1008	1004	1007	1004	995	996	1029	1029	1014	999	998	1015	1012	1026	1045	1054	1050	1039	1028	1026	1041	1053	0	0	0	0	0	0	0	0	0	1417	1490	1506	1502	1490	1476	1462	1455	1461	1480	1500	1503	1494	1491	1495	1503	1502	1494	1492	1501	1506	1508	1503	1504	1499	1497	1490	1477	1460	1455	1471	1488	1512	1530	1547	1548	1533	1505	1482	1469	1474	1478	1478	1477	1478	1469	1466	1466	1481	1490	1489	1493	1498	1495	1485	1474	1472	1469	1465	1451	1454	1454	1457	1461	1464	1462	1468	1480	1473	1478	1486	1462	1475	1480	1480	1490	1495	1505	1500	1496	1491	1494	1490	1481	1490	1494	1494	1492	1482	1470	1464	1465	1466	1464	1478	1487	1501	1490	1488	1483	1482	1476	1477	1476	1467	1467	1483	1504	1519	1507	1494	1489	1489	1490	1491	1497	1509	1510	1499	1499	1504	1513	1517	1515	1503	1490	1487	1490	1504	1497	1488	1476	1511	0	0	0	0	0	0	0	0	0	0	0	1025	1035	0	0	0	0	0	0	0	0	0	0	0	0	0	0	0	0	0	1003	1003	1013	1024	1029	1031	1032	1022	0	0	0	0	0	0	0	0	0	0	0	0	0	0	1009	1020	1025	1029	1047	1074	1104	1191	1344	1398	1412	1421	1433	1453	1472	1465	1492	1500	1507	1497	1489	1495	1499	1492	1488	1486	1498	1505	1499	1479	1455	1458	1467	1482	1492	1488	1496	1506	1507	1500	1492	1501	1505	1511	1516	1533	1515	1507	1489	1471	1458	1457	1460	1457	1461	1467	1472	1491	1495	1490	1485	1481	1476	1488	1500	1505	1498	1481	1468	1464	1470	1472	1459	1451	1448	1453	1476	1486	1489	1474	1461	1451	1461	1465	1474	1472	1473	1477	1477	1469	1471	1475	1483	1476	1469	1462	1471	1488	1498	1507	1516	1512	1508	1500	1489	1477	1471	1473	1474	1481	1476	1475	1475	1473	1478	1488	1498	1496	1495	1497	1502	1500	1482	1482	1475	1459	1454	1459	1460	1470	1470	1467	1468	1477	1486	1485	1490	1492	1492	1485	1489	1484	1463	1452	1450	1458	1463	1467	1459	1448	1436	1445	1455	1459	1459	1459	1459	1460	1452	1449	1449	1452	1464	1458	1455	1454	1451	1453	1449	1449	1447	1447	1436	1437	1443	1453	1452	1443	0	0	0	0	0	0	0
0	0	0	0	0	0	0	0	0	0	0	0	0	0	0	0	0	0	0	0	0	0	0	0	0	0	0	0	0	0	0	0	0	0	0	0	0	0	0	0	0	0	0	0	0	0	0	0	0	0	0	0	0	0	0	0	0	0	0	0	0	0	0	0	0	0	0	0	0	0	0	0	0	0	0	0	0	0	0	0	0	0	0	0	0	0	0	0	0	0	0	0	0	1492	1502	1494	1467	1460	1459	1463	1465	1474	1484	1474	1463	1459	1448	1443	1443	1442	1454	1476	1473	1463	1466	1472	1475	1462	1484	1491	1497	1485	1479	1476	1473	1462	1459	1462	1458	1463	1476	1484	1500	1508	1505	1493	1474	1454	1442	1433	1455	1460	1450	1434	1433	1423	1415	1427	1446	1483	1490	1494	1488	1483	1470	1470	1485	1496	1491	1476	1465	1459	1465	1465	1461	1447	1434	1439	1435	1443	1452	1467	1470	1473	1469	1474	1482	1489	1476	1460	1443	1435	1445	1457	1477	1489	1479	1465	1463	1467	1466	1471	1471	1471	1470	1474	1482	1490	1494	1487	1464	1455	1459	1471	1479	1472	1470	1492	1498	1486	1473	1459	1456	1445	1406	1312	1278	1220	1175	1149	1134	1127	0	0	0	0	1068	1051	1036	1025	1024	1024	1027	1032	1040	1035	1027	1016	1001	997	992	994	989	988	991	1009	1028	1017	1001	998	1007	1010	1020	1031	1036	1044	1036	1029	1023	1025	0	0	0	0	0	0	0	0	0	1403	1505	1509	1507	1498	1492	1479	1463	1451	1448	1470	1491	1495	1495	1496	1502	1509	1504	1485	1481	1481	1485	1486	1485	1494	1500	1505	1504	1488	1477	1469	1478	1498	1513	1523	1527	1516	1511	1493	1477	1475	1476	1481	1487	1483	1484	1476	1463	1468	1485	1491	1488	1488	1496	1508	1503	1483	1470	1471	1476	1471	1459	1452	1449	1457	1470	1487	1491	1486	1472	1467	1473	1484	1516	1526	1527	1522	1519	1519	1518	1514	1511	1493	1475	1469	1479	1496	1516	1507	1496	1493	1478	1461	1461	1468	1480	1491	1496	1502	1488	1481	1483	1474	1476	1478	1482	1486	1497	1520	1524	1516	1503	1498	1500	1492	1488	1496	1503	1510	1502	1505	1506	1509	1511	1508	1497	1488	1485	1496	1500	1505	1493	1477	1452	1479	0	0	0	0	0	0	0	0	0	0	0	0	0	0	0	0	0	0	0	0	0	0	0	0	0	0	0	0	0	0	0	993	998	1007	1010	0	0	0	0	0	0	0	0	0	0	0	0	0	0	0	0	0	0	0	1019	1023	1035	1044	1057	1089	1148	1222	1372	1410	1441	1464	1477	1496	1507	1514	1500	1487	1487	1490	1483	1477	1471	1482	1489	1484	1465	1451	1457	1470	1480	1485	1487	1492	1497	1500	1499	1499	1498	1508	1509	1519	1507	1507	1495	1475	1467	1461	1455	1452	1458	1464	1474	1493	1499	1513	1490	1484	1472	1466	1478	1490	1504	1485	1462	1453	1456	1462	1467	1467	1464	1465	1464	1465	1485	1485	1469	1461	1463	1468	1478	1483	1481	1478	1474	1471	1469	1464	1468	1470	1474	1468	1460	1470	1478	1477	1479	1477	1483	1482	1484	1479	1478	1473	1470	1478	1482	1479	1473	1466	1467	1474	1484	1492	1507	1504	1501	1506	1505	1493	1491	1490	1481	1466	1459	1466	1463	1464	1461	1477	1490	1496	1499	1497	1497	1493	1496	1500	1501	1480	1459	1453	1454	1459	1463	1458	1454	1449	1458	1462	1462	1461	1461	1461	1467	1463	1469	1474	1473	1473	1473	1456	1459	1454	1459	1455	1449	1449	1444	1447	1450	1453	1467	1464	1455	0	0	0	0	0	0	0
0	0	0	0	0	0	0	0	0	0	0	0	0	0	0	0	0	0	0	0	0	0	0	0	0	0	0	0	0	0	0	0	0	0	0	0	0	0	0	0	0	0	0	0	0	0	0	0	0	0	0	0	0	0	0	0	0	0	0	0	0	0	0	0	0	0	0	0	0	0	0	0	0	0	0	0	0	0	0	0	0	0	0	0	0	0	0	0	0	0	0	0	0	1458	1480	1453	1453	1470	1479	1475	1470	1479	1490	1502	1492	1480	1454	1447	1449	1448	1450	1462	1460	1448	1443	1450	1446	1445	1468	1487	1495	1495	1484	1479	1476	1467	1458	1459	1458	1471	1487	1500	1500	1500	1495	1484	1472	1450	1437	1444	1455	1474	1472	1456	1442	1417	1401	1407	1427	1455	1466	1479	1485	1471	1463	1472	1494	1504	1501	1475	1456	1453	1458	1456	1456	1452	1446	1449	1448	1450	1451	1454	1455	1457	1464	1474	1484	1487	1474	1461	1452	1450	1453	1463	1478	1485	1480	1461	1455	1462	1468	1476	1483	1476	1476	1475	1484	1490	1497	1499	1494	1485	1477	1469	1467	1459	1459	1468	1487	1481	1459	1430	1383	1336	1276	1249	1228	1195	1161	1133	1125	0	0	0	0	0	0	1029	1021	1024	1025	1028	1027	1026	1023	1017	1012	1002	992	982	978	980	993	999	1004	1011	1027	1033	1026	1020	1009	1010	1006	1009	1022	1026	1036	1029	0	0	0	0	0	0	0	0	0	0	1365	1473	1488	1485	1473	1473	1477	1469	1458	1458	1457	1459	1467	1477	1489	1494	1489	1486	1476	1476	1478	1477	1477	1474	1477	1482	1495	1510	1527	1527	1529	1515	1518	1518	1516	1507	1496	1487	1489	1491	1485	1490	1486	1491	1466	1484	1486	1480	1472	1470	1498	1501	1491	1493	1506	1516	1506	1492	1475	1481	1485	1483	1461	1455	1449	1454	1475	1485	1490	1490	1489	1483	1489	1500	1509	1519	1522	1516	1515	1509	1506	1505	1501	1489	1476	1474	1479	1500	1522	1525	1524	1520	1510	1487	1472	1476	1484	1495	1497	1496	1487	1478	1481	1483	1483	1488	1498	1502	1510	1515	1515	1508	1507	1508	1502	1490	1479	1492	1500	1507	1515	1503	1503	1503	1493	1495	1489	1485	1480	1491	1506	1513	1508	1481	1461	1457	0	0	0	0	0	0	0	0	0	0	0	0	0	0	0	0	0	0	0	0	0	0	0	0	0	0	0	0	0	0	0	976	977	987	0	0	0	0	0	0	0	0	0	0	0	0	0	0	0	0	0	0	0	0	1002	1001	1011	1011	1019	1044	1048	1068	1192	1341	1394	1453	1461	1477	1499	1504	1493	1484	1479	1478	1472	1464	1454	1467	1466	1464	1458	1459	1464	1470	1474	1476	1478	1483	1487	1494	1494	1493	1497	1505	1502	1485	1491	1494	1489	1481	1473	1472	1463	1455	1461	1475	1485	1487	1497	1515	1514	1495	1471	1462	1461	1465	1475	1468	1460	1453	1454	1462	1469	1473	1476	1478	1473	1476	1481	1477	1472	1475	1475	1477	1481	1480	1485	1481	1484	1482	1481	1474	1471	1463	1471	1474	1471	1481	1478	1478	1476	1471	1475	1474	1476	1486	1479	1473	1472	1471	1473	1474	1463	1458	1460	1467	1478	1492	1500	1496	1486	1482	1481	1492	1497	1495	1487	1480	1473	1467	1468	1465	1472	1489	1500	1507	1508	1505	1504	1501	1497	1503	1503	1485	1470	1459	1462	1465	1467	1463	1457	1460	1464	1471	1471	1471	1471	1469	1474	1483	1482	1489	1482	1471	1461	1456	1458	1461	1465	1461	1459	1459	1459	1443	1447	1455	1459	1466	1479	0	0	0	0	0	0	0
0	0	0	0	0	0	0	0	0	0	0	0	0	0	0	0	0	0	0	0	0	0	0	0	0	0	0	0	0	0	0	0	0	0	0	0	0	0	0	0	0	0	0	0	0	0	0	0	0	0	0	0	0	0	0	0	0	0	0	0	0	0	0	0	0	0	0	0	0	0	0	0	0	0	0	0	0	0	0	0	0	0	0	0	0	0	0	0	0	0	0	0	0	1442	1454	1459	1463	1483	1507	1499	1491	1478	1481	1484	1499	1495	1468	1472	1488	1489	1484	1464	1450	1430	1425	1418	1416	1420	1437	1462	1481	1490	1476	1454	1443	1436	1450	1457	1465	1484	1489	1495	1484	1467	1452	1451	1447	1445	1443	1450	1462	1471	1476	1463	1454	1420	1405	1399	1413	1429	1446	1468	1483	1482	1470	1480	1499	1504	1503	1473	1458	1457	1460	1473	1458	1457	1459	1461	1464	1460	1455	1444	1445	1455	1470	1485	1487	1484	1463	1458	1460	1460	1464	1473	1484	1485	1474	1454	1444	1453	1466	1473	1478	1472	1472	1463	1478	1471	1482	1499	1500	1498	1490	1480	1459	1448	1447	1457	1465	1359	1316	1286	1267	1246	1242	1236	1228	1203	1169	1141	1131	0	0	0	0	0	0	1018	1006	1009	1021	1030	1025	1014	1003	995	999	999	985	966	955	970	990	991	990	996	1013	1026	1024	1004	988	990	0	0	0	0	0	0	0	0	0	0	0	0	0	0	0	1346	1452	1480	1471	1464	1455	1467	1477	1477	1472	1471	1469	1466	1473	1487	1496	1497	1494	1485	1479	1480	1477	1476	1475	1477	1479	1484	1497	1514	1530	1530	1520	1513	1508	1505	1506	1501	1497	1489	1488	1492	1487	1485	1490	1482	1470	1476	1484	1479	1478	1476	1504	1509	1501	1493	1498	1506	1506	1494	1486	1487	1489	1486	1474	1457	1450	1461	1472	1482	1488	1494	1499	1502	1497	1496	1495	1490	1500	1501	1501	1498	1493	1485	1483	1486	1479	1480	1484	1499	1509	1520	1533	1528	1525	1504	1487	1485	1491	1499	1506	1506	1499	1492	1491	1494	1504	1510	1504	1513	1517	1513	1505	1495	1492	1492	1491	1483	1476	1489	1504	1512	1512	1503	1496	1487	1491	1495	1492	1484	1482	1496	1511	1518	1510	1490	1464	1449	1452	0	0	0	0	0	0	0	0	0	0	0	0	0	0	982	970	972	973	978	981	972	966	960	957	959	957	950	0	0	0	954	959	963	963	963	969	0	0	0	0	0	0	0	0	0	0	0	0	0	996	979	977	978	976	985	987	992	999	1006	1011	1013	1030	1071	1123	1345	1435	1465	1480	1485	1479	1479	1474	1467	1459	1457	1457	1460	1451	1449	1456	1461	1464	1465	1469	1469	1463	1475	1481	1487	1488	1484	1492	1500	1498	1476	1479	1496	1497	1498	1492	1485	1475	1475	1477	1484	1490	1486	1497	1512	1525	1505	1479	1464	1447	1447	1443	1444	1441	1448	1458	1468	1467	1472	1478	1481	1474	1470	1471	1468	1475	1489	1490	1486	1479	1471	1467	1471	1484	1498	1496	1484	1470	1471	1474	1481	1494	1506	1502	1491	1489	1498	1498	1492	1484	1480	1481	1477	1466	1457	1464	1464	1458	1457	1454	1459	1466	1481	1481	1480	1472	1462	1471	1480	1494	1493	1487	1478	1476	1477	1473	1468	1470	1484	1496	1501	1505	1508	1508	1501	1493	1477	1474	1475	1463	1463	1465	1461	1463	1458	1457	1461	1462	1468	1476	1475	1475	1480	1483	1479	1481	1487	1481	1462	1455	1443	1446	1452	1456	1461	1455	1455	1450	1434	1443	1448	1458	1476	1500	0	0	0	0	0	0	0
0	0	0	0	0	0	0	0	0	0	0	0	0	0	0	0	0	0	0	0	0	0	0	0	0	0	0	0	0	0	0	0	0	0	0	0	0	0	0	0	0	0	0	0	0	0	0	0	0	0	0	0	0	0	0	0	0	0	0	0	0	0	0	0	0	0	0	0	0	0	0	0	0	0	0	0	0	0	0	0	0	0	0	0	0	0	0	0	0	0	0	0	0	1478	1452	1468	1483	1492	1497	1496	1485	1483	1485	1482	1483	1478	1473	1478	1493	1496	1486	1468	1454	1437	1426	1419	1426	1424	1444	1466	1492	1497	1475	1447	1429	1438	1458	1482	1495	1492	1488	1490	1483	1473	1463	1456	1459	1460	1456	1465	1468	1471	1476	1473	1470	1454	1437	1428	1413	1412	1435	1467	1488	1490	1485	1492	1495	1501	1493	1480	1467	1472	1480	1483	1461	1460	1463	1464	1467	1463	1455	1444	1445	1462	1480	1492	1484	1466	1457	1455	1458	1466	1464	1470	1478	1478	1465	1447	1436	1443	1458	1467	1473	1466	1452	1449	1439	1452	1468	1485	1486	1486	1487	1478	1467	1445	1426	1402	1214	1193	1197	1214	1220	1213	1217	1212	1207	1191	1162	1141	1128	0	0	0	0	0	1026	1005	1001	998	1007	1012	1006	982	975	973	979	980	976	957	951	953	964	968	963	962	991	1005	996	977	960	962	0	0	0	0	0	0	0	0	0	0	0	0	0	0	1374	1452	1473	1467	1452	1449	1456	1466	1478	1483	1488	1487	1477	1472	1478	1489	1499	1503	1494	1487	1488	1492	1489	1477	1479	1477	1485	1496	1507	1518	1530	1525	1515	1503	1499	1497	1498	1498	1499	1498	1497	1486	1473	1470	1475	1477	1485	1482	1485	1488	1487	1486	1492	1506	1500	1488	1482	1490	1493	1493	1487	1490	1486	1486	1477	1473	1472	1479	1482	1484	1487	1494	1504	1513	1500	1487	1475	1469	1479	1485	1490	1491	1489	1482	1477	1476	1470	1469	1476	1478	1485	1502	1514	1517	1509	1502	1507	1504	1497	1486	1501	1503	1502	1501	1504	1500	1496	1509	1517	1522	1513	1512	1496	1476	1471	1469	1471	1473	1480	1487	1500	1509	1501	1499	1485	1482	1492	1487	1486	1478	1480	1493	1511	1520	1515	1492	1464	1443	1444	1446	0	0	0	0	0	0	0	0	0	0	0	0	0	0	947	941	947	946	949	949	944	939	940	938	936	935	940	938	945	951	947	947	939	938	933	957	0	0	0	989	960	944	946	957	958	938	925	922	930	926	935	951	961	969	977	982	988	989	989	990	990	1015	1028	1059	1204	1342	1428	1449	1454	1462	1464	1461	1458	1462	1462	1471	1455	1448	1460	1468	1469	1464	1464	1465	1448	1453	1467	1473	1477	1472	1476	1477	1486	1477	1484	1501	1504	1507	1507	1497	1482	1480	1485	1490	1490	1490	1494	1503	1507	1496	1482	1469	1464	1443	1438	1431	1431	1446	1458	1468	1474	1470	1474	1473	1465	1461	1464	1476	1481	1489	1487	1478	1456	1449	1447	1457	1474	1488	1488	1479	1467	1467	1474	1492	1504	1492	1480	1475	1485	1496	1503	1493	1492	1492	1482	1471	1461	1468	1473	1478	1477	1472	1460	1468	1471	1471	1473	1472	1468	1465	1467	1474	1481	1482	1480	1476	1484	1486	1482	1472	1469	1478	1485	1488	1489	1501	1505	1487	1464	1452	1451	1454	1456	1459	1457	1451	1453	1451	1455	1455	1462	1463	1469	1469	1469	1465	1466	1463	1468	1477	1475	1466	1453	1440	1432	1436	1447	1457	1456	1456	1449	1435	1429	1449	1459	1470	0	0	0	0	0	0	0	0
0	0	0	0	0	0	0	0	0	0	0	0	0	0	0	0	0	0	0	0	0	0	0	0	0	0	0	0	0	0	0	0	0	0	0	0	0	0	0	0	0	0	0	0	0	0	0	0	0	0	0	0	0	0	0	0	0	0	0	0	0	0	0	0	0	0	0	0	0	0	0	0	0	0	0	0	0	0	0	0	0	0	0	0	0	0	0	0	0	0	0	0	0	1491	1448	1458	1477	1488	1489	1484	1487	1502	1507	1496	1484	1472	1482	1482	1482	1498	1490	1481	1463	1448	1437	1436	1441	1445	1460	1471	1491	1492	1479	1448	1433	1451	1476	1496	1502	1496	1488	1481	1478	1484	1481	1478	1480	1474	1462	1460	1458	1468	1471	1477	1476	1473	1457	1436	1428	1411	1431	1458	1474	1475	1470	1465	1493	1487	1486	1487	1488	1487	1486	1483	1454	1456	1454	1455	1457	1457	1453	1453	1461	1478	1484	1485	1467	1450	1452	1457	1458	1455	1452	1455	1465	1462	1454	1444	1449	1455	1460	1465	1466	1458	1448	1441	1445	1452	1458	1455	1456	1463	1466	1443	1411	1358	1293	1213	1121	1127	1132	1147	1144	1148	1161	1162	1158	1151	1134	1119	1104	1099	0	0	0	1030	999	990	988	985	978	974	962	939	930	940	952	959	959	953	943	944	945	949	949	944	972	977	973	958	941	952	0	0	0	0	0	0	0	0	0	0	0	0	0	0	1415	1461	1464	1445	1445	1437	1451	1468	1482	1494	1498	1494	1486	1481	1478	1489	1498	1505	1492	1463	1485	1491	1491	1489	1481	1485	1496	1505	1512	1520	1526	1519	1510	1503	1489	1487	1488	1493	1499	1504	1497	1469	1473	1483	1488	1489	1468	1447	1487	1493	1496	1482	1486	1482	1479	1480	1466	1469	1484	1489	1488	1488	1483	1482	1481	1484	1495	1497	1495	1489	1484	1490	1493	1500	1494	1481	1468	1458	1473	1479	1489	1491	1490	1483	1483	1477	1477	1468	1471	1471	1474	1484	1493	1502	1491	1496	1517	1512	1497	1484	1481	1487	1498	1511	1507	1494	1485	1486	1494	1500	1503	1510	1489	1471	1456	1457	1453	1465	1472	1482	1487	1487	1488	1478	1475	1482	1494	1493	1493	1476	1482	1491	1507	1521	1515	1488	1461	1449	1442	1447	1446	0	0	0	0	0	0	0	0	0	0	0	0	0	937	927	932	934	928	924	926	923	926	925	926	925	929	928	935	940	939	933	934	925	922	925	949	974	978	973	947	935	928	928	941	924	909	899	900	905	924	936	953	961	961	958	962	968	969	964	964	966	975	982	999	1052	1106	1264	1369	1411	1451	1460	1465	1473	1482	1482	1480	1471	1460	1468	1472	1475	1469	1464	1446	1439	1458	1468	1455	1452	1447	1459	1483	1483	1489	1492	1495	1504	1497	1491	1482	1477	1481	1486	1490	1493	1499	1499	1491	1474	1473	1475	1475	1454	1440	1432	1438	1449	1462	1475	1472	1468	1459	1454	1444	1446	1456	1469	1475	1483	1482	1474	1460	1453	1455	1457	1471	1473	1478	1474	1465	1460	1478	1509	1506	1469	1457	1461	1482	1493	1485	1471	1468	1472	1463	1450	1457	1464	1476	1479	1482	1466	1458	1451	1460	1464	1469	1474	1471	1477	1475	1477	1473	1463	1449	1446	1482	1486	1487	1472	1466	1460	1467	1473	1482	1482	1492	1476	1456	1443	1444	1450	1449	1453	1451	1448	1451	1449	1452	1458	1456	1459	1458	1458	1454	1457	1453	1447	1459	1469	1475	1468	1461	1446	1430	1424	1442	1452	1454	1454	1448	1441	1441	1455	1459	1449	1454	0	0	0	0	0	0	0
0	0	0	0	0	0	0	0	0	0	0	0	0	0	0	0	0	0	0	0	0	0	0	0	0	0	0	0	0	0	0	0	0	0	0	0	0	0	0	0	0	0	0	0	0	0	0	0	0	0	0	0	0	0	0	0	0	0	0	0	0	0	0	0	0	0	0	0	0	0	0	0	0	0	0	0	0	0	0	0	0	0	0	0	0	0	0	0	0	0	0	0	0	1478	1443	1450	1473	1477	1472	1472	1487	1506	1522	1505	1482	1488	1485	1481	1481	1495	1473	1470	1466	1452	1449	1454	1457	1464	1472	1482	1491	1490	1482	1462	1452	1473	1495	1501	1499	1490	1479	1467	1468	1475	1486	1488	1491	1481	1470	1463	1464	1464	1470	1473	1469	1467	1457	1448	1447	1429	1444	1462	1476	1471	1458	1445	1446	1443	1450	1457	1465	1466	1484	1475	1446	1435	1435	1439	1436	1442	1452	1460	1473	1485	1489	1475	1449	1442	1447	1461	1457	1436	1430	1435	1443	1447	1444	1449	1454	1453	1452	1457	1462	1452	1443	1445	1449	1444	1433	1421	1415	1394	1329	1211	1187	1156	1118	1096	1072	1076	1077	1078	1080	1080	1093	1113	1109	1110	1103	1096	1080	1076	1075	1079	1054	997	986	980	978	970	960	954	939	916	907	909	928	943	947	948	945	941	938	936	933	944	947	956	950	943	946	0	0	0	0	0	0	0	0	0	0	0	0	0	0	1403	1427	1427	1459	1448	1440	1438	1446	1463	1477	1491	1497	1498	1494	1485	1485	1490	1494	1502	1492	1486	1521	1486	1488	1485	1498	1501	1512	1515	1516	1518	1519	1510	1503	1498	1489	1483	1483	1490	1490	1487	1467	1468	1471	1486	1494	1502	1503	1457	1449	1504	1505	1501	1496	1491	1495	1487	1473	1471	1476	1483	1487	1485	1488	1490	1492	1490	1495	1500	1494	1483	1477	1477	1491	1499	1489	1481	1476	1469	1477	1486	1492	1489	1492	1493	1486	1481	1474	1471	1467	1472	1473	1480	1486	1489	1485	1496	1505	1513	1502	1485	1477	1483	1501	1518	1514	1501	1473	1461	1461	1470	1480	1498	1496	1476	1464	1454	1456	1458	1466	1476	1479	1472	1467	1457	1457	1467	1491	1511	1508	1489	1486	1493	1507	1520	1515	1495	1470	1459	1459	1463	1450	1435	0	0	0	0	0	0	0	0	0	0	0	0	0	922	919	921	913	902	903	907	917	919	912	903	906	913	924	933	930	919	921	911	906	901	920	938	949	947	932	919	913	909	913	911	892	882	884	900	913	932	937	939	933	931	934	940	937	938	935	941	945	955	967	986	991	1002	1088	1249	1381	1424	1457	1479	1495	1505	1501	1497	1473	1469	1473	1485	1487	1482	1465	1462	1471	1472	1465	1452	1447	1458	1469	1485	1486	1479	1479	1486	1491	1484	1469	1465	1473	1485	1494	1500	1502	1505	1486	1475	1471	1482	1480	1474	1463	1459	1464	1478	1476	1470	1472	1468	1465	1453	1441	1437	1446	1455	1461	1469	1471	1474	1468	1468	1464	1467	1468	1468	1466	1463	1465	1469	1484	1508	1497	1457	1450	1465	1484	1490	1477	1459	1447	1449	1442	1436	1448	1460	1473	1474	1469	1459	1451	1445	1447	1459	1458	1467	1470	1470	1472	1471	1459	1440	1439	1439	1444	1454	1456	1461	1458	1454	1456	1466	1477	1480	1479	1473	1456	1452	1457	1460	1456	1451	1451	1450	1456	1458	1461	1459	1464	1461	1457	1457	1456	1455	1448	1442	1453	1462	1471	1472	1474	1462	1444	1434	1442	1450	1449	1449	1442	1438	1449	1458	1464	1445	1437	0	0	0	0	0	0	0
0	0	0	0	0	0	0	0	0	0	0	0	0	0	0	0	0	0	0	0	0	0	0	0	0	0	0	0	0	0	0	0	0	0	0	0	0	0	0	0	0	0	0	0	0	0	0	0	0	0	0	0	0	0	0	0	0	0	0	0	0	0	0	0	0	0	0	0	0	0	0	0	0	0	0	0	0	0	0	0	0	0	0	0	0	0	0	0	0	0	0	0	0	1456	1445	1448	1463	1478	1477	1472	1489	1508	1513	1504	1487	1480	1479	1480	1485	1466	1448	1439	1455	1457	1464	1474	1468	1469	1474	1480	1494	1493	1488	1478	1473	1491	1503	1498	1491	1477	1463	1448	1443	1462	1473	1488	1498	1495	1484	1468	1463	1460	1462	1461	1452	1458	1467	1471	1471	1455	1467	1475	1477	1471	1455	1439	1428	1422	1428	1426	1437	1441	1446	1458	1453	1438	1435	1440	1427	1433	1445	1461	1486	1500	1490	1468	1447	1437	1451	1462	1450	1434	1428	1429	1448	1457	1455	1452	1460	1453	1456	1457	1455	1441	1440	1442	1440	1430	1397	1365	1303	1233	1137	1108	1104	1081	1072	1059	1045	1040	1042	1045	1042	1037	1049	1056	1069	1076	1083	1083	1075	1071	1068	1057	1028	1000	973	960	962	954	947	940	928	911	900	906	920	934	940	938	942	937	926	920	921	0	0	0	0	0	0	0	0	0	0	0	0	0	0	0	0	0	1396	1431	1377	1411	1415	1417	1396	1459	1459	1453	1463	1474	1482	1488	1495	1498	1499	1492	1493	1499	1504	1492	1504	1516	1520	1482	1468	1496	1520	1517	1518	1515	1512	1506	1501	1498	1500	1496	1488	1482	1481	1484	1478	1479	1468	1462	1468	1488	1496	1502	1515	1510	1461	1501	1507	1508	1506	1507	1513	1495	1489	1484	1490	1490	1488	1483	1487	1502	1496	1493	1490	1494	1493	1470	1463	1471	1480	1488	1491	1489	1488	1490	1491	1494	1502	1498	1501	1501	1496	1479	1469	1465	1469	1469	1479	1486	1486	1478	1469	1484	1498	1512	1503	1491	1468	1472	1492	1515	1526	1505	1473	1446	1441	1448	1460	1481	1494	1480	1475	1468	1469	1479	1484	1478	1476	1464	1461	1450	1450	1463	1490	1509	1509	1497	1488	1490	1501	1517	1518	1501	1486	1486	1488	1489	1471	1442	0	0	0	0	0	0	0	0	0	0	0	0	0	0	907	905	894	880	877	883	898	909	899	892	893	894	902	906	904	905	900	895	886	883	886	895	910	913	909	901	890	883	878	884	876	873	876	892	909	921	920	917	914	917	917	912	904	900	908	916	928	929	929	927	932	933	948	986	1089	1281	1372	1409	1461	1484	1493	1492	1464	1461	1467	1483	1504	1498	1488	1487	1488	1493	1479	1466	1461	1463	1475	1482	1479	1467	1475	1482	1480	1478	1458	1453	1466	1492	1505	1509	1521	1525	1521	1497	1490	1475	1472	1468	1469	1473	1478	1484	1465	1462	1463	1472	1484	1484	1449	1439	1440	1446	1454	1458	1469	1475	1479	1479	1490	1483	1476	1471	1462	1461	1448	1460	1477	1489	1484	1445	1454	1492	1510	1503	1481	1465	1447	1441	1437	1439	1449	1463	1465	1466	1465	1463	1455	1456	1447	1447	1446	1467	1468	1480	1472	1470	1461	1447	1445	1444	1446	1454	1455	1467	1468	1458	1461	1455	1460	1455	1457	1463	1457	1461	1469	1472	1465	1458	1454	1466	1471	1482	1480	1474	1471	1467	1466	1466	1465	1462	1456	1448	1451	1457	1460	1468	1478	1473	1464	1454	1448	1442	1434	1434	1438	1439	1453	1462	1465	1445	0	0	0	0	0	0	0	0
0	0	0	0	0	0	0	0	0	0	0	0	0	0	0	0	0	0	0	0	0	0	0	0	0	0	0	0	0	0	0	0	0	0	0	0	0	0	0	0	0	0	0	0	0	0	0	0	0	0	0	0	0	0	0	0	0	0	0	0	0	0	0	0	0	0	0	0	0	0	0	0	0	0	0	0	0	0	0	0	0	0	0	0	0	0	0	0	0	0	0	0	0	1424	1432	1447	1459	1478	1485	1484	1492	1509	1510	1498	1479	1463	1460	1461	1462	1428	1415	1414	1458	1468	1477	1484	1475	1471	1469	1481	1492	1505	1497	1496	1489	1498	1493	1487	1482	1471	1456	1431	1427	1442	1463	1477	1487	1492	1489	1472	1469	1470	1468	1454	1444	1445	1464	1480	1486	1479	1476	1476	1463	1451	1447	1433	1422	1416	1409	1408	1414	1420	1434	1452	1461	1462	1462	1457	1463	1460	1469	1480	1491	1501	1491	1468	1448	1447	1447	1458	1449	1442	1444	1465	1479	1482	1476	1464	1455	1451	1450	1452	1448	1431	1430	1412	1386	1339	1254	1164	1100	1078	1080	1079	1062	1049	1046	1054	1057	1040	1041	1046	1035	1032	1036	1043	1047	1062	1074	1080	1078	1075	1068	1044	1009	976	955	957	952	948	940	934	919	908	903	909	915	929	933	941	942	934	924	910	913	0	0	0	0	0	0	0	0	0	0	0	0	0	0	0	0	1429	1463	1450	1442	1445	1427	1415	1401	1469	1502	1487	1481	1484	1490	1493	1496	1502	1498	1495	1501	1511	1503	1495	1493	1523	1515	1491	1479	1506	1533	1527	1523	1509	1500	1492	1491	1492	1496	1498	1496	1487	1483	1484	1489	1469	1477	1477	1500	1496	1490	1499	1521	1520	1467	1497	1501	1504	1517	1523	1514	1496	1495	1494	1500	1498	1496	1486	1490	1491	1485	1492	1492	1494	1488	1469	1470	1470	1473	1488	1499	1501	1506	1506	1503	1506	1502	1499	1497	1501	1494	1482	1465	1467	1457	1469	1483	1490	1478	1464	1461	1477	1497	1508	1500	1482	1467	1469	1488	1508	1518	1507	1471	1441	1436	1448	1455	1472	1486	1480	1485	1478	1483	1485	1490	1488	1472	1465	1451	1447	1454	1471	1485	1501	1496	1480	1483	1487	1506	1522	1523	1515	1511	1516	1516	1506	1497	1473	1479	0	0	0	0	0	0	0	0	0	0	0	0	0	0	896	875	859	852	852	863	891	885	884	882	881	886	887	888	887	885	883	880	874	874	878	881	883	886	884	872	853	853	857	859	862	871	888	901	908	905	904	902	907	902	895	885	877	879	889	910	911	903	893	892	909	924	936	945	985	1046	1200	1364	1392	1396	1445	1439	1447	1463	1483	1491	1513	1515	1506	1505	1502	1489	1476	1464	1463	1469	1488	1489	1489	1484	1477	1481	1478	1467	1473	1489	1499	1504	1507	1505	1519	1510	1491	1474	1469	1454	1454	1462	1477	1483	1481	1473	1461	1471	1481	1499	1505	1467	1449	1443	1444	1446	1455	1467	1477	1488	1487	1499	1497	1488	1484	1471	1460	1444	1449	1470	1485	1458	1447	1457	1504	1517	1510	1479	1462	1451	1450	1446	1437	1452	1460	1464	1466	1467	1470	1468	1472	1456	1455	1454	1458	1466	1475	1475	1475	1473	1475	1467	1458	1449	1458	1468	1481	1473	1462	1457	1456	1457	1455	1450	1448	1446	1463	1473	1479	1472	1459	1468	1477	1496	1502	1498	1490	1480	1470	1469	1469	1475	1476	1464	1462	1459	1458	1453	1460	1467	1473	1476	1469	1466	1438	1438	1438	1441	1448	1460	1465	1468	1456	0	0	0	0	0	0	0	0
0	0	0	0	0	0	0	0	0	0	0	0	0	0	0	0	0	0	0	0	0	0	0	0	0	0	0	0	0	0	0	0	0	0	0	0	0	0	0	0	0	0	0	0	0	0	0	0	0	0	0	0	0	0	0	0	0	0	0	0	0	0	0	0	0	0	0	0	0	0	0	0	0	0	0	0	0	0	0	0	0	0	0	0	0	0	0	0	0	0	0	0	0	1420	1426	1437	1455	1478	1488	1500	1504	1510	1509	1491	1475	1455	1453	1442	1444	1419	1401	1401	1427	1476	1491	1495	1480	1464	1466	1474	1490	1504	1507	1498	1495	1484	1482	1477	1464	1453	1436	1425	1425	1440	1453	1463	1475	1489	1488	1480	1475	1480	1474	1462	1447	1441	1460	1482	1492	1481	1470	1464	1455	1449	1437	1431	1426	1425	1411	1402	1403	1418	1430	1453	1462	1473	1471	1473	1478	1484	1489	1492	1485	1480	1470	1465	1460	1448	1446	1446	1439	1434	1448	1481	1490	1496	1487	1471	1457	1444	1431	1427	1441	1413	1371	1265	1167	1122	1076	1057	1058	1066	1068	1064	1044	1035	1050	1077	1083	1072	1071	1070	1071	1072	1065	1056	1056	1064	1073	1085	1082	1078	1066	1031	1000	967	958	967	0	0	0	0	930	922	921	918	923	932	945	959	956	945	930	923	0	0	0	0	0	0	0	0	0	0	0	0	0	0	0	0	1453	1488	1477	1466	1466	1464	1461	1444	1409	1484	1523	1505	1489	1488	1491	1492	1494	1494	1491	1489	1497	1506	1506	1490	1493	1497	1517	1505	1509	1507	1520	1523	1515	1509	1495	1491	1490	1489	1501	1507	1503	1492	1488	1488	1498	1504	1502	1492	1497	1491	1491	1506	1521	1477	1475	1491	1496	1502	1513	1522	1509	1494	1495	1505	1516	1520	1507	1482	1472	1471	1471	1489	1494	1490	1484	1470	1466	1465	1474	1489	1502	1508	1514	1509	1509	1505	1501	1499	1494	1503	1497	1491	1477	1471	1460	1470	1479	1488	1469	1459	1459	1470	1485	1481	1478	1462	1457	1463	1485	1496	1507	1504	1480	1459	1448	1453	1461	1463	1472	1476	1473	1470	1476	1481	1488	1490	1479	1470	1459	1468	1479	1485	1487	1483	1477	1471	1477	1490	1514	1536	1533	1533	1526	1528	1527	1521	1508	1490	1468	1446	0	0	0	0	0	0	0	0	0	0	0	0	0	889	863	841	826	821	826	856	865	865	866	872	875	880	879	879	875	875	874	870	875	869	863	862	864	862	853	838	825	826	836	845	857	875	886	890	885	885	893	898	894	883	874	861	859	867	891	896	892	884	887	895	911	911	917	933	949	981	1013	1175	1253	1379	1413	1430	1451	1474	1489	1508	1520	1516	1505	1488	1484	1472	1468	1462	1492	1495	1497	1497	1493	1496	1494	1488	1485	1482	1490	1494	1495	1486	1486	1491	1489	1477	1455	1443	1450	1454	1463	1471	1475	1474	1472	1475	1473	1493	1509	1515	1484	1468	1451	1440	1440	1442	1448	1475	1472	1474	1481	1478	1485	1491	1486	1465	1456	1447	1465	1480	1462	1453	1468	1508	1523	1514	1482	1463	1463	1463	1456	1447	1447	1454	1470	1469	1474	1474	1479	1489	1482	1471	1459	1452	1459	1468	1480	1481	1484	1485	1486	1470	1452	1458	1468	1478	1472	1460	1458	1460	1461	1453	1449	1444	1448	1456	1472	1494	1492	1483	1479	1491	1502	1501	1500	1497	1488	1485	1485	1482	1478	1477	1473	1474	1470	1456	1445	1447	1459	1471	1485	1485	1472	1449	1449	1449	1456	1462	1470	1468	1465	1460	0	0	0	0	0	0	0	0
0	0	0	0	0	0	0	0	0	0	0	0	0	0	0	0	0	0	0	0	0	0	0	0	0	0	0	0	0	0	0	0	0	0	0	0	0	0	0	0	0	0	0	0	0	0	0	0	0	0	0	0	0	0	0	0	0	0	0	0	0	0	0	0	0	0	0	0	0	0	0	0	0	0	0	0	0	0	0	0	0	0	0	0	0	0	0	0	0	0	0	0	0	1440	1435	1441	1456	1472	1486	1491	1506	1509	1502	1485	1478	1456	1442	1428	1429	1439	1421	1420	1441	1471	1491	1498	1490	1466	1457	1472	1483	1490	1502	1503	1496	1481	1465	1460	1456	1448	1438	1430	1436	1439	1445	1452	1461	1477	1481	1478	1479	1485	1491	1479	1457	1447	1443	1466	1471	1475	1469	1463	1454	1449	1443	1444	1441	1434	1431	1420	1425	1431	1443	1458	1462	1470	1467	1462	1469	1485	1496	1496	1482	1468	1459	1460	1462	1467	1464	1457	1434	1431	1447	1465	1491	1486	1484	1469	1445	1420	1397	1376	1337	1304	1191	1122	1075	1081	1078	1074	1068	1075	1082	1079	1073	1070	1081	1106	1124	1120	1112	1107	1113	1115	1110	1105	1092	1095	0	0	0	0	0	0	0	0	0	0	0	0	0	0	0	0	0	0	0	0	0	0	0	0	0	0	0	0	0	0	0	0	0	0	0	0	0	0	0	0	0	1468	1484	1490	1489	1483	1473	1474	1472	1457	1470	1510	1523	1508	1487	1486	1488	1489	1491	1484	1479	1476	1488	1495	1505	1502	1498	1502	1497	1513	1517	1517	1517	1506	1507	1497	1500	1495	1493	1493	1507	1515	1512	1501	1491	1489	1499	1499	1493	1484	1482	1471	1480	1502	1507	1459	1468	1478	1484	1488	1494	1515	1506	1497	1503	1517	1532	1532	1508	1491	1470	1467	1466	1490	1500	1493	1477	1469	1467	1462	1467	1482	1491	1503	1502	1498	1492	1482	1489	1498	1502	1508	1508	1495	1481	1474	1469	1481	1483	1485	1476	1466	1468	1483	1480	1474	1456	1446	1444	1452	1468	1483	1493	1496	1481	1472	1470	1467	1462	1463	1467	1474	1475	1462	1460	1471	1486	1494	1492	1481	1475	1479	1486	1494	1489	1482	1470	1475	1475	1490	1508	1515	1523	1523	1523	1522	1518	1504	1489	1471	1462	1457	1433	0	0	0	0	0	0	0	0	0	0	0	0	0	863	829	807	801	804	817	829	837	848	851	867	870	866	860	860	863	868	874	866	859	845	840	837	841	835	823	809	807	813	823	841	857	870	881	880	876	874	880	877	874	867	864	862	871	880	886	886	881	884	898	898	898	892	894	898	917	943	998	1061	1233	1350	1397	1440	1463	1484	1496	1500	1501	1488	1474	1470	1455	1450	1453	1451	1454	1472	1481	1492	1495	1499	1493	1488	1478	1481	1475	1465	1461	1465	1480	1478	1470	1452	1453	1456	1462	1467	1473	1468	1465	1459	1464	1472	1490	1511	1524	1502	1482	1463	1448	1444	1448	1461	1468	1457	1452	1462	1475	1484	1487	1479	1474	1469	1461	1465	1477	1461	1457	1484	1509	1519	1505	1480	1467	1467	1473	1465	1452	1451	1458	1470	1467	1472	1470	1475	1484	1487	1480	1468	1462	1461	1476	1484	1486	1482	1483	1471	1461	1449	1452	1462	1467	1464	1462	1462	1465	1468	1459	1451	1450	1453	1470	1491	1514	1513	1499	1486	1479	1480	1490	1503	1498	1490	1484	1484	1469	1463	1469	1474	1475	1475	1464	1453	1449	1466	1484	1497	1500	1485	1457	1457	1466	1471	1474	1477	1462	1452	1456	0	0	0	0	0	0	0	0
0	0	0	0	0	0	0	0	0	0	0	0	0	0	0	0	0	0	0	0	0	0	0	0	0	0	0	0	0	0	0	0	0	0	0	0	0	0	0	0	0	0	0	0	0	0	0	0	0	0	0	0	0	0	0	0	0	0	0	0	0	0	0	0	0	0	0	0	0	0	0	0	0	0	0	0	0	0	0	0	0	0	0	0	0	0	0	0	0	0	0	0	0	1480	1447	1456	1462	1477	1485	1500	1506	1509	1493	1474	1470	1463	1446	1435	1427	1457	1458	1451	1459	1486	1496	1493	1476	1461	1452	1462	1475	1484	1497	1503	1495	1479	1461	1452	1452	1456	1455	1456	1456	1446	1445	1449	1463	1471	1475	1472	1477	1493	1505	1493	1476	1460	1445	1453	1457	1458	1467	1466	1466	1464	1466	1463	1455	1455	1453	1453	1458	1458	1456	1459	1465	1461	1439	1432	1452	1473	1493	1495	1484	1464	1452	1452	1462	1471	1480	1473	1471	1455	1448	1451	1470	1480	1468	1452	1431	1395	1363	1314	1257	1198	1075	1069	0	0	1089	1088	1086	1093	1111	1115	1119	1118	1127	1146	1171	1174	1162	1145	1144	1152	1161	1160	1147	0	0	0	0	0	0	0	0	0	0	0	0	0	0	0	0	0	0	0	0	0	0	0	0	0	0	0	0	0	0	0	0	0	0	0	0	0	0	0	0	0	1455	1474	1474	1479	1493	1496	1492	1488	1480	1454	1464	1492	1495	1503	1489	1477	1481	1483	1486	1479	1471	1469	1481	1497	1501	1506	1509	1494	1500	1526	1526	1537	1511	1493	1492	1497	1501	1501	1502	1504	1514	1519	1514	1503	1487	1488	1497	1492	1486	1476	1464	1453	1478	1491	1500	1487	1464	1480	1488	1494	1502	1517	1518	1506	1507	1519	1529	1531	1523	1506	1495	1486	1478	1490	1490	1489	1477	1468	1466	1462	1467	1467	1475	1483	1479	1481	1478	1476	1485	1499	1504	1514	1510	1503	1486	1474	1477	1481	1487	1492	1486	1485	1483	1491	1487	1465	1452	1442	1443	1447	1453	1473	1476	1484	1477	1479	1477	1478	1476	1475	1481	1487	1469	1454	1445	1457	1476	1497	1502	1498	1483	1484	1491	1494	1480	1467	1474	1473	1473	1485	1495	1501	1505	1501	1506	1505	1491	1474	1466	1460	1460	1458	1452	1411	0	0	0	0	0	0	0	0	0	0	0	0	0	0	810	793	790	796	796	804	807	813	836	847	840	835	842	853	861	860	860	847	833	823	820	823	818	808	803	805	803	806	818	831	842	851	862	859	869	861	857	858	860	861	859	866	871	874	880	881	885	890	891	878	870	867	867	876	882	918	957	1042	1105	1197	1374	1435	1459	1471	1469	1470	1461	1452	1431	1424	1416	1413	1415	1425	1440	1456	1475	1493	1497	1497	1491	1483	1470	1463	1460	1460	1467	1472	1474	1471	1465	1465	1462	1467	1476	1475	1471	1456	1455	1463	1473	1483	1498	1513	1497	1483	1475	1464	1467	1472	1474	1468	1451	1443	1453	1475	1483	1476	1469	1473	1479	1469	1475	1473	1459	1461	1483	1506	1514	1497	1477	1476	1475	1479	1478	1468	1467	1473	1475	1475	1462	1455	1458	1472	1486	1493	1485	1482	1470	1477	1479	1484	1477	1468	1463	1457	1450	1450	1462	1468	1471	1472	1470	1480	1479	1473	1462	1459	1465	1486	1503	1517	1512	1499	1484	1481	1483	1499	1510	1504	1495	1473	1473	1454	1446	1451	1463	1477	1477	1468	1463	1459	1477	1495	1506	1502	1490	1476	1476	1476	1482	1486	1482	1475	1461	1458	0	0	0	0	0	0	0	0
0	0	0	0	0	0	0	0	0	0	0	0	0	0	0	0	0	0	0	0	0	0	0	0	0	0	0	0	0	0	0	0	0	0	0	0	0	0	0	0	0	0	0	0	0	0	0	0	0	0	0	0	0	0	0	0	0	0	0	0	0	0	0	0	0	0	0	0	0	0	0	0	0	0	0	0	0	0	0	0	0	0	0	0	0	0	0	0	0	0	0	0	0	0	1454	1465	1476	1485	1493	1497	1500	1495	1466	1455	1447	1464	1458	1442	1441	1452	1474	1477	1488	1495	1497	1481	1462	1457	1459	1463	1471	1477	1487	1496	1486	1472	1457	1453	1462	1476	1482	1482	1469	1458	1448	1453	1468	1471	1465	1465	1469	1486	1496	1493	1476	1468	1454	1453	1447	1440	1461	1476	1476	1474	1474	1472	1467	1468	1480	1480	1481	1475	1466	1464	1470	1435	1424	1425	1445	1462	1483	1490	1481	1467	1459	1455	1456	1459	1472	1480	1478	1470	1458	1445	1423	1391	1353	1421	1331	1261	1215	1160	1134	1113	0	0	0	0	0	1107	1098	1110	1130	1144	1157	1160	1168	1171	1178	1198	1192	1174	1178	1182	1196	1201	0	0	0	0	0	0	0	0	0	0	0	0	0	0	0	0	0	0	0	0	0	0	0	0	0	0	0	0	0	0	0	0	0	0	0	0	0	0	0	0	1367	1430	1484	1492	1484	1481	1491	1497	1508	1499	1493	1478	1457	1457	1470	1469	1481	1457	1457	1490	1495	1493	1481	1476	1482	1493	1499	1507	1502	1494	1497	1525	1527	1532	1514	1492	1487	1495	1482	1483	1484	1479	1478	1482	1477	1469	1468	1495	1498	1497	1488	1485	1470	1475	1476	1486	1492	1480	1482	1492	1501	1512	1524	1525	1518	1511	1510	1520	1523	1528	1525	1516	1506	1492	1482	1479	1477	1477	1467	1462	1467	1475	1473	1468	1465	1469	1467	1474	1469	1478	1487	1499	1504	1513	1514	1497	1475	1462	1470	1486	1494	1495	1497	1494	1495	1496	1490	1471	1455	1448	1450	1451	1454	1467	1474	1464	1463	1481	1493	1502	1497	1485	1491	1491	1476	1461	1451	1457	1477	1501	1513	1505	1486	1478	1482	1491	1473	1463	1470	1476	1480	1487	1494	1495	1499	1497	1493	1493	1488	1475	1466	1464	1469	1467	1466	1437	1401	0	0	0	0	0	0	0	0	0	0	0	0	0	851	799	777	777	778	780	783	790	800	810	819	830	835	843	850	848	836	833	822	818	815	816	807	807	810	811	806	802	813	819	828	836	842	843	844	839	838	844	852	855	850	844	856	860	864	871	880	883	873	871	858	859	856	851	849	858	881	937	950	970	1091	1297	1336	1411	1337	1364	1379	1393	1397	1400	1405	1412	1422	1431	1442	1457	1477	1484	1485	1484	1481	1479	1468	1460	1459	1474	1470	1467	1475	1471	1469	1471	1468	1470	1477	1476	1468	1459	1461	1469	1481	1472	1479	1497	1482	1475	1473	1482	1485	1481	1487	1485	1465	1460	1462	1476	1472	1465	1469	1479	1484	1479	1478	1463	1449	1466	1477	1499	1503	1501	1496	1491	1492	1494	1490	1484	1481	1479	1484	1474	1454	1452	1445	1474	1495	1503	1502	1500	1487	1487	1484	1471	1462	1460	1460	1456	1459	1460	1473	1483	1492	1487	1480	1480	1479	1479	1466	1458	1464	1486	1498	1506	1500	1489	1481	1482	1489	1499	1508	1495	1467	1450	1460	1441	1443	1446	1459	1469	1473	1460	1458	1457	1464	1470	1490	1494	1487	1480	1480	1480	1486	1495	1491	1485	1477	1468	0	0	0	0	0	0	0	0
0	0	0	0	0	0	0	0	0	0	0	0	0	0	0	0	0	0	0	0	0	0	0	0	0	0	0	0	0	0	0	0	0	0	0	0	0	0	0	0	0	0	0	0	0	0	0	0	0	0	0	0	0	0	0	0	0	0	0	0	0	0	0	0	0	0	0	0	0	0	0	0	0	0	0	0	0	0	0	0	0	0	0	0	0	0	0	0	0	0	0	0	0	0	1457	1467	1478	1487	1490	1493	1491	1477	1451	1434	1436	1459	1462	1457	1457	1455	1460	1477	1492	1493	1480	1456	1449	1452	1461	1467	1474	1475	1476	1480	1482	1468	1463	1457	1474	1497	1505	1498	1469	1455	1452	1457	1465	1463	1459	1461	1468	1476	1468	1458	1457	1457	1462	1456	1450	1440	1463	1473	1473	1463	1467	1464	1471	1468	1478	1484	1487	1485	1480	1481	1485	1443	1434	1437	1452	1461	1472	1475	1477	1473	1459	1454	1446	1450	1450	1457	1460	1454	1440	1353	1256	1216	0	0	0	0	0	1105	0	0	0	0	0	0	0	0	1115	1123	1149	1161	1176	1185	1190	1184	1186	1195	1209	1196	1182	1185	1200	0	0	0	0	0	0	0	0	0	0	0	0	0	0	0	0	0	0	0	0	0	0	0	0	0	0	0	0	0	0	0	0	0	0	0	0	0	0	0	0	1306	1395	1474	1496	1498	1490	1483	1489	1486	1502	1498	1485	1479	1474	1454	1465	1478	1483	1444	1463	1474	1488	1493	1498	1489	1481	1487	1492	1500	1498	1485	1498	1519	1512	1497	1512	1503	1501	1480	1482	1449	1450	1458	1476	1495	1504	1491	1472	1497	1517	1516	1525	1512	1482	1471	1471	1497	1500	1494	1491	1499	1511	1523	1525	1524	1517	1513	1512	1510	1507	1516	1518	1513	1497	1481	1468	1467	1469	1464	1459	1464	1472	1486	1483	1474	1462	1447	1449	1451	1469	1482	1493	1497	1499	1504	1509	1495	1475	1461	1475	1495	1499	1506	1514	1513	1510	1505	1493	1484	1466	1461	1462	1466	1468	1468	1463	1466	1473	1485	1501	1509	1503	1489	1497	1500	1487	1482	1470	1472	1482	1499	1508	1493	1478	1468	1471	1474	1466	1467	1476	1479	1488	1495	1491	1494	1494	1492	1488	1488	1490	1483	1483	1485	1483	1475	1477	1478	1430	0	0	0	0	0	0	0	0	0	0	0	0	0	0	794	773	768	766	765	768	782	795	808	822	835	841	840	834	824	818	809	810	812	815	817	814	809	811	812	812	815	820	825	828	831	834	831	827	822	823	833	848	854	842	833	836	839	846	860	868	873	872	859	845	844	847	838	829	824	834	862	878	892	918	867	897	917	969	1144	1246	1313	1335	1342	1366	1390	1422	1437	1458	1474	1481	1478	1473	1471	1470	1473	1476	1471	1474	1481	1477	1464	1456	1467	1467	1472	1475	1474	1475	1473	1466	1460	1465	1480	1487	1473	1474	1488	1470	1463	1460	1472	1474	1472	1492	1495	1495	1488	1487	1486	1470	1466	1462	1472	1479	1482	1471	1455	1450	1463	1474	1489	1510	1517	1515	1511	1511	1499	1490	1489	1484	1486	1478	1463	1451	1447	1463	1486	1509	1521	1516	1514	1513	1507	1492	1464	1454	1457	1467	1472	1472	1475	1490	1502	1497	1491	1470	1466	1466	1471	1457	1452	1457	1464	1476	1483	1485	1485	1482	1492	1492	1502	1493	1480	1460	1460	1451	1457	1458	1449	1461	1471	1464	1449	1440	1451	1454	1454	1462	1472	1476	1476	1485	1489	1490	1495	1495	1491	1484	1452	0	0	0	0	0	0	0	0
0	0	0	0	0	0	0	0	0	0	0	0	0	0	0	0	0	0	0	0	0	0	0	0	0	0	0	0	0	0	0	0	0	0	0	0	0	0	0	0	0	0	0	0	0	0	0	0	0	0	0	0	0	0	0	0	0	0	0	0	0	0	0	0	0	0	0	0	0	0	0	0	0	0	0	0	0	0	0	0	0	0	0	0	0	0	0	0	0	0	0	0	0	0	1446	1456	1468	1480	1478	1475	1467	1450	1439	1426	1421	1440	1475	1475	1468	1460	1453	1452	1474	1478	1469	1452	1441	1455	1478	1481	1474	1469	1472	1477	1476	1477	1479	1484	1490	1500	1509	1504	1469	1454	1447	1455	1457	1451	1447	1452	1468	1473	1467	1457	1442	1445	1454	1447	1440	1440	1468	1473	1461	1460	1461	1465	1467	1470	1472	1476	1478	1478	1472	1485	1489	1455	1457	1458	1458	1465	1466	1462	1471	1470	1453	1442	1433	1428	1418	1412	1419	1345	1256	1159	0	0	0	0	0	0	0	0	0	0	0	0	0	0	0	0	0	0	0	1174	1186	1192	1195	1195	1190	1201	0	1191	1169	1166	1185	0	0	0	0	0	0	0	0	0	0	0	0	0	0	0	0	0	0	0	0	0	0	0	0	0	0	0	0	0	0	0	0	0	0	0	0	0	0	0	0	1386	1451	1481	1501	1501	1510	1513	1517	1478	1511	1505	1489	1481	1485	1462	1478	1483	1490	1503	1514	1516	1521	1490	1488	1481	1490	1482	1484	1493	1493	1484	1500	1503	1502	1484	1513	1519	1512	1506	1481	1441	1440	1457	1473	1493	1504	1490	1488	1495	1513	1524	1520	1481	1478	1477	1489	1504	1504	1500	1496	1500	1515	1527	1518	1516	1515	1504	1503	1501	1502	1504	1500	1479	1454	1449	1451	1459	1462	1471	1492	1512	1525	1540	1518	1504	1503	1490	1492	1471	1469	1498	1506	1499	1484	1499	1507	1506	1487	1482	1480	1489	1497	1499	1512	1539	1540	1525	1511	1497	1482	1477	1478	1485	1487	1486	1489	1484	1485	1489	1501	1502	1499	1490	1486	1494	1503	1502	1495	1491	1499	1503	1513	1485	1472	1464	1468	1474	1468	1472	1481	1481	1491	1492	1490	1486	1489	1487	1483	1479	1482	1488	1493	1486	1488	1488	1491	1499	1487	1409	0	0	0	0	0	0	0	0	0	0	0	0	0	0	789	773	765	757	762	782	807	819	835	842	845	839	827	812	804	799	798	799	811	820	814	809	809	811	816	827	835	840	839	837	831	824	813	809	817	831	849	847	839	820	818	828	825	834	850	861	859	849	834	833	829	822	817	810	809	818	806	806	802	818	837	852	875	899	951	1101	1217	1208	1277	1336	1407	1445	1473	1490	1482	1472	1468	1470	1476	1482	1487	1487	1480	1469	1468	1446	1455	1461	1468	1475	1481	1483	1476	1477	1470	1463	1469	1478	1483	1476	1476	1491	1460	1442	1435	1439	1447	1460	1474	1486	1496	1500	1498	1497	1472	1473	1461	1465	1462	1467	1460	1454	1459	1464	1475	1494	1514	1526	1530	1523	1516	1502	1485	1478	1472	1476	1471	1460	1449	1452	1469	1498	1510	1514	1515	1516	1515	1509	1490	1462	1452	1455	1471	1478	1482	1491	1505	1507	1505	1485	1464	1455	1462	1463	1463	1454	1449	1454	1451	1466	1473	1478	1488	1494	1499	1498	1486	1472	1458	1458	1463	1471	1479	1477	1461	1451	1434	1430	1435	1452	1455	1446	1445	1451	1472	1472	1489	1491	1488	1492	1498	1494	1479	1449	0	0	0	0	0	0	0	0
0	0	0	0	0	0	0	0	0	0	0	0	0	0	0	0	0	0	0	0	0	0	0	0	0	0	0	0	0	0	0	0	0	0	0	0	0	0	0	0	0	0	0	0	0	0	0	0	0	0	0	0	0	0	0	0	0	0	0	0	0	0	0	0	0	0	0	0	0	0	0	0	0	0	0	0	0	0	0	0	0	0	0	0	0	0	0	0	0	0	0	0	0	0	1441	1447	1446	1455	1453	1443	1437	1436	1433	1432	1430	1456	1484	1490	1481	1470	1448	1440	1448	1461	1467	1469	1465	1479	1492	1484	1473	1463	1466	1473	1481	1481	1480	1481	1484	1489	1499	1495	1455	1441	1440	1443	1445	1436	1431	1440	1457	1464	1465	1458	1450	1445	1446	1444	1433	1442	1471	1471	1463	1462	1475	1478	1477	1471	1466	1464	1471	1473	1468	1475	1477	1472	1474	1487	1473	1465	1462	1465	1463	1457	1435	1419	1401	1385	1338	1286	1087	1067	1075	0	0	0	0	0	0	0	0	0	0	0	0	0	0	0	0	0	0	0	0	0	1187	1187	1189	1191	1190	1203	1200	1165	1143	1133	1153	0	0	0	0	0	0	0	0	0	0	0	0	0	0	0	0	0	0	0	0	0	0	0	0	0	0	0	0	0	0	0	0	0	0	0	0	0	0	0	1298	1414	1457	1502	1504	1488	1488	1475	1478	1506	1517	1487	1494	1495	1494	1490	1475	1476	1478	1482	1488	1490	1498	1503	1502	1509	1483	1480	1481	1488	1495	1502	1509	1510	1503	1475	1510	1516	1516	1508	1497	1479	1465	1470	1478	1494	1499	1498	1495	1491	1499	1491	1484	1476	1476	1502	1490	1499	1500	1500	1492	1497	1523	1522	1521	1511	1501	1493	1491	1491	1492	1502	1488	1472	1460	1455	1457	1463	1472	1490	1504	1515	1522	1508	1492	1495	1497	1500	1502	1483	1471	1477	1519	1509	1489	1495	1510	1507	1500	1494	1493	1483	1488	1493	1514	1533	1535	1527	1514	1501	1495	1489	1488	1491	1496	1501	1508	1500	1490	1494	1501	1507	1497	1493	1488	1499	1506	1514	1515	1507	1505	1511	1497	1480	1470	1473	1473	1481	1480	1482	1479	1479	1473	1460	1467	1477	1489	1490	1484	1481	1486	1495	1493	1489	1484	1492	1494	1509	1501	1466	0	0	0	0	0	0	0	0	0	0	0	0	0	0	0	0	802	775	770	788	811	830	838	837	836	829	819	810	801	792	787	786	794	803	806	812	813	816	819	829	839	845	843	837	829	821	808	808	818	835	847	840	817	814	808	803	804	817	833	843	842	834	822	815	809	808	805	797	794	802	804	802	794	799	809	816	822	828	845	881	930	1085	1167	1227	1341	1392	1438	1459	1466	1467	1465	1469	1483	1492	1492	1485	1464	1454	1449	1443	1446	1450	1463	1481	1496	1486	1482	1478	1477	1469	1474	1478	1480	1470	1489	1492	1462	1433	1417	1412	1433	1455	1469	1476	1489	1496	1504	1495	1492	1475	1456	1455	1453	1454	1461	1454	1460	1454	1471	1492	1505	1523	1520	1519	1509	1499	1483	1461	1457	1458	1463	1460	1446	1446	1459	1482	1501	1500	1497	1507	1516	1506	1493	1460	1447	1455	1467	1474	1487	1497	1510	1512	1507	1485	1468	1458	1466	1468	1469	1455	1446	1446	1442	1456	1467	1478	1487	1497	1498	1493	1481	1465	1461	1461	1470	1480	1492	1491	1462	1431	1419	1419	1445	1464	1470	1454	1441	1451	1468	1468	1487	1490	1490	1492	1487	1482	1477	1470	1485	0	0	0	0	0	0	0
0	0	0	0	0	0	0	0	0	0	0	0	0	0	0	0	0	0	0	0	0	0	0	0	0	0	0	0	0	0	0	0	0	0	0	0	0	0	0	0	0	0	0	0	0	0	0	0	0	0	0	0	0	0	0	0	0	0	0	0	0	0	0	0	0	0	0	0	0	0	0	0	0	0	0	0	0	0	0	0	0	0	0	0	0	0	0	0	0	0	0	0	0	0	1445	1432	1438	1446	1441	1432	1434	1434	1437	1435	1450	1459	1487	1496	1488	1470	1446	1437	1449	1463	1472	1482	1484	1494	1493	1472	1459	1457	1461	1466	1474	1484	1479	1473	1475	1483	1492	1501	1449	1433	1421	1427	1437	1431	1428	1428	1434	1451	1467	1461	1456	1446	1444	1445	1442	1446	1473	1471	1467	1477	1499	1503	1496	1485	1471	1467	1464	1455	1461	1466	1468	1482	1480	1479	1468	1457	1463	1464	1460	1431	1403	1373	1319	1242	1054	0	0	0	0	0	0	0	0	0	0	0	0	0	0	0	0	0	0	0	0	0	0	0	0	0	1168	1179	1180	1185	1191	1184	1161	1133	1104	1098	1120	0	0	0	0	0	0	0	0	0	0	0	0	0	0	0	0	0	0	0	0	0	0	0	0	0	0	0	886	892	0	0	0	0	0	0	0	0	0	1271	1384	1451	1487	1490	1493	1478	1463	1461	1449	1457	1473	1475	1486	1503	1499	1484	1474	1474	1480	1480	1474	1475	1482	1489	1488	1492	1497	1491	1489	1489	1496	1507	1524	1516	1509	1472	1498	1503	1495	1497	1496	1486	1479	1477	1486	1491	1492	1489	1494	1499	1498	1488	1483	1478	1470	1500	1498	1479	1469	1495	1516	1511	1518	1521	1504	1499	1493	1483	1479	1486	1495	1494	1486	1476	1467	1468	1471	1481	1488	1494	1494	1497	1489	1483	1483	1497	1503	1508	1500	1502	1480	1492	1528	1519	1508	1514	1517	1508	1499	1494	1486	1479	1486	1490	1509	1518	1519	1507	1496	1492	1491	1495	1491	1488	1495	1499	1506	1502	1493	1493	1503	1508	1498	1489	1487	1493	1495	1519	1515	1511	1504	1495	1486	1473	1470	1475	1483	1489	1491	1490	1475	1454	1445	1452	1460	1473	1491	1498	1496	1494	1503	1499	1491	1478	1479	1486	1494	1493	1489	1484	1482	0	0	0	0	0	0	0	0	0	0	0	0	0	0	0	0	0	797	795	803	815	819	817	813	810	805	806	800	798	785	772	766	778	805	811	816	816	816	820	828	830	830	824	824	812	810	810	822	838	840	829	796	792	794	791	788	794	803	812	813	815	809	804	797	800	807	801	786	790	802	804	806	807	806	803	799	796	795	815	836	864	891	1145	1217	1276	1331	1372	1398	1421	1446	1461	1473	1485	1487	1480	1464	1442	1431	1439	1441	1445	1465	1485	1501	1494	1487	1480	1483	1482	1480	1485	1480	1478	1486	1487	1470	1448	1428	1417	1442	1449	1458	1467	1477	1494	1505	1498	1484	1463	1446	1447	1457	1473	1478	1464	1441	1446	1459	1479	1498	1499	1503	1507	1508	1498	1482	1466	1444	1448	1463	1466	1450	1435	1446	1470	1478	1479	1480	1486	1499	1499	1493	1473	1460	1454	1460	1461	1472	1488	1499	1508	1510	1501	1482	1471	1475	1473	1469	1464	1448	1442	1448	1459	1468	1481	1490	1502	1501	1493	1484	1475	1475	1469	1469	1484	1495	1487	1464	1438	1427	1430	1446	1472	1472	1466	1459	1461	1474	1474	1480	1484	1482	1485	1474	1467	1467	1466	1484	0	0	0	0	0	0	0
0	0	0	0	0	0	0	0	0	0	0	0	0	0	0	0	0	0	0	0	0	0	0	0	0	0	0	0	0	0	0	0	0	0	0	0	0	0	0	0	0	0	0	0	0	0	0	0	0	0	0	0	0	0	0	0	0	0	0	0	0	0	0	0	0	0	0	0	0	0	0	0	0	0	0	0	0	0	0	0	0	0	0	0	0	0	0	0	0	0	0	0	0	0	1437	1429	1443	1447	1450	1446	1448	1455	1454	1460	1462	1467	1484	1492	1485	1468	1457	1448	1463	1467	1465	1475	1479	1490	1478	1460	1444	1449	1450	1459	1467	1471	1475	1479	1484	1484	1486	1491	1456	1428	1419	1422	1439	1445	1436	1419	1426	1440	1460	1464	1460	1455	1454	1448	1445	1452	1470	1469	1472	1485	1505	1503	1505	1489	1475	1467	1455	1454	1458	1464	1474	1479	1478	1464	1448	1447	1445	1454	1412	1369	1328	1205	1073	0	0	0	0	0	0	0	0	0	0	0	0	0	0	0	0	0	0	0	0	0	0	0	0	0	0	0	1180	1185	1186	1190	1188	1175	1125	1094	1081	1067	1080	0	0	0	0	0	0	0	0	0	0	0	0	0	0	0	0	0	0	0	0	0	0	0	0	0	0	0	870	875	889	0	0	0	0	0	0	0	1284	1354	1429	1500	1491	1483	1484	1478	1462	1437	1446	1454	1459	1454	1455	1490	1492	1489	1485	1481	1488	1471	1462	1469	1471	1477	1480	1489	1494	1496	1496	1495	1494	1496	1522	1516	1487	1496	1491	1482	1482	1485	1485	1475	1476	1477	1481	1487	1490	1490	1494	1503	1493	1487	1490	1480	1476	1504	1496	1481	1471	1502	1510	1506	1493	1499	1486	1490	1492	1487	1488	1488	1493	1484	1477	1478	1478	1481	1481	1487	1491	1497	1496	1490	1488	1492	1483	1485	1504	1509	1498	1480	1496	1534	1529	1510	1511	1517	1487	1485	1480	1481	1479	1479	1475	1482	1495	1499	1503	1493	1496	1505	1506	1496	1486	1486	1490	1498	1506	1505	1500	1500	1503	1501	1493	1479	1470	1482	1495	1529	1527	1513	1493	1479	1476	1468	1461	1471	1483	1486	1482	1477	1476	1464	1452	1458	1469	1480	1490	1502	1517	1522	1517	1498	1477	1470	1478	1488	1496	1485	1474	1469	1473	1476	0	0	0	0	0	0	0	0	0	0	0	0	0	0	0	0	828	800	792	792	792	795	790	794	793	793	792	788	779	765	759	763	803	813	816	814	807	806	804	803	810	810	810	804	804	809	822	832	829	811	776	775	780	778	773	776	780	784	789	776	787	790	798	808	813	807	782	783	791	799	802	807	804	799	795	788	786	789	801	814	827	880	974	1059	1177	1223	1279	1333	1379	1412	1432	1461	1472	1470	1459	1439	1429	1440	1446	1448	1466	1485	1499	1484	1479	1495	1493	1489	1488	1493	1492	1481	1480	1486	1479	1472	1463	1464	1463	1462	1464	1471	1478	1490	1502	1492	1472	1444	1430	1434	1458	1475	1483	1476	1439	1438	1449	1468	1484	1484	1487	1491	1499	1504	1488	1470	1455	1458	1458	1464	1453	1440	1448	1459	1463	1465	1464	1477	1493	1495	1490	1482	1473	1460	1451	1453	1458	1469	1492	1508	1516	1508	1495	1477	1471	1467	1464	1466	1464	1466	1469	1473	1488	1492	1501	1510	1513	1505	1503	1488	1488	1475	1477	1480	1487	1480	1466	1452	1442	1446	1457	1471	1475	1469	1464	1464	1469	1469	1472	1474	1470	1468	1462	1460	1466	1466	1460	0	0	0	0	0	0	0
0	0	0	0	0	0	0	0	0	0	0	0	0	0	0	0	0	0	0	0	0	0	0	0	0	0	0	0	0	0	0	0	0	0	0	0	0	0	0	0	0	0	0	0	0	0	0	0	0	0	0	0	0	0	0	0	0	0	0	0	0	0	0	0	0	0	0	0	0	0	0	0	0	0	0	0	0	0	0	0	0	0	0	0	0	0	0	0	0	0	0	0	0	0	1418	1424	1442	1450	1451	1459	1466	1471	1470	1474	1476	1475	1477	1493	1488	1472	1469	1481	1475	1467	1466	1467	1477	1481	1469	1452	1442	1444	1449	1453	1459	1460	1472	1476	1487	1486	1476	1472	1456	1442	1438	1437	1444	1451	1441	1419	1420	1433	1452	1455	1456	1457	1454	1458	1461	1457	1466	1456	1462	1473	1505	1495	1492	1487	1474	1461	1452	1448	1454	1464	1467	1470	1468	1448	1427	1414	1394	1370	1198	1077	0	0	0	0	0	0	0	0	0	0	0	0	0	0	0	0	0	0	0	0	1067	1087	1082	0	0	0	0	1098	0	0	0	1191	1190	1177	1169	1155	1133	1067	1050	1047	1054	0	0	0	0	0	0	0	0	0	0	0	0	0	0	0	0	0	0	0	0	0	0	0	0	0	0	0	0	866	0	0	0	0	0	0	1284	1349	1448	1471	1485	1491	1473	1468	1474	1474	1474	1474	1462	1470	1458	1443	1472	1477	1486	1489	1489	1493	1493	1492	1478	1464	1468	1474	1475	1480	1483	1485	1483	1486	1486	1487	1485	1499	1506	1505	1499	1481	1471	1470	1474	1474	1481	1475	1480	1484	1491	1502	1511	1512	1503	1494	1484	1481	1467	1454	1464	1493	1512	1510	1504	1473	1467	1467	1479	1480	1487	1494	1494	1492	1487	1480	1471	1472	1481	1486	1493	1501	1504	1512	1516	1525	1523	1507	1473	1439	1442	1456	1493	1506	1508	1511	1513	1505	1493	1488	1486	1486	1490	1488	1484	1476	1471	1473	1479	1479	1481	1486	1503	1518	1524	1510	1497	1488	1496	1502	1518	1522	1518	1511	1503	1495	1490	1477	1467	1471	1498	1522	1523	1503	1485	1478	1467	1467	1459	1467	1486	1492	1493	1487	1477	1472	1472	1481	1478	1485	1491	1507	1526	1528	1517	1494	1477	1465	1481	1492	1498	1489	1478	1478	1488	1468	1449	0	0	0	0	0	0	0	0	0	0	0	0	0	0	0	0	815	787	779	775	774	772	772	778	777	781	776	766	758	752	754	792	809	807	794	784	783	782	788	791	796	795	791	794	798	810	818	813	796	763	762	766	767	764	760	753	752	752	757	764	779	787	795	807	797	775	773	778	788	794	797	794	786	781	783	783	777	783	788	794	813	835	870	937	1004	1088	1180	1264	1333	1370	1410	1437	1454	1451	1448	1446	1458	1456	1460	1472	1481	1494	1495	1489	1503	1499	1494	1495	1496	1489	1486	1461	1481	1486	1491	1488	1490	1490	1482	1480	1480	1481	1483	1487	1482	1457	1435	1421	1425	1445	1469	1483	1477	1448	1450	1452	1464	1468	1471	1459	1467	1487	1490	1479	1465	1457	1453	1450	1453	1448	1441	1440	1458	1454	1445	1444	1460	1476	1483	1478	1480	1481	1467	1454	1455	1456	1468	1485	1504	1517	1513	1489	1471	1468	1465	1457	1477	1483	1482	1486	1480	1492	1502	1506	1511	1513	1512	1511	1508	1508	1504	1493	1490	1483	1477	1466	1467	1468	1462	1468	1473	1475	1476	1466	1461	1461	1463	1459	1456	1468	1474	1469	1469	1467	1467	1461	0	0	0	0	0	0	0
0	0	0	0	0	0	0	0	0	0	0	0	0	0	0	0	0	0	0	0	0	0	0	0	0	0	0	0	0	0	0	0	0	0	0	0	0	0	0	0	0	0	0	0	0	0	0	0	0	0	0	0	0	0	0	0	0	0	0	0	0	0	0	0	0	0	0	0	0	0	0	0	0	0	0	0	0	0	0	0	0	0	0	0	0	0	0	0	0	0	0	0	0	0	1409	1420	1442	1451	1459	1470	1474	1477	1473	1477	1481	1490	1496	1499	1492	1482	1475	1485	1485	1464	1461	1461	1471	1482	1478	1458	1450	1446	1444	1452	1449	1452	1463	1473	1491	1489	1477	1459	1457	1454	1448	1437	1440	1450	1442	1429	1419	1428	1440	1452	1446	1452	1458	1472	1480	1476	1463	1452	1465	1480	1489	1482	1475	1472	1466	1461	1450	1452	1453	1447	1449	1452	1428	1409	1379	1305	1140	0	0	0	0	0	0	0	0	0	0	0	0	0	0	0	0	0	0	0	0	0	0	0	0	1083	1071	0	0	0	0	1063	0	0	0	0	0	1150	1144	1126	1102	1038	1026	1026	0	0	0	0	0	0	0	0	0	0	0	0	0	0	0	0	0	0	0	0	0	0	0	0	0	0	0	0	0	867	0	0	0	0	0	0	1307	1436	1487	1495	1488	1478	1470	1465	1473	1474	1475	1475	1481	1474	1479	1474	1473	1475	1483	1491	1494	1497	1494	1503	1493	1480	1473	1470	1467	1473	1476	1480	1480	1486	1488	1490	1492	1497	1509	1513	1503	1490	1472	1467	1471	1483	1480	1473	1471	1474	1488	1504	1514	1508	1499	1490	1494	1498	1496	1486	1473	1466	1476	1490	1484	1474	1459	1452	1480	1484	1478	1483	1487	1489	1491	1487	1484	1483	1486	1494	1495	1497	1500	1503	1507	1521	1528	1522	1517	1482	1458	1476	1492	1496	1497	1504	1500	1498	1487	1491	1485	1489	1504	1506	1493	1478	1466	1465	1465	1467	1482	1498	1519	1533	1528	1515	1501	1495	1497	1511	1517	1528	1529	1514	1505	1494	1491	1478	1468	1475	1492	1511	1510	1497	1486	1480	1475	1464	1462	1480	1495	1499	1500	1494	1490	1489	1495	1498	1491	1484	1484	1492	1515	1522	1519	1501	1481	1474	1481	1494	1499	1495	1496	1499	1507	1501	1472	0	0	0	0	0	0	0	0	0	0	0	0	0	0	0	0	0	796	779	770	763	760	766	771	772	769	764	752	740	739	746	781	784	781	763	759	761	765	774	786	787	783	781	781	788	794	796	803	795	757	754	754	757	741	738	738	737	734	739	755	767	779	786	784	777	759	757	761	770	780	788	783	773	770	767	771	770	771	775	777	767	770	781	800	842	876	920	1023	1144	1251	1321	1368	1407	1428	1440	1462	1466	1473	1470	1468	1481	1485	1498	1497	1507	1496	1482	1484	1494	1484	1473	1462	1472	1478	1487	1493	1499	1489	1487	1488	1488	1480	1471	1475	1470	1451	1437	1419	1418	1427	1451	1466	1468	1459	1458	1457	1459	1454	1451	1442	1448	1466	1470	1464	1450	1446	1436	1433	1435	1433	1439	1451	1445	1438	1424	1426	1445	1464	1471	1462	1462	1467	1473	1469	1466	1467	1464	1476	1499	1515	1504	1478	1471	1465	1452	1456	1468	1480	1492	1492	1487	1491	1500	1504	1503	1502	1503	1512	1528	1528	1526	1524	1511	1492	1467	1461	1461	1467	1471	1467	1472	1478	1481	1477	1460	1460	1455	1450	1458	1463	1485	1485	1488	1487	1480	1464	1464	0	0	0	0	0	0
0	0	0	0	0	0	0	0	0	0	0	0	0	0	0	0	0	0	0	0	0	0	0	0	0	0	0	0	0	0	0	0	0	0	0	0	0	0	0	0	0	0	0	0	0	0	0	0	0	0	0	0	0	0	0	0	0	0	0	0	0	0	0	0	0	0	0	0	0	0	0	0	0	0	0	0	0	0	0	0	0	0	0	0	0	0	0	0	0	0	0	0	0	0	1421	1439	1447	1468	1470	1472	1469	1468	1475	1479	1485	1496	1504	1500	1492	1479	1482	1483	1458	1462	1442	1457	1464	1475	1477	1471	1454	1445	1445	1441	1435	1433	1447	1469	1491	1487	1477	1460	1456	1460	1443	1431	1432	1440	1440	1433	1425	1425	1437	1447	1447	1449	1456	1485	1499	1489	1458	1462	1479	1488	1486	1470	1455	1456	1453	1450	1454	1449	1446	1426	1418	1405	1354	1250	1045	0	0	0	0	0	0	0	0	0	0	0	0	0	0	0	0	0	0	0	0	0	0	0	0	0	0	0	0	0	0	0	0	0	0	0	0	0	0	0	1095	1081	1073	1017	0	0	0	0	0	0	0	0	0	0	0	0	0	0	0	0	0	0	0	0	0	0	0	0	0	0	0	0	0	0	873	871	0	0	0	0	0	0	1357	1436	1474	1489	1481	1473	1474	1473	1473	1476	1480	1479	1487	1490	1487	1485	1483	1489	1499	1493	1495	1497	1501	1502	1499	1479	1466	1461	1459	1461	1482	1489	1489	1476	1472	1484	1497	1516	1523	1516	1512	1491	1481	1474	1486	1491	1486	1473	1467	1468	1488	1500	1505	1503	1493	1492	1495	1500	1500	1490	1470	1460	1472	1489	1480	1469	1464	1481	1484	1484	1471	1463	1467	1473	1487	1492	1494	1492	1493	1495	1503	1500	1505	1510	1514	1512	1519	1524	1517	1499	1475	1481	1480	1485	1493	1495	1496	1493	1492	1492	1492	1499	1515	1512	1501	1478	1465	1466	1461	1461	1476	1493	1522	1535	1523	1505	1492	1489	1492	1501	1513	1520	1524	1520	1504	1493	1486	1477	1479	1488	1500	1509	1503	1496	1484	1482	1480	1483	1499	1509	1519	1520	1508	1495	1484	1486	1491	1499	1486	1479	1467	1480	1502	1519	1521	1509	1497	1483	1489	1494	1497	1502	1505	1514	1514	1506	1505	1461	0	0	0	0	0	0	0	0	0	0	0	0	0	0	0	0	0	802	791	776	762	771	777	772	762	747	735	728	728	747	760	764	751	744	738	747	755	759	768	767	768	770	778	783	781	782	784	777	762	744	734	734	734	731	726	722	723	727	742	759	770	769	765	746	741	733	742	751	761	764	766	760	756	753	751	758	760	764	761	742	736	745	758	770	792	823	878	935	1053	1161	1259	1310	1342	1397	1441	1457	1467	1467	1464	1471	1477	1490	1503	1506	1491	1478	1477	1483	1482	1472	1469	1472	1479	1480	1486	1483	1478	1480	1474	1481	1477	1468	1468	1467	1458	1447	1429	1409	1412	1428	1444	1452	1464	1462	1452	1440	1441	1445	1441	1448	1457	1456	1448	1438	1430	1429	1419	1424	1431	1441	1452	1448	1434	1420	1422	1436	1451	1457	1455	1453	1459	1476	1483	1483	1479	1479	1490	1500	1513	1516	1485	1470	1470	1459	1466	1472	1485	1492	1488	1480	1478	1488	1489	1482	1480	1485	1507	1507	1527	1535	1533	1524	1509	1472	1455	1459	1464	1470	1474	1473	1479	1480	1485	1484	1466	1459	1456	1460	1484	1498	1495	1485	1477	1472	1460	1460	0	0	0	0	0	0
0	0	0	0	0	0	0	0	0	0	0	0	0	0	0	0	0	0	0	0	0	0	0	0	0	0	0	0	0	0	0	0	0	0	0	0	0	0	0	0	0	0	0	0	0	0	0	0	0	0	0	0	0	0	0	0	0	0	0	0	0	0	0	0	0	0	0	0	0	0	0	0	0	0	0	0	0	0	0	0	0	0	0	0	0	0	0	0	0	0	0	0	0	0	1461	1477	1499	1501	1477	1458	1453	1462	1474	1473	1480	1488	1492	1499	1489	1483	1476	1460	1442	1461	1451	1445	1448	1456	1471	1472	1463	1454	1449	1446	1436	1423	1435	1466	1487	1493	1479	1458	1451	1460	1446	1431	1425	1427	1439	1440	1429	1426	1437	1452	1458	1448	1457	1484	1494	1489	1465	1448	1461	1477	1475	1458	1444	1444	1442	1444	1441	1438	1424	1407	1361	1318	0	0	0	0	0	0	0	0	0	0	0	0	0	0	0	0	0	0	0	0	0	0	0	0	0	0	0	0	0	0	0	0	0	0	0	0	0	0	0	0	0	0	1075	1065	1046	0	0	0	0	0	0	0	0	0	0	0	0	0	0	0	0	0	0	0	0	0	0	0	0	0	0	0	0	0	0	886	865	870	0	0	0	0	0	1359	1400	1432	1447	1468	1478	1486	1494	1496	1492	1488	1488	1499	1503	1504	1494	1492	1494	1501	1507	1496	1482	1480	1478	1476	1483	1482	1476	1476	1471	1477	1486	1496	1491	1477	1470	1482	1506	1530	1523	1523	1519	1529	1523	1514	1502	1494	1491	1481	1480	1490	1500	1505	1507	1505	1494	1493	1499	1507	1513	1505	1488	1466	1471	1479	1478	1470	1475	1480	1489	1484	1468	1454	1453	1465	1471	1480	1495	1495	1491	1493	1501	1508	1510	1508	1505	1497	1506	1511	1511	1499	1480	1479	1472	1465	1475	1488	1493	1496	1496	1495	1498	1510	1516	1510	1504	1492	1478	1471	1462	1461	1473	1497	1518	1525	1506	1485	1472	1477	1482	1489	1499	1512	1513	1513	1502	1487	1481	1483	1493	1513	1518	1514	1499	1481	1478	1479	1477	1491	1501	1519	1523	1515	1505	1485	1469	1473	1487	1484	1481	1465	1456	1468	1493	1519	1527	1520	1507	1496	1496	1493	1496	1489	1515	1518	1512	1503	1504	1503	0	0	0	0	0	0	0	0	0	0	0	0	0	0	0	0	0	0	809	805	790	786	786	776	755	740	729	726	727	740	738	735	727	723	727	739	744	746	746	745	747	761	774	778	775	768	764	745	747	743	736	735	734	729	718	707	705	714	730	748	755	762	747	725	718	716	715	730	740	747	744	740	741	740	741	745	752	750	746	727	722	730	739	747	751	762	785	814	861	922	987	1068	1162	1258	1367	1410	1433	1446	1448	1468	1473	1475	1489	1495	1483	1470	1475	1479	1483	1475	1463	1473	1471	1468	1469	1466	1462	1461	1459	1461	1466	1464	1466	1467	1458	1452	1443	1424	1406	1412	1423	1435	1458	1462	1444	1430	1434	1440	1454	1457	1454	1445	1434	1425	1422	1425	1421	1427	1441	1460	1471	1477	1468	1446	1434	1438	1449	1465	1463	1455	1467	1485	1497	1493	1490	1492	1499	1521	1523	1519	1510	1501	1487	1471	1479	1485	1486	1473	1464	1453	1450	1453	1448	1445	1455	1462	1497	1497	1514	1520	1525	1518	1507	1478	1464	1460	1468	1481	1486	1481	1471	1463	1461	1464	1464	1466	1464	1471	1481	1489	1487	1475	1462	1454	1454	1454	0	0	0	0	0	0
0	0	0	0	0	0	0	0	0	0	0	0	0	0	0	0	0	0	0	0	0	0	0	0	0	0	0	0	0	0	0	0	0	0	0	0	0	0	0	0	0	0	0	0	0	0	0	0	0	0	0	0	0	0	0	0	0	0	0	0	0	0	0	0	0	0	0	0	0	0	0	0	0	0	0	0	0	0	0	0	0	0	0	0	0	0	0	0	0	0	0	0	0	0	1492	1502	1514	1506	1489	1452	1446	1454	1467	1468	1472	1481	1482	1477	1475	1477	1474	1449	1458	1465	1440	1427	1428	1439	1459	1465	1461	1457	1456	1446	1434	1425	1432	1469	1494	1498	1491	1476	1463	1460	1449	1441	1432	1431	1436	1441	1437	1431	1444	1457	1470	1463	1455	1469	1473	1455	1439	1432	1445	1460	1461	1444	1435	1426	1412	1412	1414	1407	1375	1168	1058	0	0	0	0	0	0	0	0	0	0	0	0	0	0	0	0	0	0	0	0	0	0	0	0	0	0	0	0	0	0	0	0	0	0	0	0	0	0	0	0	0	0	1065	1067	1064	0	0	0	0	0	0	0	0	0	0	0	0	0	0	0	0	0	0	0	0	0	0	0	0	0	0	0	0	0	0	0	0	870	886	0	0	0	1218	1371	1415	1416	1426	1453	1469	1481	1489	1492	1498	1494	1490	1490	1490	1500	1504	1501	1501	1503	1510	1502	1494	1479	1467	1464	1466	1469	1471	1471	1469	1469	1474	1486	1498	1491	1475	1471	1474	1496	1512	1517	1518	1509	1504	1503	1504	1498	1494	1493	1488	1489	1503	1513	1520	1520	1510	1496	1499	1510	1518	1518	1503	1486	1462	1465	1468	1474	1469	1469	1473	1491	1492	1477	1456	1450	1458	1467	1474	1481	1490	1494	1495	1507	1509	1508	1504	1489	1485	1493	1499	1507	1500	1489	1479	1467	1455	1460	1475	1486	1494	1505	1505	1506	1513	1513	1508	1503	1498	1490	1480	1468	1467	1480	1499	1512	1510	1490	1474	1461	1464	1468	1484	1492	1497	1498	1497	1481	1473	1474	1486	1506	1531	1531	1509	1475	1455	1460	1475	1484	1495	1506	1504	1504	1497	1490	1478	1464	1462	1468	1473	1469	1456	1452	1466	1491	1520	1529	1524	1516	1507	1505	1499	1494	1494	1512	1523	1506	1501	1487	1478	1473	0	0	0	0	0	0	0	0	0	0	0	0	0	0	0	0	0	0	0	0	821	797	775	750	732	728	730	731	732	724	718	713	712	719	730	735	735	732	730	733	747	761	765	734	715	701	714	731	737	732	724	718	707	702	694	690	696	711	722	738	743	736	709	705	705	708	721	731	734	724	719	716	729	736	737	735	730	717	712	716	722	727	731	731	727	724	736	742	776	813	871	958	1010	1128	1201	1266	1321	1357	1403	1410	1430	1434	1440	1458	1456	1469	1486	1489	1472	1461	1467	1460	1453	1444	1448	1442	1443	1442	1452	1461	1466	1466	1468	1464	1455	1458	1449	1447	1451	1439	1424	1459	1469	1463	1462	1450	1454	1465	1482	1482	1459	1439	1431	1432	1439	1444	1445	1471	1488	1494	1499	1504	1502	1495	1480	1470	1470	1482	1482	1495	1516	1509	1496	1495	1493	1504	1515	1526	1527	1523	1509	1485	1478	1472	1472	1465	1456	1449	1447	1443	1449	1455	1451	1439	1450	1473	1473	1494	1501	1497	1498	1482	1454	1455	1455	1463	1479	1483	1482	1474	1464	1461	1461	1458	1449	1429	1439	1443	1459	1464	1460	1452	1445	1434	1434	0	0	0	0	0	0
0	0	0	0	0	0	0	0	0	0	0	0	0	0	0	0	0	0	0	0	0	0	0	0	0	0	0	0	0	0	0	0	0	0	0	0	0	0	0	0	0	0	0	0	0	0	0	0	0	0	0	0	0	0	0	0	0	0	0	0	0	0	0	0	0	0	0	0	0	0	0	0	0	0	0	0	0	0	0	0	0	0	0	0	0	0	0	0	0	0	0	0	0	0	1510	1508	1497	1500	1474	1451	1447	1462	1466	1463	1465	1473	1474	1467	1459	1460	1469	1476	1476	1462	1435	1424	1421	1425	1444	1459	1463	1468	1464	1452	1436	1428	1453	1491	1505	1506	1507	1491	1479	1463	1451	1448	1449	1441	1445	1441	1439	1435	1451	1463	1478	1470	1458	1441	1436	1433	1415	1417	1427	1441	1438	1432	1421	1395	1381	1324	1226	1177	0	0	0	0	0	0	0	0	0	0	0	0	0	0	0	0	0	0	0	0	0	0	0	0	0	0	0	0	0	0	0	0	0	0	0	0	0	0	0	0	0	0	0	0	0	0	1072	0	0	0	0	0	0	0	0	0	0	0	0	0	0	0	0	0	0	0	0	0	0	0	0	0	0	0	0	0	0	0	0	0	0	0	0	1012	1218	1371	1445	1451	1433	1442	1468	1475	1490	1494	1494	1490	1492	1496	1488	1488	1493	1504	1502	1500	1502	1503	1504	1495	1486	1471	1467	1460	1465	1469	1467	1465	1463	1472	1487	1500	1502	1484	1465	1468	1476	1491	1507	1501	1494	1486	1474	1462	1448	1460	1495	1494	1497	1512	1522	1530	1525	1517	1508	1513	1516	1521	1519	1501	1489	1474	1462	1465	1473	1464	1462	1476	1497	1499	1482	1467	1455	1458	1469	1470	1484	1488	1495	1490	1505	1516	1514	1501	1483	1473	1483	1492	1499	1500	1492	1479	1466	1444	1448	1479	1517	1511	1516	1503	1507	1508	1510	1507	1502	1504	1498	1490	1478	1483	1491	1495	1505	1497	1481	1472	1457	1458	1472	1518	1518	1503	1480	1472	1466	1465	1469	1484	1503	1512	1483	1482	1496	1492	1495	1497	1506	1517	1508	1487	1480	1479	1480	1486	1489	1496	1484	1479	1476	1468	1464	1468	1479	1501	1526	1531	1519	1512	1499	1490	1483	1484	1470	1469	1456	1462	1463	1455	1442	1457	0	0	0	0	0	0	0	0	0	0	0	0	0	0	0	0	0	0	0	0	0	778	745	726	723	727	729	712	702	699	703	708	712	719	723	724	718	712	715	728	722	727	716	697	681	692	711	723	722	712	699	687	680	677	673	679	687	697	709	718	717	704	698	702	708	718	726	721	709	697	700	714	728	734	725	711	693	700	706	707	706	706	705	701	698	699	706	718	736	760	803	846	947	1026	1110	1179	1255	1326	1357	1382	1395	1405	1430	1452	1479	1495	1494	1485	1475	1464	1456	1438	1425	1430	1438	1447	1459	1476	1475	1483	1484	1479	1475	1467	1468	1473	1472	1474	1455	1451	1455	1459	1470	1470	1465	1463	1471	1481	1486	1468	1447	1436	1438	1448	1448	1449	1471	1480	1489	1493	1496	1501	1495	1480	1472	1471	1481	1490	1504	1515	1508	1497	1490	1485	1491	1511	1517	1519	1518	1495	1480	1471	1473	1468	1453	1441	1450	1454	1456	1459	1460	1457	1445	1453	1453	1467	1481	1488	1485	1476	1466	1445	1442	1434	1442	1447	1452	1451	1458	1457	1454	1454	1453	1449	1447	1442	1435	1447	1455	1461	1447	1439	1428	1428	0	0	0	0	0	0
0	0	0	0	0	0	0	0	0	0	0	0	0	0	0	0	0	0	0	0	0	0	0	0	0	0	0	0	0	0	0	0	0	0	0	0	0	0	0	0	0	0	0	0	0	0	0	0	0	0	0	0	0	0	0	0	0	0	0	0	0	0	0	0	0	0	0	0	0	0	0	0	0	0	0	0	0	0	0	0	0	0	0	0	0	0	0	0	0	0	0	0	0	0	1518	1506	1494	1485	1469	1457	1453	1460	1466	1462	1467	1470	1468	1460	1450	1447	1462	1468	1468	1457	1439	1431	1423	1422	1431	1450	1460	1467	1466	1452	1436	1433	1467	1501	1513	1512	1516	1502	1496	1458	1444	1446	1456	1454	1453	1445	1440	1442	1447	1463	1477	1472	1454	1433	1417	1412	1403	1390	1404	1412	1417	1412	1395	1299	1225	0	0	0	0	0	0	0	0	0	0	0	0	0	0	0	0	0	0	0	0	0	0	0	0	0	0	0	0	0	0	0	0	0	0	0	0	0	0	0	0	0	0	0	0	0	0	0	0	0	0	0	0	0	0	0	0	0	0	0	0	0	0	0	0	0	0	0	0	0	0	0	0	0	0	0	0	0	0	0	0	0	0	0	0	918	972	1154	1312	1426	1461	1489	1504	1515	1502	1491	1499	1515	1514	1505	1491	1493	1491	1492	1497	1505	1506	1485	1480	1489	1495	1490	1488	1486	1485	1487	1490	1501	1508	1510	1510	1509	1516	1506	1479	1467	1474	1476	1482	1487	1479	1469	1464	1456	1459	1466	1472	1474	1472	1475	1488	1497	1486	1505	1523	1531	1535	1526	1524	1520	1519	1507	1495	1489	1482	1484	1480	1471	1474	1491	1500	1511	1510	1501	1495	1496	1509	1519	1531	1529	1521	1510	1518	1545	1551	1551	1538	1512	1504	1499	1496	1498	1493	1485	1471	1454	1451	1486	1489	1490	1487	1488	1486	1497	1499	1502	1502	1515	1517	1538	1537	1532	1522	1514	1493	1494	1490	1497	1507	1518	1536	1527	1512	1491	1494	1492	1502	1515	1503	1479	1468	1469	1475	1480	1500	1502	1492	1494	1509	1526	1509	1490	1484	1486	1492	1493	1499	1494	1486	1476	1480	1479	1480	1474	1480	1497	1525	1525	1513	1512	1508	1500	1485	1481	1463	1457	1455	1455	1459	1444	1426	1436	0	0	0	0	0	0	0	0	0	0	0	0	0	0	0	0	0	0	0	0	0	0	756	722	715	716	709	696	689	691	694	699	706	709	714	712	701	691	676	692	710	717	709	693	669	680	697	708	707	701	689	676	666	660	657	659	662	667	678	687	693	699	696	698	709	711	713	705	692	684	688	700	714	721	714	701	679	687	693	690	683	680	678	686	686	688	688	679	681	687	702	721	800	863	945	1030	1111	1192	1272	1309	1345	1380	1404	1439	1461	1477	1490	1489	1483	1473	1462	1442	1426	1429	1438	1449	1468	1488	1494	1496	1494	1494	1483	1476	1473	1483	1493	1489	1478	1474	1457	1457	1462	1471	1476	1474	1475	1478	1482	1469	1450	1454	1451	1456	1445	1446	1436	1428	1422	1431	1444	1451	1461	1459	1463	1475	1480	1492	1498	1490	1480	1474	1470	1470	1481	1504	1511	1508	1493	1489	1481	1485	1482	1478	1464	1455	1463	1472	1476	1475	1468	1461	1464	1469	1469	1473	1482	1482	1477	1473	1465	1457	1452	1452	1451	1453	1438	1436	1444	1451	1453	1453	1455	1456	1459	1458	1450	1461	1470	1464	1452	1447	1447	1446	0	0	0	0	0	0
0	0	0	0	0	0	0	0	0	0	0	0	0	0	0	0	0	0	0	0	0	0	0	0	0	0	0	0	0	0	0	0	0	0	0	0	0	0	0	0	0	0	0	0	0	0	0	0	0	0	0	0	0	0	0	0	0	0	0	0	0	0	0	0	0	0	0	0	0	0	0	0	0	0	0	0	0	0	0	0	0	0	0	0	0	0	0	0	0	0	0	0	0	0	1524	1503	1482	1478	1475	1469	1462	1458	1458	1465	1469	1470	1468	1460	1446	1447	1456	1464	1465	1463	1462	1459	1456	1444	1437	1454	1466	1470	1467	1447	1435	1438	1483	1504	1503	1500	1504	1503	1498	1458	1445	1454	1472	1471	1461	1452	1450	1447	1452	1460	1463	1457	1449	1436	1418	1407	1389	1384	1385	1367	1325	1287	0	0	0	0	0	0	0	0	0	0	0	0	0	0	0	0	0	0	0	0	0	0	0	0	0	0	0	0	0	0	0	0	0	0	0	0	0	0	0	0	0	0	0	0	0	0	0	0	0	0	0	0	0	0	0	0	0	0	0	0	0	0	0	0	0	0	0	0	0	0	0	0	0	0	0	0	0	0	0	0	0	0	0	0	0	0	902	943	1096	1250	1414	1447	1479	1497	1519	1521	1514	1497	1504	1509	1510	1494	1481	1482	1491	1499	1510	1516	1514	1505	1493	1498	1499	1490	1479	1480	1490	1493	1497	1506	1511	1513	1514	1518	1515	1508	1491	1473	1481	1484	1489	1491	1479	1472	1462	1457	1462	1464	1476	1474	1473	1473	1477	1490	1495	1510	1523	1519	1514	1518	1515	1519	1522	1520	1514	1504	1502	1509	1501	1494	1481	1482	1498	1513	1522	1514	1500	1495	1502	1520	1540	1538	1525	1512	1511	1531	1542	1543	1535	1528	1510	1503	1498	1493	1489	1480	1473	1460	1457	1465	1480	1466	1471	1472	1482	1492	1495	1494	1501	1517	1531	1540	1542	1539	1524	1518	1503	1493	1501	1516	1523	1533	1532	1520	1498	1484	1495	1502	1510	1506	1509	1494	1490	1489	1492	1490	1492	1483	1484	1484	1504	1529	1526	1519	1508	1510	1516	1523	1525	1514	1491	1482	1495	1503	1497	1495	1495	1497	1503	1502	1501	1505	1516	1508	1497	1490	1480	1464	1469	1476	1477	1463	1459	1435	1464	0	0	0	0	0	0	0	0	0	0	0	0	0	0	0	0	0	0	0	0	0	0	716	703	702	694	680	673	677	686	691	697	701	701	698	682	673	679	693	713	716	714	695	668	675	686	695	700	695	682	667	654	644	642	639	642	643	652	663	677	685	686	693	696	696	695	690	678	672	673	683	691	698	696	683	665	671	682	675	670	665	665	666	673	678	670	662	651	651	658	667	705	743	801	873	942	1010	1056	1112	1176	1244	1313	1371	1417	1454	1477	1499	1497	1483	1464	1456	1447	1444	1445	1457	1465	1483	1486	1480	1478	1490	1486	1479	1470	1473	1480	1487	1493	1487	1458	1445	1446	1457	1475	1469	1481	1484	1481	1473	1472	1475	1469	1465	1460	1454	1445	1425	1414	1418	1436	1447	1459	1464	1466	1473	1479	1482	1483	1483	1486	1480	1479	1483	1495	1505	1514	1502	1487	1481	1482	1488	1489	1482	1472	1467	1470	1477	1483	1477	1476	1474	1478	1480	1480	1484	1492	1485	1484	1481	1477	1480	1480	1476	1470	1458	1443	1443	1450	1463	1460	1460	1456	1462	1462	1458	1444	1442	1455	1448	1447	1450	1450	1453	0	0	0	0	0	0
0	0	0	0	0	0	0	0	0	0	0	0	0	0	0	0	0	0	0	0	0	0	0	0	0	0	0	0	0	0	0	0	0	0	0	0	0	0	0	0	0	0	0	0	0	0	0	0	0	0	0	0	0	0	0	0	0	0	0	0	0	0	0	0	0	0	0	0	0	0	0	0	0	0	0	0	0	0	0	0	0	0	0	0	0	0	0	0	0	0	0	0	0	0	1529	1475	1463	1469	1466	1467	1455	1450	1452	1458	1470	1476	1480	1476	1465	1461	1460	1464	1465	1467	1473	1483	1487	1482	1468	1473	1474	1478	1472	1464	1455	1457	1469	1490	1489	1478	1484	1483	1484	1457	1454	1483	1501	1491	1479	1462	1468	1461	1459	1466	1460	1448	1440	1430	1433	1432	1414	0	0	0	0	0	0	0	0	0	0	0	0	0	0	0	0	0	0	0	0	0	0	0	0	0	0	0	0	0	0	0	0	0	0	0	0	0	0	0	0	0	0	0	0	0	0	0	0	0	0	0	0	0	0	0	0	0	0	0	0	0	0	0	0	0	0	0	0	0	0	0	0	0	0	0	0	0	0	0	0	0	0	0	0	0	0	0	0	0	0	915	983	1079	1197	1410	1448	1474	1487	1503	1517	1520	1510	1490	1496	1504	1498	1492	1481	1480	1489	1507	1516	1523	1520	1509	1509	1505	1502	1491	1485	1484	1489	1497	1511	1508	1509	1504	1493	1487	1490	1502	1505	1503	1532	1541	1530	1510	1494	1491	1494	1499	1505	1516	1516	1510	1490	1472	1478	1493	1500	1495	1483	1468	1498	1502	1506	1513	1515	1525	1517	1506	1512	1518	1522	1505	1485	1488	1499	1516	1527	1515	1496	1489	1494	1511	1534	1533	1523	1510	1505	1512	1525	1528	1532	1535	1517	1505	1494	1486	1469	1457	1453	1456	1455	1473	1477	1482	1490	1507	1513	1504	1489	1480	1494	1520	1538	1536	1527	1516	1506	1506	1511	1511	1525	1535	1542	1535	1521	1504	1483	1477	1476	1487	1491	1500	1502	1506	1514	1514	1512	1505	1493	1487	1481	1482	1499	1522	1538	1537	1520	1504	1504	1506	1504	1496	1497	1498	1513	1532	1519	1510	1500	1500	1498	1497	1497	1498	1499	1503	1502	1493	1483	1480	1480	1491	1504	1499	1495	1489	1481	0	0	0	0	0	0	0	0	0	0	0	0	0	0	0	0	0	0	0	0	0	0	0	710	693	685	687	676	675	683	690	702	703	695	691	688	686	688	698	712	715	713	698	671	673	676	681	684	682	673	660	648	635	629	628	629	628	636	647	667	670	669	670	675	680	679	670	660	658	665	672	674	672	669	661	656	661	669	675	676	669	663	655	659	664	655	645	639	635	638	641	652	671	694	731	795	845	930	1008	1080	1144	1221	1299	1375	1436	1466	1492	1497	1486	1477	1472	1471	1477	1482	1472	1467	1469	1470	1465	1463	1462	1471	1470	1461	1474	1485	1496	1495	1491	1460	1449	1451	1462	1477	1484	1489	1486	1481	1469	1468	1470	1465	1463	1468	1466	1452	1429	1414	1412	1434	1447	1460	1458	1451	1460	1477	1477	1475	1483	1489	1485	1485	1490	1501	1504	1507	1492	1479	1470	1472	1480	1488	1487	1482	1475	1478	1485	1493	1483	1478	1488	1488	1488	1486	1482	1479	1485	1478	1480	1487	1491	1497	1502	1490	1466	1449	1455	1465	1482	1482	1480	1475	1461	1456	1446	1433	1429	1436	1436	1445	1454	1454	1470	0	0	0	0	0	0
0	0	0	0	0	0	0	0	0	0	0	0	0	0	0	0	0	0	0	0	0	0	0	0	0	0	0	0	0	0	0	0	0	0	0	0	0	0	0	0	0	0	0	0	0	0	0	0	0	0	0	0	0	0	0	0	0	0	0	0	0	0	0	0	0	0	0	0	0	0	0	0	0	0	0	0	0	0	0	0	0	0	0	0	0	0	0	0	0	0	0	0	0	0	1501	1456	1444	1457	1467	1468	1456	1446	1446	1448	1462	1480	1493	1493	1481	1476	1477	1475	1478	1475	1477	1483	1492	1499	1507	1501	1497	1497	1494	1491	1488	1472	1462	1446	1442	1451	1470	1473	1468	1466	1477	1491	1514	1515	1495	1496	1485	1477	1467	1462	1456	1440	1426	1424	1436	0	0	0	0	0	0	0	0	0	0	0	0	0	0	0	0	0	0	0	0	0	0	0	0	0	0	0	0	0	0	0	0	0	0	0	0	0	0	0	0	0	0	0	0	0	0	0	0	0	0	0	0	0	0	0	0	0	0	0	0	0	0	0	0	0	0	0	0	0	0	0	0	0	0	0	0	0	0	0	0	0	0	0	0	0	0	0	0	0	0	0	0	1005	1108	1275	1471	1488	1498	1508	1508	1508	1519	1508	1500	1499	1506	1503	1503	1499	1499	1518	1519	1519	1514	1522	1524	1516	1507	1504	1507	1500	1497	1500	1506	1511	1515	1513	1507	1499	1490	1484	1486	1494	1510	1528	1550	1557	1535	1511	1497	1495	1506	1511	1514	1518	1524	1511	1498	1483	1493	1499	1498	1486	1470	1465	1477	1488	1497	1504	1506	1503	1503	1478	1471	1465	1471	1488	1497	1506	1509	1500	1492	1483	1482	1482	1494	1511	1522	1520	1512	1507	1514	1525	1534	1537	1534	1526	1522	1512	1498	1482	1469	1462	1451	1454	1456	1467	1480	1491	1499	1516	1518	1503	1490	1474	1484	1501	1512	1514	1510	1507	1500	1500	1491	1493	1499	1527	1533	1527	1521	1507	1485	1487	1487	1488	1492	1496	1506	1515	1526	1523	1522	1513	1500	1491	1489	1487	1489	1510	1537	1530	1516	1500	1489	1496	1497	1490	1496	1502	1517	1524	1517	1504	1498	1499	1502	1502	1496	1496	1490	1494	1496	1489	1487	1488	1485	1492	1501	1499	1482	1494	1489	1486	0	0	0	0	0	0	0	0	0	0	0	0	0	0	0	0	0	0	0	0	0	0	0	695	691	689	681	668	675	666	677	697	699	697	695	692	691	695	700	704	705	694	674	672	674	677	670	669	663	656	651	642	635	630	626	627	635	644	656	654	650	650	650	660	663	654	644	644	653	661	655	648	645	647	647	653	660	663	673	672	655	648	645	648	649	640	638	630	627	627	635	638	650	660	685	733	779	839	879	1015	1113	1204	1295	1375	1437	1478	1490	1488	1484	1485	1486	1495	1492	1481	1467	1464	1459	1449	1449	1455	1461	1478	1462	1473	1489	1498	1502	1494	1477	1463	1465	1466	1476	1482	1484	1482	1473	1464	1456	1457	1458	1460	1461	1468	1452	1431	1414	1412	1431	1448	1458	1455	1448	1456	1473	1474	1472	1476	1486	1493	1487	1495	1497	1489	1482	1473	1464	1461	1460	1469	1472	1476	1469	1470	1464	1471	1463	1454	1459	1458	1458	1458	1449	1447	1456	1469	0	0	0	0	0	0	0	0	0	0	0	0	0	0	0	0	0	0	0	0	0	1443	1451	1468	1468	1475	0	0	0	0	0	0
0	0	0	0	0	0	0	0	0	0	0	0	0	0	0	0	0	0	0	0	0	0	0	0	0	0	0	0	0	0	0	0	0	0	0	0	0	0	0	0	0	0	0	0	0	0	0	0	0	0	0	0	0	0	0	0	0	0	0	0	0	0	0	0	0	0	0	0	0	0	0	0	0	0	0	0	0	0	0	0	0	0	0	0	0	0	0	0	0	0	0	0	0	0	1457	1423	1426	1460	1469	1463	1459	1452	1446	1440	1434	1448	1476	1489	1486	1490	1489	1490	1481	1467	1470	1466	1469	1487	1502	1510	1497	1491	1490	1488	1487	1474	1465	1451	1458	1466	1486	1489	1475	1467	1478	1501	1515	1511	1501	1484	1478	1474	1472	1469	1451	1361	1262	0	0	0	0	0	0	0	0	0	0	0	0	0	0	0	0	0	0	0	0	0	0	0	0	0	0	0	0	0	0	0	0	0	0	0	0	0	0	0	0	0	0	0	0	0	0	0	0	0	0	0	0	0	0	0	0	0	0	0	0	0	0	0	0	0	0	0	0	0	0	0	0	0	0	0	0	0	0	0	0	0	0	0	0	0	0	0	0	0	0	0	0	0	1029	1135	1289	1464	1497	1509	1509	1520	1517	1517	1522	1511	1497	1485	1492	1488	1493	1499	1503	1523	1527	1527	1526	1525	1528	1515	1513	1507	1511	1511	1507	1511	1521	1519	1517	1507	1501	1492	1484	1476	1477	1490	1510	1530	1550	1548	1534	1512	1497	1497	1506	1516	1519	1517	1515	1501	1495	1496	1503	1504	1504	1486	1467	1464	1476	1492	1499	1502	1492	1484	1467	1468	1469	1467	1473	1483	1497	1505	1507	1501	1493	1480	1477	1479	1490	1504	1513	1505	1497	1513	1523	1539	1545	1549	1548	1534	1528	1516	1508	1493	1483	1485	1513	1518	1502	1523	1533	1558	1539	1512	1511	1499	1487	1480	1475	1481	1491	1501	1506	1500	1497	1491	1484	1475	1487	1485	1510	1510	1497	1482	1474	1484	1493	1496	1501	1504	1521	1519	1516	1521	1533	1551	1520	1512	1510	1508	1504	1490	1507	1506	1488	1487	1488	1485	1481	1477	1471	1475	1482	1489	1500	1494	1504	1528	1534	1526	1521	1515	1497	1486	1491	1500	1511	1500	1490	1487	1493	1500	1506	1489	1492	1470	0	0	0	0	0	0	0	0	0	0	0	0	0	0	0	0	0	0	0	0	0	0	0	730	705	695	678	661	655	653	656	670	679	690	692	688	684	683	681	685	693	683	671	670	662	662	658	659	655	656	656	652	643	631	629	631	640	645	644	642	639	637	639	645	649	645	637	638	646	652	648	636	629	638	643	645	650	654	659	660	650	639	636	634	635	633	634	629	624	621	630	633	635	642	654	667	682	711	750	794	865	948	1030	1083	1122	1222	1397	1461	1490	1495	1480	1467	1452	0	0	0	0	0	0	0	0	0	0	0	0	0	0	0	0	1427	0	0	0	0	0	0	0	0	0	0	0	0	0	0	0	0	0	0	0	0	0	0	0	0	0	0	0	0	0	0	0	0	0	0	0	0	0	0	0	0	0	0	0	0	0	0	0	0	0	0	0	0	0	0	0	0	0	0	0	0	0	0	0	0	0	0	0	0	0	0	0	0	0	0	0	0	0	0	0	0	0	0	0	0	0	0	0	0
0	0	0	0	0	0	0	0	0	0	0	0	0	0	0	0	0	0	0	0	0	0	0	0	0	0	0	0	0	0	0	0	0	0	0	0	0	0	0	0	0	0	0	0	0	0	0	0	0	0	0	0	0	0	0	0	0	0	0	0	0	0	0	0	0	0	0	0	0	0	0	0	0	0	0	0	0	0	0	0	0	0	0	0	0	0	0	0	0	0	0	0	0	1441	1424	1426	1439	1452	1469	1472	1471	1464	1455	1436	1428	1439	1466	1480	1490	1490	1491	1491	1486	1469	1456	1456	1454	1472	1484	1493	1503	1499	1490	1493	1478	1462	1460	1478	1501	1526	1527	1517	1498	1473	1488	1504	1511	1501	1492	1469	1462	1433	1350	1288	1176	0	0	0	0	0	0	0	0	0	0	0	0	0	0	0	0	0	0	0	0	0	0	0	0	0	0	0	0	0	0	0	0	0	0	0	0	0	0	0	0	0	0	0	0	0	0	0	0	0	0	0	0	0	0	0	0	0	0	0	0	0	0	0	0	0	0	0	0	0	0	0	0	0	0	0	0	0	0	0	0	0	0	0	0	0	0	0	0	0	0	0	0	0	0	978	1083	1206	1302	1433	1494	1512	1522	1544	1556	1554	1545	1528	1492	1480	1485	1486	1482	1487	1494	1507	1522	1537	1531	1537	1525	1512	1509	1514	1517	1518	1515	1513	1525	1527	1513	1495	1476	1462	1486	1507	1526	1530	1521	1513	1517	1521	1519	1513	1497	1501	1507	1520	1516	1497	1484	1485	1488	1490	1483	1478	1466	1466	1457	1454	1461	1467	1496	1520	1531	1533	1520	1511	1517	1519	1495	1483	1488	1499	1506	1496	1488	1478	1472	1464	1465	1488	1497	1502	1502	1517	1528	1539	1544	1549	1549	1536	1530	1523	1511	1503	1502	1489	1518	1521	1502	1521	1532	1558	1537	1501	1492	1484	1479	1473	1470	1479	1481	1485	1472	1478	1485	0	0	0	0	0	0	0	0	0	0	0	0	0	0	0	0	0	0	0	0	0	0	0	0	0	0	0	0	0	0	0	0	0	0	0	0	0	0	0	0	0	0	0	0	0	0	0	0	0	0	0	0	0	0	0	0	0	0	0	0	0	0	0	0	0	0	0	0	0	0	0	0	0	0	0	0	0	0	0	0	0	0	0	0	0	746	722	691	663	649	644	642	645	660	669	676	676	674	669	666	668	672	679	674	670	660	657	656	654	654	658	664	658	647	635	633	636	641	642	639	638	636	635	634	638	642	645	637	636	642	646	642	630	625	632	635	635	638	640	643	642	636	629	624	619	617	620	621	620	618	616	625	632	634	635	637	641	646	658	672	692	730	767	824	896	948	1004	0	0	0	0	0	0	0	0	0	0	0	0	0	0	0	0	0	0	0	0	0	0	0	0	0	0	0	0	0	0	0	0	0	0	0	0	0	0	0	0	0	0	0	0	0	0	0	0	0	0	0	0	0	0	0	0	0	0	0	0	0	0	0	0	0	0	0	0	0	0	0	0	0	0	0	0	0	0	0	0	0	0	0	0	0	0	0	0	0	0	0	0	0	0	0	0	0	0	0	0	0	0	0	0	0	0	0	0	0	0	0	0
0	0	0	0	0	0	0	0	0	0	0	0	0	0	0	0	0	0	0	0	0	0	0	0	0	0	0	0	0	0	0	0	0	0	0	0	0	0	0	0	0	0	0	0	0	0	0	0	0	0	0	0	0	0	0	0	0	0	0	0	0	0	0	0	0	0	0	0	0	0	0	0	0	0	0	0	0	0	0	0	0	0	0	0	0	0	0	0	0	0	0	0	0	1455	1467	1459	1459	1460	1464	1473	1472	1468	1468	1452	1444	1452	1464	1474	1481	1481	1476	1481	1478	1470	1460	1447	1447	1453	1472	1486	1494	1499	1497	1485	1462	1447	1474	1483	1503	1528	1527	1506	1475	1435	1434	1447	1446	1438	1410	1382	1284	0	0	0	0	0	0	0	0	0	0	0	0	0	0	0	0	0	0	0	0	0	0	0	0	0	0	0	0	0	0	0	0	0	0	0	0	0	0	0	0	0	0	0	0	0	0	0	0	0	0	0	0	0	0	0	0	0	0	0	0	0	0	0	0	0	0	0	0	0	0	0	0	0	0	0	0	0	0	0	0	0	0	0	0	0	0	0	0	0	0	0	0	0	0	0	0	0	0	992	1093	1258	1366	1448	1497	1516	1528	1553	1598	1605	1590	1539	1503	1477	1484	1509	1517	1504	1497	1501	1522	1530	1527	1502	1481	1471	1459	1461	1459	1461	1464	1457	0	0	0	0	0	0	0	0	0	0	0	0	0	0	0	0	0	0	0	0	0	0	0	0	0	0	0	0	0	0	0	0	0	0	0	0	0	0	0	0	0	0	0	0	0	0	0	1482	1481	1467	1452	1452	1467	1488	1486	1495	1533	1550	1576	1557	1515	1487	1480	1465	1467	1469	1488	1549	1570	1574	1541	1517	1514	1500	1493	1483	1473	1478	0	0	0	0	0	0	0	0	0	0	0	0	0	0	0	0	0	0	0	0	0	0	0	0	0	0	0	0	0	0	0	0	0	0	0	0	0	0	0	0	0	0	0	0	0	0	0	0	0	0	0	0	0	0	0	0	0	0	0	0	0	0	0	0	0	0	0	0	0	0	0	0	0	0	0	0	0	0	0	0	0	0	0	0	0	0	0	0	0	0	0	0	0	0	0	0	0	0	683	664	663	644	635	632	639	648	654	659	661	665	660	656	661	673	674	671	668	660	657	660	660	663	662	659	650	638	633	636	639	643	642	642	638	633	628	631	636	638	633	634	634	640	634	628	622	625	628	631	629	632	632	632	629	625	618	611	607	605	604	611	614	611	618	620	622	625	628	629	631	632	638	644	657	624	625	627	624	620	648	0	0	0	0	0	0	0	0	0	0	0	0	0	0	0	0	0	0	0	0	0	0	0	0	0	0	0	0	0	0	0	0	0	0	0	0	0	0	0	0	0	0	0	0	0	0	0	0	0	0	0	0	0	0	0	0	0	0	0	0	0	0	0	0	0	0	0	0	0	0	0	0	0	0	0	0	0	0	0	0	0	0	0	0	0	0	0	0	0	0	0	0	0	0	0	0	0	0	0	0	0	0	0	0	0	0	0	0	0	0	0
0	0	0	0	0	0	0	0	0	0	0	0	0	0	0	0	0	0	0	0	0	0	0	0	0	0	0	0	0	0	0	0	0	0	0	0	0	0	0	0	0	0	0	0	0	0	0	0	0	0	0	0	0	0	0	0	0	0	0	0	0	0	0	0	0	0	0	0	0	0	0	0	0	0	0	0	0	0	0	0	0	0	0	0	0	0	0	0	0	0	0	0	0	1461	1465	1469	1468	1463	1468	1471	1471	1474	1480	1470	1461	1460	1462	1465	1465	1469	1465	1472	1473	1470	1464	1453	1450	1457	1470	1482	1482	1463	1433	1440	1456	1481	0	0	0	0	0	0	0	0	0	0	0	0	0	0	0	0	0	0	0	0	0	0	0	0	0	0	0	0	0	0	0	0	0	0	0	0	0	0	0	0	0	0	0	0	0	0	0	0	0	0	0	0	0	0	0	0	0	0	0	0	0	0	0	0	0	0	0	0	0	0	0	0	0	0	0	0	0	0	0	0	0	0	0	0	0	0	0	0	0	0	0	0	0	0	0	0	0	0	0	0	0	0	0	0	0	0	0	0	0	0	0	0	0	0	0	0	0	0	0	0	0	0	0	0	0	0	0	0	0	0	0	0	0	0	0	0	0	0	0	0	0	0	0	0	0	0	0	0	0	0	0	0	0	0	0	0	0	0	0	0	0	0	0	0	0	0	0	0	0	0	0	0	0	0	0	0	0	0	0	0	0	0	0	0	0	0	0	0	0	0	0	0	0	0	0	0	0	0	0	0	0	0	0	0	0	0	0	0	0	0	0	0	0	0	0	0	0	0	0	0	0	0	0	0	0	0	0	0	0	0	0	0	0	0	0	0	0	0	0	0	0	0	0	0	0	0	0	0	0	0	0	0	0	0	0	0	0	0	0	0	0	0	0	0	0	0	0	0	0	0	0	0	0	0	0	0	0	0	0	0	0	0	0	0	0	0	0	0	0	0	0	0	0	0	0	0	0	0	0	0	0	0	0	0	0	0	0	0	0	0	0	0	0	0	0	0	0	0	0	0	0	0	0	659	668	665	640	630	631	628	634	642	655	659	658	652	653	667	672	678	675	668	664	665	667	662	659	650	644	637	635	636	638	641	645	645	638	628	620	621	624	629	627	629	626	632	629	624	619	624	626	625	621	623	627	630	633	625	616	608	599	595	598	603	611	608	611	612	615	615	623	632	636	628	609	600	600	612	616	617	613	608	594	606	613	621	630	0	0	0	0	0	0	0	0	0	0	0	0	0	0	0	0	0	0	0	0	0	0	0	0	0	0	0	0	0	0	0	0	0	0	0	0	0	0	0	0	0	0	0	0	0	0	0	0	0	0	0	0	0	0	0	0	0	0	0	0	0	0	0	0	0	0	0	0	0	0	0	0	0	0	0	0	0	0	0	0	0	0	0	0	0	0	0	0	0	0	0	0	0	0	0	0	0	0	0	0	0	0	0	0	0	0	0
0	0	0	0	0	0	0	0	0	0	0	0	0	0	0	0	0	0	0	0	0	0	0	0	0	0	0	0	0	0	0	0	0	0	0	0	0	0	0	0	0	0	0	0	0	0	0	0	0	0	0	0	0	0	0	0	0	0	0	0	0	0	0	0	0	0	0	0	0	0	0	0	0	0	0	0	0	0	0	0	0	0	0	0	0	0	0	0	0	0	0	0	0	1440	1458	1466	1474	1472	1467	1466	1482	1473	1482	1481	1478	1466	1459	1454	1453	1455	1461	1465	1468	1473	1472	1469	1477	1485	1482	1476	1455	1428	1438	0	0	0	0	0	0	0	0	0	0	0	0	0	0	0	0	0	0	0	0	0	0	0	0	0	0	0	0	0	0	0	0	0	0	0	0	0	0	0	0	0	0	0	0	0	0	0	0	0	0	0	0	0	0	0	0	0	0	0	0	0	0	0	0	0	0	0	0	0	0	0	0	0	0	0	0	0	0	0	0	0	0	0	0	0	0	0	0	0	0	0	0	0	0	0	0	0	0	0	0	0	0	0	0	0	0	0	0	0	0	0	0	0	0	0	0	0	0	0	0	0	0	0	0	0	0	0	0	0	0	0	0	0	0	0	0	0	0	0	0	0	0	0	0	0	0	0	0	0	0	0	0	0	0	0	0	0	0	0	0	0	0	0	0	0	0	0	0	0	0	0	0	0	0	0	0	0	0	0	0	0	0	0	0	0	0	0	0	0	0	0	0	0	0	0	0	0	0	0	0	0	0	0	0	0	0	0	0	0	0	0	0	0	0	0	0	0	0	0	0	0	0	0	0	0	0	0	0	0	0	0	0	0	0	0	0	0	0	0	0	0	0	0	0	0	0	0	0	0	0	0	0	0	0	0	0	0	0	0	0	0	0	0	0	0	0	0	0	0	0	0	0	0	0	0	0	0	0	0	0	0	0	0	0	0	0	0	0	0	0	0	0	0	0	0	0	0	0	0	0	0	0	0	0	0	0	0	0	0	0	0	0	0	0	0	0	0	0	0	0	0	0	0	0	0	0	0	668	678	669	651	632	625	625	636	650	658	660	656	653	657	666	670	674	664	664	660	660	652	647	633	632	631	630	632	633	636	639	635	629	621	610	610	617	621	624	622	625	627	624	618	614	620	620	613	610	613	623	631	639	631	619	608	595	590	589	597	604	609	613	614	618	620	623	630	632	622	602	589	590	603	611	611	605	597	591	594	607	609	607	609	0	0	0	0	0	0	0	0	0	0	0	0	0	0	0	0	0	0	0	0	0	0	0	0	0	0	0	0	0	0	0	0	0	0	0	0	0	0	0	0	0	0	0	0	0	0	0	0	0	0	0	0	0	0	0	0	0	0	0	0	0	0	0	0	0	0	0	0	0	0	0	0	0	0	0	0	0	0	0	0	0	0	0	0	0	0	0	0	0	0	0	0	0	0	0	0	0	0	0	0	0	0	0	0	0	0
0	0	0	0	0	0	0	0	0	0	0	0	0	0	0	0	0	0	0	0	0	0	0	0	0	0	0	0	0	0	0	0	0	0	0	0	0	0	0	0	0	0	0	0	0	0	0	0	0	0	0	0	0	0	0	0	0	0	0	0	0	0	0	0	0	0	0	0	0	0	0	0	0	0	0	0	0	0	0	0	0	0	0	0	0	0	0	0	0	0	0	0	0	1425	1451	1465	1479	1478	1470	1468	1455	1460	1476	1482	1478	1466	1455	1443	1448	1456	1466	1465	1465	1467	1477	1473	1475	1480	1468	1458	1445	1426	1431	0	0	0	0	0	0	0	0	0	0	0	0	0	0	0	0	0	0	0	0	0	0	0	0	0	0	0	0	0	0	0	0	0	0	0	0	0	0	0	0	0	0	0	0	0	0	0	0	0	0	0	0	0	0	0	0	0	0	0	0	0	0	0	0	0	0	0	0	0	0	0	0	0	0	0	0	0	0	0	0	0	0	0	0	0	0	0	0	0	0	0	0	0	0	0	0	0	0	0	0	0	0	0	0	0	0	0	0	0	0	0	0	0	0	0	0	0	0	0	0	0	0	0	0	0	0	0	0	0	0	0	0	0	0	0	0	0	0	0	0	0	0	0	0	0	0	0	0	0	0	0	0	0	0	0	0	0	0	0	0	0	0	0	0	0	0	0	0	0	0	0	0	0	0	0	0	0	0	0	0	0	0	0	0	0	0	0	0	0	0	0	0	0	0	0	0	0	0	0	0	0	0	0	0	0	0	0	0	0	0	0	0	0	0	0	0	0	0	0	0	0	0	0	0	0	0	0	0	0	0	0	0	0	0	0	0	0	0	0	0	0	0	0	0	0	0	0	0	0	0	0	0	0	0	0	0	0	0	0	0	0	0	0	0	0	0	0	0	0	0	0	0	0	0	0	0	0	0	0	0	0	0	0	0	0	0	0	0	0	0	0	0	0	0	0	0	0	0	0	0	0	0	0	0	0	0	0	0	0	0	0	0	0	0	0	0	0	0	0	0	0	0	0	0	0	0	0	0	684	673	659	651	625	625	631	646	656	656	652	646	650	654	653	648	651	642	638	638	630	612	613	618	622	622	620	620	622	629	626	622	618	611	609	612	616	615	616	619	619	618	612	608	608	610	603	601	602	611	625	637	635	625	609	597	590	578	576	583	593	606	610	609	612	614	615	609	597	582	576	582	590	600	605	597	588	589	597	600	603	596	582	576	588	0	0	0	0	0	0	0	0	0	0	0	0	0	0	0	0	0	0	0	0	0	0	0	0	0	0	0	0	0	0	0	0	0	0	0	0	0	0	0	0	0	0	0	0	0	0	0	0	0	0	0	0	0	0	0	0	0	0	0	0	0	0	0	0	0	0	0	0	0	0	0	0	0	0	0	0	0	0	0	0	0	0	0	0	0	0	0	0	0	0	0	0	0	0	0	0	0	0	0	0	0	0	0	0
0	0	0	0	0	0	0	0	0	0	0	0	0	0	0	0	0	0	0	0	0	0	0	0	0	0	0	0	0	0	0	0	0	0	0	0	0	0	0	0	0	0	0	0	0	0	0	0	0	0	0	0	0	0	0	0	0	0	0	0	0	0	0	0	0	0	0	0	0	0	0	0	0	0	0	0	0	0	0	0	0	0	0	0	0	0	0	0	0	0	0	0	0	1449	1447	1463	1482	1495	1484	1468	1447	1447	1463	1478	1478	1463	1451	1454	1464	1473	1466	1464	1461	1465	1469	1469	1471	1472	1470	1459	1445	1430	1430	0	0	0	0	0	0	0	0	0	0	0	0	0	0	0	0	0	0	0	0	0	0	0	0	0	0	0	0	0	0	0	0	0	0	0	0	0	0	0	0	0	0	0	0	0	0	0	0	0	0	0	0	0	0	0	0	0	0	0	0	0	0	0	0	0	0	0	0	0	0	0	0	0	0	0	0	0	0	0	0	0	0	0	0	0	0	0	0	0	0	0	0	0	0	0	0	0	0	0	0	0	0	0	0	0	0	0	0	0	0	0	0	0	0	0	0	0	0	0	0	0	0	0	0	0	0	0	0	0	0	0	0	0	0	0	0	0	0	0	0	0	0	0	0	0	0	0	0	0	0	0	0	0	0	0	0	0	0	0	0	0	0	0	0	0	0	0	0	0	0	0	0	0	0	0	0	0	0	0	0	0	0	0	0	0	0	0	0	0	0	0	0	0	0	0	0	0	0	0	0	0	0	0	0	0	0	0	0	0	0	0	0	0	0	0	0	0	0	0	0	0	0	0	0	0	0	0	0	0	0	0	0	0	0	0	0	0	0	0	0	0	0	0	0	0	0	0	0	0	0	0	0	0	0	0	0	0	0	0	0	0	0	0	0	0	0	0	0	0	0	0	0	0	0	0	0	0	0	0	0	0	0	0	0	0	0	0	0	0	0	0	0	0	0	0	0	0	0	0	0	0	0	0	0	0	0	0	0	0	0	0	0	0	0	0	0	0	0	0	0	0	0	0	0	0	0	0	0	0	0	673	659	646	632	634	641	647	646	637	634	635	633	630	632	625	618	614	597	590	592	600	605	610	610	611	616	618	621	628	632	632	627	617	617	616	616	611	612	612	609	605	602	602	597	592	591	594	600	612	624	625	603	595	585	582	578	574	575	583	595	598	598	593	590	589	585	575	570	569	571	581	591	595	586	578	586	593	601	598	585	568	552	551	573	0	0	0	0	0	0	0	0	0	0	0	0	0	0	0	0	0	0	0	0	0	0	0	0	0	0	0	0	0	0	0	0	0	0	0	0	0	0	0	0	0	0	0	0	0	0	0	0	0	0	0	0	0	0	0	0	0	0	0	0	0	0	0	0	0	0	0	0	0	0	0	0	0	0	0	0	0	0	0	0	0	0	0	0	0	0	0	0	0	0	0	0	0	0	0	0	0	0	0	0	0	0	0
0	0	0	0	0	0	0	0	0	0	0	0	0	0	0	0	0	0	0	0	0	0	0	0	0	0	0	0	0	0	0	0	0	0	0	0	0	0	0	0	0	0	0	0	0	0	0	0	0	0	0	0	0	0	0	0	0	0	0	0	0	0	0	0	0	0	0	0	0	0	0	0	0	0	0	0	0	0	0	0	0	0	0	0	0	0	0	0	0	0	0	0	0	1464	1454	1463	1484	1496	1498	1477	1452	1449	1470	1474	1473	1462	1453	1464	1474	1473	1467	1463	1456	1454	1454	1455	1460	1469	1470	1464	1455	1434	1397	0	0	0	0	0	0	0	0	0	0	0	0	0	0	0	0	0	0	0	0	0	0	0	0	0	0	0	0	0	0	0	0	0	0	0	0	0	0	0	0	0	0	0	0	0	0	0	0	0	0	0	0	0	0	0	0	0	0	0	0	0	0	0	0	0	0	0	0	0	0	0	0	0	0	0	0	0	0	0	0	0	0	0	0	0	0	0	0	0	0	0	0	0	0	0	0	0	0	0	0	0	0	0	0	0	0	0	0	0	0	0	0	0	0	0	0	0	0	0	0	0	0	0	0	0	0	0	0	0	0	0	0	0	0	0	0	0	0	0	0	0	0	0	0	0	0	0	0	0	0	0	0	0	0	0	0	0	0	0	0	0	0	0	0	0	0	0	0	0	0	0	0	0	0	0	0	0	0	0	0	0	0	0	0	0	0	0	0	0	0	0	0	0	0	0	0	0	0	0	0	0	0	0	0	0	0	0	0	0	0	0	0	0	0	0	0	0	0	0	0	0	0	0	0	0	0	0	0	0	0	0	0	0	0	0	0	0	0	0	0	0	0	0	0	0	0	0	0	0	0	0	0	0	0	0	0	0	0	0	0	0	0	0	0	0	0	0	0	0	0	0	0	0	0	0	0	0	0	0	0	0	0	0	0	0	0	0	0	0	0	0	0	0	0	0	0	0	0	0	0	0	0	0	0	0	0	0	0	0	0	0	0	0	0	0	0	0	0	0	0	0	0	0	0	0	0	0	0	0	0	0	0	650	639	628	625	614	618	619	620	621	618	618	613	609	595	588	576	569	570	579	588	596	603	610	617	620	626	631	632	632	630	620	614	612	611	611	605	605	605	602	600	597	591	588	589	593	587	584	586	592	590	582	575	569	573	570	570	576	587	596	593	584	571	569	566	565	563	565	568	575	578	579	573	567	579	593	596	591	573	557	549	544	542	544	551	572	0	0	0	0	0	0	0	0	0	0	0	0	0	0	0	0	0	0	0	0	0	0	0	0	0	0	0	0	0	0	0	0	0	0	0	0	0	0	0	0	0	0	0	0	0	0	0	0	0	0	0	0	0	0	0	0	0	0	0	0	0	0	0	0	0	0	0	0	0	0	0	0	0	0	0	0	0	0	0	0	0	0	0	0	0	0	0	0	0	0	0	0	0	0	0	0	0	0	0	0
0	0	0	0	0	0	0	0	0	0	0	0	0	0	0	0	0	0	0	0	0	0	0	0	0	0	0	0	0	0	0	0	0	0	0	0	0	0	0	0	0	0	0	0	0	0	0	0	0	0	0	0	0	0	0	0	0	0	0	0	0	0	0	0	0	0	0	0	0	0	0	0	0	0	0	0	0	0	0	0	0	0	0	0	0	0	0	0	0	0	0	0	0	1481	1459	1466	1480	1497	1493	1479	1460	1458	1474	1475	1468	1456	1449	1459	1475	1469	1470	1459	1442	1444	1441	1451	1461	1476	1485	1467	1457	1404	1310	0	0	0	0	0	0	0	0	0	0	0	0	0	0	0	0	0	0	0	0	0	0	0	0	0	0	0	0	0	0	0	0	0	0	0	0	0	0	0	0	0	0	0	0	0	0	0	0	0	0	0	0	0	0	0	0	0	0	0	0	0	0	0	0	0	0	0	0	0	0	0	0	0	0	0	0	0	0	0	0	0	0	0	0	0	0	0	0	0	0	0	0	0	0	0	0	0	0	0	0	0	0	0	0	0	0	0	0	0	0	0	0	0	0	0	0	0	0	0	0	0	0	0	0	0	0	0	0	0	0	0	0	0	0	0	0	0	0	0	0	0	0	0	0	0	0	0	0	0	0	0	0	0	0	0	0	0	0	0	0	0	0	0	0	0	0	0	0	0	0	0	0	0	0	0	0	0	0	0	0	0	0	0	0	0	0	0	0	0	0	0	0	0	0	0	0	0	0	0	0	0	0	0	0	0	0	0	0	0	0	0	0	0	0	0	0	0	0	0	0	0	0	0	0	0	0	0	0	0	0	0	0	0	0	0	0	0	0	0	0	0	0	0	0	0	0	0	0	0	0	0	0	0	0	0	0	0	0	0	0	0	0	0	0	0	0	0	0	0	0	0	0	0	0	0	0	0	0	0	0	0	0	0	0	0	0	0	0	0	0	0	0	0	0	0	0	0	0	0	0	0	0	0	0	0	0	0	0	0	0	0	0	0	0	0	0	0	0	0	0	0	0	0	0	0	0	0	0	0	0	0	0	0	639	629	618	612	615	608	609	613	612	604	595	591	584	581	577	569	560	562	571	580	601	611	627	634	630	623	622	621	616	608	603	604	605	606	607	606	610	607	598	591	576	575	582	585	583	582	584	585	580	573	566	566	565	565	564	569	582	591	588	575	563	561	564	566	567	568	569	569	564	561	554	551	572	584	589	579	565	560	557	557	557	562	568	574	600	0	0	0	0	0	0	0	0	0	0	0	0	0	0	0	0	0	0	0	0	0	0	0	0	0	0	0	0	0	0	0	0	0	0	0	0	0	0	0	0	0	0	0	0	0	0	0	0	0	0	0	0	0	0	0	0	0	0	0	0	0	0	0	0	0	0	0	0	0	0	0	0	0	0	0	0	0	0	0	0	0	0	0	0	0	0	0	0	0	0	0	0	0	0	0	0	0	0	0
0	0	0	0	0	0	0	0	0	0	0	0	0	0	0	0	0	0	0	0	0	0	0	0	0	0	0	0	0	0	0	0	0	0	0	0	0	0	0	0	0	0	0	0	0	0	0	0	0	0	0	0	0	0	0	0	0	0	0	0	0	0	0	0	0	0	0	0	0	0	0	0	0	0	0	0	0	0	0	0	0	0	0	0	0	0	0	0	0	0	0	0	0	1499	1459	1457	1466	1479	1484	1474	1460	1460	1475	1485	1468	1450	1440	1449	1464	1464	1464	1458	1446	1451	1451	1453	1456	1466	1474	1456	1426	1318	1172	1118	0	0	0	0	0	0	0	0	0	0	0	0	0	0	0	0	0	0	0	0	0	0	0	0	0	0	0	0	0	0	0	0	0	0	0	0	0	0	0	0	0	0	0	0	0	0	0	0	0	0	0	0	0	0	0	0	0	0	0	0	0	0	0	0	0	0	0	0	0	0	0	0	0	0	0	0	0	0	0	0	0	0	0	0	0	0	0	0	0	0	0	0	0	0	0	0	0	0	0	0	0	0	0	0	0	0	0	0	0	0	0	0	0	0	0	0	0	0	0	0	0	0	0	0	0	0	0	0	0	0	0	0	0	0	0	0	0	0	0	0	0	0	0	0	0	0	0	0	0	0	0	0	0	0	0	0	0	0	0	0	0	0	0	0	0	0	0	0	0	0	0	0	0	0	0	0	0	0	0	0	0	0	0	0	0	0	0	0	0	0	0	0	0	0	0	0	0	0	0	0	0	0	0	0	0	0	0	0	0	0	0	0	0	0	0	0	0	0	0	0	0	0	0	0	0	0	0	0	0	0	0	0	0	0	0	0	0	0	0	0	0	0	0	0	0	0	0	0	0	0	0	0	0	0	0	0	0	0	0	0	0	0	0	0	0	0	0	0	0	0	0	0	0	0	0	0	0	0	0	0	0	0	0	0	0	0	0	0	0	0	0	0	0	0	0	0	0	0	0	0	0	0	0	0	0	0	0	0	0	0	0	0	0	0	0	0	0	0	0	714	709	0	0	0	0	0	0	0	0	0	0	0	0	632	621	611	611	608	607	610	606	596	587	584	584	584	581	568	557	556	560	576	589	610	629	636	630	622	612	614	608	601	599	599	598	597	597	601	598	587	581	581	578	574	575	578	579	582	581	583	579	575	567	562	560	559	556	569	583	585	579	569	561	561	566	571	571	568	566	557	550	546	540	543	560	573	578	571	565	561	562	566	568	572	577	577	576	595	610	624	626	0	0	0	0	0	0	0	0	0	0	0	0	0	0	0	0	0	0	0	0	0	0	0	0	0	0	0	0	0	0	0	0	0	0	0	0	0	0	0	0	0	0	0	0	0	0	0	0	0	0	0	0	0	0	0	0	0	0	0	0	0	0	0	0	0	0	0	0	0	0	0	0	0	0	0	0	0	0	0	0	0	0	0	0	0	0	0	0	0	0	0	0	0	0	0
0	0	0	0	0	0	0	0	0	0	0	0	0	0	0	0	0	0	0	0	0	0	0	0	0	0	0	0	0	0	0	0	0	0	0	0	0	0	0	0	0	0	0	0	0	0	0	0	0	0	0	0	0	0	0	0	0	0	0	0	0	0	0	0	0	0	0	0	0	0	0	0	0	0	0	0	0	0	0	0	0	0	0	0	0	0	0	0	0	0	0	0	0	1508	1454	1437	1451	1462	1467	1455	1453	1464	1478	1489	1480	1450	1440	1438	1453	1459	1460	1462	1462	1460	1455	1452	1454	1449	1441	1386	1276	1158	1035	0	0	0	0	0	0	0	0	0	0	0	0	0	0	0	0	0	0	0	0	0	0	0	0	0	0	0	0	0	0	0	0	0	0	0	0	0	0	0	0	0	0	0	0	0	0	0	0	0	0	0	0	0	0	0	0	0	0	0	0	0	0	0	0	0	0	0	0	0	0	0	0	0	0	0	0	0	0	0	0	0	0	0	0	0	0	0	0	0	0	0	0	0	0	0	0	0	0	0	0	0	0	0	0	0	0	0	0	0	0	0	0	0	0	0	0	0	0	0	0	0	0	0	0	0	0	0	0	0	0	0	0	0	0	0	0	0	0	0	0	0	0	0	0	0	0	0	0	0	0	0	0	0	0	0	0	0	0	0	0	0	0	0	0	0	0	0	0	0	0	0	0	0	0	0	0	0	0	0	0	0	0	0	0	0	0	0	0	0	0	0	0	0	0	0	0	0	0	0	0	0	0	0	0	0	0	0	0	0	0	0	0	0	0	0	0	0	0	0	0	0	0	0	0	0	0	0	0	0	0	0	0	0	0	0	0	0	0	0	0	0	0	0	0	0	0	0	0	0	0	0	0	0	0	0	0	0	0	0	0	0	0	0	0	0	0	0	0	0	0	0	0	0	0	0	0	0	0	0	0	0	0	0	0	0	0	0	0	0	0	0	0	0	0	0	0	0	0	0	0	0	0	0	0	0	0	0	0	0	0	0	0	0	0	0	0	0	0	0	0	696	697	691	0	0	0	0	0	0	0	0	0	0	0	0	0	646	628	596	599	599	598	591	584	586	589	589	585	575	559	555	561	574	583	608	613	617	624	615	610	610	607	601	595	596	592	590	572	575	581	575	579	578	579	574	571	570	571	578	581	583	582	575	568	559	556	554	552	562	573	577	572	562	555	556	561	561	563	563	563	556	551	548	542	539	549	561	565	563	560	562	564	567	570	576	572	565	555	549	550	548	553	570	583	0	0	0	0	0	0	0	0	0	0	0	0	0	0	0	0	0	0	0	0	0	0	0	0	0	0	0	0	0	0	0	0	0	0	0	0	0	0	0	0	0	0	0	0	0	0	0	0	0	0	0	0	0	0	0	0	0	0	0	0	0	0	0	0	0	0	0	0	0	0	0	0	0	0	0	0	0	0	0	0	0	0	0	0	0	0	0	0	0	0	0	0	0
