0	0	0	0	0	0	0	0	0	0	0	0	0	0	0	0	0	0	0	0	0	0	0	0	0	0	0	0	0	0	0	0	0	0	0	0	0	0	0	0	0	0	0	0	0	0	0	0	0	0	0	0	0	0	0	0	0	0	0	0	0	0	0	0	0	0	0	0	0	0	0	0	0	0	0	0	0	0	0	0	0	0	0	0	0	0	0	0	0	0	0	0	0	1486	1478	1478	1468	1449	1437	1451	1464	1470	1467	1467	1471	1474	1464	1468	1482	1490	1496	1495	1495	1494	1486	1491	1499	1507	1515	1527	1524	1502	1485	1475	1482	1504	1515	1505	1473	1435	0	1429	1446	1452	1468	1481	0	0	0	0	0	0	0	0	0	1536	1517	1501	1484	1498	1513	1500	1476	1466	1467	1480	1487	1501	1507	1503	1516	1536	1579	1554	1506	1506	1504	1503	1486	1483	1500	1507	1496	1478	1455	1433	1417	1400	1411	1432	1434	1422	1422	1427	1427	1416	1418	1414	1425	1438	1449	1447	1410	1401	1394	1391	1393	1403	1408	1410	1402	1403	1400	1413	1445	1446	1438	1424	1426	1427	1419	1394	1364	1363	1370	1375	1387	1395	1409	1407	1384	1374	1367	1368	1391	1388	1374	1344	1285	1246	0	0	1196	1175	1157	0	0	0	0	0	0	0	0	0	0	1132	1123	1121	1117	1113	1123	1120	1121	1116	1116	1113	1123	1134	1136	1130	1114	1108	1102	1101	1099	1114	1137	1169	0	1247	1312	1360	1419	1463	1481	1482	1477	1465	1475	1495	1503	1495	1502	1504	1499	1469	1452	1448	1452	1458	1450	1450	1448	1452	1455	1460	1468	1485	1511	1534	1537	1530	1518	1508	1498	1491	1483	1476	1475	1465	1473	1466	1430	1410	1408	1408	1411	1407	1391	1375	1367	1367	1369	1380	1393	1395	1404	1399	1393	1393	1391	1389	1389	1391	1389	1391	1394	1392	1387	1392	1391	1385	1389	1405	1412	1423	1431	1422	1426	1433	1414	1400	1380	1368	1362	1365	1376	1398	1407	1402	1404	1414	1421	1442	1489	1495	1500	1498	1506	1502	1496	1493	1483	1477	1472	1461	1452	1461	1468	1477	1481	1476	1467	1469	1488	1488	1480	1470	1473	1487	1506	1520	1527	1519	1511	1499	1478	1468	1467	1490	1498	1492	1466	1421	0	1181	1132	1112	1104	1107	0	0	0	1074	1084	1081	1069	1062	1065	1072	1078	1067	1068	1063	1074	1092	1097	1085	1082	1082	1088	1098	1092	1073	1053	1036	1029	1030	1030	1021	1015	1014	1022	1035	1055	1069	1079	1077	1063	1056	1067	1128	1266	1293	1312	1348	1390	1397	1396	1383	1363	1341	1325	1335	1342	1349	1350	1342	1341	1346	1356	1346	1329	1328	1336	1346	1364	1381	1379	1374	1380	1379	1371	1366	1366	1364	1359	1360	1367	1362	1350	1341	1350	1363	1360	1358	1363	1364	1354	1358	1361	1364	1370	1379	1381	1388	1399	1409	1429	1460	1480	1493	1489	1488	1491	1490	1493	1500	1505	1503	1504	1506	1502	1500	1500	1498	1491	1480	1453	1426	1431	1463	1468	1470	1469	1468	1470	1480	1485	1505	1511	1520	1509	1491	1470	1450	1435	1433	1435	1442	1452	1463	1460	1462	1452	1441	1435	1450	1475	1491	1499	1485	1488	1482	1481	1477	1472	1472	1462	1461	1473	1495	1512	1499	1476	1465	1456	1454	1455	1468	1475	1474	1480	1488	1490	1480	1471	1462	1466	1468	1464	1462	1449	1454	1453	1460	1473	1476	1464	1442	1433	1427	1433	1435	1443	1458	1464	1459	1456	1461	1474	1474	1483	1494	1496	1500	1485	1468	1438	1432	1412	1413	1420	1442	1450	1450	1450	1449	1433	1422	1425	1420	1416	0	0	0	0	0	0	0
0	0	0	0	0	0	0	0	0	0	0	0	0	0	0	0	0	0	0	0	0	0	0	0	0	0	0	0	0	0	0	0	0	0	0	0	0	0	0	0	0	0	0	0	0	0	0	0	0	0	0	0	0	0	0	0	0	0	0	0	0	0	0	0	0	0	0	0	0	0	0	0	0	0	0	0	0	0	0	0	0	0	0	0	0	0	0	0	0	0	0	0	0	1483	1471	1468	1461	1451	1444	1455	1464	1471	1465	1461	1465	1469	1462	1469	1471	1477	1482	1485	1497	1493	1488	1487	1490	1504	1515	1521	1522	1511	1488	1469	1457	1461	1473	1479	1487	1485	1481	1504	1483	1476	1479	1496	1524	1527	1495	1471	1481	1507	1535	1543	1532	1515	1522	1528	1496	1473	1461	1461	1481	1506	1525	1523	1515	1496	1481	1462	1460	1471	1489	1483	1483	1475	1467	1455	1450	1456	1496	1513	1506	1480	1466	1456	1449	1444	1458	1458	1442	1436	1434	1440	1431	1425	1420	1433	1478	1495	1489	1475	1430	1423	1422	1408	1405	1409	1413	1407	1398	1395	1392	1404	1428	1431	1439	1421	1413	1412	1415	1415	1399	1375	1371	1395	1413	1431	1436	1422	1406	1388	1363	1352	1350	1343	1272	1201	1173	0	0	0	1150	1139	1115	1096	0	0	1076	1070	1063	1087	1087	0	1112	1105	1097	1084	1087	1094	1099	1104	1104	1098	1088	1083	1104	0	0	0	0	1103	1102	1096	1092	1097	1117	0	0	1217	1296	1394	1430	1461	1480	1496	1494	1480	1484	1497	1506	1505	1517	1521	1510	1488	1473	1472	1469	1467	1457	1451	1458	1462	1468	1478	1480	1490	1499	1523	1522	1510	1508	1507	1511	1511	1506	1500	1492	1482	1463	1452	1438	1432	1415	1417	1421	1416	1393	1378	1367	1358	1365	1408	1424	1407	1407	1396	1391	1390	1399	1396	1397	1400	1402	1408	1404	1392	1391	1391	1399	1401	1389	1408	1414	1420	1418	1410	1410	1411	1411	1401	1385	1378	1381	1381	1391	1415	1419	1415	1414	1424	1432	1469	1497	1499	1507	1502	1491	1491	1498	1498	1490	1481	1475	1455	1450	1460	1482	1498	1500	1488	1476	1463	1475	1488	1487	1481	1485	1486	1500	1515	1517	1511	1507	1495	1480	1466	1462	1486	1494	1501	1455	0	0	0	0	0	1115	0	0	0	1065	1050	1053	1059	1059	1055	1057	1066	1064	1064	1057	1061	1067	1081	1090	1078	1061	1061	1069	1094	1083	1055	1032	1022	1036	1038	1032	1018	1010	1005	1012	1025	1035	1046	1047	1045	1033	1025	1028	1042	1089	1210	1244	1278	1333	1383	1397	1384	1364	1354	1356	1366	1389	1409	1413	1414	1409	1385	1354	1351	1352	1367	1385	1398	1406	1408	1403	1402	1406	1411	1421	1433	1430	1425	1402	1399	1396	1392	1374	1376	1379	1385	1387	1384	1384	1383	1384	1389	1378	1378	1382	1391	1392	1404	1420	1440	1466	1479	1496	1505	1506	1490	1479	1484	1490	1499	1501	1503	1508	1505	1496	1479	1480	1491	1490	1479	1458	1438	1441	1462	1464	1465	1468	1475	1477	1486	1500	1511	1513	1510	1500	1492	1470	1449	1430	1431	1434	1441	1456	1474	1479	1469	1456	1451	1449	1459	1478	1492	1498	1494	1494	1483	1482	1480	1477	1472	1464	1468	1473	1490	1502	1495	1468	1455	1456	1458	1455	1453	1458	1469	1475	1476	1476	1471	1468	1467	1462	1460	1454	1448	1452	1451	1448	1456	1469	1479	1473	1461	1441	1432	1441	1453	1458	1458	1463	1463	1463	1464	1471	1471	1482	1485	1490	1494	1491	1483	1453	1444	1427	1411	1424	1438	1446	1445	1445	1445	1429	1419	1419	1426	1426	0	0	0	0	0	0	0
0	0	0	0	0	0	0	0	0	0	0	0	0	0	0	0	0	0	0	0	0	0	0	0	0	0	0	0	0	0	0	0	0	0	0	0	0	0	0	0	0	0	0	0	0	0	0	0	0	0	0	0	0	0	0	0	0	0	0	0	0	0	0	0	0	0	0	0	0	0	0	0	0	0	0	0	0	0	0	0	0	0	0	0	0	0	0	0	0	0	0	0	0	1469	1474	1471	1465	1456	1442	1451	1463	1472	1463	1461	1465	1462	1457	1467	1473	1475	1475	1493	1491	1489	1484	1471	1470	1478	1497	1505	1502	1499	1492	1479	1462	1456	1460	1480	1502	1514	1519	1502	1480	1476	1476	1476	1476	1483	1480	1479	1489	1504	1518	1516	1503	1485	1500	1512	1490	1467	1457	1452	1470	1499	1525	1524	1510	1494	1475	1464	1457	1464	1461	1467	1471	1466	1455	1451	1454	1468	1498	1518	1512	1493	1471	1474	1478	1468	1482	1463	1453	1446	1445	1448	1441	1435	1426	1451	1484	1502	1503	1489	1445	1433	1432	1425	1421	1426	1425	1419	1412	1403	1396	1399	1415	1434	1444	1436	1420	1418	1426	1437	1430	1407	1405	1411	1427	1445	1448	1437	1410	1374	1343	1306	1275	1176	1140	1133	1129	0	0	1128	1115	1110	1087	1066	1050	1044	1042	1044	1054	1052	1051	1048	1074	1097	1092	1083	1081	1081	1084	1082	1087	1079	1074	1073	1087	0	0	0	0	1106	1112	1111	1107	1105	0	0	0	1224	1301	1394	1439	1453	1473	1498	1514	1507	1496	1493	1483	1489	1509	1524	1517	1504	1497	1499	1491	1481	1474	1475	1477	1483	1481	1487	1487	1484	1484	1487	1485	1493	1498	1509	1525	1527	1523	1521	1512	1506	1479	1449	1445	1438	1429	1433	1433	1451	1454	1462	1462	1463	1464	1461	1435	1414	1395	1392	1389	1408	1420	1428	1433	1435	1437	1442	1444	1406	1403	1408	1425	1426	1421	1410	1426	1424	1419	1415	1426	1435	1442	1426	1413	1409	1419	1433	1440	1448	1448	1431	1434	1431	1449	1502	1500	1501	1493	1475	1476	1493	1506	1505	1500	1490	1478	1466	1459	1468	1494	1509	1510	1496	1485	1473	1469	1474	1479	1489	1493	1495	1496	1506	1504	1496	1490	1490	1481	1474	1468	1480	1494	1503	1473	0	0	0	0	0	0	0	0	0	1053	1029	1028	1027	1036	1039	1046	1050	1055	1051	1049	1050	1058	1066	1073	1067	1058	1051	1057	1069	1030	1022	1018	1027	1032	1033	1025	1012	1003	1003	1009	1013	1022	1032	1039	1033	1022	1015	1014	1019	1079	1118	1172	1230	1249	1314	1350	1371	1373	1367	1365	1398	1417	1439	1448	1455	1438	1415	1394	1391	1406	1416	1416	1412	1413	1417	1417	1422	1426	1438	1449	1463	1465	1435	1420	1418	1432	1428	1405	1401	1405	1408	1411	1411	1414	1428	1434	1437	1424	1415	1411	1417	1415	1437	1454	1473	1475	1483	1497	1513	1505	1490	1476	1475	1478	1489	1496	1495	1497	1498	1490	1472	1472	1480	1483	1482	1467	1454	1453	1462	1463	1464	1463	1467	1472	1477	1487	1489	1490	1495	1493	1478	1462	1440	1427	1432	1442	1451	1455	1484	1484	1479	1469	1459	1461	1468	1478	1485	1490	1487	1485	1486	1491	1490	1488	1478	1475	1473	1479	1488	1493	1482	1468	1463	1466	1459	1444	1445	1449	1461	1469	1474	1469	1458	1458	1461	1467	1467	1467	1460	1460	1453	1448	1454	1457	1470	1483	1477	1463	1454	1460	1466	1472	1467	1463	1465	1463	1459	1461	1461	1467	1468	1475	1482	1484	1484	1466	1451	1435	1420	1428	1441	1447	1446	1446	1443	1433	1426	1427	1433	1433	0	0	0	0	0	0	0
0	0	0	0	0	0	0	0	0	0	0	0	0	0	0	0	0	0	0	0	0	0	0	0	0	0	0	0	0	0	0	0	0	0	0	0	0	0	0	0	0	0	0	0	0	0	0	0	0	0	0	0	0	0	0	0	0	0	0	0	0	0	0	0	0	0	0	0	0	0	0	0	0	0	0	0	0	0	0	0	0	0	0	0	0	0	0	0	0	0	0	0	0	1454	1480	1474	1471	1462	1453	1456	1469	1472	1463	1458	1459	1458	1453	1468	1472	1472	1497	1518	1494	1487	1469	1459	1457	1466	1476	1483	1490	1490	1480	1476	1460	1451	1455	1468	1481	1500	1516	1493	1488	1488	1480	1478	1467	1473	1475	1485	1491	1501	1500	1493	1481	1466	1474	1491	1498	1464	1452	1449	1463	1498	1517	1523	1505	1490	1470	1458	1455	1458	1455	1454	1457	1449	1452	1461	1473	1490	1507	1518	1510	1498	1490	1490	1504	1505	1494	1474	1463	1454	1455	1460	1455	1449	1451	1465	1492	1509	1520	1505	1456	1444	1443	1446	1460	1461	1455	1447	1450	1447	1453	1456	1459	1482	1480	1457	1452	1479	1481	1466	1445	1429	1417	1426	1439	1455	1445	1409	1365	1335	1311	1248	1154	1127	1112	1099	1091	1089	1092	1097	1098	1100	1078	1058	1049	1043	1040	1033	1042	1048	1051	1045	1048	1061	1083	1077	1070	1066	1063	1065	1065	1069	1071	1067	1076	1076	1080	1082	1087	1108	1122	1129	0	0	0	0	0	0	1323	1405	1438	1446	1454	1471	1503	1511	1493	1477	1464	1463	1495	1513	1515	1516	1515	1513	1501	1495	1498	1504	1503	1489	1478	1467	1470	1480	1490	1490	1487	1489	1500	1512	1534	1547	1543	1529	1516	1516	1510	1497	1483	1470	1461	1465	1464	1466	1466	1470	1469	1478	1487	1481	1449	1413	1395	1393	1412	1428	1438	1447	1444	1438	1437	1436	1450	1436	1457	1469	1491	1498	1503	1527	1527	1520	1527	1521	1504	1475	1460	1457	1445	1439	1435	1447	1456	1476	1496	1499	1497	1499	1505	1503	1497	1487	1479	1472	1473	1485	1508	1508	1503	1488	1479	1465	1462	1473	1494	1508	1506	1501	1503	1486	1476	1465	1469	1483	1496	1502	1500	1498	1487	1482	1481	1471	1483	1485	1475	1476	1488	1496	1486	0	0	0	0	0	0	0	0	0	0	1027	1012	1014	1017	1013	1026	1033	1040	1043	1043	1041	1046	1053	1057	1062	1062	1060	1045	1017	1005	996	1005	1017	1023	1020	1011	1005	1010	1021	1018	1020	1023	1028	0	0	0	0	1015	1011	1029	1040	1041	1073	1122	1180	1256	1332	1366	1370	1381	1412	1429	1450	1474	1482	1477	1443	1429	1437	1457	1470	1471	1446	1436	1433	1434	1441	1456	1466	1475	1484	1480	1450	1444	1455	1460	1452	1442	1430	1441	1447	1452	1444	1439	1452	1462	1470	1469	1456	1463	1485	1495	1506	1497	1482	1480	1482	1497	1510	1507	1489	1482	1469	1467	1474	1478	1484	1490	1493	1484	1479	1471	1475	1472	1482	1480	1472	1466	1456	1456	1459	1462	1466	1470	1468	1473	1469	1472	1472	1473	1470	1450	1438	1433	1444	1456	1462	1469	1478	1485	1478	1471	1469	1472	1479	1479	1478	1478	1474	1474	1483	1499	1501	1497	1485	1474	1471	1469	1473	1469	1471	1466	1461	1471	1457	1436	1435	1449	1456	1473	1466	1466	1463	1465	1463	1472	1485	1488	1486	1473	1464	1456	1452	1458	1466	1480	1481	1475	1473	1475	1477	1483	1476	1472	1472	1471	1455	1461	1461	1454	1453	1457	1464	1470	1471	1460	1448	1441	1441	1451	1446	1449	1448	1448	1440	1434	1428	1432	1440	1442	0	0	0	0	0	0	0
0	0	0	0	0	0	0	0	0	0	0	0	0	0	0	0	0	0	0	0	0	0	0	0	0	0	0	0	0	0	0	0	0	0	0	0	0	0	0	0	0	0	0	0	0	0	0	0	0	0	0	0	0	0	0	0	0	0	0	0	0	0	0	0	0	0	0	0	0	0	0	0	0	0	0	0	0	0	0	0	0	0	0	0	0	0	0	0	0	0	0	0	0	1441	1471	1474	1463	1451	1449	1450	1463	1469	1455	1451	1455	1452	1457	1463	1469	1473	1534	1538	1521	1481	1468	1463	1450	1455	1467	1478	1484	1477	1472	1464	1459	1453	1448	1437	1466	1477	1492	1494	1498	1505	1503	1483	1478	1472	1475	1482	1486	1481	1474	1469	1458	1453	1460	1475	1481	1464	1454	1460	1464	1492	1509	1510	1491	1470	1460	1447	1447	1458	1448	1446	1436	1442	1459	1470	1498	1508	1509	1514	1505	1493	1489	1483	1476	1473	1479	1480	1468	1458	1452	1455	1458	1472	1477	1496	1509	1518	1516	1502	1457	1461	1467	1477	1481	1479	1469	1474	1473	1489	1497	1490	1492	1497	1504	1492	1489	1487	1485	1474	1456	1434	1428	1425	1435	1435	1409	1346	1277	1227	1144	1138	1140	1127	1101	1077	1062	1060	1068	1079	1093	1093	1077	1063	1056	1052	1050	1032	1027	1035	1043	1044	1041	1037	1042	1042	1054	1046	1041	1043	1047	1061	1071	1067	1065	1056	1058	1063	1072	1095	1124	0	0	0	0	0	0	0	1347	1414	1438	1445	1453	1476	1493	1499	1483	1463	1450	1456	1484	1512	1512	1490	1481	1485	1494	1498	1511	1516	1505	1481	1465	1460	1465	1484	1494	1492	1491	1497	1503	1507	1506	1508	1507	1504	1496	1487	1487	1486	1502	1511	1519	1518	1517	1511	1501	1489	1496	1509	1492	1477	1466	1461	1454	1453	1457	1469	1478	1478	1468	1456	1454	1455	1461	1477	1469	1509	1491	1493	1503	1527	1525	1521	1526	1516	1516	1495	1488	1479	1472	1471	1479	1487	1490	1506	1507	1508	1510	1508	1499	1490	1489	1485	1485	1484	1489	1500	1497	1485	1477	1472	1466	1458	1465	1489	1498	1506	1508	1510	1506	1496	1481	1458	1461	1476	1489	1501	1492	1476	1473	1476	1475	1476	1487	1484	1481	1483	1488	1488	1468	0	0	0	0	0	0	0	0	0	0	1012	997	997	0	0	0	0	1034	1044	1037	1040	1047	1044	1051	1048	1043	1046	1039	1007	994	985	992	1002	1007	1007	1008	1008	1013	1013	1014	1011	1014	0	0	0	0	0	0	0	1019	1016	1016	1039	1067	1096	1115	1136	1226	1321	1391	1406	1425	1442	1474	1483	1485	1471	1456	1458	1479	1476	1474	1459	1455	1457	1456	1459	1476	1487	1491	1492	1484	1480	1489	1487	1488	1485	1467	1461	1471	1470	1469	1462	1446	1453	1462	1479	1493	1490	1496	1500	1506	1511	1499	1484	1476	1477	1491	1501	1502	1492	1477	1465	1463	1462	1466	1474	1483	1491	1491	1486	1479	1477	1476	1482	1482	1479	1484	1452	1443	1450	1458	1462	1462	1454	1455	1455	1452	1456	1462	1454	1448	1442	1444	1452	1461	1474	1477	1478	1477	1469	1469	1465	1472	1475	1472	1471	1462	1459	1467	1472	1487	1493	1494	1488	1478	1465	1462	1463	1466	1460	1466	1478	1472	1451	1434	1434	1438	1434	1456	1454	1460	1467	1470	1470	1482	1492	1499	1498	1484	1476	1468	1465	1471	1467	1474	1477	1477	1482	1485	1488	1486	1480	1476	1481	1475	1466	1466	1456	1445	1442	1447	1454	1456	1454	1451	1442	1448	1460	1464	1458	1447	1441	1441	1431	1429	1435	1444	1448	1440	0	0	0	0	0	0	0
0	0	0	0	0	0	0	0	0	0	0	0	0	0	0	0	0	0	0	0	0	0	0	0	0	0	0	0	0	0	0	0	0	0	0	0	0	0	0	0	0	0	0	0	0	0	0	0	0	0	0	0	0	0	0	0	0	0	0	0	0	0	0	0	0	0	0	0	0	0	0	0	0	0	0	0	0	0	0	0	0	0	0	0	0	0	0	0	0	0	0	0	0	1452	1453	1454	1452	1441	1438	1439	1448	1455	1451	1449	1453	1455	1448	1450	1456	1448	1450	1546	1480	1475	1469	1458	1453	1454	1474	1471	1472	1468	1462	1458	1470	1466	1457	1442	1469	1479	1486	1487	1499	1511	1512	1496	1475	1468	1469	1469	1469	1463	1457	1452	1445	1453	1459	1467	1476	1468	1460	1461	1473	1494	1505	1500	1485	1471	1456	1443	1438	1441	1438	1434	1432	1442	1463	1483	1503	1511	1513	1506	1498	1489	1489	1478	1471	1459	1462	1467	1455	1440	1442	1444	1448	1457	1471	1485	1499	1506	1514	1497	1473	1473	1477	1486	1488	1492	1476	1485	1485	1494	1505	1506	1500	1498	1492	1477	1471	1470	1477	1464	1453	1435	1420	1414	1407	1366	1232	1172	1137	1121	1125	1146	1132	1118	1088	1061	1042	1045	1052	1063	1072	1074	1063	1053	1054	1060	1052	1026	1018	1023	1031	1030	1024	1013	1015	1014	1018	1010	1026	1021	1024	1034	1052	1059	1058	1053	1048	1052	1067	1088	0	0	0	0	0	0	0	0	1371	1424	1448	1457	1463	1481	1488	1489	1476	1465	1454	1455	1480	1494	1485	1474	1475	1483	1494	1508	1517	1518	1501	1480	1456	1449	1464	1482	1492	1494	1494	1494	1501	1499	1496	1494	1496	1501	1492	1476	1475	1479	1493	1506	1522	1522	1521	1494	1474	1476	1482	1504	1498	1486	1476	1467	1465	1463	1456	1459	1478	1480	1476	1469	1463	1452	1451	1470	1468	1476	1505	1490	1488	1472	1458	1485	1491	1492	1498	1500	1487	1484	1477	1473	1481	1488	1494	1499	1497	1501	1497	1501	1489	1472	1473	1483	1496	1507	1505	1492	1486	1472	1463	1458	1458	1461	1484	1498	1505	1501	1491	1498	1508	1502	1475	1454	1451	1462	1481	1489	1481	1468	1462	1472	1479	1480	1480	1481	1484	1485	1487	1469	1449	1403	0	0	0	0	0	0	0	0	0	987	983	0	0	0	0	0	0	0	0	0	1050	1051	0	0	0	0	0	1017	993	980	984	993	1004	1013	1010	1015	0	0	1000	999	1003	0	0	0	0	0	0	0	0	0	0	1034	1043	1056	1066	1077	1100	1126	1168	1349	1385	1398	1424	1445	1462	1472	1461	1468	1457	1460	1463	1465	1468	1469	1468	1474	1489	1494	1501	1496	1490	1495	1497	1492	1490	1480	1472	1470	1471	1477	1473	1465	1453	1450	1465	1477	1500	1493	1500	1504	1511	1502	1488	1482	1473	1478	1491	1495	1502	1490	1479	1471	1467	1463	1459	1463	1467	1475	1486	1486	1483	1479	1476	1471	1482	1498	1496	1453	1442	1442	1455	1461	1458	1450	1450	1449	1450	1450	1456	1457	1457	1452	1452	1449	1453	1463	1480	1477	1470	1463	1456	1458	1459	1468	1464	1457	1457	1454	1458	1464	1473	1479	1484	1488	1481	1471	1459	1460	1456	1468	1489	1483	1468	1447	1434	1428	1425	1424	1427	1429	1449	1462	1468	1471	1478	1484	1489	1488	1487	1478	1476	1468	1472	1467	1459	1464	1473	1473	1478	1478	1481	1476	1479	1482	1481	1466	1466	1453	1447	1439	1441	1450	1454	1452	1447	1449	1462	1470	1482	1461	1447	1440	1440	1435	1437	1443	1450	1441	1435	0	0	0	0	0	0	0
0	0	0	0	0	0	0	0	0	0	0	0	0	0	0	0	0	0	0	0	0	0	0	0	0	0	0	0	0	0	0	0	0	0	0	0	0	0	0	0	0	0	0	0	0	0	0	0	0	0	0	0	0	0	0	0	0	0	0	0	0	0	0	0	0	0	0	0	0	0	0	0	0	0	0	0	0	0	0	0	0	0	0	0	0	0	0	0	0	0	0	0	0	1452	1435	1439	1443	1438	1426	1425	1434	1449	1460	1456	1458	1458	1444	1441	1439	1436	1429	1457	1471	1467	1460	1452	1449	1455	1473	1472	1464	1459	1454	1479	1494	1489	1478	1476	1478	1483	1487	1482	1495	1512	1510	1489	1468	1452	1455	1450	1448	1454	1449	1446	1447	1450	1451	1462	1465	1460	1455	1462	1482	1498	1503	1488	1479	1473	1458	1449	1441	1431	1430	1430	1435	1447	1465	1489	1495	1504	1502	1499	1488	1486	1482	1475	1468	1457	1456	1454	1443	1435	1436	1437	1448	1454	1464	1465	1482	1499	1500	1494	1479	1484	1482	1489	1497	1504	1511	1497	1485	1489	1507	1515	1510	1498	1485	1466	1461	1462	1463	1451	1428	1395	1367	1329	1294	1235	1197	1185	0	0	1157	1141	1138	1098	1077	1051	1033	1033	1036	1044	1051	1054	1048	1041	1041	1036	1022	1011	1009	1014	1015	1009	1002	998	999	998	1004	1000	995	983	999	1009	1033	1056	1056	1047	1041	1046	1061	0	0	0	0	0	0	0	0	1360	1422	1450	1457	1462	1470	1484	1484	1484	1478	1464	1454	1467	1484	1488	1477	1472	1475	1482	1493	1506	1514	1514	1499	1477	1459	1453	1474	1485	1495	1493	1489	1494	1499	1497	1489	1490	1496	1497	1485	1469	1467	1474	1496	1507	1514	1506	1489	1473	1464	1465	1485	1499	1496	1488	1484	1481	1479	1474	1470	1463	1476	1491	1491	1479	1465	1452	1446	1441	1443	1452	1463	1462	1465	1454	1447	1458	1476	1495	1502	1492	1488	1483	1478	1474	1473	1475	1492	1484	1487	1484	1480	1472	1464	1461	1459	1464	1476	1500	1498	1482	1473	1463	1460	1462	1475	1486	1502	1505	1497	1482	1474	1489	1507	1501	1474	1457	1450	1457	1475	1499	1487	1473	1473	1482	1483	1475	1469	1476	1483	1493	1481	1474	1456	1436	1383	0	0	0	0	0	0	0	0	0	0	0	0	0	0	0	0	0	0	0	0	0	0	0	0	0	0	0	0	0	0	0	0	0	0	0	0	0	0	983	0	0	0	0	0	0	0	0	0	0	0	0	0	1041	1045	1050	1061	1065	1074	1075	1176	1334	1382	1402	1432	1467	1473	1459	1450	1449	1456	1472	1483	1485	1485	1498	1501	1515	1518	1506	1498	1503	1499	1491	1483	1472	1469	1462	1465	1468	1464	1459	1456	1459	1463	1489	1486	1493	1501	1499	1502	1489	1471	1466	1471	1475	1482	1494	1495	1501	1485	1487	1482	1469	1453	1452	1463	1469	1473	1482	1485	1485	1479	1482	1489	1495	1488	1443	1438	1447	1461	1468	1464	1456	1455	1456	1458	1461	1461	1471	1476	1476	1458	1443	1442	1459	1473	1478	1464	1451	1443	1443	1445	1447	1452	1456	1462	1462	1460	1458	1462	1473	1484	1492	1484	1474	1458	1451	1464	1479	1485	1475	1462	1448	1443	1437	1424	1417	1416	1425	1443	1453	1456	1466	1463	1469	1476	1488	1486	1483	1478	1470	1461	1448	1448	1455	1463	1464	1459	1453	1454	1460	1468	1480	1479	1463	1463	1451	1444	1438	1441	1451	1463	1460	1461	1461	1471	1470	1468	1453	1442	1442	1442	1451	1446	1442	1444	1435	1425	0	0	0	0	0	0	0
0	0	0	0	0	0	0	0	0	0	0	0	0	0	0	0	0	0	0	0	0	0	0	0	0	0	0	0	0	0	0	0	0	0	0	0	0	0	0	0	0	0	0	0	0	0	0	0	0	0	0	0	0	0	0	0	0	0	0	0	0	0	0	0	0	0	0	0	0	0	0	0	0	0	0	0	0	0	0	0	0	0	0	0	0	0	0	0	0	0	0	0	0	1448	1434	1437	1439	1441	1429	1419	1424	1448	1472	1483	1482	1475	1452	1441	1439	1432	1426	1424	1437	1445	1442	1442	1447	1458	1471	1467	1455	1448	1467	1488	1498	1499	1497	1491	1488	1490	1485	1480	1491	1502	1503	1486	1461	1447	1442	1439	1437	1452	1457	1448	1446	1437	1441	1452	1458	1460	1455	1469	1490	1495	1499	1491	1482	1478	1473	1466	1455	1443	1438	1437	1444	1455	1472	1477	1482	1486	1483	1483	1476	1476	1477	1475	1468	1463	1453	1453	1449	1447	1443	1445	1457	1468	1464	1466	1471	1482	1489	1485	1489	1486	1479	1478	1490	1500	1508	1503	1494	1493	1503	1511	1509	1489	1479	1459	1448	1447	1432	1407	1365	1345	1318	1293	1253	1217	1195	0	0	0	0	0	1114	1078	1059	0	1028	1029	1025	1033	1040	1041	1039	1021	1016	1006	1001	991	998	994	992	985	994	1001	0	0	1020	1006	0	0	0	0	1015	1038	1046	0	0	0	0	0	0	0	0	0	0	0	1348	1423	1446	1452	1444	1449	1463	1477	1486	1490	1486	1481	1480	1477	1485	1495	1498	1493	1485	1486	1484	1479	1478	1482	1484	1496	1510	1517	1521	1519	1522	1515	1511	1504	1500	1490	1481	1481	1489	1499	1488	1485	1483	1499	1492	1490	1490	1497	1495	1480	1473	1474	1481	1483	1485	1489	1491	1490	1482	1475	1467	1467	1468	1490	1495	1484	1462	1449	1440	1445	1454	1459	1459	1451	1451	1453	1455	1463	1479	1491	1503	1499	1498	1489	1482	1475	1470	1471	1479	1479	1480	1478	1478	1473	1469	1464	1463	1462	1475	1483	1483	1474	1472	1468	1476	1477	1488	1504	1506	1498	1473	1461	1472	1497	1507	1501	1471	1459	1453	1464	1492	1512	1518	1501	1502	1500	1492	1472	1462	1478	1495	1502	1501	1484	1471	1463	1417	0	0	0	0	0	0	0	0	0	0	0	0	0	0	0	0	0	0	0	0	0	0	0	0	0	0	0	0	0	0	0	0	0	0	0	0	0	0	0	0	0	0	0	0	0	0	0	0	0	0	0	0	1025	1026	1020	1015	1017	1026	1029	1023	1055	1102	1249	1378	1443	1452	1442	1439	1440	1453	1474	1504	1524	1526	1514	1507	1516	1518	1512	1511	1520	1508	1485	1475	1466	1465	1464	1455	1447	1446	1447	1454	1461	1458	1472	1483	1494	1498	1500	1487	1473	1467	1462	1475	1478	1479	1484	1494	1505	1503	1493	1484	1473	1458	1448	1464	1461	1473	1480	1493	1494	1498	1497	1488	1479	1451	1443	1446	1462	1475	1477	1472	1468	1467	1458	1455	1457	1464	1475	1479	1479	1455	1435	1438	1456	1474	1472	1460	1450	1444	1440	1440	1445	1450	1468	1469	1473	1461	1452	1459	1471	1475	1480	1472	1462	1448	1448	1458	1474	1485	1470	1464	1461	1459	1452	1435	1426	1418	1432	1451	1457	1462	1466	1460	1464	1473	1485	1485	1484	1476	1470	1458	1441	1436	1449	1456	1452	1443	1436	1436	1442	1452	1463	1475	1473	1473	1460	1451	1450	1452	1457	1459	1464	1464	1454	1459	1458	1450	1444	1439	1439	1454	1460	1450	1437	1423	1424	1412	0	0	0	0	0	0	0
0	0	0	0	0	0	0	0	0	0	0	0	0	0	0	0	0	0	0	0	0	0	0	0	0	0	0	0	0	0	0	0	0	0	0	0	0	0	0	0	0	0	0	0	0	0	0	0	0	0	0	0	0	0	0	0	0	0	0	0	0	0	0	0	0	0	0	0	0	0	0	0	0	0	0	0	0	0	0	0	0	0	0	0	0	0	0	0	0	0	0	0	0	1459	1449	1460	1459	1449	1439	1431	1427	1435	1448	1468	1499	1519	1501	1472	1460	1450	1447	1445	1444	1429	1419	1422	1435	1441	1449	1451	1456	1464	1462	1459	1473	1481	1494	1496	1496	1491	1486	1496	1509	1508	1518	1517	1508	1485	1460	1435	1438	1439	1444	1434	1435	1431	1438	1442	1458	1471	1485	1495	1493	1493	1490	1492	1493	1489	1489	1480	1474	1471	1461	1456	1455	1465	1473	1473	1475	1477	1477	1471	1466	1471	1472	1480	1478	1475	1457	1457	1457	1455	1455	1466	1486	1486	1480	1464	1460	1464	1473	1479	1484	1481	1472	1471	1485	1475	1487	1494	1480	1476	1486	1498	1493	1484	1461	1441	1434	1397	1346	1298	1287	1275	1272	1253	1228	1194	1175	1171	0	0	0	0	0	1057	1043	0	1028	1014	1013	1018	1026	1035	1023	1000	980	969	968	970	973	973	973	977	989	999	0	0	1021	1004	0	0	0	0	0	0	0	0	0	0	0	0	0	0	0	0	0	1353	1434	1469	1468	1460	1444	1454	1469	1483	1488	1487	1482	1478	1478	1483	1490	1495	1502	1499	1496	1487	1483	1479	1479	1479	1484	1488	1513	1524	1525	1522	1516	1515	1506	1497	1486	1477	1474	1473	1482	1491	1487	1485	1497	1499	1495	1487	1491	1492	1496	1501	1491	1490	1479	1474	1469	1479	1496	1494	1480	1465	1463	1466	1473	1482	1492	1481	1464	1451	1450	1451	1456	1464	1468	1458	1450	1448	1455	1465	1481	1493	1501	1499	1492	1495	1482	1475	1475	1478	1463	1467	1474	1472	1475	1475	1474	1471	1470	1479	1489	1490	1481	1480	1477	1481	1486	1493	1493	1510	1510	1492	1467	1455	1475	1496	1510	1500	1472	1468	1475	1485	1500	1514	1526	1533	1535	1527	1508	1482	1466	1479	1502	1509	1506	1500	1486	1487	1491	0	0	0	0	0	0	0	0	0	0	0	0	0	0	0	957	956	966	966	960	963	968	968	965	962	943	945	935	934	939	939	0	0	969	971	970	0	0	0	0	0	0	0	0	0	0	0	0	0	1013	1003	997	961	966	970	978	982	988	990	986	992	1013	1050	1103	1310	1408	1416	1430	1431	1444	1470	1499	1523	1521	1512	1507	1507	1508	1510	1519	1521	1511	1483	1475	1473	1468	1468	1447	1427	1422	1427	1457	1466	1461	1473	1482	1491	1495	1492	1485	1475	1475	1480	1489	1492	1481	1477	1488	1491	1489	1484	1480	1472	1461	1462	1461	1464	1464	1469	1480	1496	1504	1512	1514	1494	1433	1434	1447	1485	1494	1487	1482	1483	1472	1455	1442	1439	1446	1457	1469	1467	1446	1442	1450	1468	1473	1459	1449	1446	1451	1450	1454	1457	1461	1465	1480	1480	1467	1456	1463	1468	1466	1461	1444	1438	1430	1428	1437	1457	1480	1468	1473	1489	1481	1469	1447	1434	1431	1441	1459	1468	1474	1477	1473	1473	1471	1480	1481	1476	1473	1465	1450	1440	1428	1442	1443	1438	1434	1426	1428	1434	1441	1451	1469	1474	1474	1469	1469	1471	1467	1466	1459	1460	1457	1448	1448	1441	1436	1435	1441	1441	1455	1461	1448	1432	1417	1413	1402	0	0	0	0	0	0	0
0	0	0	0	0	0	0	0	0	0	0	0	0	0	0	0	0	0	0	0	0	0	0	0	0	0	0	0	0	0	0	0	0	0	0	0	0	0	0	0	0	0	0	0	0	0	0	0	0	0	0	0	0	0	0	0	0	0	0	0	0	0	0	0	0	0	0	0	0	0	0	0	0	0	0	0	0	0	0	0	0	0	0	0	0	0	0	0	0	0	0	0	0	1520	1489	1469	1456	1440	1437	1434	1423	1424	1442	1464	1493	1515	1509	1488	1470	1462	1463	1472	1457	1436	1421	1423	1434	1439	1451	1463	1473	1470	1465	1454	1452	1466	1484	1493	1491	1491	1491	1502	1507	1506	1510	1515	1509	1485	1459	1441	1437	1444	1451	1442	1442	1436	1438	1449	1462	1494	1513	1505	1488	1475	1476	1471	1474	1482	1488	1499	1496	1494	1486	1477	1470	1470	1473	1466	1471	1475	1482	1477	1461	1463	1472	1484	1488	1484	1466	1465	1463	1466	1464	1489	1506	1500	1480	1467	1454	1455	1465	1472	1476	1472	1462	1454	1442	1449	1453	1469	1459	1447	1456	1475	1485	1466	1427	1367	1207	1189	1217	1223	1221	1220	1209	1203	1181	1157	1142	1145	1139	1123	0	0	0	1040	1019	1015	1010	1004	997	992	996	1001	992	973	953	943	953	957	953	955	945	949	965	975	1002	1013	1012	998	992	0	0	0	0	0	0	0	0	0	0	0	0	0	0	0	1372	1432	1468	1481	1483	1471	1463	1465	1474	1485	1495	1490	1478	1476	1481	1480	1487	1494	1505	1506	1502	1503	1502	1490	1485	1480	1481	1490	1496	1510	1514	1508	1508	1506	1500	1492	1479	1472	1467	1464	1468	1491	1485	1479	1484	1492	1495	1488	1485	1490	1498	1518	1503	1503	1489	1473	1465	1480	1493	1490	1468	1456	1456	1466	1475	1488	1496	1490	1478	1468	1461	1460	1473	1484	1480	1474	1457	1451	1458	1472	1485	1497	1500	1494	1489	1485	1474	1471	1470	1465	1457	1460	1463	1466	1474	1478	1484	1480	1478	1476	1503	1503	1496	1488	1488	1489	1491	1501	1510	1510	1505	1490	1466	1452	1466	1494	1509	1503	1489	1484	1490	1499	1497	1511	1517	1527	1535	1521	1511	1487	1467	1478	1498	1509	1510	1498	1492	1492	1499	1488	0	0	0	0	0	0	0	0	0	0	0	0	0	0	937	929	939	942	941	940	932	930	936	941	936	928	932	931	930	931	925	928	927	931	921	924	935	941	958	969	980	976	972	951	924	931	951	955	944	920	915	929	940	946	954	961	963	955	959	974	987	997	1019	1104	1187	1290	1372	1410	1431	1457	1482	1491	1487	1480	1482	1491	1483	1489	1512	1517	1508	1487	1482	1488	1478	1458	1438	1408	1402	1423	1458	1463	1473	1486	1488	1491	1493	1487	1487	1487	1492	1500	1512	1498	1485	1477	1478	1483	1470	1474	1472	1475	1483	1476	1473	1463	1451	1451	1458	1473	1496	1508	1512	1489	1431	1424	1446	1491	1497	1485	1486	1483	1468	1460	1444	1445	1450	1453	1454	1448	1445	1449	1457	1474	1475	1460	1446	1450	1448	1460	1468	1476	1488	1481	1466	1467	1470	1478	1488	1491	1485	1470	1450	1434	1428	1423	1434	1459	1482	1497	1498	1502	1500	1472	1447	1431	1435	1451	1472	1481	1490	1496	1491	1483	1470	1470	1466	1464	1467	1456	1444	1436	1431	1438	1437	1435	1430	1434	1435	1438	1442	1448	1464	1464	1469	1469	1477	1483	1477	1474	1463	1455	1451	1453	1442	1437	1435	1441	1451	1451	1454	1463	1449	1439	1439	1414	1385	0	0	0	0	0	0	0
0	0	0	0	0	0	0	0	0	0	0	0	0	0	0	0	0	0	0	0	0	0	0	0	0	0	0	0	0	0	0	0	0	0	0	0	0	0	0	0	0	0	0	0	0	0	0	0	0	0	0	0	0	0	0	0	0	0	0	0	0	0	0	0	0	0	0	0	0	0	0	0	0	0	0	0	0	0	0	0	0	0	0	0	0	0	0	0	0	0	0	0	0	1524	1491	1464	1443	1441	1439	1437	1436	1439	1443	1465	1482	1485	1504	1498	1483	1480	1490	1484	1468	1443	1439	1437	1448	1453	1468	1476	1484	1486	1490	1466	1456	1460	1473	1483	1483	1484	1491	1496	1493	1492	1489	1486	1484	1475	1457	1449	1454	1468	1473	1469	1471	1476	1460	1447	1455	1496	1498	1477	1448	1433	1424	1422	1458	1475	1498	1522	1518	1509	1497	1489	1478	1474	1468	1459	1456	1462	1476	1467	1461	1462	1468	1478	1489	1486	1477	1473	1471	1477	1485	1502	1512	1505	1477	1468	1468	1466	1468	1471	1471	1462	1455	1444	1436	1434	1434	1436	1428	1419	1427	1421	1402	1336	1234	1183	1115	1129	1157	1158	1150	1141	1145	1145	1126	1113	1102	1102	1101	1086	0	0	0	1008	984	973	973	981	976	967	959	956	946	946	940	943	951	954	945	938	931	934	948	958	973	978	983	987	997	0	0	0	0	0	0	0	0	0	0	0	0	0	0	1313	1405	1432	1471	1478	1491	1477	1477	1479	1483	1491	1495	1487	1480	1481	1479	1480	1479	1493	1499	1478	1470	1497	1506	1508	1492	1485	1486	1490	1492	1496	1493	1492	1492	1497	1496	1490	1479	1474	1468	1462	1471	1499	1512	1518	1508	1514	1513	1512	1489	1490	1501	1514	1515	1499	1487	1483	1478	1486	1490	1480	1464	1456	1459	1473	1481	1497	1504	1502	1496	1490	1481	1482	1488	1493	1499	1490	1480	1466	1470	1480	1489	1497	1497	1485	1480	1477	1483	1478	1476	1462	1457	1456	1462	1464	1458	1470	1491	1487	1474	1487	1502	1516	1512	1505	1496	1481	1480	1487	1506	1511	1506	1486	1463	1450	1456	1492	1510	1508	1501	1498	1499	1496	1487	1488	1495	1506	1513	1505	1495	1473	1462	1472	1485	1499	1501	1499	1493	1492	1493	1494	1457	0	0	0	0	0	0	0	0	0	0	0	0	0	0	911	920	926	923	915	914	913	926	932	927	923	927	925	922	919	912	901	904	907	903	896	900	913	929	940	944	945	942	922	912	917	932	932	920	903	905	909	916	927	934	939	933	932	939	953	958	966	1003	1021	1047	1095	1153	1306	1393	1435	1458	1463	1459	1460	1463	1466	1467	1470	1491	1502	1499	1492	1491	1496	1483	1469	1441	1417	1402	1441	1456	1466	1480	1496	1495	1486	1481	1481	1489	1500	1507	1518	1519	1512	1494	1482	1477	1474	1465	1475	1471	1481	1493	1489	1472	1457	1445	1442	1444	1455	1460	1471	1483	1481	1451	1432	1441	1455	1462	1468	1477	1475	1469	1460	1460	1457	1471	1471	1466	1452	1440	1438	1440	1453	1470	1461	1448	1439	1441	1446	1458	1474	1483	1487	1455	1447	1454	1472	1487	1497	1493	1477	1461	1443	1442	1440	1448	1465	1496	1513	1504	1500	1495	1489	1477	1459	1438	1455	1475	1491	1496	1500	1493	1476	1462	1447	1460	1460	1459	1454	1446	1436	1437	1438	1430	1426	1427	1435	1443	1454	1456	1464	1475	1475	1471	1476	1485	1486	1491	1484	1475	1470	1475	1465	1452	1437	1441	1456	1466	1466	1461	1463	1461	1459	1458	1416	1385	0	0	0	0	0	0	0
0	0	0	0	0	0	0	0	0	0	0	0	0	0	0	0	0	0	0	0	0	0	0	0	0	0	0	0	0	0	0	0	0	0	0	0	0	0	0	0	0	0	0	0	0	0	0	0	0	0	0	0	0	0	0	0	0	0	0	0	0	0	0	0	0	0	0	0	0	0	0	0	0	0	0	0	0	0	0	0	0	0	0	0	0	0	0	0	0	0	0	0	0	1520	1489	1471	1457	1446	1454	1467	1458	1455	1465	1465	1468	1486	1489	1486	1481	1475	1470	1478	1466	1461	1456	1459	1462	1472	1481	1485	1493	1504	1505	1493	1467	1469	1475	1482	1478	1476	1471	1470	1474	1470	1465	1464	1463	1464	1459	1466	1483	1490	1486	1482	1483	1477	1464	1453	1456	1471	1481	1475	1451	1442	1431	1422	1427	1455	1497	1515	1522	1513	1499	1485	1473	1465	1456	1450	1439	1439	1425	1448	1454	1459	1465	1480	1483	1484	1486	1483	1488	1485	1491	1506	1508	1499	1479	1469	1475	1472	1467	1467	1466	1453	1444	1439	1424	1408	1402	1397	1392	1369	1311	1225	1178	1114	1081	1072	1071	1078	1103	1106	1096	1091	1095	1105	1090	1080	1072	1071	1069	1061	0	0	1020	987	970	964	965	968	967	955	944	932	927	932	934	940	947	955	950	938	935	932	939	948	945	937	942	0	0	0	0	0	0	0	0	0	0	0	0	0	0	0	0	1370	1425	1440	1447	1479	1486	1486	1481	1479	1478	1489	1493	1490	1485	1485	1487	1485	1484	1489	1464	1461	1490	1490	1515	1523	1517	1492	1492	1493	1493	1490	1481	1477	1485	1493	1497	1489	1485	1480	1472	1461	1500	1516	1525	1526	1512	1472	1464	1505	1503	1506	1506	1515	1519	1505	1510	1499	1489	1483	1478	1473	1465	1464	1470	1481	1496	1503	1504	1511	1510	1504	1497	1497	1518	1516	1508	1498	1483	1478	1479	1488	1496	1494	1494	1487	1477	1475	1487	1490	1485	1477	1461	1464	1461	1464	1458	1459	1465	1473	1484	1498	1525	1527	1520	1502	1487	1472	1464	1476	1499	1520	1520	1506	1481	1452	1456	1479	1501	1508	1511	1511	1511	1491	1484	1479	1478	1478	1482	1485	1479	1461	1461	1469	1478	1492	1500	1499	1489	1480	1481	1481	1470	1430	0	0	0	0	0	0	0	0	0	0	0	0	0	905	913	914	911	898	894	890	915	921	913	909	918	915	908	903	897	882	893	895	888	878	875	887	900	913	917	917	914	903	899	900	902	910	904	898	897	899	901	903	907	910	911	916	924	933	939	942	971	986	989	990	988	1030	1105	1175	1375	1420	1421	1432	1443	1449	1452	1463	1485	1483	1484	1488	1490	1495	1485	1475	1466	1445	1442	1456	1470	1475	1478	1493	1493	1475	1465	1470	1486	1504	1509	1509	1508	1498	1498	1491	1475	1473	1480	1473	1473	1480	1489	1499	1491	1465	1453	1455	1458	1466	1469	1469	1480	1479	1470	1463	1465	1456	1449	1447	1461	1471	1469	1463	1462	1464	1482	1477	1464	1453	1440	1431	1429	1443	1464	1466	1451	1436	1432	1439	1445	1457	1470	1475	1451	1434	1441	1463	1484	1490	1486	1475	1459	1442	1446	1446	1450	1465	1490	1494	1489	1482	1487	1485	1484	1469	1464	1466	1463	1473	1469	1461	1467	1456	1451	1450	1460	1460	1459	1460	1462	1457	1453	1442	1429	1420	1425	1433	1446	1463	1479	1494	1497	1497	1497	1492	1481	1483	1484	1483	1477	1474	1477	1465	1447	1436	1439	1458	1469	1469	1473	1472	1472	1473	1473	1440	1393	0	0	0	0	0	0	0
0	0	0	0	0	0	0	0	0	0	0	0	0	0	0	0	0	0	0	0	0	0	0	0	0	0	0	0	0	0	0	0	0	0	0	0	0	0	0	0	0	0	0	0	0	0	0	0	0	0	0	0	0	0	0	0	0	0	0	0	0	0	0	0	0	0	0	0	0	0	0	0	0	0	0	0	0	0	0	0	0	0	0	0	0	0	0	0	0	0	0	0	0	1506	1502	1479	1473	1478	1488	1486	1478	1467	1467	1474	1467	1471	1478	1477	1469	1464	1461	1461	1464	1457	1459	1468	1471	1475	1484	1486	1494	1502	1500	1493	1480	1474	1483	1492	1483	1473	1454	1450	1457	1458	1450	1452	1457	1459	1465	1471	1485	1488	1483	1481	1473	1468	1459	1448	1442	1448	1461	1462	1463	1456	1444	1426	1431	1451	1489	1503	1518	1527	1526	1539	1531	1495	1470	1470	1437	1432	1416	1441	1462	1471	1471	1476	1477	1483	1487	1499	1499	1491	1494	1499	1506	1502	1484	1470	1479	1478	1482	1473	1452	1442	1445	1441	1417	1384	1357	1306	1251	1225	1164	1090	1072	1067	1056	1042	1034	1045	1062	1067	1066	1067	1077	1077	1078	1067	1057	1048	1044	1044	1037	1027	1009	993	979	968	965	964	971	961	943	931	925	926	930	942	947	953	960	952	941	937	941	937	929	906	0	0	0	0	0	0	0	0	0	0	0	0	0	1326	1396	1465	1425	1438	1437	1449	1452	1455	1487	1492	1489	1478	1480	1491	1500	1498	1490	1487	1490	1502	1500	1494	1474	1474	1485	1480	1491	1530	1523	1496	1488	1487	1491	1489	1480	1477	1485	1497	1499	1494	1490	1485	1484	1475	1528	1519	1545	1544	1504	1511	1469	1460	1500	1509	1505	1501	1503	1498	1506	1496	1488	1484	1477	1474	1470	1475	1483	1492	1498	1506	1511	1524	1524	1503	1500	1511	1518	1514	1504	1493	1485	1488	1501	1511	1517	1523	1504	1494	1490	1490	1494	1500	1505	1494	1488	1486	1479	1475	1461	1453	1458	1471	1485	1512	1523	1523	1511	1494	1479	1458	1451	1460	1495	1529	1538	1523	1496	1458	1454	1464	1488	1503	1509	1507	1503	1489	1490	1485	1483	1472	1464	1460	1456	1469	1471	1474	1485	1494	1507	1506	1490	1475	1472	1477	1489	1446	0	0	0	0	0	0	0	0	0	0	0	0	0	0	916	912	893	885	874	874	890	901	902	900	902	898	892	885	877	876	881	881	872	865	862	868	881	894	904	899	891	884	879	879	879	882	885	896	901	894	884	882	882	885	892	897	907	920	926	929	943	957	949	935	938	959	977	1006	1063	1250	1345	1373	1398	1427	1442	1459	1474	1470	1470	1481	1489	1491	1489	1486	1480	1461	1458	1473	1496	1505	1497	1498	1495	1464	1459	1461	1474	1480	1486	1486	1482	1485	1488	1487	1465	1459	1482	1479	1491	1492	1492	1489	1487	1480	1485	1473	1462	1475	1475	1477	1489	1500	1495	1497	1488	1472	1459	1457	1469	1477	1473	1468	1464	1465	1479	1475	1461	1444	1429	1420	1431	1444	1461	1475	1461	1443	1433	1433	1439	1451	1465	1462	1455	1434	1442	1461	1474	1475	1474	1459	1446	1442	1446	1452	1446	1459	1465	1469	1461	1464	1473	1478	1483	1489	1480	1474	1462	1459	1454	1447	1444	1436	1440	1447	1449	1457	1464	1469	1477	1480	1466	1448	1430	1423	1421	1433	1453	1468	1488	1501	1507	1507	1507	1495	1485	1473	1476	1468	1463	1462	1470	1464	1450	1439	1442	1456	1484	1484	1490	1481	1484	1490	1490	1494	0	0	0	0	0	0	0	0
0	0	0	0	0	0	0	0	0	0	0	0	0	0	0	0	0	0	0	0	0	0	0	0	0	0	0	0	0	0	0	0	0	0	0	0	0	0	0	0	0	0	0	0	0	0	0	0	0	0	0	0	0	0	0	0	0	0	0	0	0	0	0	0	0	0	0	0	0	0	0	0	0	0	0	0	0	0	0	0	0	0	0	0	0	0	0	0	0	0	0	0	0	1494	1504	1495	1492	1494	1499	1491	1479	1469	1468	1470	1466	1469	1467	1465	1463	1463	1459	1448	1456	1449	1451	1457	1465	1468	1476	1483	1489	1492	1489	1485	1470	1477	1484	1503	1504	1486	1462	1447	1445	1447	1450	1452	1458	1464	1475	1477	1480	1483	1475	1468	1453	1444	1440	1435	1429	1438	1447	1452	1446	1451	1453	1443	1436	1453	1475	1494	1508	1525	1524	1534	1528	1509	1496	1481	1474	1473	1471	1476	1469	1477	1470	1471	1472	1481	1485	1488	1493	1493	1488	1500	1517	1515	1498	1481	1466	1470	1471	1463	1449	1427	1440	1437	1385	1310	1221	1123	1101	1093	1079	1072	1066	1059	1052	1032	1018	1026	1045	1055	1054	1059	1067	1070	1075	1061	1043	1034	1029	1035	1041	1023	996	978	989	987	981	988	0	0	956	944	938	938	928	931	937	955	968	963	953	937	936	929	914	903	0	0	0	0	0	0	0	0	0	0	0	0	1343	1403	1473	1472	1460	1455	1448	1448	1460	1464	1498	1500	1490	1480	1482	1492	1505	1500	1491	1488	1496	1517	1515	1508	1487	1480	1475	1481	1489	1539	1516	1497	1485	1482	1485	1493	1487	1487	1494	1502	1503	1494	1492	1494	1495	1496	1501	1511	1549	1549	1539	1498	1478	1477	1500	1501	1494	1491	1483	1487	1490	1493	1490	1487	1483	1487	1499	1494	1496	1479	1483	1505	1522	1541	1542	1520	1519	1512	1508	1504	1503	1490	1482	1493	1507	1523	1518	1514	1495	1492	1498	1501	1505	1518	1511	1519	1517	1501	1492	1483	1477	1469	1473	1486	1495	1507	1511	1507	1497	1491	1482	1469	1455	1463	1497	1539	1545	1529	1503	1464	1467	1474	1485	1494	1504	1500	1488	1490	1484	1488	1482	1473	1462	1460	1458	1473	1484	1489	1496	1506	1513	1508	1491	1477	1474	1478	1497	1503	1432	0	0	0	0	0	0	0	0	0	0	0	0	0	931	898	875	856	846	854	863	883	883	884	884	877	874	873	872	868	869	864	861	860	859	866	882	898	902	897	881	868	862	857	856	859	874	889	897	890	880	872	872	871	876	889	903	918	924	919	917	917	910	897	896	918	942	957	957	981	1013	1110	1236	1363	1418	1447	1457	1450	1454	1469	1478	1484	1487	1496	1492	1481	1475	1491	1511	1525	1519	1508	1495	1472	1461	1454	1451	1460	1464	1461	1475	1485	1494	1496	1473	1454	1482	1494	1497	1496	1487	1476	1475	1479	1481	1475	1467	1470	1478	1484	1493	1501	1509	1517	1509	1496	1484	1487	1499	1499	1486	1475	1460	1465	1477	1475	1457	1441	1430	1430	1432	1449	1486	1489	1484	1466	1441	1431	1433	1444	1459	1468	1459	1456	1455	1463	1463	1460	1455	1448	1439	1445	1448	1448	1444	1443	1441	1442	1443	1444	1461	1481	1492	1499	1484	1473	1464	1459	1451	1452	1451	1450	1449	1450	1445	1443	1448	1464	1483	1486	1475	1455	1445	1433	1436	1445	1457	1478	1485	1495	1500	1500	1503	1496	1470	1472	1467	1470	1467	1470	1472	1471	1464	1452	1448	1471	1471	1495	1497	1492	1489	1492	1508	1518	0	0	0	0	0	0	0	0
0	0	0	0	0	0	0	0	0	0	0	0	0	0	0	0	0	0	0	0	0	0	0	0	0	0	0	0	0	0	0	0	0	0	0	0	0	0	0	0	0	0	0	0	0	0	0	0	0	0	0	0	0	0	0	0	0	0	0	0	0	0	0	0	0	0	0	0	0	0	0	0	0	0	0	0	0	0	0	0	0	0	0	0	0	0	0	0	0	0	0	0	0	1471	1496	1493	1495	1494	1497	1493	1465	1458	1461	1456	1454	1461	1469	1460	1454	1466	1458	1446	1449	1436	1440	1438	1448	1449	1458	1472	1480	1480	1479	1465	1459	1461	1476	1501	1510	1498	1465	1443	1431	1442	1452	1456	1459	1463	1474	1478	1476	1471	1466	1448	1442	1431	1429	1424	1418	1430	1437	1438	1441	1450	1451	1446	1447	1461	1472	1486	1499	1508	1504	1508	1508	1495	1490	1483	1480	1481	1480	1490	1486	1477	1461	1448	1465	1475	1486	1479	1479	1479	1475	1498	1506	1512	1500	1477	1457	1447	1443	1437	1428	1402	1378	1296	1246	1186	1134	1104	1096	1087	1077	1074	1073	1068	1061	1048	1033	1039	1051	1059	1065	1071	1071	1077	1076	1063	1045	1041	1042	1050	1057	1033	1002	980	1005	1015	0	0	0	0	0	0	0	0	0	0	934	955	966	0	0	0	0	0	919	924	0	0	0	0	0	0	0	0	0	0	0	1355	1411	1479	1475	1472	1469	1470	1474	1484	1466	1479	1508	1504	1494	1488	1487	1492	1497	1493	1486	1488	1499	1511	1520	1507	1506	1502	1482	1491	1507	1537	1505	1503	1484	1486	1483	1495	1491	1492	1503	1504	1502	1496	1493	1495	1494	1491	1489	1499	1518	1535	1535	1515	1488	1501	1487	1495	1490	1488	1473	1479	1485	1496	1498	1500	1503	1518	1521	1502	1487	1476	1476	1494	1516	1541	1538	1529	1518	1506	1498	1494	1489	1481	1484	1485	1511	1513	1501	1497	1486	1497	1508	1521	1524	1520	1513	1521	1521	1515	1501	1497	1488	1482	1481	1485	1495	1485	1485	1488	1494	1494	1496	1486	1473	1485	1508	1536	1539	1517	1502	1482	1480	1481	1489	1494	1496	1495	1493	1495	1500	1504	1496	1483	1472	1468	1493	1488	1495	1501	1511	1507	1500	1500	1493	1486	1484	1484	1491	1480	1485	1504	1424	0	0	0	0	0	0	0	0	0	0	0	0	905	870	851	844	840	837	852	850	859	866	863	863	866	866	863	857	849	848	847	860	866	887	899	898	884	868	851	847	846	845	848	860	875	889	883	878	874	871	868	872	888	907	923	923	910	898	895	886	878	878	893	905	905	904	914	930	975	1018	1110	1233	1412	1426	1423	1435	1453	1469	1476	1483	1491	1495	1490	1485	1495	1508	1527	1532	1516	1494	1466	1450	1450	1447	1445	1449	1456	1473	1479	1488	1488	1483	1463	1497	1502	1504	1490	1486	1476	1474	1470	1456	1453	1454	1468	1475	1493	1506	1503	1507	1517	1523	1511	1513	1517	1510	1512	1486	1471	1459	1458	1466	1471	1467	1453	1444	1437	1445	1463	1483	1502	1502	1483	1454	1443	1448	1458	1467	1472	1472	1466	1466	1469	1466	1455	1455	1455	1463	1459	1457	1455	1439	1428	1426	1425	1432	1441	1458	1482	1502	1503	1483	1466	1460	1455	1467	1467	1467	1463	1461	1460	1459	1450	1455	1463	1474	1484	1473	1464	1458	1448	1453	1458	1470	1479	1490	1492	1492	1495	1489	1486	1476	1476	1467	1469	1467	1471	1488	1489	1487	1467	1450	1463	1463	1476	1491	1492	1485	1492	1507	1504	0	0	0	0	0	0	0	0
0	0	0	0	0	0	0	0	0	0	0	0	0	0	0	0	0	0	0	0	0	0	0	0	0	0	0	0	0	0	0	0	0	0	0	0	0	0	0	0	0	0	0	0	0	0	0	0	0	0	0	0	0	0	0	0	0	0	0	0	0	0	0	0	0	0	0	0	0	0	0	0	0	0	0	0	0	0	0	0	0	0	0	0	0	0	0	0	0	0	0	0	0	1461	1472	1473	1477	1476	1477	1475	1482	1458	1451	1449	1447	1462	1466	1463	1454	1441	1457	1452	1445	1441	1429	1432	1438	1438	1447	1460	1463	1467	1459	1450	1450	1458	1474	1494	1511	1501	1473	1451	1427	1435	1446	1452	1452	1456	1465	1474	1478	1475	1457	1440	1436	1435	1429	1417	1414	1427	1435	1432	1436	1447	1444	1451	1456	1466	1480	1486	1488	1479	1468	1462	1466	1477	1476	1478	1477	1477	1484	1493	1487	1476	1455	1442	1439	1455	1464	1468	1470	1472	1478	1479	1493	1489	1487	1468	1442	1426	1415	1399	1379	1361	1200	1185	1171	1156	1125	1105	1095	1087	1089	1095	1094	1094	1095	1086	1083	1095	1091	1084	1090	1096	1106	1106	1100	1077	1072	0	0	0	0	0	0	0	0	0	0	0	0	0	0	0	0	0	0	0	0	0	0	0	0	0	0	0	0	0	0	0	0	0	0	0	0	0	0	0	1347	1418	1474	1484	1486	1484	1487	1495	1490	1511	1539	1526	1515	1501	1489	1492	1493	1494	1488	1481	1479	1480	1499	1508	1509	1493	1510	1511	1527	1510	1518	1543	1519	1504	1494	1485	1497	1497	1497	1491	1500	1504	1498	1493	1488	1492	1496	1488	1484	1489	1505	1520	1507	1490	1500	1481	1498	1483	1483	1483	1475	1484	1489	1500	1507	1516	1521	1529	1522	1509	1493	1481	1469	1485	1502	1508	1520	1528	1525	1499	1484	1481	1483	1485	1487	1501	1504	1498	1493	1485	1483	1489	1492	1511	1517	1516	1514	1515	1514	1507	1505	1503	1496	1490	1489	1488	1484	1468	1456	1466	1487	1499	1493	1490	1490	1502	1515	1525	1519	1504	1495	1494	1505	1494	1490	1492	1493	1492	1495	1506	1517	1525	1515	1497	1484	1485	1498	1509	1503	1511	1511	1497	1492	1490	1493	1493	1490	1486	1482	1487	1489	1502	1526	0	0	0	0	0	0	0	0	0	0	0	0	0	889	863	854	849	835	830	832	841	845	845	848	855	860	860	855	848	841	841	842	859	882	886	882	866	852	843	847	844	841	841	851	865	875	885	890	880	865	866	871	891	908	916	914	892	889	883	870	856	848	861	869	862	851	856	875	907	941	979	1016	1345	1391	1404	1421	1440	1455	1460	1461	1476	1493	1496	1494	1491	1491	1495	1494	1489	1479	1456	1459	1469	1469	1463	1446	1446	1462	1474	1468	1469	1468	1487	1503	1511	1502	1503	1499	1494	1480	1472	1452	1439	1440	1456	1485	1503	1505	1509	1509	1510	1518	1515	1520	1520	1507	1494	1474	1463	1455	1447	1453	1463	1470	1466	1453	1452	1459	1471	1491	1496	1502	1491	1469	1459	1464	1473	1478	1478	1474	1480	1484	1484	1471	1457	1469	1474	1483	1478	1471	1457	1441	1429	1424	1425	1437	1451	1468	1482	1500	1495	1474	1459	1452	1463	1472	1473	1469	1470	1472	1477	1474	1474	1462	1464	1478	1477	1464	1459	1460	1452	1443	1452	1471	1485	1484	1480	1480	1477	1469	1469	1473	1470	1464	1464	1468	1476	1494	1500	1492	1485	1446	1446	1446	1459	1471	1478	1483	1477	1484	1469	0	0	0	0	0	0	0	0
0	0	0	0	0	0	0	0	0	0	0	0	0	0	0	0	0	0	0	0	0	0	0	0	0	0	0	0	0	0	0	0	0	0	0	0	0	0	0	0	0	0	0	0	0	0	0	0	0	0	0	0	0	0	0	0	0	0	0	0	0	0	0	0	0	0	0	0	0	0	0	0	0	0	0	0	0	0	0	0	0	0	0	0	0	0	0	0	0	0	0	0	0	1445	1457	1466	1468	1469	1463	1472	1475	1456	1447	1446	1447	1467	1479	1473	1458	1445	1446	1453	1458	1462	1447	1433	1438	1439	1443	1443	1449	1450	1444	1436	1444	1466	1489	1507	1512	1508	1486	1460	1432	1430	1446	1446	1443	1446	1452	1473	1479	1474	1459	1449	1444	1440	1441	1430	1425	1428	1439	1436	1444	1448	1453	1450	1461	1473	1480	1484	1482	1468	1450	1435	1437	1464	1471	1472	1473	1470	1477	1484	1485	1475	1452	1436	1437	1448	1462	1453	1450	1448	1445	1458	1478	1480	1474	1458	1436	1396	1248	1188	1148	1130	1119	0	0	0	0	1114	1107	1109	1122	1127	1139	1140	1148	1156	1160	1153	1143	1136	1127	1127	1125	1124	1117	0	0	0	0	0	0	0	0	0	0	0	0	0	0	0	0	0	0	0	0	0	0	0	0	0	0	0	0	0	0	0	0	0	0	0	0	0	0	0	0	1347	1424	1476	1483	1481	1485	1492	1486	1488	1481	1500	1534	1525	1517	1499	1492	1493	1495	1488	1480	1474	1473	1481	1494	1512	1499	1492	1493	1525	1540	1541	1540	1549	1532	1500	1496	1503	1508	1507	1502	1503	1511	1510	1502	1488	1481	1485	1490	1482	1481	1485	1506	1475	1469	1479	1502	1511	1501	1491	1486	1489	1491	1497	1499	1501	1507	1517	1518	1518	1524	1520	1507	1501	1479	1485	1489	1506	1519	1525	1526	1503	1488	1477	1473	1481	1479	1491	1495	1492	1486	1484	1484	1486	1487	1491	1484	1493	1495	1490	1483	1492	1492	1495	1489	1485	1478	1476	1472	1454	1451	1451	1469	1498	1485	1489	1486	1503	1510	1512	1500	1490	1485	1503	1504	1504	1499	1500	1493	1486	1486	1503	1516	1528	1516	1504	1487	1484	1487	1491	1501	1508	1504	1498	1491	1495	1498	1503	1493	1497	1491	1486	1495	1504	1532	1517	0	0	0	0	0	0	0	0	0	0	0	0	0	0	866	860	829	819	817	823	826	830	839	848	852	852	852	850	838	827	827	842	860	870	864	852	842	840	843	842	837	836	844	858	870	881	888	877	876	869	872	887	895	893	886	878	879	872	861	843	836	842	849	838	831	821	830	853	880	911	945	970	1058	1164	1333	1408	1431	1442	1440	1454	1469	1482	1470	1472	1455	1452	1460	1468	1462	1455	1467	1487	1494	1471	1448	1448	1463	1472	1475	1464	1466	1490	1506	1514	1511	1510	1506	1500	1496	1483	1465	1447	1446	1461	1480	1492	1494	1503	1514	1514	1515	1513	1508	1500	1488	1468	1460	1454	1443	1442	1436	1449	1468	1470	1470	1465	1473	1482	1484	1488	1495	1494	1487	1478	1476	1482	1480	1474	1469	1479	1487	1485	1479	1470	1471	1482	1490	1487	1472	1467	1454	1445	1426	1430	1442	1462	1480	1483	1481	1474	1460	1454	1454	1467	1476	1479	1470	1482	1489	1493	1487	1474	1465	1458	1457	1464	1459	1453	1452	1452	1442	1454	1470	1484	1483	1474	1474	1460	1451	1456	1458	1462	1458	1449	1454	1470	1490	1498	1492	1482	1465	1443	1443	1450	1460	1470	1475	1477	1472	1456	0	0	0	0	0	0	0	0
0	0	0	0	0	0	0	0	0	0	0	0	0	0	0	0	0	0	0	0	0	0	0	0	0	0	0	0	0	0	0	0	0	0	0	0	0	0	0	0	0	0	0	0	0	0	0	0	0	0	0	0	0	0	0	0	0	0	0	0	0	0	0	0	0	0	0	0	0	0	0	0	0	0	0	0	0	0	0	0	0	0	0	0	0	0	0	0	0	0	0	0	0	1449	1472	1471	1475	1468	1461	1459	1462	1461	1447	1451	1449	1494	1494	1489	1464	1451	1440	1461	1476	1494	1501	1487	1459	1456	1454	1447	1439	1438	1441	1441	1449	1478	1507	1519	1523	1511	1491	1472	1447	1449	1447	1444	1435	1436	1448	1469	1480	1476	1466	1461	1462	1466	1464	1462	1445	1436	1442	1447	1455	1453	1446	1443	1452	1475	1485	1482	1476	1470	1453	1434	1435	1458	1467	1474	1470	1469	1475	1480	1470	1466	1461	1450	1441	1439	1454	1437	1432	1426	1441	1448	1435	1373	1292	1405	1338	1278	1187	1135	1104	1094	0	0	0	0	0	0	1120	1128	1155	1174	1187	1195	1208	1218	1219	1188	1180	1169	1167	1144	1136	1136	0	0	0	0	0	0	0	0	0	0	0	0	0	0	0	0	0	0	0	0	0	0	0	0	0	0	0	0	0	0	0	0	0	0	0	0	0	0	0	0	1339	1423	1466	1471	1482	1478	1475	1462	1464	1472	1464	1467	1485	1518	1516	1510	1495	1491	1495	1506	1523	1532	1526	1500	1493	1505	1513	1499	1493	1529	1541	1552	1555	1556	1540	1495	1492	1502	1510	1507	1509	1520	1532	1527	1504	1477	1457	1471	1478	1476	1478	1481	1451	1447	1458	1486	1507	1513	1508	1501	1495	1496	1501	1504	1502	1494	1489	1500	1504	1507	1508	1510	1504	1495	1484	1477	1482	1499	1516	1524	1531	1518	1498	1483	1476	1472	1467	1476	1476	1480	1482	1484	1482	1485	1487	1473	1465	1456	1460	1465	1464	1468	1477	1481	1478	1477	1473	1475	1476	1457	1452	1450	1469	1494	1494	1480	1487	1497	1504	1500	1492	1485	1485	1493	1499	1508	1513	1507	1494	1481	1479	1489	1499	1508	1507	1494	1478	1465	1469	1480	1492	1508	1513	1505	1509	1509	1513	1514	1504	1498	1490	1492	1500	1504	1527	1537	1498	0	0	0	0	0	0	0	0	0	0	0	0	0	0	860	817	810	809	813	818	820	829	831	837	839	843	840	831	820	817	830	848	854	852	847	839	837	841	841	831	833	840	851	857	869	876	868	867	864	871	875	878	868	861	860	866	866	855	842	837	839	840	843	830	824	822	829	846	862	888	921	952	983	1023	1109	1204	1362	1208	1339	1371	1403	1421	1432	1431	1434	1445	1450	1450	1455	1480	1489	1482	1463	1452	1456	1472	1494	1494	1490	1474	1483	1503	1504	1511	1516	1512	1502	1497	1495	1475	1459	1454	1468	1483	1475	1470	1491	1524	1514	1507	1498	1491	1479	1464	1454	1446	1443	1439	1437	1434	1439	1454	1466	1474	1476	1489	1491	1472	1471	1481	1491	1490	1483	1479	1478	1480	1470	1474	1474	1479	1476	1475	1465	1466	1472	1465	1462	1459	1462	1468	1464	1448	1453	1458	1473	1486	1485	1471	1455	1446	1452	1456	1476	1494	1495	1484	1494	1504	1506	1500	1482	1460	1453	1448	1459	1460	1466	1463	1458	1453	1461	1471	1479	1474	1464	1467	1456	1450	1442	1451	1454	1449	1445	1448	1467	1484	1494	1494	1481	1463	1444	1444	1443	1456	1461	1467	1471	1478	1466	0	0	0	0	0	0	0	0
0	0	0	0	0	0	0	0	0	0	0	0	0	0	0	0	0	0	0	0	0	0	0	0	0	0	0	0	0	0	0	0	0	0	0	0	0	0	0	0	0	0	0	0	0	0	0	0	0	0	0	0	0	0	0	0	0	0	0	0	0	0	0	0	0	0	0	0	0	0	0	0	0	0	0	0	0	0	0	0	0	0	0	0	0	0	0	0	0	0	0	0	0	1448	1486	1490	1485	1478	1467	1463	1466	1476	1462	1465	1482	1494	1495	1487	1467	1455	1442	1464	1495	1515	1524	1518	1496	1477	1469	1460	1457	1445	1446	1443	1462	1487	1512	1522	1522	1510	1495	1474	1455	1459	1459	1444	1427	1429	1448	1469	1483	1478	1477	1474	1484	1487	1492	1479	1465	1446	1442	1452	1455	1445	1439	1441	1454	1476	1477	1467	1472	1471	1466	1454	1437	1438	1464	1477	1486	1487	1482	1471	1460	1459	1459	1454	1445	1439	1440	1432	1410	1414	1395	1326	1208	1146	0	0	0	0	0	1105	0	0	0	0	0	0	0	0	1129	1153	1180	1211	1221	1232	1242	1248	1248	1237	1198	1196	1186	1169	1160	1154	0	0	0	0	0	0	0	0	0	0	0	0	0	0	0	0	0	0	0	0	0	0	0	0	0	0	0	0	0	0	0	0	0	0	0	0	0	0	0	1304	1396	1456	1461	1464	1466	1467	1466	1465	1469	1461	1442	1448	1466	1511	1507	1504	1490	1443	1437	1440	1457	1473	1474	1503	1493	1500	1506	1502	1497	1505	1530	1551	1552	1555	1538	1489	1489	1503	1504	1507	1513	1523	1524	1515	1509	1493	1469	1454	1451	1448	1452	1437	1428	1439	1464	1496	1504	1512	1506	1500	1492	1488	1497	1505	1500	1489	1480	1476	1478	1491	1494	1491	1483	1475	1471	1466	1479	1489	1507	1523	1528	1522	1505	1490	1456	1441	1452	1467	1474	1471	1473	1479	1481	1484	1492	1480	1467	1457	1453	1453	1453	1463	1476	1478	1474	1478	1476	1482	1477	1458	1452	1457	1474	1490	1497	1496	1492	1492	1495	1493	1489	1485	1493	1495	1501	1523	1534	1529	1504	1480	1482	1475	1478	1486	1475	1468	1458	1460	1468	1472	1491	1506	1516	1523	1531	1514	1510	1497	1491	1486	1487	1493	1493	1502	1509	1522	1515	0	0	0	0	0	0	0	0	0	0	0	0	0	0	839	806	801	803	805	808	813	816	814	814	817	820	820	810	810	816	830	842	849	846	847	843	835	837	834	829	825	828	833	838	845	852	849	849	851	856	862	862	859	845	850	852	856	846	839	835	840	847	844	836	830	827	826	829	837	851	877	893	920	954	894	912	928	962	1072	1193	1311	1348	1361	1378	1393	1423	1436	1445	1456	1474	1473	1463	1452	1449	1468	1497	1517	1527	1510	1480	1467	1470	1491	1495	1505	1501	1488	1483	1481	1480	1468	1467	1472	1474	1460	1460	1487	1520	1510	1501	1478	1469	1456	1451	1436	1431	1440	1448	1448	1433	1443	1453	1459	1472	1479	1492	1496	1463	1462	1465	1480	1492	1482	1478	1476	1477	1474	1472	1469	1462	1457	1460	1457	1459	1457	1448	1449	1450	1458	1467	1475	1478	1476	1479	1476	1481	1474	1462	1450	1446	1446	1464	1483	1504	1507	1505	1500	1508	1510	1499	1472	1461	1450	1447	1459	1466	1478	1474	1471	1466	1466	1472	1475	1466	1466	1464	1453	1446	1437	1440	1447	1453	1454	1459	1474	1493	1492	1490	1479	1460	1460	1448	1445	1451	1452	1459	1465	1476	1479	0	0	0	0	0	0	0	0
0	0	0	0	0	0	0	0	0	0	0	0	0	0	0	0	0	0	0	0	0	0	0	0	0	0	0	0	0	0	0	0	0	0	0	0	0	0	0	0	0	0	0	0	0	0	0	0	0	0	0	0	0	0	0	0	0	0	0	0	0	0	0	0	0	0	0	0	0	0	0	0	0	0	0	0	0	0	0	0	0	0	0	0	0	0	0	0	0	0	0	0	0	1448	1479	1485	1489	1484	1472	1473	1483	1502	1490	1480	1480	1487	1487	1479	1464	1450	1442	1450	1493	1524	1534	1524	1498	1484	1484	1472	1467	1450	1449	1453	1466	1480	1498	1507	1503	1492	1482	1465	1462	1463	1458	1439	1424	1424	1441	1463	1478	1484	1481	1490	1490	1498	1497	1478	1463	1455	1449	1450	1454	1444	1441	1439	1457	1470	1474	1464	1462	1474	1468	1466	1467	1434	1449	1480	1493	1499	1490	1467	1454	1446	1441	1433	1422	1418	1418	1416	1361	1222	1165	0	0	0	0	0	0	0	0	0	0	0	0	0	0	0	0	0	0	1169	1201	1229	1246	1254	1256	1261	1261	1245	1202	1196	1198	1188	1178	1180	0	0	0	0	0	0	0	0	0	0	0	0	0	0	0	0	0	0	0	0	0	0	0	0	0	0	0	0	0	0	0	0	0	0	0	0	0	0	0	1372	1435	1465	1467	1467	1453	1454	1480	1460	1467	1469	1436	1438	1465	1510	1502	1496	1489	1472	1464	1471	1478	1472	1480	1501	1490	1493	1498	1498	1496	1495	1520	1536	1535	1543	1524	1491	1484	1487	1497	1500	1509	1519	1521	1513	1510	1501	1469	1453	1445	1440	1429	1453	1446	1449	1481	1481	1493	1510	1506	1496	1488	1483	1499	1510	1512	1494	1482	1474	1476	1485	1482	1476	1462	1450	1448	1457	1472	1482	1485	1488	1494	1498	1489	1486	1468	1470	1496	1501	1487	1466	1482	1469	1470	1482	1493	1498	1485	1471	1454	1455	1456	1458	1465	1488	1498	1496	1494	1492	1484	1469	1463	1466	1482	1492	1504	1503	1495	1490	1479	1469	1479	1494	1496	1501	1515	1542	1557	1551	1521	1495	1491	1472	1461	1451	1453	1456	1457	1464	1476	1487	1499	1504	1513	1506	1493	1483	1485	1486	1478	1478	1476	1481	1491	1494	1502	1506	1510	1531	0	0	0	0	0	0	0	0	0	0	0	0	0	0	839	815	803	794	801	802	800	796	791	794	804	809	812	817	823	829	841	845	847	850	847	834	835	826	824	815	812	813	818	822	826	826	826	829	832	837	843	843	838	837	840	840	830	820	821	824	834	832	826	826	828	825	827	829	830	837	815	815	818	830	840	854	880	940	988	1090	1242	1276	1297	1329	1392	1428	1444	1456	1460	1457	1453	1452	1465	1478	1510	1533	1543	1523	1493	1448	1460	1474	1476	1484	1480	1475	1466	1462	1468	1467	1469	1469	1469	1457	1455	1471	1496	1495	1476	1461	1451	1448	1432	1417	1417	1432	1451	1460	1445	1446	1451	1451	1457	1461	1475	1482	1468	1457	1455	1474	1474	1481	1480	1474	1475	1469	1465	1457	1448	1446	1441	1443	1444	1445	1440	1442	1440	1446	1465	1480	1482	1477	1470	1463	1463	1456	1454	1444	1445	1451	1468	1492	1511	1518	1511	1500	1498	1503	1496	1483	1466	1458	1452	1465	1471	1477	1480	1468	1460	1458	1464	1475	1468	1468	1465	1454	1452	1444	1456	1452	1473	1479	1480	1487	1487	1488	1480	1461	1453	1453	1448	1450	1450	1452	1458	1463	1476	1468	0	0	0	0	0	0	0	0
0	0	0	0	0	0	0	0	0	0	0	0	0	0	0	0	0	0	0	0	0	0	0	0	0	0	0	0	0	0	0	0	0	0	0	0	0	0	0	0	0	0	0	0	0	0	0	0	0	0	0	0	0	0	0	0	0	0	0	0	0	0	0	0	0	0	0	0	0	0	0	0	0	0	0	0	0	0	0	0	0	0	0	0	0	0	0	0	0	0	0	0	0	0	1472	1468	1471	1473	1471	1479	1494	1506	1504	1493	1481	1481	1480	1473	1461	1456	1449	1446	1455	1496	1514	1520	1495	1490	1478	1463	1457	1449	1444	1452	1462	1463	1469	1477	1478	1473	1457	1450	1447	1455	1452	1435	1421	1417	1433	1451	1463	1471	1479	1479	1491	1497	1489	1476	1462	1464	1454	1454	1455	1447	1449	1449	1454	1464	1464	1454	1458	1467	1480	1497	1493	1436	1443	1482	1491	1491	1487	1468	1452	1432	1410	1398	1372	1373	1329	1230	1147	0	0	0	0	0	0	0	0	0	0	0	0	0	0	0	0	0	0	0	0	1179	1197	1215	1236	1250	1256	1253	1256	1248	1200	1188	1196	1185	1180	0	0	0	0	0	0	0	0	0	0	0	0	0	0	0	0	0	0	0	0	0	0	0	0	0	0	0	0	0	0	0	0	0	0	0	0	0	0	0	0	1407	1449	1475	1476	1477	1466	1488	1533	1483	1482	1448	1422	1437	1457	1503	1503	1501	1498	1489	1485	1485	1487	1490	1488	1493	1494	1484	1487	1491	1491	1495	1513	1518	1516	1499	1509	1492	1490	1481	1480	1485	1500	1518	1524	1516	1506	1493	1482	1459	1447	1446	1504	1495	1488	1471	1491	1476	1488	1506	1498	1483	1484	1481	1508	1518	1523	1510	1503	1498	1485	1489	1485	1481	1471	1458	1455	1461	1475	1481	1485	1492	1493	1494	1490	1483	1475	1499	1501	1490	1496	1472	1485	1481	1450	1449	1478	1491	1493	1493	1492	1477	1470	1469	1467	1483	1500	1508	1502	1489	1483	1476	1476	1479	1493	1502	1511	1510	1501	1494	1481	1470	1478	1495	1501	1509	1520	1547	1563	1547	1526	1506	1489	1469	1448	1440	1442	1452	1470	1477	1488	1491	1493	1486	1493	1491	1482	1470	1473	1473	1473	1476	1481	1480	1485	1497	1500	1500	1502	1505	1542	0	0	0	0	0	0	0	0	0	0	0	0	0	0	0	858	815	797	791	789	785	783	782	796	811	823	824	822	823	834	841	843	839	837	830	825	817	807	797	792	796	800	804	807	809	809	808	812	815	822	827	828	827	826	822	813	800	797	801	808	813	812	815	815	820	823	822	820	815	807	802	792	798	803	813	828	851	865	874	916	991	1132	1232	1329	1366	1400	1422	1436	1443	1453	1468	1485	1501	1518	1532	1534	1530	1496	1458	1457	1459	1466	1466	1468	1461	1450	1444	1449	1456	1461	1468	1471	1462	1466	1469	1484	1488	1483	1463	1443	1439	1420	1408	1412	1426	1452	1460	1458	1451	1451	1453	1459	1453	1468	1474	1473	1454	1456	1459	1463	1470	1472	1477	1474	1472	1462	1458	1446	1441	1436	1434	1439	1441	1442	1442	1441	1447	1463	1481	1483	1474	1469	1457	1455	1457	1454	1451	1450	1457	1475	1495	1507	1512	1499	1488	1486	1492	1496	1489	1475	1475	1474	1469	1473	1478	1475	1460	1442	1446	1455	1468	1470	1470	1469	1464	1456	1456	1460	1466	1468	1483	1478	1477	1477	1471	1457	1448	1444	1444	1452	1458	1455	1456	1462	1466	1473	1461	1470	0	0	0	0	0	0	0
0	0	0	0	0	0	0	0	0	0	0	0	0	0	0	0	0	0	0	0	0	0	0	0	0	0	0	0	0	0	0	0	0	0	0	0	0	0	0	0	0	0	0	0	0	0	0	0	0	0	0	0	0	0	0	0	0	0	0	0	0	0	0	0	0	0	0	0	0	0	0	0	0	0	0	0	0	0	0	0	0	0	0	0	0	0	0	0	0	0	0	0	0	0	1461	1445	1449	1452	1458	1469	1488	1496	1499	1491	1490	1487	1480	1476	1462	1461	1447	1444	1457	1481	1504	1510	1491	1477	1467	1450	1443	1443	1446	1460	1457	1459	1455	1461	1452	1448	1444	1450	1443	1450	1448	1433	1422	1424	1435	1447	1452	1461	1465	1471	1479	1480	1480	1468	1470	1477	1461	1454	1459	1464	1465	1457	1459	1463	1463	1454	1454	1457	1473	1490	1489	1453	1447	1458	1468	1470	1473	1468	1439	1400	1385	1357	1325	1223	1091	0	0	0	0	0	0	0	0	0	0	0	0	0	0	0	0	0	0	0	0	0	0	1177	1181	1189	1211	1232	1242	1242	1237	1226	1183	1177	1168	1164	0	0	0	0	0	0	0	0	0	0	0	0	0	0	0	0	0	0	0	0	0	0	0	0	0	0	0	0	0	892	0	0	0	0	0	0	0	0	0	0	1426	1440	1466	1482	1488	1497	1496	1494	1524	1492	1480	1457	1443	1453	1489	1504	1503	1499	1498	1493	1486	1484	1486	1490	1485	1482	1480	1478	1485	1488	1489	1492	1508	1511	1502	1469	1484	1492	1488	1482	1480	1481	1499	1518	1530	1530	1517	1495	1480	1478	1468	1452	1535	1526	1524	1508	1499	1527	1547	1529	1518	1501	1496	1502	1509	1521	1526	1524	1514	1507	1504	1498	1496	1493	1481	1473	1468	1472	1482	1483	1487	1493	1496	1495	1477	1474	1501	1511	1509	1501	1483	1474	1490	1489	1471	1467	1489	1485	1493	1496	1495	1483	1480	1470	1474	1479	1495	1502	1488	1478	1477	1474	1479	1485	1498	1500	1506	1499	1499	1493	1486	1482	1487	1499	1505	1504	1509	1539	1546	1538	1522	1511	1495	1465	1439	1436	1438	1471	1487	1497	1495	1476	1463	1476	1488	1493	1484	1472	1465	1469	1472	1479	1483	1486	1487	1495	1503	1504	1499	1499	1531	0	0	0	0	0	0	0	0	0	0	0	0	0	0	0	0	0	822	798	787	781	776	775	789	803	818	813	805	811	819	822	821	827	818	818	812	803	790	782	783	789	798	801	800	798	800	800	797	801	807	820	821	815	810	801	789	778	773	775	779	792	803	815	816	819	818	823	825	820	807	794	785	773	776	780	788	787	785	798	838	858	885	986	1124	1244	1314	1354	1391	1405	1425	1469	1491	1509	1519	1530	1532	1523	1505	1465	1458	1454	1459	1464	1458	1449	1443	1437	1440	1442	1456	1465	1473	1477	1468	1468	1477	1494	1484	1469	1453	1436	1427	1416	1415	1434	1454	1456	1455	1449	1449	1457	1461	1465	1472	1479	1471	1466	1459	1453	1448	1449	1464	1475	1477	1473	1464	1459	1446	1439	1439	1438	1441	1442	1446	1444	1437	1438	1454	1471	1484	1480	1471	1462	1473	1481	1480	1465	1463	1471	1484	1491	1493	1489	1487	1475	1479	1486	1496	1491	1480	1480	1488	1485	1476	1469	1461	1445	1431	1430	1441	1447	1447	1465	1466	1471	1466	1465	1460	1455	1441	1433	1463	1462	1457	1449	1439	1438	1446	1446	1461	1463	1459	1451	1460	1459	1461	1460	1460	0	0	0	0	0	0	0
0	0	0	0	0	0	0	0	0	0	0	0	0	0	0	0	0	0	0	0	0	0	0	0	0	0	0	0	0	0	0	0	0	0	0	0	0	0	0	0	0	0	0	0	0	0	0	0	0	0	0	0	0	0	0	0	0	0	0	0	0	0	0	0	0	0	0	0	0	0	0	0	0	0	0	0	0	0	0	0	0	0	0	0	0	0	0	0	0	0	0	0	0	0	1457	1449	1447	1439	1450	1460	1480	1491	1497	1496	1496	1494	1484	1471	1463	1462	1461	1455	1456	1478	1492	1500	1490	1479	1460	1447	1446	1451	1458	1467	1464	1460	1460	1457	1453	1454	1447	1459	1461	1454	1457	1448	1441	1440	1443	1439	1442	1443	1455	1463	1478	1484	1477	1466	1466	1472	1461	1446	1447	1461	1464	1463	1464	1463	1463	1463	1458	1466	1473	1486	1493	1478	1448	1439	1441	1444	1441	1424	1369	1333	1258	1153	1089	964	0	0	0	0	0	0	0	0	0	0	0	0	0	0	0	1083	1087	1068	1066	0	0	0	1115	1107	1149	1166	1191	1211	1218	1223	1217	1197	1144	0	0	0	0	0	0	0	0	0	0	0	0	0	0	0	0	0	0	0	0	0	0	0	0	0	0	0	0	0	0	0	888	895	898	0	0	0	0	0	0	1208	1341	1394	1445	1476	1480	1482	1482	1478	1483	1501	1488	1484	1473	1468	1453	1489	1497	1494	1493	1487	1490	1478	1480	1488	1485	1490	1496	1497	1487	1482	1482	1483	1479	1483	1502	1491	1474	1471	1480	1487	1486	1483	1475	1474	1496	1517	1530	1527	1514	1496	1484	1484	1475	1464	1462	1535	1524	1487	1506	1527	1544	1516	1496	1521	1521	1524	1520	1522	1528	1530	1528	1520	1511	1501	1499	1501	1498	1491	1484	1479	1480	1484	1487	1488	1496	1498	1502	1502	1504	1512	1507	1478	1480	1499	1508	1487	1480	1505	1501	1497	1493	1502	1501	1493	1482	1483	1485	1487	1501	1492	1478	1469	1464	1462	1472	1481	1492	1489	1489	1474	1473	1483	1487	1487	1500	1509	1499	1499	1501	1516	1532	1537	1530	1520	1503	1476	1454	1443	1447	1476	1485	1477	1480	1469	1468	1476	1489	1497	1488	1473	1463	1460	1464	1475	1480	1484	1488	1494	1500	1501	1497	1501	1503	1516	0	0	0	0	0	0	0	0	0	0	0	0	0	0	0	0	0	831	807	791	776	771	770	781	793	788	783	788	798	805	809	807	808	806	801	793	782	779	780	791	800	801	798	795	795	794	795	797	804	812	811	797	785	778	774	767	756	756	762	763	783	797	804	806	803	812	823	811	799	783	769	761	762	759	760	762	768	780	793	812	820	835	935	1040	1161	1223	1294	1339	1348	1378	1431	1470	1496	1508	1516	1515	1510	1477	1465	1463	1470	1464	1455	1433	1432	1450	1451	1455	1458	1471	1480	1481	1475	1464	1472	1488	1497	1490	1464	1460	1452	1438	1440	1441	1453	1456	1451	1443	1445	1443	1446	1460	1473	1482	1491	1474	1461	1451	1440	1440	1455	1474	1479	1466	1451	1444	1440	1441	1439	1441	1445	1450	1445	1436	1426	1431	1448	1469	1482	1486	1477	1487	1498	1504	1503	1480	1476	1477	1485	1481	1467	1469	1465	1463	1476	1482	1486	1487	1479	1481	1491	1494	1490	1468	1455	1436	1428	1428	1434	1446	1446	1462	1473	1476	1472	1466	1454	1437	1422	1419	1421	1432	1441	1431	1429	1433	1444	1444	1456	1464	1449	1444	1448	1446	1443	1444	1443	0	0	0	0	0	0	0
0	0	0	0	0	0	0	0	0	0	0	0	0	0	0	0	0	0	0	0	0	0	0	0	0	0	0	0	0	0	0	0	0	0	0	0	0	0	0	0	0	0	0	0	0	0	0	0	0	0	0	0	0	0	0	0	0	0	0	0	0	0	0	0	0	0	0	0	0	0	0	0	0	0	0	0	0	0	0	0	0	0	0	0	0	0	0	0	0	0	0	0	0	0	1454	1468	1463	1451	1456	1463	1477	1486	1500	1499	1495	1486	1470	1456	1456	1456	1460	1465	1463	1475	1499	1506	1509	1493	1475	1461	1456	1461	1469	1475	1477	1469	1465	1459	1460	1463	1466	1467	1472	1477	1484	1471	1463	1451	1442	1422	1422	1426	1442	1466	1485	1486	1473	1464	1466	1461	1456	1435	1430	1441	1465	1466	1464	1471	1465	1468	1466	1475	1483	1486	1485	1473	1433	1424	1416	1413	1403	1283	1128	1066	1001	0	0	0	0	0	0	0	0	0	0	0	0	0	0	0	0	0	0	1048	1057	1032	1036	0	0	0	0	1076	1085	1114	1126	1180	1193	1199	1192	1165	1128	0	0	0	0	0	0	0	0	0	0	0	0	0	0	0	0	0	0	0	0	0	0	0	0	0	0	0	0	0	0	0	881	890	900	0	0	0	0	0	1237	1349	1445	1470	1474	1475	1474	1468	1457	1453	1453	1452	1462	1473	1484	1504	1520	1506	1488	1483	1481	1482	1478	1481	1482	1482	1484	1488	1495	1503	1506	1492	1482	1470	1466	1471	1481	1489	1488	1485	1485	1492	1490	1485	1480	1486	1502	1517	1525	1521	1514	1496	1490	1488	1482	1474	1467	1480	1495	1505	1506	1497	1491	1490	1525	1534	1539	1541	1527	1516	1514	1525	1525	1517	1505	1502	1503	1504	1511	1513	1518	1525	1527	1519	1493	1482	1473	1461	1463	1473	1498	1507	1513	1510	1506	1505	1507	1504	1500	1500	1496	1494	1494	1499	1500	1494	1490	1490	1496	1499	1501	1489	1482	1474	1465	1462	1462	1477	1488	1488	1477	1460	1464	1476	1485	1490	1497	1504	1501	1496	1488	1494	1509	1524	1529	1536	1530	1510	1493	1478	1474	1470	1476	1474	1472	1475	1479	1481	1491	1495	1480	1472	1459	1462	1478	1484	1486	1488	1495	1494	1495	1490	1496	1497	1504	1500	1461	0	0	0	0	0	0	0	0	0	0	0	0	0	0	0	0	0	823	803	785	767	759	758	763	761	766	770	777	784	790	789	795	802	796	790	778	776	777	786	792	796	795	792	787	789	791	792	794	799	796	779	769	762	760	761	752	742	740	752	762	777	778	775	775	776	793	794	784	771	760	752	748	738	735	739	753	767	781	784	780	791	830	874	884	910	1034	1226	1281	1313	1343	1399	1441	1477	1493	1507	1505	1486	1475	1475	1475	1469	1456	1443	1436	1468	1483	1487	1498	1491	1491	1490	1471	1461	1463	1484	1496	1494	1494	1488	1482	1469	1466	1455	1450	1451	1449	1449	1443	1441	1438	1458	1472	1485	1491	1480	1462	1444	1435	1434	1446	1465	1474	1461	1441	1418	1423	1429	1439	1445	1451	1453	1436	1429	1430	1438	1454	1472	1481	1483	1486	1495	1507	1508	1502	1485	1478	1475	1483	1474	1463	1449	1448	1458	1470	1484	1478	1482	1476	1475	1484	1488	1487	1473	1454	1443	1438	1441	1443	1458	1458	1467	1472	1470	1469	1459	1447	1436	1431	1423	1432	1435	1437	1433	1426	1429	1429	1439	1444	1448	1452	1446	1442	1438	1435	1436	1438	0	0	0	0	0	0	0
0	0	0	0	0	0	0	0	0	0	0	0	0	0	0	0	0	0	0	0	0	0	0	0	0	0	0	0	0	0	0	0	0	0	0	0	0	0	0	0	0	0	0	0	0	0	0	0	0	0	0	0	0	0	0	0	0	0	0	0	0	0	0	0	0	0	0	0	0	0	0	0	0	0	0	0	0	0	0	0	0	0	0	0	0	0	0	0	0	0	0	0	0	0	1452	1477	1486	1482	1468	1467	1471	1488	1503	1501	1491	1479	1460	1444	1443	1453	1460	1458	1468	1472	1508	1516	1518	1511	1488	1480	1469	1464	1467	1481	1482	1482	1486	1474	1477	1471	1477	1482	1489	1488	1489	1483	1479	1466	1449	1426	1414	1418	1436	1463	1490	1490	1474	1459	1460	1456	1452	1435	1435	1439	1455	1463	1460	1464	1462	1459	1468	1483	1492	1486	1474	1456	1418	1402	1359	1248	1146	0	0	0	0	0	0	0	0	0	0	0	0	0	0	0	0	0	0	0	0	0	0	1020	1039	1041	1033	1028	0	0	0	0	1080	1096	1103	1099	1107	1173	1167	1129	1094	0	0	0	0	0	0	0	0	0	0	0	0	0	0	0	0	0	0	0	0	0	0	0	0	0	0	0	0	0	0	0	875	884	901	0	0	0	0	0	1246	1471	1488	1477	1470	1467	1467	1460	1450	1439	1436	1442	1454	1456	1486	1507	1514	1501	1484	1474	1473	1469	1461	1476	1481	1484	1480	1480	1487	1500	1504	1503	1488	1478	1468	1473	1502	1501	1499	1490	1492	1504	1513	1519	1516	1510	1513	1519	1519	1513	1509	1500	1495	1491	1483	1473	1477	1478	1480	1486	1492	1490	1491	1501	1529	1545	1542	1542	1531	1512	1509	1515	1517	1520	1512	1502	1506	1508	1519	1528	1530	1534	1528	1512	1489	1470	1470	1469	1487	1490	1494	1500	1505	1501	1495	1493	1491	1494	1490	1493	1482	1483	1501	1515	1509	1499	1496	1497	1501	1504	1507	1500	1498	1491	1477	1469	1470	1479	1499	1504	1483	1469	1471	1475	1482	1482	1493	1500	1500	1491	1478	1480	1496	1518	1532	1540	1543	1528	1507	1493	1463	1458	1462	1466	1480	1481	1487	1484	1480	1478	1471	1458	1464	1482	1494	1499	1495	1501	1500	1497	1487	1488	1488	1489	1496	1490	1458	0	0	0	0	0	0	0	0	0	0	0	0	0	0	0	0	0	0	0	789	771	755	744	739	739	746	756	766	770	777	777	785	785	786	780	771	768	766	769	776	775	768	768	766	774	773	778	783	786	778	768	755	751	745	748	750	741	739	743	753	757	758	751	744	736	742	758	768	763	757	748	737	729	724	730	745	761	763	759	748	748	768	792	805	815	821	873	1100	1199	1241	1296	1341	1401	1448	1476	1485	1483	1490	1487	1479	1476	1455	1445	1443	1477	1496	1506	1509	1505	1493	1486	1476	1453	1458	1466	1473	1482	1490	1495	1500	1496	1481	1466	1454	1449	1453	1457	1450	1442	1440	1451	1472	1480	1481	1468	1447	1436	1424	1434	1451	1464	1473	1459	1435	1408	1415	1426	1439	1444	1441	1444	1450	1450	1457	1468	1474	1482	1488	1482	1480	1489	1496	1500	1489	1479	1467	1467	1475	1473	1457	1436	1432	1443	1462	1468	1471	1474	1472	1477	1474	1478	1481	1478	1464	1451	1449	1453	1463	1463	1463	1464	1466	1465	1458	1449	1441	1437	1440	1442	1447	1454	1456	1450	1436	1428	1428	1427	1432	1440	1443	1458	1453	1443	1441	1439	1435	1435	0	0	0	0	0	0
0	0	0	0	0	0	0	0	0	0	0	0	0	0	0	0	0	0	0	0	0	0	0	0	0	0	0	0	0	0	0	0	0	0	0	0	0	0	0	0	0	0	0	0	0	0	0	0	0	0	0	0	0	0	0	0	0	0	0	0	0	0	0	0	0	0	0	0	0	0	0	0	0	0	0	0	0	0	0	0	0	0	0	0	0	0	0	0	0	0	0	0	0	0	1453	1469	1481	1485	1472	1464	1471	1482	1503	1499	1490	1473	1456	1442	1441	1440	1460	1473	1476	1481	1493	1509	1516	1509	1495	1481	1470	1462	1468	1474	1485	1489	1493	1498	1484	1475	1476	1483	1492	1487	1485	1482	1486	1478	1462	1441	1425	1425	1442	1464	1489	1496	1468	1453	1450	1453	1452	1448	1443	1449	1454	1449	1444	1452	1453	1451	1462	1470	1482	1479	1460	1431	1265	1212	1088	0	0	0	0	0	0	0	0	0	0	0	0	0	0	0	0	0	0	0	0	0	0	0	0	0	1020	1048	1042	0	0	0	0	0	0	0	0	1063	1067	1073	1079	1066	1061	1017	0	0	0	0	0	0	0	0	0	0	0	0	0	0	0	0	0	0	0	0	0	0	0	0	0	0	0	0	0	0	870	877	904	0	0	0	0	1247	1350	1468	1482	1475	1468	1460	1461	1454	1446	1430	1432	1441	1454	1464	1490	1507	1511	1501	1484	1470	1463	1457	1458	1468	1475	1477	1472	1469	1474	1475	1478	1484	1492	1499	1501	1511	1520	1490	1484	1497	1501	1507	1520	1523	1519	1517	1517	1517	1512	1509	1498	1491	1490	1486	1472	1474	1481	1484	1484	1485	1485	1485	1488	1502	1521	1533	1544	1530	1521	1517	1513	1511	1520	1518	1513	1510	1505	1513	1518	1527	1540	1536	1532	1515	1494	1472	1472	1480	1495	1503	1500	1497	1490	1484	1481	1484	1486	1487	1488	1482	1484	1482	1503	1518	1529	1514	1512	1513	1505	1503	1501	1495	1496	1493	1487	1482	1483	1498	1514	1517	1506	1487	1488	1486	1483	1481	1487	1496	1501	1492	1481	1478	1493	1519	1532	1546	1543	1520	1510	1489	1475	1459	1462	1470	1476	1484	1482	1480	1472	1470	1457	1463	1482	1497	1503	1503	1506	1506	1513	1509	1495	1475	1469	1478	1482	1474	1459	1433	0	0	0	0	0	0	0	0	0	0	0	0	0	0	0	0	0	0	0	786	771	752	733	723	724	734	742	748	763	770	768	764	759	759	761	760	759	754	750	745	737	734	740	747	754	762	769	773	766	738	727	728	734	741	745	742	742	747	747	740	736	731	718	696	705	720	744	744	745	737	732	728	731	735	743	753	746	734	724	728	739	748	753	752	757	756	770	968	1040	1145	1205	1271	1330	1404	1455	1470	1490	1496	1489	1479	1467	1457	1454	1473	1495	1509	1507	1503	1499	1491	1473	1454	1461	1457	1458	1464	1471	1486	1491	1495	1490	1465	1444	1449	1458	1464	1457	1441	1433	1444	1464	1478	1472	1455	1438	1421	1421	1426	1436	1453	1462	1460	1444	1428	1424	1427	1430	1429	1425	1434	1453	1470	1482	1491	1494	1486	1482	1480	1474	1481	1482	1486	1482	1470	1459	1456	1457	1464	1448	1429	1420	1432	1449	1463	1474	1476	1476	1474	1468	1464	1467	1474	1477	1482	1472	1473	1470	1470	1464	1450	1445	1450	1453	1443	1440	1450	1455	1457	1465	1483	1490	1467	1441	1435	1428	1425	1424	1438	1459	1483	1482	1466	1441	1432	1429	1429	0	0	0	0	0	0
0	0	0	0	0	0	0	0	0	0	0	0	0	0	0	0	0	0	0	0	0	0	0	0	0	0	0	0	0	0	0	0	0	0	0	0	0	0	0	0	0	0	0	0	0	0	0	0	0	0	0	0	0	0	0	0	0	0	0	0	0	0	0	0	0	0	0	0	0	0	0	0	0	0	0	0	0	0	0	0	0	0	0	0	0	0	0	0	0	0	0	0	0	0	1455	1465	1470	1469	1464	1458	1459	1469	1489	1484	1480	1471	1460	1451	1445	1449	1445	1461	1504	1507	1501	1490	1495	1493	1487	1481	1470	1464	1464	1473	1484	1497	1500	1502	1491	1480	1468	1472	1479	1488	1483	1487	1494	1492	1482	1459	1445	1440	1441	1460	1482	1479	1466	1441	1439	1447	1448	1429	1428	1432	1435	1433	1444	1445	1451	1453	1445	1454	1461	1421	1347	1297	0	0	0	0	0	0	0	0	0	0	0	0	0	0	0	0	0	0	0	0	0	0	0	0	0	0	0	0	0	0	0	0	0	0	0	0	0	0	0	0	1037	1046	1046	1044	1041	0	0	0	0	0	0	0	0	0	0	0	0	0	0	0	0	0	0	0	0	0	0	0	0	0	0	0	0	0	0	0	865	880	917	0	0	0	1233	1344	1441	1466	1475	1479	1478	1467	1454	1453	1462	1473	1468	1465	1469	1486	1494	1494	1489	1485	1474	1464	1461	1457	1462	1469	1476	1472	1465	1464	1469	1475	1480	1486	1490	1496	1498	1506	1516	1485	1475	1485	1488	1500	1509	1512	1506	1509	1511	1518	1520	1522	1521	1516	1506	1497	1494	1505	1500	1492	1490	1496	1504	1494	1506	1520	1536	1544	1543	1533	1517	1512	1506	1502	1515	1518	1508	1503	1501	1505	1512	1521	1531	1532	1527	1516	1501	1490	1487	1491	1500	1504	1497	1494	1482	1475	1473	1484	1486	1488	1485	1483	1482	1497	1504	1513	1526	1531	1528	1525	1511	1501	1495	1491	1488	1490	1486	1486	1487	1507	1522	1525	1521	1511	1504	1499	1496	1487	1492	1500	1506	1499	1481	1478	1486	1506	1524	1526	1521	1518	1509	1494	1483	1458	1453	1466	1474	1481	1478	1469	1468	1471	1464	1479	1494	1503	1508	1506	1500	1502	1507	1503	1492	1464	1468	1474	1468	1459	1448	1437	0	0	0	0	0	0	0	0	0	0	0	0	0	0	0	0	0	0	0	0	809	777	748	716	714	722	730	741	744	749	744	739	738	744	752	752	749	742	733	722	709	708	713	728	740	748	757	750	742	724	716	717	724	728	733	739	743	741	733	723	716	715	697	681	681	696	710	723	727	732	733	731	734	738	741	741	732	718	712	720	727	729	723	721	719	716	724	729	750	878	1047	1071	1157	1231	1393	1426	1472	1492	1491	1491	1479	1459	1462	1475	1491	1502	1501	1500	1495	1481	1461	1455	1465	1465	1458	1451	1455	1471	1479	1480	1482	1462	1447	1447	1453	1455	1455	1441	1426	1430	1448	1468	1468	1453	1424	1411	1409	1420	1429	1437	1447	1448	1446	1449	1440	1438	1432	1428	1428	1435	1451	1476	1487	1501	1490	1476	1463	1462	1465	1462	1473	1466	1447	1441	1443	1452	1451	1461	1444	1418	1412	1423	1450	1461	1484	1495	1502	1488	1468	1454	1458	1464	1478	1497	1494	1487	1478	1478	1464	1455	1448	1463	1487	1479	1472	1460	1464	1468	1481	1495	1501	1488	1460	1453	1453	1427	1437	1459	1478	1494	1492	1475	1444	1429	1418	1418	0	0	0	0	0	0
0	0	0	0	0	0	0	0	0	0	0	0	0	0	0	0	0	0	0	0	0	0	0	0	0	0	0	0	0	0	0	0	0	0	0	0	0	0	0	0	0	0	0	0	0	0	0	0	0	0	0	0	0	0	0	0	0	0	0	0	0	0	0	0	0	0	0	0	0	0	0	0	0	0	0	0	0	0	0	0	0	0	0	0	0	0	0	0	0	0	0	0	0	0	1461	1470	1473	1464	1457	1454	1445	1453	1471	1476	1476	1474	1465	1463	1460	1466	1452	1466	1506	1518	1498	1478	1486	1483	1479	1477	1475	1469	1470	1472	1485	1489	1487	1483	1484	1477	1470	1475	1476	1483	1486	1491	1501	1504	1495	1478	1461	1447	1446	1445	1457	1457	1429	1422	1430	1442	1450	1428	1420	1419	1431	1428	1441	1445	1453	1457	1432	1411	1364	1192	0	0	0	0	0	0	0	0	0	0	0	0	0	0	0	0	0	0	0	0	0	0	0	0	0	0	0	0	0	0	0	0	0	0	0	0	0	0	0	0	0	0	1045	1046	1047	1047	0	0	0	0	0	0	0	0	0	0	0	0	0	0	0	0	0	0	0	0	0	0	0	0	0	0	0	0	0	0	0	0	877	898	940	1004	0	1232	1368	1416	1435	1453	1475	1476	1480	1469	1456	1459	1470	1477	1473	1461	1469	1482	1489	1496	1486	1477	1466	1460	1455	1453	1463	1468	1476	1468	1458	1459	1467	1477	1478	1486	1491	1494	1499	1513	1518	1503	1476	1477	1483	1480	1479	1496	1490	1495	1498	1512	1516	1524	1524	1522	1513	1507	1505	1508	1503	1498	1495	1495	1504	1489	1499	1517	1540	1549	1549	1529	1498	1497	1501	1496	1500	1510	1504	1493	1490	1492	1501	1511	1522	1524	1520	1520	1514	1516	1517	1513	1510	1507	1503	1496	1484	1468	1469	1476	1479	1477	1480	1491	1494	1498	1496	1501	1511	1522	1535	1534	1520	1502	1495	1490	1485	1477	1476	1480	1490	1498	1509	1519	1516	1515	1510	1513	1501	1497	1505	1509	1510	1497	1483	1479	1481	1487	1506	1517	1516	1504	1485	1479	1464	1448	1439	1445	1459	1462	1461	1462	1468	1484	1493	1503	1505	1508	1505	1499	1492	1491	1491	1493	1483	1467	1472	1476	1457	1450	1442	1477	1475	0	0	0	0	0	0	0	0	0	0	0	0	0	0	0	0	0	0	0	0	824	787	739	711	715	725	733	736	732	728	726	723	731	740	738	734	728	725	715	703	696	700	715	719	714	714	726	724	715	705	704	708	713	719	727	734	727	715	701	702	703	697	676	676	687	698	707	714	722	724	726	724	722	720	719	715	705	703	709	714	715	707	706	701	695	690	693	696	713	809	899	972	1039	1220	1248	1271	1339	1398	1443	1456	1474	1480	1477	1483	1492	1493	1498	1492	1473	1451	1459	1474	1472	1454	1443	1422	1421	1435	1452	1461	1461	1459	1450	1445	1438	1435	1418	1415	1415	1426	1447	1468	1451	1415	1399	1397	1426	1442	1448	1443	1439	1456	1462	1457	1452	1441	1434	1445	1448	1449	1446	1454	1462	1457	1445	1435	1446	1463	1469	1455	1434	1422	1424	1445	1469	1463	1453	1448	1432	1420	1428	1442	1469	1481	1493	1493	1485	1485	1487	1479	1494	1505	1524	1512	1491	1484	1484	1474	1468	1472	1484	1487	1471	1471	1462	1465	1479	1483	1502	1503	1487	1466	1466	1454	1463	1472	1474	1477	1484	1480	1472	1458	1448	1434	1434	0	0	0	0	0	0
0	0	0	0	0	0	0	0	0	0	0	0	0	0	0	0	0	0	0	0	0	0	0	0	0	0	0	0	0	0	0	0	0	0	0	0	0	0	0	0	0	0	0	0	0	0	0	0	0	0	0	0	0	0	0	0	0	0	0	0	0	0	0	0	0	0	0	0	0	0	0	0	0	0	0	0	0	0	0	0	0	0	0	0	0	0	0	0	0	0	0	0	0	0	1466	1470	1464	1465	1462	1450	1442	1456	1467	1469	1471	1476	1474	1472	1476	1488	1485	1485	1495	1514	1489	1484	1487	1484	1482	1479	1479	1474	1469	1474	1481	1489	1481	1474	1468	1471	1482	1475	1475	1484	1491	1495	1500	1497	1495	1485	1466	1456	1447	1446	1441	1426	1419	1423	1433	1460	1455	1438	1426	1428	1427	1430	1435	1442	1451	1398	0	0	0	0	0	0	0	0	0	0	0	0	0	0	0	0	0	0	0	0	0	0	0	0	0	0	0	0	0	0	0	0	0	0	0	0	0	0	0	0	0	0	0	0	0	0	0	1072	1081	0	0	0	0	0	0	0	0	0	0	0	0	0	0	0	0	0	0	0	0	0	0	0	0	0	0	0	0	0	0	0	0	0	902	930	975	1035	1216	1395	1424	1426	1441	1455	1474	1478	1480	1476	1460	1460	1473	1481	1477	1461	1465	1479	1490	1490	1486	1476	1468	1457	1451	1451	1461	1472	1474	1457	1445	1440	1439	1442	1457	1480	1493	1494	1502	1517	1520	1510	1490	1476	1467	1446	1447	1448	1452	1472	1489	1496	1511	1524	1527	1524	1514	1516	1518	1517	1504	1494	1497	1500	1508	1500	1501	1520	1544	1553	1549	1530	1495	1500	1498	1500	1499	1500	1495	1482	1487	1485	1490	1490	1506	1510	1512	1515	1521	1531	1538	1529	1517	1510	1503	1492	1481	1464	1462	1466	1473	1463	1477	1474	1482	1486	1488	1487	1493	1515	1527	1530	1513	1500	1489	1478	1473	1460	1460	1473	1486	1495	1493	1486	1468	1475	1491	1509	1517	1514	1509	1511	1502	1493	1486	1485	1498	1499	1508	1512	1514	1494	1467	1469	1482	1483	1479	1482	1490	1500	1507	1511	1523	1527	1517	1503	1502	1517	1521	1515	1501	1483	1468	1454	1445	1455	1459	1479	1489	1500	1497	1499	1494	1454	0	0	0	0	0	0	0	0	0	0	0	0	0	0	0	0	0	0	0	0	0	770	723	713	718	724	727	719	717	714	711	716	718	719	716	718	718	712	701	697	711	716	711	705	705	715	713	706	695	694	695	697	700	707	715	710	695	683	686	694	692	677	678	688	699	705	710	713	712	708	701	696	695	695	689	683	684	686	693	696	691	693	693	686	678	678	684	692	711	749	779	839	947	1007	1101	1182	1265	1347	1390	1441	1466	1475	1468	1470	1477	1483	1484	1480	1477	1480	1481	1473	1446	1419	1399	1403	1419	1433	1462	1478	1481	1466	1449	1442	1429	1419	1418	1419	1426	1447	1472	1449	1420	1402	1410	1433	1452	1468	1462	1461	1462	1466	1468	1460	1458	1461	1468	1464	1458	1449	1445	1452	1449	1437	1438	1454	1469	1466	1448	1427	1415	1429	1464	1477	1474	1466	1457	1448	1441	1428	1431	1454	1474	1487	1480	1476	1486	1495	1492	1497	1516	1528	1517	1502	1502	1494	1486	1481	1483	1480	1485	1469	1464	1467	1476	1477	1494	1497	1506	1498	1476	1476	1467	1456	1453	1459	1469	1480	1479	1469	1458	1448	1443	1443	0	0	0	0	0	0
0	0	0	0	0	0	0	0	0	0	0	0	0	0	0	0	0	0	0	0	0	0	0	0	0	0	0	0	0	0	0	0	0	0	0	0	0	0	0	0	0	0	0	0	0	0	0	0	0	0	0	0	0	0	0	0	0	0	0	0	0	0	0	0	0	0	0	0	0	0	0	0	0	0	0	0	0	0	0	0	0	0	0	0	0	0	0	0	0	0	0	0	0	0	1471	1473	1465	1470	1466	1451	1443	1455	1465	1471	1472	1470	1469	1477	1489	1504	1510	1508	1503	1497	1477	1477	1475	1474	1474	1475	1476	1472	1469	1474	1484	1487	1475	1460	1464	1472	1493	1486	1483	1485	1485	1490	1493	1498	1488	1469	1455	1446	1458	1448	1445	1427	1424	1431	1446	1465	1471	1451	1428	1421	1424	1419	1403	1325	0	0	0	0	0	0	0	0	0	0	0	0	0	0	0	0	0	0	0	0	0	0	0	0	0	0	0	0	0	0	0	0	0	0	0	0	0	0	0	0	0	0	0	0	0	0	0	0	0	0	0	0	0	0	0	0	0	0	0	0	0	0	0	0	0	0	0	0	0	0	0	0	0	0	0	0	0	0	0	0	0	0	0	0	935	966	1029	1187	1342	1429	1460	1475	1469	1451	1451	1471	1506	1518	1514	1507	1489	1475	1469	1459	1456	1462	1466	1471	1467	1467	1467	1475	1470	1463	1471	1480	1489	1479	1466	1452	1448	1455	1466	1478	1471	1489	1501	1509	1512	1510	1496	1491	1484	1462	1462	1455	1463	1461	1462	1477	1495	1506	1506	1513	1510	1508	1498	1485	1472	1464	1478	1489	1494	1500	1503	1510	1524	1536	1538	1528	1516	1505	1502	1501	1497	1492	1485	1488	1488	1489	1485	1484	1481	1469	1462	1465	1485	1502	1519	1518	1514	1503	1496	1488	1479	1464	1461	1472	1474	1478	1473	1451	1437	1446	1454	1467	1480	1492	1495	1504	1486	1478	1477	1483	1475	1477	1469	1473	1487	1477	1461	1449	1439	1442	1476	1493	1501	1510	1508	1482	1483	1485	1487	1496	1503	1503	1500	1507	1504	1472	1468	1468	1481	1491	1487	1490	1502	1516	1514	1519	1525	1530	1512	1499	1497	1509	1519	1516	1500	1488	1471	1456	1448	1454	1455	1480	1491	1506	1507	1507	1496	1474	0	0	0	0	0	0	0	0	0	0	0	0	0	0	0	0	0	0	0	0	0	0	728	703	709	715	713	714	713	708	703	698	696	699	704	712	715	709	689	695	707	715	713	712	711	711	707	698	688	688	689	686	689	695	700	694	684	678	681	683	683	670	672	680	691	697	700	698	693	690	685	679	676	678	679	678	661	660	670	679	685	686	677	673	670	672	680	686	692	695	706	726	790	861	942	1003	1075	1173	1257	1329	1434	1450	1447	1448	1450	1450	1465	1476	1479	1488	1493	1476	1448	1411	1385	1390	1408	1439	1475	1491	1491	1477	1468	1453	1444	1437	1440	1440	1454	1467	1483	1457	1432	1421	1438	1450	1455	1472	1476	1477	1475	1479	1484	1483	1478	1485	1484	1489	1481	1478	1487	1476	1468	1459	1451	1454	1459	1460	1451	1442	1441	1460	1478	1489	1480	1471	1477	1474	1450	1426	1425	1443	1460	1467	1465	1464	1479	1490	1493	1497	1508	1511	1513	1514	1514	1508	1503	1488	1493	1491	1490	1482	1471	1466	1473	1481	1484	1488	1498	1500	1491	1491	1477	1459	1448	1455	1462	1479	1490	1491	1478	1471	1471	1465	0	0	0	0	0	0
0	0	0	0	0	0	0	0	0	0	0	0	0	0	0	0	0	0	0	0	0	0	0	0	0	0	0	0	0	0	0	0	0	0	0	0	0	0	0	0	0	0	0	0	0	0	0	0	0	0	0	0	0	0	0	0	0	0	0	0	0	0	0	0	0	0	0	0	0	0	0	0	0	0	0	0	0	0	0	0	0	0	0	0	0	0	0	0	0	0	0	0	0	0	1464	1445	1449	1458	1462	1449	1449	1454	1466	1466	1459	1457	1460	1478	1489	1501	1514	1511	1508	1500	1488	1486	1481	1476	1464	1471	1476	1481	1484	1472	1477	1469	1467	1460	1467	1474	1491	1488	1484	1479	1483	1483	1487	1491	1480	1467	1449	1453	1462	1461	1447	1438	1435	1453	1466	1476	1482	1464	1421	1376	1343	1317	0	0	0	0	0	0	0	0	0	0	0	0	0	0	0	0	0	0	0	0	0	0	0	0	0	0	0	0	0	0	0	0	0	0	0	0	0	0	0	0	0	0	0	0	0	0	0	0	0	0	0	0	0	0	0	0	0	0	0	0	0	0	0	0	0	0	0	0	0	0	0	0	0	0	0	0	0	0	0	0	0	0	0	0	0	921	964	1005	1126	1284	1398	1454	1479	1485	1480	1461	1451	1475	1507	1524	1527	1508	1486	1473	1463	1458	1455	1457	1460	1469	1468	1473	1479	1482	1480	1477	1480	1493	1496	1492	1476	1463	1459	1458	1465	1480	1483	1492	1505	1513	1509	1507	1510	1513	1496	1484	1481	1469	1466	1462	1462	1476	1486	1492	1486	1498	1500	1498	1500	1496	1481	1477	1483	1493	1495	1495	1498	1510	1516	1532	1534	1524	1518	1508	1501	1499	1491	1484	1488	1499	1496	1491	1492	1491	1484	1465	1455	1461	1481	1493	1511	1517	1511	1505	1501	1504	1500	1484	1467	1481	1488	1484	1480	1454	1438	1439	1454	1471	1480	1489	1493	1486	1481	1479	1482	1493	1495	1483	1472	1479	1477	1467	1453	1448	1432	1441	1472	1485	1494	1507	1484	1470	1479	1493	1507	1499	1493	1490	1494	1493	1493	1469	1458	1446	1450	1463	1482	1495	1498	1510	1507	1509	1508	1510	1505	1497	1491	1495	1497	1494	1479	1468	1466	1466	1471	1483	1502	1513	1526	1525	1521	1515	1517	1505	1452	0	0	0	0	0	0	0	0	0	0	0	0	0	0	0	0	0	0	0	0	0	0	708	693	704	706	701	701	700	693	684	681	686	697	708	697	683	680	684	696	706	715	722	718	712	705	696	693	690	688	684	684	688	690	686	681	677	677	680	674	664	663	670	680	681	684	687	684	683	680	674	671	676	679	676	650	642	653	664	678	675	667	652	656	662	670	676	677	679	680	686	719	756	803	854	909	964	1009	1076	1154	1257	1316	1355	1383	1406	1426	1442	1445	1465	1467	1473	1455	1436	1411	1402	1420	1450	1473	1480	1481	1475	1473	1464	1462	1460	1469	1483	1489	1496	1499	1474	1449	1448	1464	1460	1461	1458	1459	1469	1478	1487	1486	1488	1493	1494	1500	1502	1510	1507	1506	1501	1487	1472	1454	1448	1454	1457	1463	1463	1470	1475	1488	1488	1478	1472	1476	1468	1443	1436	1438	1460	1476	1470	1461	1454	1469	1490	1491	1502	1508	1509	1506	1507	1507	1500	1500	1491	1501	1499	1495	1489	1470	1472	1480	1486	1482	1481	1485	1494	1492	1492	1482	1460	1451	1448	1463	1474	1485	1486	1481	1480	1480	1477	0	0	0	0	0	0
0	0	0	0	0	0	0	0	0	0	0	0	0	0	0	0	0	0	0	0	0	0	0	0	0	0	0	0	0	0	0	0	0	0	0	0	0	0	0	0	0	0	0	0	0	0	0	0	0	0	0	0	0	0	0	0	0	0	0	0	0	0	0	0	0	0	0	0	0	0	0	0	0	0	0	0	0	0	0	0	0	0	0	0	0	0	0	0	0	0	0	0	0	0	1456	1432	1447	1456	1448	1441	1443	1451	1457	1463	1450	1454	1458	1480	1491	1499	1507	1501	1494	1490	1487	1480	1477	1468	1467	1474	1483	1483	1485	1467	1454	1453	1460	1472	1472	1472	1483	1473	1473	1476	1482	1491	1495	1492	1482	1467	1469	1474	1477	1473	1455	1440	1438	1441	1456	1465	1460	0	0	0	0	0	0	0	0	0	0	0	0	0	0	0	0	0	0	0	0	0	0	0	0	0	0	0	0	0	0	0	0	0	0	0	0	0	0	0	0	0	0	0	0	0	0	0	0	0	0	0	0	0	0	0	0	0	0	0	0	0	0	0	0	0	0	0	0	0	0	0	0	0	0	0	0	0	0	0	0	0	0	0	0	0	0	0	0	0	902	936	1042	1104	1274	1410	1438	1468	1484	1496	1499	1484	1470	1477	1494	1516	1530	1518	1490	1467	1467	1470	1465	1464	1460	1459	1466	1473	1483	1491	1491	1494	1507	1517	1513	1503	1482	1468	1461	1457	1463	1486	1497	1509	1515	1511	1509	1512	1525	1539	1534	1521	1514	1508	1497	1490	1474	1479	1509	1517	1524	1518	1519	1515	1499	1504	1491	1483	1484	1493	1496	1490	1501	1513	1521	1526	1523	1519	1519	1518	1510	1498	1486	1485	1495	1507	1513	1507	1502	1495	1477	1459	1443	1434	1443	1480	1511	1523	1519	1511	1513	1516	1511	1502	1493	1486	1496	1501	1501	1490	1483	1474	1476	1466	1471	1475	1485	1491	1493	1484	1472	1485	1502	1497	1485	1477	1478	1481	1486	1498	1483	1490	1503	1520	1523	1516	1489	1476	1481	1493	1493	1465	1471	1479	1488	1493	1479	1471	1469	1471	1467	1477	1486	1497	1501	1494	1507	1509	1513	1512	1508	1503	1501	1500	1497	1484	1476	1466	1464	1479	1489	1502	1515	1525	1530	1527	1519	1507	1505	1503	1499	1432	0	0	0	0	0	0	0	0	0	0	0	0	0	0	0	0	0	0	0	0	0	0	704	697	696	694	685	686	687	677	675	663	673	682	686	677	674	674	682	694	712	722	714	707	704	701	698	694	687	680	681	686	683	679	671	668	670	669	671	661	654	658	663	670	673	678	679	684	679	671	668	667	669	668	642	635	642	655	667	663	648	632	638	645	657	665	662	664	666	672	674	695	718	742	799	837	897	965	1046	1120	1186	1265	1331	1393	1421	1434	1437	1457	1468	1470	1467	1457	1438	1432	1438	1461	1465	1457	1462	1472	1468	1463	1462	1472	1482	1486	1492	1508	1514	1488	1467	1466	1472	1467	1455	1446	1450	1458	1468	1480	1485	1489	1493	1500	1502	1507	1510	1514	1514	1500	1491	1478	1445	1430	1446	1459	1470	1484	1484	1484	1488	1486	1477	1476	1467	1470	1446	1439	1453	1476	1487	1483	1460	1452	1469	1485	1495	1497	1504	1503	1497	1497	1493	1491	1482	1486	1484	1495	1499	1481	1470	1470	1476	1483	1482	1474	1467	1477	1477	1479	1474	1460	1455	1460	1467	1473	1480	1484	1485	1490	1490	1494	0	0	0	0	0	0
0	0	0	0	0	0	0	0	0	0	0	0	0	0	0	0	0	0	0	0	0	0	0	0	0	0	0	0	0	0	0	0	0	0	0	0	0	0	0	0	0	0	0	0	0	0	0	0	0	0	0	0	0	0	0	0	0	0	0	0	0	0	0	0	0	0	0	0	0	0	0	0	0	0	0	0	0	0	0	0	0	0	0	0	0	0	0	0	0	0	0	0	0	0	1456	1436	1439	1447	1446	1431	1433	1436	1449	1449	1456	1461	1478	1492	1505	1506	1496	1478	1460	1453	1452	1468	1476	1471	1470	1480	1489	1488	1468	1440	1433	1436	1442	1437	1441	1460	1465	1467	1471	1486	1486	1491	1497	1504	1491	1472	1467	1477	1487	1475	1455	1436	1425	1415	1408	1406	0	0	0	0	0	0	0	0	0	0	0	0	0	0	0	0	0	0	0	0	0	0	0	0	0	0	0	0	0	0	0	0	0	0	0	0	0	0	0	0	0	0	0	0	0	0	0	0	0	0	0	0	0	0	0	0	0	0	0	0	0	0	0	0	0	0	0	0	0	0	0	0	0	0	0	0	0	0	0	0	0	0	0	0	0	0	0	0	0	0	934	1028	1142	1284	1447	1475	1474	1465	1472	1488	1503	1496	1490	1489	1494	1502	1499	1491	1478	1477	1478	1473	1468	1467	1470	1474	1480	1485	1496	1493	1493	1497	1509	1518	1511	1493	1480	1472	1463	1465	1475	1490	1510	1517	1518	1516	1509	1513	1528	1535	1527	1521	1514	1512	1513	1499	1484	1489	1516	1523	1525	1521	1521	1512	1499	1488	1484	1484	1481	1476	1471	1473	1496	1510	1516	1500	1489	1496	1503	1493	1491	1487	1481	1484	1495	1510	1514	1513	1509	1507	1504	1482	1459	1444	1445	1472	1508	1517	1511	1515	1523	1525	1515	1503	1494	1492	1506	1512	1510	1507	1499	1496	1497	1496	1489	1495	1499	1509	1507	1496	1484	1483	1488	1491	1486	1478	1479	1494	1511	1522	1518	1512	1511	1514	1527	1523	1506	1487	1482	1478	1471	1448	1463	1475	1492	1490	1472	1470	1481	1480	1476	1482	1489	1498	1499	1491	1500	1507	1515	1519	1517	1509	1501	1498	1490	1482	1468	1464	1467	1485	1498	1501	1517	1527	1531	1522	1510	1497	1484	1496	1487	1480	1397	0	0	0	0	0	0	0	0	0	0	0	0	0	0	0	0	0	0	0	0	0	0	711	692	678	672	662	657	643	649	654	666	673	674	675	669	671	678	690	703	704	689	694	698	704	695	690	681	675	675	675	675	670	663	658	659	662	663	656	648	651	657	664	662	670	675	680	676	668	658	656	654	649	638	635	639	642	649	648	633	629	627	637	650	658	658	657	657	653	648	641	650	660	686	724	774	847	904	1007	1090	1160	1256	1331	1403	1430	1440	1450	1459	1473	1470	1469	1456	1454	1457	1472	1471	1450	1446	1461	1468	1474	1462	1469	1480	1485	1496	1506	1521	1510	1487	1473	1467	1462	1445	1434	1426	1442	1459	1481	1480	1488	1491	1504	1511	1508	1501	1498	1498	1492	1485	1473	1442	1429	1451	1469	1492	1509	1519	1510	1483	1477	1469	1460	1459	1459	1446	1450	1469	1505	1523	1517	1496	1488	0	0	1512	1491	1472	1453	1436	1436	1443	1442	1435	1406	1393	0	0	0	0	0	0	0	0	0	0	0	0	0	0	0	0	0	0	0	0	1507	1513	1509	1509	1497	0	0	0	0	0	0
0	0	0	0	0	0	0	0	0	0	0	0	0	0	0	0	0	0	0	0	0	0	0	0	0	0	0	0	0	0	0	0	0	0	0	0	0	0	0	0	0	0	0	0	0	0	0	0	0	0	0	0	0	0	0	0	0	0	0	0	0	0	0	0	0	0	0	0	0	0	0	0	0	0	0	0	0	0	0	0	0	0	0	0	0	0	0	0	0	0	0	0	0	0	1450	1426	1433	1437	1425	1419	1424	1441	1450	1467	1469	1487	1506	1516	1519	1508	1487	1467	1442	1435	1454	1474	1474	1472	1465	1475	1482	1482	1472	1452	1438	1432	1440	1431	1438	1449	1470	1478	1489	1497	1491	1485	1491	1496	1486	1464	1457	1465	1464	1437	1405	1363	1285	0	0	0	0	0	0	0	0	0	0	0	0	0	0	0	0	0	0	0	0	0	0	0	0	0	0	0	0	0	0	0	0	0	0	0	0	0	0	0	0	0	0	0	0	0	0	0	0	0	0	0	0	0	0	0	0	0	0	0	0	0	0	0	0	0	0	0	0	0	0	0	0	0	0	0	0	0	0	0	0	0	0	0	0	0	0	0	0	0	0	0	0	0	1024	1156	1276	1452	1492	1494	1477	1467	1468	1480	1488	1488	1487	1484	1497	1496	1496	1484	1477	1481	1477	1476	1473	1467	1478	1485	1492	1501	1504	1500	1491	1492	1510	1520	1509	1490	1480	1476	1470	1472	1479	1498	1515	1522	1525	1510	1511	1513	1523	1533	1533	1512	1511	1514	1518	1512	1509	1509	1516	1519	1518	1515	1513	1500	1488	1487	1489	1491	1485	1487	1484	1476	1490	1509	1512	1496	1485	1487	1489	1484	1486	1479	1477	1480	1496	1504	1506	1500	1496	1508	1506	1500	1487	1486	1490	1489	1486	1490	1493	1507	1520	1532	1546	1542	1505	1522	1524	1511	1496	1484	1495	1492	1494	1500	1490	1496	1506	1516	1517	1504	1490	1483	1489	1486	1486	1477	1481	1498	1541	1542	1518	1482	1462	1474	1475	1474	1480	1460	1439	1417	1410	1426	1449	1477	1499	1473	1450	1440	1477	1505	1508	1522	1532	1520	1516	1518	1522	1510	1498	1490	1492	1474	1452	1446	1454	1476	1501	1505	1501	1495	1484	1485	1480	1484	1488	1499	1508	1500	1493	1481	1478	1404	0	0	0	0	0	0	0	0	0	0	0	0	0	0	0	0	0	0	0	0	0	0	0	751	717	676	658	649	645	648	649	650	650	657	655	656	659	670	679	686	688	669	666	675	680	684	684	681	673	665	664	664	661	658	653	649	650	654	655	648	643	644	650	653	650	658	662	665	666	665	655	649	641	636	634	631	634	638	639	637	631	626	632	632	646	651	652	652	652	646	635	631	631	638	647	665	690	723	752	765	823	904	974	978	1048	1115	1291	1368	1417	1447	1448	1440	0	0	0	0	0	0	0	0	0	0	0	0	0	0	0	0	0	0	0	0	0	0	0	0	0	0	0	0	0	0	0	0	0	0	0	0	0	0	0	0	0	0	0	0	0	0	0	0	0	0	0	0	0	0	0	0	0	0	0	0	0	0	0	0	0	0	0	0	0	0	0	0	0	0	0	0	0	0	0	0	0	0	0	0	0	0	0	0	0	0	0	0	0	0	0	0	0	0	0	0	0	0	0	0	0	0
0	0	0	0	0	0	0	0	0	0	0	0	0	0	0	0	0	0	0	0	0	0	0	0	0	0	0	0	0	0	0	0	0	0	0	0	0	0	0	0	0	0	0	0	0	0	0	0	0	0	0	0	0	0	0	0	0	0	0	0	0	0	0	0	0	0	0	0	0	0	0	0	0	0	0	0	0	0	0	0	0	0	0	0	0	0	0	0	0	0	0	0	0	1463	1430	1430	1429	1430	1438	1443	1451	1459	1466	1470	1478	1489	1503	1517	1513	1503	1482	1462	1445	1437	1459	1485	1485	1470	1454	1449	1468	1478	1477	1454	1445	1448	1463	1472	1478	1473	1482	1497	1501	1487	1474	1474	1468	1465	1462	1446	1441	1441	1375	1248	1132	0	0	0	0	0	0	0	0	0	0	0	0	0	0	0	0	0	0	0	0	0	0	0	0	0	0	0	0	0	0	0	0	0	0	0	0	0	0	0	0	0	0	0	0	0	0	0	0	0	0	0	0	0	0	0	0	0	0	0	0	0	0	0	0	0	0	0	0	0	0	0	0	0	0	0	0	0	0	0	0	0	0	0	0	0	0	0	0	0	0	0	0	0	0	0	1122	1196	1316	1460	1497	1495	1485	1476	1473	1475	1473	1472	1473	1479	1498	1501	1490	1485	1476	1471	1469	1473	1475	1482	1488	1500	1512	1526	1522	1511	1498	1500	1509	1516	1518	1510	1496	1481	1463	1459	1459	1484	1507	1515	1521	1526	1528	1523	1503	1479	1459	1457	1482	1497	1509	1522	1523	1510	1502	1508	1514	1488	1444	1435	1462	1486	1495	1488	1474	1445	1419	1412	1438	1461	1498	1519	1494	1487	1481	1471	1471	1470	1473	1472	1478	1496	1495	1494	1491	1506	1505	1495	1486	1491	1492	1484	1476	1476	1482	1500	1519	1538	1546	1543	1506	1522	1522	1511	1499	1483	1459	1447	1449	1460	1473	1486	1491	1482	1473	1483	1485	0	0	0	0	0	0	0	0	0	0	0	0	0	0	0	0	0	0	0	0	0	0	0	0	0	0	0	0	0	0	0	0	0	0	0	0	0	0	0	0	0	0	0	0	0	0	0	0	0	0	0	0	0	0	0	0	0	0	0	0	0	0	0	0	0	0	0	0	0	0	0	0	0	0	0	0	0	0	0	0	0	0	0	0	0	747	0	692	659	648	651	649	647	642	638	635	638	646	657	675	682	678	659	658	664	669	669	668	665	659	656	652	651	646	648	649	643	645	646	649	641	637	637	640	638	640	646	650	653	657	661	659	650	640	634	630	630	630	631	627	624	625	624	627	630	639	649	649	641	632	628	630	629	628	627	625	633	647	660	671	689	714	744	789	838	885	959	0	0	0	0	0	0	0	0	0	0	0	0	0	0	0	0	0	0	0	0	0	0	0	0	0	0	0	0	0	0	0	0	0	0	0	0	0	0	0	0	0	0	0	0	0	0	0	0	0	0	0	0	0	0	0	0	0	0	0	0	0	0	0	0	0	0	0	0	0	0	0	0	0	0	0	0	0	0	0	0	0	0	0	0	0	0	0	0	0	0	0	0	0	0	0	0	0	0	0	0	0	0	0	0	0	0	0	0	0	0	0	0
0	0	0	0	0	0	0	0	0	0	0	0	0	0	0	0	0	0	0	0	0	0	0	0	0	0	0	0	0	0	0	0	0	0	0	0	0	0	0	0	0	0	0	0	0	0	0	0	0	0	0	0	0	0	0	0	0	0	0	0	0	0	0	0	0	0	0	0	0	0	0	0	0	0	0	0	0	0	0	0	0	0	0	0	0	0	0	0	0	0	0	0	0	1473	1474	1472	1463	1455	1453	1458	1459	1461	1476	1474	1481	1487	1496	1504	1505	1493	1476	1463	1450	1452	1466	1486	1482	1460	1447	1449	1454	1462	1463	1451	1445	1445	1458	1485	1502	1500	1491	1481	1435	1394	1423	1450	1436	1409	1381	1342	1290	1209	0	0	0	0	0	0	0	0	0	0	0	0	0	0	0	0	0	0	0	0	0	0	0	0	0	0	0	0	0	0	0	0	0	0	0	0	0	0	0	0	0	0	0	0	0	0	0	0	0	0	0	0	0	0	0	0	0	0	0	0	0	0	0	0	0	0	0	0	0	0	0	0	0	0	0	0	0	0	0	0	0	0	0	0	0	0	0	0	0	0	0	0	0	0	0	0	0	0	0	1275	1355	1415	1451	1473	1476	1460	1443	1435	1428	1420	1423	1428	1446	1531	1533	1500	1465	1445	1443	1475	1506	1512	1499	1472	0	0	0	0	0	0	0	0	0	0	0	0	0	0	0	0	0	0	0	0	0	0	0	0	0	0	0	0	0	0	0	0	0	0	0	0	0	0	0	0	0	0	0	0	0	0	0	0	0	0	0	0	0	1449	1432	1397	1371	1365	1401	1438	1455	1460	1470	1454	1448	1454	1482	1497	1476	1419	1375	1388	1446	1494	1548	1554	1461	1435	1425	1443	1467	1503	1523	0	0	0	0	0	0	0	0	0	0	0	0	0	0	0	0	0	0	0	0	0	0	0	0	0	0	0	0	0	0	0	0	0	0	0	0	0	0	0	0	0	0	0	0	0	0	0	0	0	0	0	0	0	0	0	0	0	0	0	0	0	0	0	0	0	0	0	0	0	0	0	0	0	0	0	0	0	0	0	0	0	0	0	0	0	0	0	0	0	0	0	0	0	0	0	0	0	0	0	0	678	652	647	646	641	637	628	624	627	635	653	667	678	679	674	675	671	665	664	661	656	652	646	639	633	632	636	637	641	645	647	642	635	631	632	631	629	631	634	635	637	644	654	659	648	639	630	627	628	625	619	618	617	615	616	618	623	634	641	638	632	626	621	627	626	627	623	618	620	626	635	643	644	645	605	607	609	602	594	611	621	0	0	0	0	0	0	0	0	0	0	0	0	0	0	0	0	0	0	0	0	0	0	0	0	0	0	0	0	0	0	0	0	0	0	0	0	0	0	0	0	0	0	0	0	0	0	0	0	0	0	0	0	0	0	0	0	0	0	0	0	0	0	0	0	0	0	0	0	0	0	0	0	0	0	0	0	0	0	0	0	0	0	0	0	0	0	0	0	0	0	0	0	0	0	0	0	0	0	0	0	0	0	0	0	0	0	0	0	0	0
0	0	0	0	0	0	0	0	0	0	0	0	0	0	0	0	0	0	0	0	0	0	0	0	0	0	0	0	0	0	0	0	0	0	0	0	0	0	0	0	0	0	0	0	0	0	0	0	0	0	0	0	0	0	0	0	0	0	0	0	0	0	0	0	0	0	0	0	0	0	0	0	0	0	0	0	0	0	0	0	0	0	0	0	0	0	0	0	0	0	0	0	0	1439	1475	1480	1471	1467	1463	1464	1459	1464	1473	1482	1485	1483	1485	1485	1483	1479	1468	1460	1455	1458	1458	1467	1470	1453	1440	1451	1459	1473	1453	1425	1410	1425	1451	0	0	0	0	0	0	0	0	0	0	0	0	0	0	0	0	0	0	0	0	0	0	0	0	0	0	0	0	0	0	0	0	0	0	0	0	0	0	0	0	0	0	0	0	0	0	0	0	0	0	0	0	0	0	0	0	0	0	0	0	0	0	0	0	0	0	0	0	0	0	0	0	0	0	0	0	0	0	0	0	0	0	0	0	0	0	0	0	0	0	0	0	0	0	0	0	0	0	0	0	0	0	0	0	0	0	0	0	0	0	0	0	0	0	0	0	0	0	0	0	0	0	0	0	0	0	0	0	0	0	0	0	0	0	0	0	0	0	0	0	0	0	0	0	0	0	0	0	0	0	0	0	0	0	0	0	0	0	0	0	0	0	0	0	0	0	0	0	0	0	0	0	0	0	0	0	0	0	0	0	0	0	0	0	0	0	0	0	0	0	0	0	0	0	0	0	0	0	0	0	0	0	0	0	0	0	0	0	0	0	0	0	0	0	0	0	0	0	0	0	0	0	0	0	0	0	0	0	0	0	0	0	0	0	0	0	0	0	0	0	0	0	0	0	0	0	0	0	0	0	0	0	0	0	0	0	0	0	0	0	0	0	0	0	0	0	0	0	0	0	0	0	0	0	0	0	0	0	0	0	0	0	0	0	0	0	0	0	0	0	0	0	0	0	0	0	0	0	0	0	0	0	0	0	0	0	0	0	0	0	0	0	0	0	0	0	0	0	0	0	0	0	710	684	644	640	638	636	627	622	624	633	650	669	682	681	676	677	672	665	659	656	649	644	635	628	620	618	625	636	644	648	641	639	632	632	634	632	628	625	628	626	626	628	639	641	636	633	627	628	626	619	615	612	611	615	613	618	620	627	631	633	628	620	617	624	623	625	623	618	611	608	612	618	618	610	601	599	594	594	592	580	584	587	570	0	0	0	0	0	0	0	0	0	0	0	0	0	0	0	0	0	0	0	0	0	0	0	0	0	0	0	0	0	0	0	0	0	0	0	0	0	0	0	0	0	0	0	0	0	0	0	0	0	0	0	0	0	0	0	0	0	0	0	0	0	0	0	0	0	0	0	0	0	0	0	0	0	0	0	0	0	0	0	0	0	0	0	0	0	0	0	0	0	0	0	0	0	0	0	0	0	0	0	0	0	0	0	0	0	0	0	0
