0	0	0	0	0	0	0	0	0	0	0	0	0	0	0	0	0	0	0	0	0	0	0	0	0	0	0	0	0	0	0	0	0	0	0	0	0	0	0	0	0	0	0	0	0	0	0	0	0	0	0	0	0	0	0	0	0	0	0	0	0	0	0	0	0	0	0	0	0	0	0	0	0	0	0	0	0	0	0	0	0	0	0	0	0	0	0	0	0	0	0	0	0	1472	1436	1428	1429	1438	1455	1476	1486	1488	1481	1477	1469	1464	1474	1476	1469	1460	1454	1460	1469	1463	1463	1463	1458	1462	1468	1477	1484	1483	1474	1472	1476	1475	1490	1489	1482	1456	1412	1408	1428	1463	1482	1501	1492	1463	1428	1434	1481	1511	1520	1502	1478	1480	1487	1492	1475	1490	1516	1530	1541	1539	1519	1487	1472	1469	1468	1441	1436	1436	1445	1479	1490	1481	1467	1470	1470	1466	1467	1470	1475	1469	1449	1426	1411	1420	1443	1455	1441	1426	1454	1470	1467	1455	1431	1433	1439	1452	1452	1439	1414	1423	1432	1437	1435	1429	1415	1414	1438	1439	1429	1420	1412	1412	1420	1412	1407	1407	1409	1405	1418	1429	1430	1428	1438	1444	1439	1426	1408	1389	1360	1333	1303	1278	1234	1212	1191	1165	1142	1120	1091	1097	1102	1112	0	0	0	0	1051	0	0	0	0	0	1089	1090	1101	1122	1130	1125	1117	1124	1135	1134	1136	1141	1146	1150	1143	1137	0	1145	1136	1113	1108	1134	1175	1227	1304	1458	1493	1521	1509	1492	1489	1505	1504	1504	1494	1464	1459	1467	1488	1509	1528	1541	1528	1510	1486	1480	1478	1491	1508	1515	1510	1500	1497	1487	1468	1471	1473	1468	1468	1471	1471	1463	1448	1447	1446	1439	1424	1419	1401	1388	1393	1410	1408	1409	1406	1400	1393	1387	1382	1378	1403	1408	1411	1410	1401	1398	1397	1390	1386	1390	1399	1402	1398	1392	1392	1384	1386	1397	1404	1391	1373	1368	1366	1380	1390	1397	1402	1409	1410	1408	1393	1385	1392	1406	1435	1458	1463	1461	1469	1485	1500	1497	1482	1467	1467	1470	1475	1482	1485	1470	1464	1468	1469	1485	1493	1489	1480	1477	1494	1510	1515	1509	1495	1491	1490	1493	1493	1501	1497	1496	1493	1487	1480	1472	1486	1506	1483	1385	0	0	0	0	0	0	0	0	0	0	0	1024	1023	1024	1030	1046	1060	1070	1075	1074	1073	1068	1062	1053	1034	1035	1039	1051	1044	1030	1028	1019	1032	1033	1022	1002	988	983	997	1018	1037	1037	1040	1044	1048	1058	1068	1076	1099	1264	1278	1285	1310	1347	1368	1397	1398	1379	1371	1367	1354	1311	1305	1319	1347	1357	1360	1360	1363	1365	1373	1366	1345	1329	1330	1347	1362	1352	1341	1338	1348	1358	1352	1359	1367	1371	1366	1358	1342	1323	1316	1311	1305	1304	1304	1314	1350	1391	1375	1361	1358	1382	1411	1439	1453	1470	1489	1507	1518	1517	1514	1486	1478	1482	1488	1476	1467	1465	1478	1494	1501	1492	1468	1458	1453	1458	1468	1482	1467	1452	1455	1472	1481	1474	1465	1461	1468	1475	1486	1494	1509	1516	1513	1503	1486	1481	1476	1479	1480	1479	1478	1474	1475	1481	1491	1495	1492	1482	1477	1471	1465	1470	1488	1501	1503	1501	1494	1490	1492	1493	1495	1498	1496	1481	1475	1478	1463	1459	1453	1455	1455	1449	1452	1468	1480	1483	1476	1457	1450	1446	1454	1458	1457	1449	1453	1456	1456	1453	1474	1490	1498	1493	1481	1465	1454	1453	1450	1450	1458	1464	1471	1466	1438	1439	1432	1439	1435	1430	1448	1454	1447	1433	1433	1433	1419	1429	1447	1461	1466	0	0	0	0	0	0	0
0	0	0	0	0	0	0	0	0	0	0	0	0	0	0	0	0	0	0	0	0	0	0	0	0	0	0	0	0	0	0	0	0	0	0	0	0	0	0	0	0	0	0	0	0	0	0	0	0	0	0	0	0	0	0	0	0	0	0	0	0	0	0	0	0	0	0	0	0	0	0	0	0	0	0	0	0	0	0	0	0	0	0	0	0	0	0	0	0	0	0	0	0	1474	1433	1418	1424	1432	1443	1466	1484	1492	1491	1481	1475	1463	1472	1473	1470	1454	1447	1458	1467	1463	1456	1448	1447	1449	1460	1474	1482	1479	1481	1481	1485	1480	1475	1490	1495	1485	1459	1454	1468	1495	1516	1519	1496	1465	1447	1435	1466	1489	1491	1471	1473	1474	1490	1485	1464	1465	1493	1516	1516	1504	1478	1459	1455	1452	1441	1426	1414	1422	1428	1449	1444	1446	1461	1471	1482	1482	1474	1476	1476	1468	1461	1450	1431	1419	1454	1464	1461	1460	1468	1475	1468	1454	1430	1432	1436	1448	1451	1439	1444	1447	1445	1438	1436	1433	1443	1455	1462	1457	1443	1426	1415	1416	1430	1423	1416	1416	1411	1406	1425	1440	1448	1453	1456	1455	1443	1436	1426	1405	1358	1334	1243	1186	1139	1134	1133	1119	1109	1101	1095	1093	1097	1103	1101	1092	1072	1061	1052	1049	1055	1056	1069	1054	1053	1068	1088	1121	1124	1110	1101	1102	1116	1120	1125	1125	1133	1136	1120	0	0	0	1136	1125	1119	1143	1179	1219	1273	1441	1504	1496	1493	1487	1488	1492	1494	1489	1469	1464	1466	1483	1498	1522	1540	1548	1529	1505	1491	1480	1483	1492	1501	1504	1482	1461	1460	1464	1459	1463	1464	1461	1463	1459	1464	1460	1454	1448	1457	1436	1431	1431	1431	1433	1425	1441	1462	1472	1464	1442	1422	1401	1385	1381	1383	1389	1410	1428	1426	1415	1396	1389	1394	1412	1420	1421	1413	1408	1401	1401	1394	1405	1420	1417	1407	1391	1392	1404	1422	1440	1447	1444	1443	1437	1417	1406	1407	1411	1428	1437	1457	1462	1474	1479	1484	1479	1469	1460	1461	1470	1484	1489	1484	1476	1476	1473	1486	1490	1493	1485	1472	1469	1485	1503	1500	1482	1467	1467	1474	1485	1493	1487	1477	1459	1452	1451	1451	1458	1479	1505	1480	0	0	0	0	0	0	0	0	0	0	0	1021	1022	1021	1017	1025	1034	1050	1056	1063	1068	1069	1061	1053	1029	1012	1011	1020	1042	1027	1025	1019	1021	1024	1032	1027	1009	999	994	996	1006	1018	1015	1020	1018	1029	1041	1048	1045	1067	1122	1216	1237	1268	1309	1343	1394	1394	1388	1378	1383	1376	1375	1384	1399	1410	1409	1389	1385	1393	1399	1410	1413	1389	1366	1366	1389	1425	1432	1430	1417	1423	1435	1427	1424	1423	1419	1403	1384	1379	1379	1396	1409	1425	1434	1427	1429	1419	1407	1395	1365	1356	1387	1445	1460	1467	1475	1486	1498	1496	1495	1489	1467	1461	1469	1472	1471	1474	1483	1494	1509	1513	1493	1476	1468	1467	1468	1477	1477	1462	1455	1454	1474	1479	1473	1464	1458	1454	1471	1473	1493	1518	1529	1527	1525	1508	1496	1492	1496	1488	1484	1482	1477	1471	1470	1476	1478	1478	1469	1465	1461	1467	1472	1483	1491	1496	1494	1497	1496	1497	1494	1497	1503	1504	1489	1477	1470	1462	1450	1447	1464	1461	1458	1462	1482	1494	1495	1485	1463	1452	1447	1449	1452	1451	1452	1458	1475	1483	1486	1489	1497	1486	1482	1476	1469	1456	1444	1447	1447	1459	1470	1471	1450	1428	1434	1443	1442	1442	1448	1461	1470	1452	1443	1443	1440	1444	1447	1463	1472	1478	0	0	0	0	0	0	0
0	0	0	0	0	0	0	0	0	0	0	0	0	0	0	0	0	0	0	0	0	0	0	0	0	0	0	0	0	0	0	0	0	0	0	0	0	0	0	0	0	0	0	0	0	0	0	0	0	0	0	0	0	0	0	0	0	0	0	0	0	0	0	0	0	0	0	0	0	0	0	0	0	0	0	0	0	0	0	0	0	0	0	0	0	0	0	0	0	0	0	0	0	1467	1434	1428	1430	1438	1452	1470	1484	1489	1497	1491	1482	1478	1474	1478	1472	1452	1460	1461	1461	1451	1440	1437	1434	1439	1451	1466	1465	1464	1470	1476	1473	1455	1445	1457	1482	1491	1480	1467	1479	1497	1504	1509	1494	1475	1452	1442	1458	1475	1476	1472	1476	1485	1489	1475	1452	1448	1473	1498	1502	1491	1466	1460	1449	1451	1439	1421	1421	1426	1431	1436	1437	1440	1456	1482	1497	1499	1488	1478	1471	1473	1464	1455	1441	1437	1459	1469	1470	1468	1474	1478	1469	1454	1433	1432	1440	1449	1451	1446	1456	1464	1458	1449	1444	1444	1453	1472	1479	1469	1461	1445	1441	1455	1454	1446	1445	1450	1457	1442	1436	1443	1452	1459	1460	1467	1469	1439	1423	1398	1345	1302	1115	1098	1095	1096	1098	1095	1096	1102	1099	1099	1094	1099	1102	1091	1073	1050	1041	1037	1040	1045	1052	1041	1050	1057	1081	1097	1098	1087	1082	1084	1097	1106	1105	1110	1112	1111	1098	1104	0	0	0	1134	1141	1158	1197	1237	1284	1434	1477	1475	1478	1492	1497	1492	1485	1479	1480	1478	1488	1507	1516	1530	1536	1533	1515	1499	1489	1486	1490	1491	1500	1493	1483	1481	1477	1469	1465	1456	1458	1455	1463	1473	1479	1485	1472	1475	1480	1479	1451	1440	1445	1449	1442	1455	1472	1473	1462	1439	1421	1407	1394	1392	1389	1399	1418	1432	1431	1424	1403	1386	1385	1398	1416	1432	1426	1496	1498	1470	1463	1455	1435	1436	1426	1406	1406	1416	1431	1452	1459	1455	1450	1447	1428	1421	1417	1426	1437	1452	1464	1466	1469	1466	1472	1477	1473	1463	1466	1474	1490	1494	1486	1470	1473	1489	1495	1502	1492	1479	1467	1464	1482	1485	1475	1464	1458	1463	1464	1477	1488	1489	1480	1445	1451	1448	1450	1456	1470	1491	1500	0	0	0	0	0	0	0	0	0	0	0	0	1035	1040	1029	1035	1035	1035	1035	1044	1055	1066	1066	1050	1026	996	993	983	1013	1023	1027	1030	1029	1027	1032	1028	1019	1012	1008	1006	1007	1019	1021	1019	0	0	0	0	1019	1013	1026	1065	1120	1165	1263	1278	1358	1381	1376	1361	1372	1371	1382	1402	1419	1431	1414	1412	1416	1422	1433	1439	1436	1407	1394	1391	1409	1445	1452	1450	1453	1454	1454	1447	1445	1442	1429	1421	1406	1411	1414	1427	1432	1446	1446	1449	1444	1439	1428	1425	1431	1446	1467	1473	1475	1482	1480	1485	1487	1485	1473	1472	1456	1455	1457	1459	1474	1488	1503	1516	1526	1520	1500	1471	1474	1479	1479	1477	1477	1463	1455	1461	1474	1484	1479	1472	1467	1461	1460	1471	1487	1517	1536	1545	1535	1511	1499	1490	1495	1492	1489	1484	1479	1469	1462	1465	1471	1466	1462	1466	1466	1472	1467	1475	1477	1482	1484	1491	1494	1489	1492	1500	1499	1490	1480	1474	1460	1452	1440	1455	1460	1467	1467	1480	1490	1498	1502	1494	1471	1458	1447	1444	1443	1447	1455	1474	1491	1502	1496	1492	1484	1471	1470	1471	1467	1462	1449	1460	1460	1466	1478	1474	1454	1431	1442	1449	1446	1449	1458	1469	1467	1459	1453	1453	1456	1456	1461	1467	1473	1477	0	0	0	0	0	0	0
0	0	0	0	0	0	0	0	0	0	0	0	0	0	0	0	0	0	0	0	0	0	0	0	0	0	0	0	0	0	0	0	0	0	0	0	0	0	0	0	0	0	0	0	0	0	0	0	0	0	0	0	0	0	0	0	0	0	0	0	0	0	0	0	0	0	0	0	0	0	0	0	0	0	0	0	0	0	0	0	0	0	0	0	0	0	0	0	0	0	0	0	0	1467	1451	1444	1454	1457	1464	1469	1475	1484	1493	1497	1496	1489	1483	1480	1480	1471	1466	1468	1462	1448	1435	1434	1434	1437	1450	1459	1460	1460	1463	1466	1462	1451	1442	1444	1471	1482	1492	1488	1488	1485	1474	1472	1485	1476	1460	1449	1444	1456	1465	1477	1486	1488	1482	1464	1427	1438	1456	1476	1479	1474	1462	1456	1462	1464	1453	1434	1434	1440	1434	1441	1438	1438	1455	1481	1510	1511	1496	1469	1446	1440	1448	1453	1453	1443	1435	1443	1448	1445	1452	1454	1455	1458	1452	1451	1453	1465	1471	1487	1503	1495	1487	1476	1469	1464	1457	1467	1462	1473	1472	1455	1445	1446	1453	1450	1463	1468	1462	1447	1439	1440	1440	1441	1448	1449	1455	1433	1386	1271	1191	1141	1078	1079	1084	1085	1088	1081	1079	1076	1082	1087	1081	1089	1098	1085	1064	1043	1026	1019	1021	1035	1039	1035	1039	1043	1069	1066	1066	1057	1060	1065	1072	1076	1082	1078	1079	1070	1058	1067	0	0	0	0	0	0	0	1268	1306	1429	1458	1467	1477	1495	1507	1502	1493	1486	1479	1485	1498	1522	1527	1523	1513	1506	1497	1496	1503	1507	1505	1508	1511	1510	1500	1499	1489	1483	1482	1479	1476	1472	1476	1487	1494	1493	1483	1476	1488	1507	1514	1511	1494	1469	1458	1456	1473	1480	1458	1444	1435	1438	1442	1448	1450	1456	1461	1478	1480	1478	1482	1477	1473	1466	1461	1463	1479	1495	1498	1490	1483	1483	1485	1487	1485	1509	1517	1509	1505	1501	1501	1498	1495	1492	1486	1479	1470	1467	1465	1464	1456	1446	1446	1458	1471	1479	1481	1472	1468	1471	1485	1492	1479	1467	1475	1493	1503	1505	1497	1480	1468	1467	1475	1480	1477	1473	1465	1472	1472	1477	1491	1500	1483	1462	1458	1450	1456	1458	1475	1492	1507	0	0	0	0	0	0	0	0	0	0	0	0	1053	1066	1067	0	0	0	0	1018	1031	1058	1059	1047	1019	1000	981	980	1011	1023	1035	1041	1042	1043	1039	1033	1020	1015	1012	1005	1007	1014	1024	0	0	0	0	0	0	987	998	1018	1055	1066	1093	1128	1227	1346	1351	1357	1353	1384	1410	1438	1448	1450	1431	1443	1454	1465	1468	1471	1477	1462	1448	1443	1444	1448	1448	1444	1441	1451	1481	1482	1472	1455	1446	1445	1459	1477	1484	1482	1477	1485	1488	1487	1484	1467	1462	1475	1486	1493	1491	1487	1485	1493	1488	1491	1483	1481	1467	1454	1447	1447	1453	1462	1478	1493	1506	1521	1527	1520	1501	1484	1475	1464	1464	1466	1470	1465	1460	1460	1474	1481	1481	1482	1477	1470	1462	1463	1483	1513	1534	1542	1525	1500	1477	1468	1476	1479	1481	1482	1474	1459	1453	1464	1474	1476	1473	1486	1482	1475	1464	1462	1464	1465	1468	1478	1482	1490	1491	1501	1507	1490	1474	1462	1452	1443	1432	1451	1460	1467	1483	1493	1498	1501	1501	1493	1476	1466	1453	1444	1443	1443	1456	1474	1493	1499	1495	1486	1472	1463	1459	1461	1465	1464	1466	1466	1466	1472	1480	1476	1458	1445	1445	1453	1454	1454	1456	1460	1459	1452	1456	1456	1452	1457	1457	1467	1466	1475	0	0	0	0	0	0	0
0	0	0	0	0	0	0	0	0	0	0	0	0	0	0	0	0	0	0	0	0	0	0	0	0	0	0	0	0	0	0	0	0	0	0	0	0	0	0	0	0	0	0	0	0	0	0	0	0	0	0	0	0	0	0	0	0	0	0	0	0	0	0	0	0	0	0	0	0	0	0	0	0	0	0	0	0	0	0	0	0	0	0	0	0	0	0	0	0	0	0	0	0	1468	1463	1461	1473	1481	1477	1472	1471	1470	1478	1491	1502	1501	1485	1482	1490	1484	1468	1463	1450	1440	1441	1449	1448	1453	1464	1459	1463	1464	1472	1472	1473	1465	1458	1457	1471	1482	1480	1481	1481	1473	1466	1464	1469	1471	1466	1456	1447	1448	1460	1471	1476	1480	1468	1435	1430	1437	1445	1452	1460	1461	1462	1468	1466	1479	1468	1446	1429	1431	1434	1437	1434	1434	1448	1470	1502	1504	1493	1463	1450	1448	1449	1449	1451	1439	1432	1439	1442	1442	1454	1462	1460	1455	1453	1457	1466	1476	1490	1493	1502	1498	1492	1487	1478	1468	1462	1470	1465	1470	1477	1468	1451	1451	1451	1459	1469	1472	1473	1452	1446	1441	1428	1422	1426	1404	1335	1254	1178	1140	1113	1092	1076	1090	1100	1094	1087	1074	1062	1047	1038	1041	1043	1057	1068	1064	1045	1034	1022	1014	1010	1021	1026	1017	1012	1018	1013	1002	1030	1032	1037	1047	1045	1049	1050	1043	1047	1052	1051	1051	1077	0	0	0	0	0	0	0	1348	1430	1458	1465	1480	1495	1506	1504	1494	1488	1483	1490	1506	1521	1522	1516	1505	1501	1499	1507	1515	1520	1514	1514	1510	1507	1505	1494	1486	1485	1492	1487	1473	1472	1476	1490	1489	1485	1476	1470	1484	1504	1510	1506	1496	1479	1474	1474	1477	1469	1453	1444	1449	1468	1472	1480	1490	1482	1467	1468	1478	1477	1481	1486	1483	1472	1465	1462	1464	1477	1494	1489	1482	1476	1473	1480	1480	1511	1524	1518	1509	1508	1497	1493	1495	1491	1495	1495	1484	1477	1472	1466	1454	1437	1438	1448	1463	1477	1480	1472	1469	1472	1487	1481	1468	1462	1475	1505	1519	1510	1493	1475	1469	1470	1476	1483	1486	1480	1479	1479	1477	1479	1496	1510	1506	1493	1474	1463	1463	1471	1476	1489	1503	0	0	0	0	0	0	0	0	0	0	0	0	0	0	0	0	0	0	0	0	0	1043	1051	0	0	0	0	1009	1018	1028	1041	1049	1059	1059	1044	1027	1011	1002	997	991	988	1007	0	0	0	0	0	0	0	0	997	1020	1039	1046	1036	1025	1024	1058	1128	1223	1330	1361	1398	1427	1445	1449	1445	1461	1489	1481	1478	1484	1479	1471	1460	1453	1452	1454	1446	1441	1442	1449	1488	1492	1480	1461	1451	1453	1469	1483	1486	1484	1479	1475	1472	1479	1477	1477	1464	1479	1488	1494	1491	1481	1484	1493	1506	1506	1492	1481	1466	1457	1454	1457	1460	1466	1478	1488	1491	1501	1510	1507	1496	1477	1458	1453	1452	1450	1469	1471	1458	1450	1454	1472	1483	1490	1484	1473	1459	1461	1470	1489	1505	1519	1508	1484	1459	1445	1455	1465	1477	1477	1476	1463	1465	1474	1493	1507	1501	1491	1476	1470	1457	1451	1455	1457	1456	1467	1477	1484	1498	1518	1506	1486	1465	1447	1448	1448	1442	1446	1452	1473	1489	1499	1495	1494	1491	1486	1477	1474	1462	1453	1453	1453	1452	1463	1469	1473	1473	1468	1471	1467	1462	1459	1462	1463	1466	1466	1461	1471	1475	1474	1459	1449	1446	1450	1450	1455	1447	1448	1443	1449	1451	1451	1445	1452	1453	1453	1445	1441	0	0	0	0	0	0	0
0	0	0	0	0	0	0	0	0	0	0	0	0	0	0	0	0	0	0	0	0	0	0	0	0	0	0	0	0	0	0	0	0	0	0	0	0	0	0	0	0	0	0	0	0	0	0	0	0	0	0	0	0	0	0	0	0	0	0	0	0	0	0	0	0	0	0	0	0	0	0	0	0	0	0	0	0	0	0	0	0	0	0	0	0	0	0	0	0	0	0	0	0	1468	1455	1464	1478	1481	1479	1469	1464	1459	1470	1480	1494	1489	1469	1473	1490	1491	1462	1446	1439	1437	1453	1468	1481	1475	1475	1464	1466	1478	1490	1489	1493	1489	1489	1484	1479	1478	1475	1469	1466	1464	1452	1452	1451	1453	1458	1449	1435	1436	1443	1449	1454	1452	1439	1433	1431	1436	1441	1442	1444	1458	1468	1470	1476	1473	1461	1431	1417	1419	1429	1438	1435	1436	1448	1467	1482	1487	1472	1459	1447	1451	1453	1450	1448	1439	1443	1443	1443	1450	1470	1481	1475	1472	1463	1456	1466	1480	1482	1479	1479	1488	1488	1486	1483	1477	1474	1477	1475	1475	1486	1486	1480	1472	1468	1467	1475	1479	1479	1463	1459	1449	1405	1347	1322	1250	1208	1187	1141	1126	1104	1081	1079	1103	1111	1101	1086	1068	1043	1020	1007	1008	1015	1017	1026	1023	1015	1009	1006	1004	1006	1011	1016	1009	986	989	985	982	988	1001	1019	1026	1026	1030	1022	1017	1019	1037	1042	1056	0	0	0	0	0	0	0	1356	1439	1451	1457	1464	1480	1498	1509	1510	1503	1488	1482	1491	1510	1520	1516	1506	1500	1500	1502	1509	1521	1523	1521	1513	1511	1505	1493	1477	1478	1480	1498	1484	1472	1463	1468	1482	1483	1480	1472	1473	1482	1515	1523	1512	1504	1492	1487	1485	1486	1465	1452	1451	1481	1521	1538	1546	1532	1514	1489	1478	1480	1473	1464	1465	1476	1483	1483	1476	1477	1484	1512	1516	1510	1493	1477	1488	1498	1512	1518	1517	1512	1500	1490	1481	1470	1477	1504	1498	1499	1488	1471	1458	1452	1443	1438	1439	1448	1463	1466	1471	1477	1486	1489	1484	1468	1460	1469	1500	1524	1516	1496	1482	1477	1478	1480	1489	1490	1483	1476	1483	1485	1487	1503	1510	1509	1501	1488	1478	1480	1483	1482	1486	1468	1445	0	0	0	0	0	0	0	0	0	0	0	0	0	0	0	0	0	0	0	0	0	0	0	0	0	0	0	0	0	0	0	0	0	0	1018	1004	991	985	979	978	1002	0	0	0	0	0	0	0	0	0	0	0	1049	1028	1011	1001	1015	1039	1059	1124	1272	1338	1394	1420	1428	1457	1485	1500	1495	1487	1483	1478	1474	1468	1470	1465	1457	1455	1451	1449	1468	1513	1502	1489	1468	1462	1461	1475	1484	1482	1480	1475	1470	1466	1460	1464	1461	1469	1475	1476	1486	1483	1481	1489	1500	1510	1514	1507	1494	1480	1463	1461	1461	1463	1465	1472	1477	1471	1477	1486	1495	1491	1475	1460	1450	1446	1446	1468	1475	1464	1452	1451	1463	1477	1482	1478	1469	1457	1448	1451	1461	1476	1493	1500	1484	1466	1450	1454	1466	1481	1484	1480	1467	1463	1478	1504	1516	1500	1481	1469	1456	1444	1441	1450	1452	1456	1459	1464	1490	1505	1515	1505	1481	1459	1453	1460	1459	1454	1459	1466	1485	1493	1488	1487	1477	1480	1479	1480	1475	1462	1459	1461	1462	1452	1451	1451	1452	1456	1458	1462	1471	1468	1464	1468	1461	1461	1461	1461	1462	1466	1469	1460	1446	1438	1444	1439	1441	1443	1446	1447	1445	1445	1449	1450	1450	1449	1452	1443	1437	0	0	0	0	0	0	0
0	0	0	0	0	0	0	0	0	0	0	0	0	0	0	0	0	0	0	0	0	0	0	0	0	0	0	0	0	0	0	0	0	0	0	0	0	0	0	0	0	0	0	0	0	0	0	0	0	0	0	0	0	0	0	0	0	0	0	0	0	0	0	0	0	0	0	0	0	0	0	0	0	0	0	0	0	0	0	0	0	0	0	0	0	0	0	0	0	0	0	0	0	1459	1449	1455	1466	1479	1482	1469	1451	1455	1465	1485	1498	1488	1462	1464	1481	1476	1463	1440	1434	1443	1459	1478	1488	1495	1476	1462	1464	1490	1495	1491	1491	1499	1504	1503	1482	1465	1457	1454	1452	1450	1447	1452	1445	1439	1439	1433	1424	1428	1423	1426	1431	1433	1433	1428	1438	1442	1440	1436	1446	1455	1469	1475	1477	1470	1450	1424	1413	1418	1438	1446	1436	1439	1451	1467	1473	1475	1459	1453	1447	1447	1452	1448	1438	1435	1450	1453	1457	1465	1486	1500	1500	1490	1474	1454	1456	1475	1477	1471	1465	1466	1469	1475	1483	1482	1481	1484	1488	1488	1488	1488	1494	1490	1486	1478	1470	1471	1459	1446	1394	1369	1287	1227	1217	1199	1179	1152	0	0	0	0	1089	0	0	0	0	0	1033	1011	1007	1010	1013	1002	993	983	988	987	991	994	998	1007	0	0	987	972	967	951	953	976	994	1005	1013	1011	1012	1001	999	1008	0	0	0	0	0	0	0	0	1369	1442	1451	1463	1478	1486	1493	1495	1491	1489	1486	1487	1485	1486	1493	1503	1514	1516	1508	1499	1495	1493	1503	1508	1499	1493	1491	1486	1485	1482	1503	1514	1521	1511	1498	1494	1498	1501	1501	1496	1479	1473	1469	1485	1492	1514	1526	1528	1518	1496	1495	1488	1479	1478	1518	1529	1540	1546	1548	1538	1511	1492	1477	1475	1468	1469	1481	1487	1480	1474	1471	1473	1488	1502	1498	1484	1482	1492	1505	1513	1524	1518	1508	1496	1485	1469	1457	1460	1479	1486	1488	1479	1471	1464	1456	1450	1447	1443	1443	1444	1455	1465	1477	1493	1499	1491	1477	1465	1471	1492	1507	1514	1507	1499	1485	1484	1484	1497	1488	1481	1480	1478	1487	1496	1495	1503	1509	1506	1496	1487	1491	1499	1497	1483	1473	1454	0	0	0	0	0	0	0	0	0	0	0	0	0	0	0	0	0	0	0	0	0	0	0	0	0	0	0	0	0	0	0	0	0	0	0	0	0	0	0	0	0	0	0	0	0	0	0	0	0	0	0	0	1042	1020	998	990	999	1004	1012	1016	1031	1102	1206	1306	1364	1447	1458	1476	1488	1487	1487	1482	1479	1481	1484	1475	1451	1455	1458	1476	1517	1527	1506	1478	1461	1457	1469	1476	1476	1477	1476	1475	1471	1464	1453	1451	1461	1470	1464	1468	1465	1476	1482	1489	1505	1513	1517	1506	1494	1491	1478	1469	1460	1459	1458	1454	1467	1471	1481	1492	1499	1486	1475	1463	1455	1449	1469	1484	1481	1471	1458	1458	1463	1471	1474	1471	1463	1449	1437	1436	1432	1437	1471	1474	1484	1480	1468	1464	1478	1493	1499	1490	1479	1475	1485	1501	1502	1495	1472	1463	1455	1447	1444	1450	1458	1454	1460	1478	1502	1512	1511	1496	1480	1463	1465	1474	1475	1468	1469	1481	1493	1497	1488	1479	1473	1473	1478	1477	1468	1459	1461	1470	1466	1452	1437	1431	1438	1440	1449	1458	1461	1470	1472	1471	1470	1468	1468	1467	1466	1472	1465	1467	1455	1449	1449	1437	1439	1447	1449	1454	1447	1447	1450	1450	1452	1451	1449	1448	1447	0	0	0	0	0	0	0
0	0	0	0	0	0	0	0	0	0	0	0	0	0	0	0	0	0	0	0	0	0	0	0	0	0	0	0	0	0	0	0	0	0	0	0	0	0	0	0	0	0	0	0	0	0	0	0	0	0	0	0	0	0	0	0	0	0	0	0	0	0	0	0	0	0	0	0	0	0	0	0	0	0	0	0	0	0	0	0	0	0	0	0	0	0	0	0	0	0	0	0	0	1449	1450	1473	1483	1490	1485	1454	1447	1451	1460	1473	1481	1487	1479	1477	1471	1462	1446	1430	1433	1450	1464	1466	1464	1455	1448	1445	1456	1494	1495	1487	1488	1486	1493	1492	1471	1448	1444	1455	1455	1445	1446	1452	1452	1445	1442	1435	1427	1420	1409	1400	1418	1419	1426	1433	1434	1441	1444	1449	1452	1461	1464	1468	1473	1468	1461	1440	1438	1459	1467	1468	1443	1440	1448	1460	1470	1465	1453	1446	1438	1442	1441	1441	1430	1430	1456	1461	1465	1471	1490	1506	1509	1501	1474	1447	1445	1458	1464	1463	1461	1454	1455	1465	1478	1462	1464	1476	1480	1478	1478	1480	1485	1491	1491	1483	1443	1374	1364	1325	1265	1236	1215	1209	1194	1181	1157	1139	0	0	0	0	0	0	0	0	0	0	0	1014	1018	1030	1026	1002	972	966	969	970	978	984	986	989	0	0	977	974	964	947	946	956	974	995	0	0	0	0	0	0	0	0	0	0	0	0	0	1367	1457	1475	1474	1478	1475	1484	1491	1496	1475	1479	1483	1487	1489	1490	1496	1501	1510	1514	1507	1494	1486	1486	1486	1475	1480	1483	1486	1488	1484	1493	1503	1514	1514	1502	1492	1484	1489	1496	1501	1497	1483	1469	1470	1472	1490	1506	1520	1514	1511	1503	1504	1503	1496	1505	1522	1528	1530	1536	1538	1535	1515	1497	1491	1473	1468	1472	1475	1477	1474	1468	1462	1463	1472	1483	1478	1470	1473	1483	1504	1512	1513	1505	1499	1491	1477	1460	1450	1450	1445	1460	1471	1469	1468	1464	1460	1455	1450	1451	1451	1452	1456	1470	1483	1496	1498	1499	1485	1485	1482	1490	1503	1503	1505	1499	1494	1503	1498	1505	1499	1485	1473	1473	1478	1492	1504	1511	1507	1505	1492	1488	1496	1496	1489	1479	1468	1478	1482	0	0	0	0	0	0	0	0	0	0	0	0	0	0	0	0	0	0	0	1004	980	961	959	966	965	932	0	0	0	939	951	0	0	0	0	0	0	0	0	0	0	0	0	0	0	0	0	0	0	0	1013	1012	1004	982	982	989	991	990	989	989	1012	1051	1098	1150	1392	1414	1438	1462	1479	1489	1495	1492	1492	1481	1462	1449	1444	1454	1484	1524	1519	1494	1465	1453	1457	1461	1475	1470	1472	1468	1465	1472	1471	1465	1461	1462	1460	1452	1446	1451	1470	1484	1499	1510	1522	1523	1509	1496	1486	1484	1482	1468	1457	1451	1457	1463	1473	1478	1493	1500	1491	1472	1461	1458	1459	1478	1488	1481	1471	1464	1470	1476	1473	1470	1474	1467	1456	1440	1422	1419	1424	1430	1457	1477	1485	1480	1482	1488	1496	1499	1492	1485	1482	1480	1483	1488	1483	1476	1469	1465	1458	1453	1457	1454	1450	1452	1478	1501	1510	1503	1482	1475	1458	1461	1472	1475	1472	1471	1486	1492	1497	1496	1484	1482	1479	1477	1472	1467	1468	1469	1472	1466	1456	1431	1425	1427	1439	1447	1454	1459	1467	1471	1476	1477	1477	1477	1476	1482	1479	1472	1473	1468	1463	1457	1450	1451	1453	1455	1448	1442	1442	1439	1442	1453	1454	1464	1474	1443	0	0	0	0	0	0	0
0	0	0	0	0	0	0	0	0	0	0	0	0	0	0	0	0	0	0	0	0	0	0	0	0	0	0	0	0	0	0	0	0	0	0	0	0	0	0	0	0	0	0	0	0	0	0	0	0	0	0	0	0	0	0	0	0	0	0	0	0	0	0	0	0	0	0	0	0	0	0	0	0	0	0	0	0	0	0	0	0	0	0	0	0	0	0	0	0	0	0	0	0	1451	1472	1495	1519	1519	1472	1446	1442	1455	1464	1467	1477	1482	1479	1472	1461	1454	1439	1430	1442	1457	1468	1465	1455	1443	1442	1447	1461	1485	1495	1490	1481	1478	1477	1472	1463	1451	1450	1458	1438	1426	1434	1449	1459	1455	1451	1456	1459	1450	1439	1424	1424	1426	1429	1438	1435	1439	1452	1462	1463	1458	1459	1464	1462	1467	1470	1468	1476	1487	1484	1478	1448	1435	1438	1447	1461	1463	1455	1451	1430	1431	1433	1433	1428	1428	1462	1467	1466	1472	1481	1491	1492	1488	1474	1453	1441	1440	1454	1455	1460	1464	1459	1462	1449	1438	1444	1466	1472	1466	1465	1468	1484	1485	1478	1441	1229	1197	1219	1228	1209	1189	1183	1184	1180	1164	1140	1128	0	0	0	0	0	0	0	0	0	0	1027	1018	1021	1020	1017	989	959	947	958	961	973	977	970	962	964	963	978	983	970	950	943	950	969	0	0	0	0	0	0	0	0	0	0	0	0	0	1375	1466	1477	1488	1497	1491	1486	1490	1491	1480	1472	1474	1480	1486	1494	1496	1497	1501	1510	1510	1504	1492	1484	1480	1476	1463	1468	1476	1482	1484	1485	1491	1503	1507	1505	1495	1484	1476	1478	1490	1499	1500	1494	1499	1499	1482	1477	1492	1502	1501	1496	1496	1500	1513	1514	1515	1517	1517	1520	1524	1522	1517	1504	1498	1489	1480	1472	1467	1467	1463	1459	1457	1464	1476	1475	1471	1469	1461	1464	1483	1502	1511	1505	1492	1485	1481	1465	1451	1443	1435	1435	1442	1458	1459	1463	1464	1460	1459	1456	1444	1460	1466	1471	1482	1497	1506	1502	1501	1496	1491	1491	1497	1494	1493	1491	1499	1512	1519	1518	1513	1511	1497	1479	1477	1480	1489	1505	1501	1506	1497	1481	1479	1477	1472	1466	1462	1471	1488	1512	1511	0	0	0	0	0	0	0	0	0	0	0	0	0	966	968	978	996	1004	990	973	951	947	947	945	920	909	0	922	932	933	934	934	938	952	962	984	0	0	952	940	934	935	937	946	957	967	940	929	942	956	972	973	973	982	984	983	975	966	963	978	1002	1029	1050	1089	1325	1363	1404	1449	1484	1491	1495	1488	1475	1451	1432	1435	1450	1483	1515	1503	1481	1461	1454	1459	1457	1459	1467	1462	1462	1464	1470	1473	1482	1478	1468	1454	1438	1438	1449	1469	1484	1501	1511	1521	1517	1504	1485	1477	1486	1491	1482	1468	1466	1466	1480	1477	1470	1476	1487	1485	1472	1461	1456	1459	1479	1474	1474	1473	1475	1486	1485	1478	1469	1467	1473	1476	1475	1467	1462	1460	1445	1451	1478	1479	1467	1450	1456	1451	1449	1448	1456	1459	1472	1483	1488	1488	1484	1482	1475	1464	1453	1439	1429	1433	1450	1465	1469	1490	1491	1488	1473	1457	1453	1456	1466	1472	1478	1491	1502	1505	1506	1497	1493	1484	1474	1474	1473	1474	1477	1474	1467	1456	1434	1424	1432	1447	1459	1460	1458	1463	1469	1474	1474	1474	1469	1462	1470	1467	1468	1477	1471	1468	1463	1457	1456	1458	1453	1447	1434	1434	1430	1431	1444	1459	1466	1491	1488	0	0	0	0	0	0	0
0	0	0	0	0	0	0	0	0	0	0	0	0	0	0	0	0	0	0	0	0	0	0	0	0	0	0	0	0	0	0	0	0	0	0	0	0	0	0	0	0	0	0	0	0	0	0	0	0	0	0	0	0	0	0	0	0	0	0	0	0	0	0	0	0	0	0	0	0	0	0	0	0	0	0	0	0	0	0	0	0	0	0	0	0	0	0	0	0	0	0	0	0	1483	1474	1492	1512	1507	1475	1459	1457	1469	1460	1467	1476	1469	1469	1457	1449	1442	1432	1442	1452	1463	1470	1465	1455	1438	1441	1450	1463	1483	1501	1500	1486	1478	1470	1459	1454	1453	1462	1466	1433	1429	1432	1454	1459	1462	1461	1471	1472	1467	1454	1436	1428	1431	1434	1434	1439	1425	1424	1433	1432	1422	1424	1435	1464	1474	1489	1501	1495	1490	1480	1467	1448	1439	1434	1442	1452	1455	1454	1457	1458	1438	1437	1434	1431	1430	1460	1466	1461	1463	1467	1468	1468	1467	1467	1461	1459	1452	1454	1454	1464	1472	1470	1469	1461	1443	1444	1462	1475	1470	1462	1443	1413	1359	1241	1172	1133	1138	1163	1166	1163	1141	1145	1153	1157	1150	1127	1111	1097	0	0	0	0	0	0	1027	1002	995	996	1004	1000	990	974	951	944	944	947	954	959	966	964	956	948	944	971	982	971	957	945	953	982	0	0	0	0	0	0	0	0	0	0	0	0	0	1410	1461	1480	1494	1501	1492	1497	1495	1495	1488	1469	1469	1476	1488	1501	1502	1501	1509	1509	1504	1516	1519	1521	1492	1472	1469	1474	1478	1478	1478	1476	1482	1501	1509	1502	1497	1487	1482	1477	1478	1488	1460	1459	1464	1449	1442	1432	1453	1483	1480	1484	1477	1498	1494	1500	1506	1503	1502	1509	1509	1507	1496	1488	1487	1487	1490	1486	1474	1461	1455	1449	1461	1471	1481	1488	1482	1466	1458	1469	1491	1509	1501	1491	1477	1480	1481	1476	1469	1463	1457	1460	1456	1448	1452	1442	1441	1454	1451	1442	1444	1456	1475	1482	1495	1505	1504	1501	1497	1497	1491	1494	1494	1492	1490	1484	1503	1511	1522	1518	1514	1511	1498	1487	1480	1488	1506	1507	1498	1494	1477	1467	1465	1458	1453	1448	1451	1468	1489	1507	1519	1510	0	0	0	0	0	0	0	0	0	0	0	0	0	957	958	966	952	960	961	951	946	945	938	924	915	0	925	935	931	925	910	919	936	950	961	968	956	940	928	922	921	923	925	931	921	913	920	937	953	963	961	964	971	980	976	961	951	945	950	973	999	1019	1021	1024	1199	1263	1335	1411	1452	1483	1478	1464	1439	1427	1433	1459	1491	1496	1486	1474	1463	1459	1468	1464	1458	1463	1467	1455	1464	1465	1472	1490	1495	1486	1458	1443	1444	1461	1473	1482	1489	1504	1508	1498	1489	1473	1473	1495	1496	1491	1485	1481	1484	1488	1483	1474	1462	1472	1473	1468	1452	1450	1453	1458	1469	1474	1477	1471	1475	1476	1473	1464	1456	1465	1463	1474	1483	1495	1504	1500	1500	1484	1472	1453	1438	1435	1437	1435	1441	1447	1451	1466	1487	1485	1485	1480	1481	1474	1462	1444	1425	1419	1420	1440	1453	1457	1458	1460	1469	1471	1470	1471	1466	1466	1473	1482	1489	1508	1515	1516	1509	1502	1493	1483	1467	1474	1478	1483	1476	1463	1451	1437	1431	1437	1448	1460	1462	1458	1458	1463	1465	1459	1459	1451	1451	1453	1460	1471	1475	1471	1462	1462	1459	1461	1461	1456	1447	1438	1438	1430	1437	1457	1475	1480	1514	1499	0	0	0	0	0	0	0
0	0	0	0	0	0	0	0	0	0	0	0	0	0	0	0	0	0	0	0	0	0	0	0	0	0	0	0	0	0	0	0	0	0	0	0	0	0	0	0	0	0	0	0	0	0	0	0	0	0	0	0	0	0	0	0	0	0	0	0	0	0	0	0	0	0	0	0	0	0	0	0	0	0	0	0	0	0	0	0	0	0	0	0	0	0	0	0	0	0	0	0	0	1516	1476	1474	1501	1508	1489	1471	1465	1462	1465	1461	1466	1464	1455	1438	1436	1429	1434	1451	1461	1467	1469	1468	1454	1443	1444	1454	1466	1493	1506	1509	1501	1497	1482	1465	1450	1451	1457	1460	1445	1434	1442	1458	1465	1468	1471	1481	1487	1483	1462	1444	1439	1436	1427	1426	1430	1410	1415	1414	1413	1416	1411	1419	1436	1456	1477	1492	1483	1473	1464	1453	1446	1432	1432	1443	1442	1446	1452	1465	1483	1505	1484	1468	1449	1437	1443	1459	1461	1454	1455	1454	1450	1455	1466	1464	1458	1452	1449	1453	1465	1476	1476	1472	1458	1444	1444	1454	1473	1447	1389	1326	1244	1179	1099	1085	1076	1078	1103	1111	1111	1094	1101	1127	1136	1135	1125	1102	1075	1055	1040	1035	0	0	1008	997	979	972	982	986	979	956	943	942	944	943	943	944	948	954	957	953	948	948	953	975	970	960	957	0	0	0	0	0	0	0	0	0	0	0	0	0	0	1369	1406	1449	1480	1500	1500	1499	1501	1505	1498	1483	1471	1465	1469	1484	1508	1511	1507	1514	1523	1533	1541	1499	1522	1517	1500	1485	1485	1489	1486	1475	1464	1475	1498	1513	1513	1502	1494	1484	1470	1456	1434	1434	1457	1462	1455	1450	1440	1444	1457	1484	1486	1493	1502	1495	1500	1494	1493	1492	1493	1495	1493	1478	1472	1480	1490	1496	1491	1480	1466	1454	1453	1469	1490	1499	1490	1482	1470	1462	1473	1497	1508	1492	1480	1479	1481	1489	1494	1499	1496	1497	1497	1492	1478	1449	1432	1428	1427	1437	1433	1440	1462	1481	1495	1504	1507	1506	1500	1496	1492	1491	1493	1494	1495	1488	1494	1503	1504	1510	1502	1508	1509	1498	1493	1487	1506	1508	1497	1491	1479	1472	1467	1457	1450	1446	1448	1454	1471	1485	1507	1518	1522	0	0	0	0	0	0	0	0	0	0	0	0	0	0	941	935	942	947	946	949	947	952	940	926	916	919	924	931	928	922	901	912	924	937	947	951	943	928	911	914	915	919	918	916	900	896	906	929	940	947	947	945	952	962	962	955	939	922	924	947	967	977	981	983	993	1007	1055	1132	1228	1330	1394	1419	1427	1435	1447	1467	1494	1496	1480	1468	1462	1459	1468	1463	1468	1473	1468	1465	1465	1465	1476	1489	1506	1507	1496	1484	1484	1481	1486	1482	1482	1489	1491	1485	1471	1463	1473	1500	1499	1489	1483	1458	1480	1496	1505	1495	1477	1480	1479	1476	1467	1455	1447	1467	1479	1483	1466	1454	1459	1462	1464	1458	1455	1451	1456	1471	1488	1498	1495	1499	1493	1475	1463	1442	1440	1446	1446	1452	1454	1455	1455	1462	1479	1479	1481	1479	1477	1470	1460	1439	1426	1417	1419	1435	1444	1444	1443	1447	1458	1461	1469	1478	1477	1481	1478	1488	1500	1493	1500	1508	1502	1502	1494	1487	1475	1474	1480	1477	1478	1471	1453	1437	1431	1438	1449	1456	1450	1449	1448	1462	1461	1454	1454	1448	1443	1446	1458	1468	1477	1471	1464	1462	1459	1455	1455	1455	1448	1437	1437	1445	1455	1472	1488	1499	1511	1494	0	0	0	0	0	0	0
0	0	0	0	0	0	0	0	0	0	0	0	0	0	0	0	0	0	0	0	0	0	0	0	0	0	0	0	0	0	0	0	0	0	0	0	0	0	0	0	0	0	0	0	0	0	0	0	0	0	0	0	0	0	0	0	0	0	0	0	0	0	0	0	0	0	0	0	0	0	0	0	0	0	0	0	0	0	0	0	0	0	0	0	0	0	0	0	0	0	0	0	0	1533	1481	1463	1485	1500	1509	1494	1474	1466	1462	1465	1469	1463	1459	1446	1439	1428	1428	1450	1470	1462	1465	1471	1465	1456	1449	1451	1471	1495	1510	1521	1528	1536	1521	1488	1458	1445	1445	1453	1451	1437	1438	1450	1464	1475	1472	1479	1490	1480	1457	1436	1431	1438	1429	1422	1417	1399	1410	1412	1410	1412	1407	1408	1417	1443	1460	1473	1477	1468	1457	1454	1463	1449	1446	1450	1444	1446	1447	1469	1511	1520	1500	1472	1460	1448	1447	1454	1450	1448	1449	1441	1443	1459	1468	1465	1465	1456	1456	1455	1457	1474	1469	1465	1450	1439	1433	1386	1276	1240	1208	1125	1102	1078	1064	1058	1047	1038	1044	1070	1070	1074	1080	1090	1113	1125	1125	1101	1070	1033	1009	997	993	992	1000	984	970	966	974	978	962	938	936	946	950	952	941	935	938	945	949	946	946	946	951	969	967	969	0	0	0	0	0	0	0	0	0	0	0	0	1337	1423	1360	1387	1397	1424	1468	1503	1501	1499	1507	1512	1499	1483	1472	1464	1467	1482	1504	1521	1520	1518	1519	1510	1510	1484	1471	1506	1502	1499	1498	1500	1493	1482	1473	1476	1493	1510	1515	1509	1490	1479	1472	1476	1449	1438	1453	1473	1460	1450	1456	1464	1477	1491	1494	1500	1500	1488	1490	1478	1487	1491	1497	1498	1485	1474	1471	1485	1499	1502	1492	1484	1475	1453	1462	1485	1497	1491	1491	1487	1482	1481	1488	1500	1504	1494	1496	1510	1518	1513	1505	1507	1507	1512	1527	1521	1498	1468	1436	1428	1426	1427	1431	1447	1468	1490	1501	1505	1508	1503	1500	1493	1495	1497	1495	1500	1499	1482	1479	1479	1489	1496	1490	1482	1485	1487	1490	1492	1493	1498	1490	1483	1472	1478	1472	1461	1456	1453	1465	1473	1482	1495	1509	1521	1534	1518	0	0	0	0	0	0	0	0	0	0	0	0	0	0	938	936	931	921	921	936	945	930	918	901	901	896	903	901	900	895	894	904	915	923	928	918	906	891	894	899	906	910	904	876	876	891	907	917	921	926	924	926	931	937	933	914	906	914	931	945	936	931	935	937	951	976	1013	1078	1158	1266	1355	1405	1425	1445	1464	1482	1470	1457	1449	1448	1448	1458	1464	1470	1477	1476	1475	1482	1484	1492	1499	1505	1515	1500	1497	1500	1501	1486	1478	1471	1476	1480	1469	1467	1486	1492	1502	1472	1451	1439	1446	1470	1495	1507	1496	1487	1479	1489	1489	1485	1472	1464	1467	1475	1480	1468	1455	1454	1460	1460	1459	1457	1455	1459	1473	1482	1486	1483	1476	1472	1461	1448	1433	1437	1451	1461	1458	1462	1462	1470	1472	1476	1476	1472	1464	1464	1463	1452	1444	1434	1426	1430	1428	1436	1432	1450	1452	1462	1452	1462	1476	1486	1494	1500	1503	1506	1498	1494	1492	1493	1493	1483	1475	1459	1456	1472	1484	1488	1485	1473	1452	1445	1444	1451	1452	1451	1456	1457	1465	1462	1462	1462	1456	1451	1454	1460	1472	1472	1465	1461	1461	1461	1456	1451	1451	1442	1449	1449	1456	1461	1477	1498	1508	1506	1476	0	0	0	0	0	0	0
0	0	0	0	0	0	0	0	0	0	0	0	0	0	0	0	0	0	0	0	0	0	0	0	0	0	0	0	0	0	0	0	0	0	0	0	0	0	0	0	0	0	0	0	0	0	0	0	0	0	0	0	0	0	0	0	0	0	0	0	0	0	0	0	0	0	0	0	0	0	0	0	0	0	0	0	0	0	0	0	0	0	0	0	0	0	0	0	0	0	0	0	0	1525	1485	1463	1479	1497	1507	1488	1475	1466	1470	1467	1471	1474	1471	1461	1452	1419	1436	1451	1466	1458	1459	1466	1466	1456	1443	1439	1458	1490	1516	1531	1552	1553	1527	1489	1451	1437	1438	1454	1452	1435	1436	1444	1463	1472	1469	1471	1479	1480	1454	1432	1419	1423	1424	1413	1408	1404	1407	1410	1414	1412	1412	1410	1417	1438	1453	1461	1466	1459	1452	1451	1451	1457	1458	1458	1458	1452	1457	1466	1502	1512	1481	1461	1455	1452	1447	1439	1443	1445	1447	1450	1454	1466	1476	1477	1467	1469	1463	1455	1454	1467	1464	1454	1436	1384	1307	1166	1129	1095	1082	1073	1077	1071	1070	1061	1054	1030	1036	1053	1064	1068	1067	1070	1082	1091	1105	1095	1063	1026	1001	994	989	984	988	982	975	973	980	975	956	940	940	956	968	967	952	944	937	940	944	939	937	939	942	966	973	0	0	0	0	0	0	0	0	0	0	0	0	1353	1424	1457	1452	1441	1408	1418	1460	1496	1504	1505	1507	1504	1492	1477	1470	1467	1470	1489	1506	1525	1525	1513	1511	1497	1483	1467	1457	1497	1494	1506	1512	1508	1504	1494	1483	1484	1496	1511	1516	1511	1492	1487	1491	1478	1459	1463	1485	1449	1457	1438	1462	1467	1479	1496	1500	1509	1500	1492	1476	1463	1478	1485	1497	1494	1488	1481	1485	1485	1496	1504	1493	1480	1475	1467	1486	1495	1498	1491	1497	1499	1507	1501	1493	1497	1497	1497	1499	1507	1519	1514	1503	1505	1500	1514	1529	1527	1507	1480	1463	1452	1448	1448	1450	1458	1477	1493	1503	1506	1502	1506	1496	1491	1494	1506	1508	1507	1494	1474	1463	1462	1475	1484	1483	1480	1480	1483	1474	1474	1473	1481	1489	1487	1479	1470	1468	1467	1461	1469	1476	1483	1493	1498	1506	1501	1530	1555	1525	0	0	0	0	0	0	0	0	0	0	0	0	0	940	921	902	877	869	881	889	897	880	877	869	869	869	873	869	868	872	880	890	901	904	892	883	875	878	887	891	896	876	862	862	867	883	889	896	903	908	906	904	904	897	891	891	903	921	929	907	895	895	899	914	932	948	986	1027	1092	1177	1251	1320	1393	1433	1446	1443	1438	1438	1448	1451	1462	1473	1481	1488	1496	1495	1503	1512	1511	1513	1516	1513	1511	1500	1494	1499	1488	1471	1474	1477	1469	1475	1490	1496	1501	1482	1453	1431	1430	1441	1460	1483	1494	1489	1492	1498	1503	1513	1511	1501	1484	1470	1470	1471	1469	1467	1466	1466	1470	1473	1471	1463	1464	1477	1483	1488	1480	1467	1462	1460	1445	1432	1440	1458	1462	1449	1432	1448	1466	1474	1477	1476	1465	1455	1456	1452	1452	1451	1440	1434	1437	1431	1428	1439	1451	1458	1460	1456	1454	1468	1482	1495	1499	1508	1512	1504	1499	1488	1491	1485	1476	1474	1465	1460	1466	1476	1498	1508	1486	1473	1456	1463	1461	1462	1455	1464	1480	1484	1488	1487	1487	1481	1467	1456	1469	1471	1464	1456	1454	1457	1462	1458	1456	1450	1461	1461	1465	1465	1464	1475	1489	1502	1485	0	0	0	0	0	0	0	0
0	0	0	0	0	0	0	0	0	0	0	0	0	0	0	0	0	0	0	0	0	0	0	0	0	0	0	0	0	0	0	0	0	0	0	0	0	0	0	0	0	0	0	0	0	0	0	0	0	0	0	0	0	0	0	0	0	0	0	0	0	0	0	0	0	0	0	0	0	0	0	0	0	0	0	0	0	0	0	0	0	0	0	0	0	0	0	0	0	0	0	0	0	1487	1481	1475	1478	1502	1498	1489	1477	1482	1492	1488	1485	1489	1493	1485	1471	1441	1442	1449	1449	1452	1465	1470	1470	1459	1427	1423	1427	1466	1496	1529	1533	1535	1508	1476	1450	1435	1435	1455	1457	1450	1442	1446	1456	1458	1458	1466	1474	1474	1457	1434	1420	1422	1423	1414	1412	1405	1414	1424	1432	1435	1426	1418	1427	1444	1452	1461	1457	1451	1444	1448	1445	1449	1453	1461	1458	1456	1454	1457	1454	1445	1414	1414	1448	1453	1446	1428	1424	1429	1432	1461	1479	1496	1496	1487	1485	1480	1472	1455	1450	1446	1414	1322	1201	1124	1073	1066	1060	1058	1058	1064	1072	1081	1085	1081	1069	1041	1042	1054	1066	1073	1069	1062	1066	1077	1084	1078	1062	1030	1003	994	988	981	0	0	990	991	0	0	0	941	946	964	980	978	970	962	959	0	0	0	0	0	942	958	0	0	0	0	0	0	0	0	0	0	0	0	1375	1420	1443	1455	1463	1443	1440	1436	1442	1483	1503	1505	1498	1494	1480	1474	1470	1470	1478	1495	1504	1509	1517	1518	1509	1497	1462	1455	1457	1471	1484	1513	1518	1523	1513	1506	1496	1491	1501	1506	1511	1508	1498	1499	1506	1515	1512	1507	1497	1465	1439	1432	1457	1447	1462	1487	1497	1515	1496	1483	1472	1463	1474	1482	1489	1494	1487	1471	1472	1484	1490	1498	1484	1474	1472	1479	1493	1497	1494	1489	1498	1509	1524	1513	1498	1498	1498	1499	1498	1503	1502	1507	1509	1511	1510	1521	1521	1518	1491	1487	1477	1468	1461	1458	1466	1475	1487	1497	1501	1497	1504	1499	1487	1486	1489	1504	1509	1507	1501	1477	1450	1455	1464	1471	1481	1485	1489	1488	1478	1465	1461	1481	1499	1506	1480	1469	1463	1466	1479	1482	1481	1487	1492	1496	1488	1487	1481	1480	1493	1528	0	0	0	0	0	0	0	0	0	0	0	0	0	910	876	842	823	822	837	846	846	852	847	844	847	852	849	852	852	857	869	880	888	879	869	862	864	868	873	878	870	855	854	859	869	875	882	883	886	886	890	886	881	879	880	891	905	905	881	875	880	887	896	907	912	919	911	928	959	1030	1150	1176	1300	1407	1412	1417	1432	1453	1473	1479	1489	1493	1501	1509	1518	1520	1525	1530	1524	1518	1509	1497	1487	1498	1496	1482	1474	1476	1476	1477	1482	1490	1497	1491	1460	1437	1425	1424	1441	1456	1469	1474	1476	1489	1495	1506	1513	1522	1526	1505	1464	1463	1466	1468	1465	1463	1456	1477	1482	1483	1472	1467	1474	1489	1489	1486	1481	1478	1473	1464	1437	1444	1456	1451	1439	1431	1443	1460	1476	1478	1472	1460	1449	1444	1452	1444	1453	1457	1446	1444	1439	1437	1451	1457	1463	1457	1445	1446	1459	1473	1482	1494	1503	1500	1498	1497	1494	1491	1484	1481	1479	1478	1473	1468	1471	1485	1494	1504	1497	1487	1485	1482	1475	1474	1477	1498	1510	1521	1521	1516	1511	1495	1485	1481	1477	1467	1456	1454	1463	1468	1471	1464	1457	1463	1463	1472	1468	1464	1461	1474	1489	1479	0	0	0	0	0	0	0	0
0	0	0	0	0	0	0	0	0	0	0	0	0	0	0	0	0	0	0	0	0	0	0	0	0	0	0	0	0	0	0	0	0	0	0	0	0	0	0	0	0	0	0	0	0	0	0	0	0	0	0	0	0	0	0	0	0	0	0	0	0	0	0	0	0	0	0	0	0	0	0	0	0	0	0	0	0	0	0	0	0	0	0	0	0	0	0	0	0	0	0	0	0	1467	1462	1462	1470	1476	1477	1483	1491	1501	1502	1505	1505	1507	1503	1489	1479	1469	1445	1437	1434	1438	1460	1477	1480	1463	1416	1408	1415	1445	1470	1493	1509	1491	1473	1464	1455	1448	1451	1459	1475	1467	1455	1457	1455	1459	1456	1458	1465	1468	1449	1439	1435	1432	1423	1420	1411	1412	1426	1442	1451	1449	1439	1438	1441	1441	1453	1455	1457	1452	1451	1456	1457	1455	1457	1455	1453	1449	1456	1455	1455	1440	1419	1415	1426	1442	1451	1440	1419	1423	1434	1449	1483	1484	1501	1488	1482	1476	1469	1448	1423	1347	1175	1105	1074	1066	1060	0	0	1069	1067	1068	1078	1089	1103	1096	1086	1078	1075	1071	1077	1083	1085	1079	1079	1085	1087	1081	1066	1044	1017	1000	989	992	0	0	0	0	0	0	0	0	0	0	0	0	0	0	0	0	0	0	0	0	0	0	0	0	0	0	0	0	0	0	0	0	0	1378	1410	1427	1442	1463	1460	1467	1462	1445	1445	1482	1511	1506	1496	1491	1479	1470	1468	1474	1482	1490	1501	1497	1499	1505	1517	1492	1488	1445	1447	1466	1496	1510	1520	1517	1514	1504	1499	1492	1499	1500	1507	1511	1507	1504	1513	1511	1507	1503	1496	1464	1454	1463	1459	1450	1472	1476	1482	1503	1487	1480	1468	1465	1470	1480	1482	1490	1477	1473	1471	1477	1475	1476	1476	1471	1476	1488	1500	1494	1490	1487	1492	1504	1510	1508	1495	1487	1495	1500	1501	1492	1484	1491	1502	1519	1522	1520	1512	1488	1480	1482	1488	1492	1487	1485	1487	1488	1488	1493	1488	1491	1492	1497	1490	1487	1494	1497	1502	1511	1506	1492	1478	1460	1462	1471	1481	1498	1500	1495	1482	1472	1478	1497	1514	1525	1491	1480	1466	1479	1491	1493	1489	1486	1490	1484	1477	1472	1469	1481	1487	1509	1500	0	0	0	0	0	0	0	0	0	0	0	0	0	867	823	803	805	828	842	843	844	836	831	834	836	840	843	846	847	859	868	872	870	862	854	851	854	854	860	860	855	853	857	866	871	870	878	880	872	869	872	869	866	870	876	881	871	862	867	880	887	887	890	889	886	878	887	906	941	982	1044	1089	1321	1371	1389	1412	1441	1471	1476	1480	1494	1502	1520	1527	1522	1528	1529	1506	1476	1473	1474	1487	1497	1497	1481	1469	1469	1481	1490	1483	1479	1483	1476	1468	1455	1435	1436	1441	1449	1458	1471	1469	1470	1480	1481	1498	1513	1528	1526	1470	1458	1466	1462	1459	1460	1467	1482	1480	1480	1473	1468	1474	1480	1483	1489	1496	1504	1504	1491	1461	1460	1464	1453	1446	1441	1449	1453	1463	1463	1467	1461	1455	1456	1456	1458	1463	1468	1465	1456	1454	1449	1456	1465	1466	1456	1443	1440	1447	1461	1471	1481	1486	1491	1492	1493	1488	1477	1470	1474	1476	1482	1478	1476	1471	1473	1487	1496	1499	1497	1499	1494	1487	1479	1496	1511	1523	1526	1526	1522	1507	1500	1498	1489	1489	1471	1464	1466	1475	1481	1476	1474	1459	1455	1455	1465	1470	1462	1460	1458	1473	1463	0	0	0	0	0	0	0	0
0	0	0	0	0	0	0	0	0	0	0	0	0	0	0	0	0	0	0	0	0	0	0	0	0	0	0	0	0	0	0	0	0	0	0	0	0	0	0	0	0	0	0	0	0	0	0	0	0	0	0	0	0	0	0	0	0	0	0	0	0	0	0	0	0	0	0	0	0	0	0	0	0	0	0	0	0	0	0	0	0	0	0	0	0	0	0	0	0	0	0	0	0	1439	1448	1445	1456	1465	1477	1489	1501	1505	1508	1504	1509	1508	1500	1483	1473	1467	1454	1435	1427	1442	1461	1478	1482	1470	1411	1413	1425	1443	1457	1466	1465	1469	1468	1470	1469	1472	1468	1476	1478	1473	1467	1463	1458	1453	1459	1459	1464	1451	1446	1441	1438	1431	1419	1409	1402	1411	1434	1450	1462	1465	1466	1456	1451	1446	1452	1457	1459	1461	1461	1466	1468	1467	1455	1442	1442	1443	1448	1466	1470	1459	1437	1427	1431	1445	1454	1453	1448	1440	1435	1452	1473	1488	1488	1481	1465	1447	1411	1321	1282	1184	1089	1075	1066	1059	0	0	0	1090	1095	1094	1104	1120	1131	1136	1125	1119	1128	1127	1122	1117	1125	1121	1117	1110	0	0	0	0	0	0	0	0	0	0	0	0	0	0	0	0	0	0	0	0	0	0	0	0	0	0	0	0	0	0	0	0	0	0	0	0	0	0	0	0	1387	1419	1467	1451	1448	1489	1474	1478	1478	1458	1445	1502	1515	1517	1503	1488	1479	1470	1480	1486	1490	1490	1493	1496	1482	1484	1509	1521	1482	1447	1445	1462	1498	1505	1514	1522	1517	1504	1495	1493	1495	1494	1504	1507	1503	1505	1506	1500	1495	1490	1478	1466	1473	1475	1478	1476	1471	1476	1482	1491	1481	1471	1464	1461	1467	1479	1483	1482	1478	1479	1476	1477	1465	1460	1463	1483	1495	1506	1513	1503	1503	1496	1489	1491	1480	1470	1475	1480	1491	1501	1494	1487	1472	1474	1496	1517	1522	1513	1490	1472	1466	1470	1487	1508	1508	1503	1493	1485	1484	1481	1470	1476	1482	1498	1489	1492	1490	1496	1502	1508	1514	1509	1483	1468	1469	1482	1498	1504	1508	1505	1497	1492	1501	1509	1519	1512	1497	1481	1476	1484	1496	1499	1490	1486	1486	1484	1479	1485	1483	1475	1475	1487	1509	1479	0	0	0	0	0	0	0	0	0	0	0	0	0	852	817	813	824	837	842	843	838	826	826	832	839	843	843	844	849	854	862	867	860	852	849	846	839	839	849	848	849	853	857	861	862	860	865	851	858	853	859	863	865	862	851	844	845	857	877	884	882	878	876	861	853	847	850	873	903	935	962	985	1098	1306	1381	1415	1442	1455	1458	1472	1494	1511	1496	1495	1500	1504	1490	1479	1468	1468	1473	1487	1484	1477	1465	1465	1479	1487	1488	1472	1473	1476	1483	1476	1465	1451	1443	1440	1455	1470	1480	1477	1474	1473	1478	1492	1508	1522	1485	1476	1477	1468	1462	1463	1472	1471	1469	1460	1457	1457	1457	1458	1473	1496	1511	1524	1525	1510	1482	1474	1465	1455	1455	1458	1451	1446	1446	1449	1461	1469	1475	1472	1479	1482	1482	1478	1476	1472	1468	1463	1461	1467	1454	1447	1430	1436	1440	1450	1462	1471	1482	1485	1482	1489	1478	1470	1459	1461	1465	1473	1479	1472	1465	1470	1479	1492	1496	1496	1497	1502	1501	1504	1509	1515	1527	1519	1519	1512	1497	1486	1486	1494	1489	1479	1466	1472	1483	1497	1491	1478	1462	1455	1455	1459	1472	1467	1462	1460	1469	1453	0	0	0	0	0	0	0	0
0	0	0	0	0	0	0	0	0	0	0	0	0	0	0	0	0	0	0	0	0	0	0	0	0	0	0	0	0	0	0	0	0	0	0	0	0	0	0	0	0	0	0	0	0	0	0	0	0	0	0	0	0	0	0	0	0	0	0	0	0	0	0	0	0	0	0	0	0	0	0	0	0	0	0	0	0	0	0	0	0	0	0	0	0	0	0	0	0	0	0	0	0	1427	1427	1424	1429	1455	1471	1491	1504	1504	1494	1495	1488	1497	1484	1471	1462	1462	1456	1449	1443	1454	1465	1482	1476	1469	1435	1427	1435	1451	1461	1464	1455	1456	1469	1479	1482	1488	1489	1490	1499	1491	1475	1466	1456	1453	1461	1464	1455	1443	1432	1425	1420	1414	1404	1399	1400	1412	1455	1471	1475	1481	1475	1470	1462	1465	1468	1469	1471	1468	1470	1469	1482	1472	1456	1440	1425	1428	1441	1465	1478	1476	1465	1446	1438	1438	1452	1457	1450	1448	1443	1449	1461	1444	1390	1461	1417	1350	1296	1199	0	0	0	0	0	0	0	0	0	1107	1120	1126	1138	1151	0	0	1163	1164	1173	1176	1186	1178	1171	1160	1150	0	0	0	0	0	0	0	0	0	0	0	0	0	0	0	0	0	0	0	0	0	0	0	0	0	0	0	0	0	0	0	0	0	0	0	0	0	0	0	0	1400	1458	1479	1481	1477	1480	1482	1512	1488	1481	1470	1462	1461	1480	1488	1499	1516	1500	1490	1491	1500	1507	1511	1492	1488	1485	1487	1493	1524	1497	1459	1459	1480	1503	1508	1509	1524	1534	1527	1524	1514	1502	1495	1491	1486	1481	1497	1494	1487	1476	1454	1461	1487	1488	1491	1485	1480	1476	1481	1486	1493	1481	1463	1457	1455	1465	1482	1480	1474	1464	1469	1472	1468	1461	1458	1463	1489	1511	1524	1533	1528	1524	1507	1492	1479	1449	1453	1462	1478	1496	1499	1491	1477	1466	1464	1478	1501	1504	1501	1478	1465	1459	1459	1474	1500	1506	1502	1493	1468	1458	1467	1465	1469	1490	1499	1501	1500	1504	1503	1503	1502	1514	1505	1482	1472	1480	1497	1515	1522	1520	1509	1503	1505	1506	1508	1504	1501	1496	1485	1485	1491	1495	1492	1494	1492	1492	1496	1500	1495	1486	1475	1474	1472	1497	1480	1444	0	0	0	0	0	0	0	0	0	0	0	0	0	860	824	808	813	821	832	838	837	833	831	838	843	843	843	839	846	853	860	857	851	844	839	829	827	838	847	851	850	848	848	852	851	847	836	835	838	848	857	857	847	835	817	828	846	867	874	877	869	857	846	830	822	820	829	849	864	879	922	959	1024	1179	1362	1392	1405	1333	1348	1375	1419	1446	1460	1469	1478	1470	1465	1470	1473	1481	1480	1469	1457	1455	1467	1476	1482	1475	1479	1468	1479	1492	1487	1475	1462	1446	1444	1454	1472	1486	1485	1483	1481	1486	1472	1477	1503	1494	1480	1473	1471	1465	1464	1463	1459	1450	1441	1437	1443	1445	1442	1457	1493	1521	1524	1524	1507	1480	1474	1459	1454	1457	1468	1459	1448	1439	1448	1462	1478	1490	1493	1504	1505	1495	1495	1477	1481	1476	1464	1466	1473	1461	1446	1433	1430	1432	1445	1463	1476	1479	1483	1480	1489	1477	1473	1464	1464	1464	1474	1479	1467	1459	1465	1487	1504	1505	1507	1507	1511	1515	1515	1510	1512	1519	1511	1520	1503	1498	1478	1480	1486	1485	1475	1462	1470	1496	1506	1506	1499	1475	1469	1469	1468	1474	1468	1460	1454	1470	1462	0	0	0	0	0	0	0	0
0	0	0	0	0	0	0	0	0	0	0	0	0	0	0	0	0	0	0	0	0	0	0	0	0	0	0	0	0	0	0	0	0	0	0	0	0	0	0	0	0	0	0	0	0	0	0	0	0	0	0	0	0	0	0	0	0	0	0	0	0	0	0	0	0	0	0	0	0	0	0	0	0	0	0	0	0	0	0	0	0	0	0	0	0	0	0	0	0	0	0	0	0	1438	1429	1423	1426	1452	1474	1490	1505	1505	1495	1485	1481	1479	1470	1460	1457	1460	1463	1466	1469	1469	1469	1466	1450	1447	1444	1440	1451	1459	1466	1468	1458	1457	1466	1482	1491	1495	1498	1498	1504	1497	1481	1462	1451	1448	1459	1462	1457	1435	1421	1412	1403	1400	1404	1412	1420	1421	1464	1479	1486	1485	1480	1481	1479	1480	1477	1471	1476	1481	1480	1485	1489	1482	1462	1432	1425	1430	1439	1459	1470	1480	1473	1465	1449	1444	1442	1456	1451	1443	1435	1407	1286	1226	1186	1165	0	0	0	0	0	0	0	0	0	0	0	0	0	1130	1139	1153	1163	1175	0	0	0	1188	1198	1210	1217	1212	1195	1183	0	0	0	0	0	0	0	0	0	0	0	0	0	0	0	0	0	0	0	0	0	0	0	0	0	0	0	0	0	0	0	0	0	0	0	0	0	0	0	0	1395	1466	1479	1480	1482	1478	1488	1496	1499	1494	1481	1471	1455	1458	1463	1478	1498	1530	1519	1494	1474	1466	1482	1500	1504	1502	1497	1496	1502	1517	1503	1480	1480	1492	1505	1506	1510	1519	1524	1522	1518	1531	1543	1542	1518	1445	1468	1476	1485	1474	1457	1458	1493	1496	1495	1490	1485	1481	1479	1486	1493	1496	1480	1471	1460	1470	1482	1482	1477	1472	1456	1454	1463	1466	1468	1466	1481	1497	1517	1538	1548	1548	1541	1523	1500	1469	1464	1467	1473	1478	1487	1494	1487	1471	1466	1477	1489	1494	1497	1493	1478	1471	1466	1460	1464	1479	1494	1503	1482	1457	1454	1462	1470	1479	1500	1515	1521	1510	1507	1504	1499	1499	1507	1508	1498	1492	1497	1513	1530	1529	1522	1506	1502	1504	1496	1484	1478	1483	1490	1483	1484	1493	1490	1495	1497	1497	1499	1503	1509	1507	1499	1488	1473	1466	1472	1485	1455	0	0	0	0	0	0	0	0	0	0	0	0	0	0	817	798	794	803	821	839	848	841	832	828	834	838	835	833	840	847	849	848	836	828	823	816	815	828	845	851	845	837	833	836	840	843	832	827	828	835	846	848	840	824	808	814	829	846	859	858	853	844	828	811	809	807	815	819	824	837	867	894	925	960	914	933	954	1025	1231	1275	1316	1364	1390	1420	1435	1449	1454	1461	1472	1479	1473	1465	1457	1454	1462	1475	1482	1481	1483	1472	1476	1483	1487	1480	1472	1458	1448	1452	1470	1481	1488	1490	1494	1490	1467	1462	1474	1484	1469	1454	1452	1457	1458	1461	1452	1438	1434	1443	1445	1438	1439	1448	1471	1504	1507	1495	1487	1473	1465	1452	1446	1470	1473	1469	1449	1447	1449	1471	1482	1499	1505	1514	1510	1505	1499	1496	1488	1472	1469	1474	1481	1488	1473	1453	1437	1436	1457	1474	1490	1491	1489	1489	1488	1489	1484	1478	1474	1468	1476	1475	1465	1461	1469	1496	1526	1528	1523	1517	1516	1510	1511	1508	1509	1506	1506	1505	1496	1476	1471	1472	1478	1483	1474	1462	1474	1495	1506	1504	1504	1501	1501	1481	1476	1473	1468	1451	1452	1470	1462	0	0	0	0	0	0	0	0
0	0	0	0	0	0	0	0	0	0	0	0	0	0	0	0	0	0	0	0	0	0	0	0	0	0	0	0	0	0	0	0	0	0	0	0	0	0	0	0	0	0	0	0	0	0	0	0	0	0	0	0	0	0	0	0	0	0	0	0	0	0	0	0	0	0	0	0	0	0	0	0	0	0	0	0	0	0	0	0	0	0	0	0	0	0	0	0	0	0	0	0	0	0	1435	1436	1439	1454	1472	1487	1499	1503	1500	1483	1466	1466	1465	1456	1453	1454	1470	1484	1491	1483	1474	1448	1432	1431	1444	1451	1456	1463	1469	1470	1462	1460	1467	1478	1487	1488	1492	1494	1504	1497	1474	1461	1454	1449	1460	1469	1462	1441	1422	1418	1406	1409	1418	1424	1435	1443	1458	1463	1478	1480	1486	1486	1490	1490	1479	1471	1465	1475	1480	1486	1493	1482	1472	1439	1430	1438	1443	1452	1465	1479	1472	1454	1442	1433	1436	1444	1393	1345	1303	1150	0	0	0	0	0	0	0	0	0	0	0	0	0	0	0	0	0	1150	1159	1171	1178	1189	0	0	0	1197	1194	1210	1228	1217	1197	1181	0	0	0	0	0	0	0	0	0	0	0	0	0	0	0	0	0	0	0	0	0	0	0	0	0	0	0	0	0	0	0	0	0	0	0	0	0	0	0	1368	1457	1483	1483	1479	1483	1491	1491	1491	1496	1490	1489	1480	1457	1449	1462	1473	1491	1505	1509	1510	1519	1471	1488	1495	1500	1497	1513	1510	1512	1513	1502	1473	1473	1498	1499	1503	1501	1509	1509	1518	1518	1527	1539	1540	1511	1441	1463	1473	1486	1483	1484	1499	1502	1502	1488	1479	1480	1476	1478	1483	1494	1496	1488	1484	1484	1499	1505	1497	1486	1479	1462	1454	1458	1461	1472	1479	1487	1507	1520	1533	1543	1548	1521	1502	1503	1490	1497	1503	1504	1498	1499	1501	1489	1495	1501	1507	1505	1498	1489	1486	1479	1473	1475	1479	1475	1477	1497	1502	1494	1477	1473	1480	1487	1495	1515	1527	1524	1517	1510	1501	1495	1499	1501	1506	1514	1509	1514	1521	1532	1527	1525	1501	1497	1492	1479	1464	1464	1475	1480	1476	1482	1488	1492	1505	1496	1489	1490	1496	1507	1511	1505	1489	1477	1474	1476	1474	1479	0	0	0	0	0	0	0	0	0	0	0	0	0	0	839	803	791	796	811	833	836	829	815	811	819	827	827	829	834	838	831	821	809	801	803	801	808	822	836	839	829	818	812	820	831	834	832	821	821	826	833	835	832	824	812	809	816	821	830	839	834	825	809	793	790	799	804	808	812	814	824	804	810	823	841	853	868	879	894	1125	1173	1230	1278	1321	1353	1427	1449	1461	1472	1479	1481	1475	1469	1464	1465	1476	1481	1483	1485	1480	1469	1484	1489	1485	1475	1467	1463	1458	1461	1467	1474	1490	1498	1500	1470	1454	1457	1452	1437	1431	1435	1442	1454	1460	1453	1439	1436	1444	1460	1445	1446	1447	1463	1480	1477	1463	1456	1458	1452	1446	1462	1468	1484	1473	1461	1454	1459	1477	1495	1503	1506	1506	1506	1502	1502	1494	1488	1471	1466	1473	1491	1501	1486	1470	1449	1454	1465	1482	1492	1500	1494	1489	1486	1490	1487	1484	1474	1473	1473	1480	1473	1463	1474	1498	1527	1535	1524	1519	1508	1507	1499	1498	1497	1493	1493	1493	1482	1465	1455	1453	1470	1481	1483	1473	1476	1489	1497	1494	1491	1495	1495	1488	1469	1462	1459	1456	1461	1474	1460	0	0	0	0	0	0	0	0
0	0	0	0	0	0	0	0	0	0	0	0	0	0	0	0	0	0	0	0	0	0	0	0	0	0	0	0	0	0	0	0	0	0	0	0	0	0	0	0	0	0	0	0	0	0	0	0	0	0	0	0	0	0	0	0	0	0	0	0	0	0	0	0	0	0	0	0	0	0	0	0	0	0	0	0	0	0	0	0	0	0	0	0	0	0	0	0	0	0	0	0	0	0	1446	1456	1456	1463	1469	1478	1485	1489	1475	1463	1466	1466	1461	1456	1456	1455	1456	1479	1479	1473	1459	1451	1442	1446	1453	1456	1460	1465	1471	1469	1469	1468	1469	1480	1484	1487	1488	1480	1476	1478	1467	1461	1457	1462	1461	1463	1448	1438	1434	1437	1434	1428	1436	1453	1465	1473	1444	1447	1458	1479	1489	1495	1493	1482	1465	1450	1451	1460	1472	1487	1488	1473	1468	1460	1445	1445	1451	1460	1469	1472	1454	1440	1415	1404	1389	1325	1135	1085	0	0	0	0	0	0	0	0	0	0	0	0	0	0	0	0	0	0	0	0	1184	1186	1196	0	0	0	1209	1198	1187	1203	1212	1203	1181	0	0	0	0	0	0	0	0	0	0	0	0	0	0	0	0	0	0	0	0	0	0	0	0	0	0	0	0	0	0	0	0	0	0	0	0	0	0	0	1318	1420	1473	1484	1486	1479	1475	1462	1459	1485	1494	1486	1501	1501	1441	1448	1480	1504	1511	1509	1491	1471	1479	1489	1497	1511	1502	1507	1512	1519	1521	1515	1493	1449	1448	1492	1496	1490	1477	1500	1503	1499	1499	1501	1505	1498	1466	1455	1468	1483	1491	1511	1509	1504	1501	1506	1492	1481	1478	1476	1473	1474	1486	1485	1490	1493	1496	1509	1513	1512	1504	1506	1486	1470	1461	1460	1472	1478	1490	1512	1521	1532	1525	1484	1492	1501	1499	1503	1502	1498	1510	1503	1508	1498	1499	1495	1500	1508	1507	1496	1481	1455	1464	1480	1487	1496	1487	1491	1501	1509	1509	1496	1493	1493	1493	1502	1519	1527	1520	1511	1503	1493	1491	1494	1501	1513	1514	1516	1516	1517	1518	1517	1511	1509	1500	1491	1475	1461	1464	1478	1487	1485	1486	1505	1509	1506	1493	1481	1478	1486	1497	1511	1510	1503	1488	1489	1490	1496	1494	1471	0	0	0	0	0	0	0	0	0	0	0	0	0	0	838	826	825	814	820	816	801	790	792	800	811	815	820	828	826	814	798	781	777	782	791	814	820	826	822	811	793	789	807	820	829	826	816	813	816	818	822	822	823	818	812	809	810	816	818	814	805	794	784	785	794	802	803	798	795	789	794	803	810	822	821	823	822	830	865	913	1001	1061	1151	1211	1363	1408	1437	1443	1457	1466	1478	1478	1463	1463	1466	1470	1468	1474	1473	1477	1483	1487	1486	1477	1474	1472	1463	1455	1458	1462	1482	1499	1504	1478	1468	1463	1456	1441	1436	1428	1433	1450	1461	1466	1454	1453	1461	1457	1462	1456	1450	1457	1461	1443	1439	1438	1457	1442	1449	1455	1464	1476	1462	1457	1451	1466	1495	1502	1494	1493	1493	1489	1489	1489	1489	1487	1477	1465	1476	1492	1497	1485	1477	1458	1461	1473	1481	1482	1488	1485	1488	1481	1477	1476	1469	1460	1458	1468	1476	1476	1467	1474	1495	1518	1524	1518	1517	1510	1499	1494	1485	1479	1480	1480	1475	1475	1464	1456	1454	1460	1474	1489	1484	1484	1486	1479	1477	1475	1482	1482	1481	1458	1454	1454	1462	1475	1490	1470	1472	0	0	0	0	0	0	0
0	0	0	0	0	0	0	0	0	0	0	0	0	0	0	0	0	0	0	0	0	0	0	0	0	0	0	0	0	0	0	0	0	0	0	0	0	0	0	0	0	0	0	0	0	0	0	0	0	0	0	0	0	0	0	0	0	0	0	0	0	0	0	0	0	0	0	0	0	0	0	0	0	0	0	0	0	0	0	0	0	0	0	0	0	0	0	0	0	0	0	0	0	1440	1459	1465	1468	1474	1479	1480	1470	1454	1445	1458	1472	1466	1464	1461	1458	1452	1442	1443	1450	1459	1457	1456	1453	1463	1468	1464	1465	1468	1471	1475	1466	1475	1482	1485	1491	1494	1492	1491	1463	1458	1468	1465	1464	1465	1458	1453	1442	1435	1444	1454	1453	1443	1447	1464	1484	1485	1447	1439	1458	1478	1494	1493	1493	1473	1457	1445	1436	1442	1463	1472	1468	1471	1469	1456	1448	1446	1452	1461	1461	1451	1441	1418	1385	1308	1118	0	0	0	0	0	0	0	0	0	0	0	0	0	0	0	0	0	0	0	0	0	0	0	0	0	0	0	1222	1223	1213	1192	1178	1195	1193	1177	0	0	0	0	0	0	0	0	0	0	0	0	0	0	0	0	0	0	0	0	0	0	0	0	0	0	0	0	0	0	0	0	0	0	0	0	0	0	0	1293	1377	1433	1481	1485	1489	1479	1459	1450	1449	1444	1458	1481	1499	1507	1447	1469	1509	1522	1528	1516	1489	1475	1480	1491	1492	1495	1495	1500	1509	1513	1519	1515	1488	1421	1419	1481	1492	1481	1479	1484	1484	1488	1495	1497	1501	1500	1499	1491	1491	1501	1510	1506	1501	1501	1504	1506	1511	1507	1509	1505	1501	1487	1486	1485	1478	1486	1490	1493	1503	1508	1519	1514	1494	1470	1440	1433	1442	1466	1491	1490	1482	1476	1465	1489	1507	1504	1513	1508	1514	1514	1508	1515	1490	1496	1522	1517	1507	1513	1501	1485	1462	1447	1460	1483	1504	1506	1495	1488	1500	1510	1511	1508	1503	1496	1496	1488	1496	1507	1507	1503	1494	1490	1488	1491	1500	1505	1497	1501	1493	1492	1500	1505	1512	1506	1496	1493	1483	1463	1471	1486	1495	1500	1497	1507	1509	1504	1494	1481	1471	1477	1482	1502	1512	1507	1502	1502	1506	1515	1507	1497	1462	0	0	0	0	0	0	0	0	0	0	0	0	0	0	0	0	861	819	791	777	774	778	786	792	796	803	815	816	804	779	763	756	777	813	820	823	821	808	789	773	779	796	814	819	814	806	805	806	809	813	818	827	818	812	799	797	795	796	796	794	797	798	798	812	809	797	791	794	793	802	818	830	825	813	801	795	795	812	855	896	934	976	1134	1228	1300	1358	1383	1404	1427	1448	1458	1455	1458	1455	1455	1453	1454	1458	1469	1472	1476	1480	1486	1490	1486	1476	1464	1461	1465	1482	1496	1500	1491	1477	1476	1470	1458	1444	1433	1434	1447	1466	1480	1471	1469	1473	1464	1459	1449	1450	1453	1446	1446	1446	1447	1449	1445	1446	1452	1464	1466	1458	1454	1461	1470	1502	1509	1488	1479	1480	1479	1476	1470	1482	1488	1478	1471	1473	1479	1480	1469	1470	1467	1477	1480	1482	1477	1477	1476	1477	1463	1461	1458	1455	1444	1443	1456	1470	1478	1477	1481	1500	1510	1514	1518	1522	1514	1501	1481	1473	1473	1473	1469	1468	1465	1464	1461	1460	1463	1467	1477	1493	1488	1477	1469	1463	1469	1473	1473	1469	1456	1449	1454	1465	1477	1491	1483	1474	0	0	0	0	0	0	0
0	0	0	0	0	0	0	0	0	0	0	0	0	0	0	0	0	0	0	0	0	0	0	0	0	0	0	0	0	0	0	0	0	0	0	0	0	0	0	0	0	0	0	0	0	0	0	0	0	0	0	0	0	0	0	0	0	0	0	0	0	0	0	0	0	0	0	0	0	0	0	0	0	0	0	0	0	0	0	0	0	0	0	0	0	0	0	0	0	0	0	0	0	0	1457	1478	1488	1489	1492	1480	1456	1440	1446	1471	1480	1479	1475	1465	1459	1446	1441	1433	1438	1441	1449	1458	1463	1471	1478	1473	1472	1473	1473	1471	1468	1473	1478	1493	1494	1496	1493	1497	1468	1456	1464	1468	1467	1458	1449	1434	1429	1428	1438	1461	1467	1455	1444	1458	1475	1485	1452	1446	1457	1476	1478	1479	1480	1470	1464	1449	1444	1445	1446	1449	1446	1456	1466	1451	1440	1432	1430	1427	1420	1385	1345	1286	1231	1036	0	0	0	0	0	0	0	0	0	0	0	0	0	0	0	0	0	0	0	0	0	1087	1098	1125	0	0	0	1217	1215	1213	1216	1200	1173	1173	1170	1145	0	0	0	0	0	0	0	0	0	0	0	0	0	0	0	0	0	0	0	0	0	0	0	0	0	0	0	0	0	0	0	0	0	0	0	0	0	1193	1270	1346	1442	1464	1476	1491	1497	1488	1473	1437	1437	1442	1454	1484	1504	1479	1483	1506	1524	1535	1537	1504	1485	1486	1485	1492	1495	1497	1495	1493	1490	1500	1500	1502	1481	1465	1469	1481	1508	1499	1490	1494	1487	1483	1493	1498	1501	1495	1487	1480	1487	1498	1520	1498	1500	1500	1495	1503	1520	1532	1516	1514	1502	1490	1487	1488	1478	1478	1480	1480	1483	1497	1510	1504	1494	1462	1436	1428	1440	1461	1484	1484	1479	1465	1460	1460	1485	1504	1514	1509	1512	1518	1516	1492	1496	1518	1530	1514	1531	1525	1503	1480	1456	1452	1463	1504	1514	1510	1502	1490	1499	1504	1510	1504	1499	1496	1490	1482	1483	1491	1498	1493	1489	1482	1483	1489	1498	1501	1493	1490	1485	1479	1487	1496	1500	1495	1487	1491	1485	1469	1470	1477	1497	1503	1506	1507	1510	1507	1497	1487	1476	1472	1482	1498	1506	1505	1506	1511	1512	1509	1506	1495	1464	1455	0	0	0	0	0	0	0	0	0	0	0	0	0	0	0	0	847	793	769	764	771	781	779	781	791	805	806	788	767	750	752	773	820	822	820	814	799	779	767	775	793	804	807	797	790	792	802	812	813	817	816	806	791	784	778	780	782	788	797	804	812	814	810	803	790	786	795	804	815	825	832	821	799	779	775	775	791	814	841	863	878	949	1043	1122	1208	1288	1323	1361	1381	1413	1434	1444	1447	1438	1441	1444	1445	1451	1458	1470	1476	1489	1504	1487	1477	1478	1473	1476	1483	1497	1499	1488	1478	1474	1477	1472	1458	1451	1451	1465	1477	1478	1479	1478	1476	1462	1450	1433	1437	1438	1440	1454	1462	1463	1456	1446	1441	1448	1457	1457	1456	1457	1470	1488	1515	1513	1487	1475	1469	1469	1466	1466	1467	1472	1469	1466	1472	1469	1466	1458	1468	1479	1489	1492	1491	1477	1471	1474	1477	1457	1456	1456	1443	1438	1442	1452	1461	1477	1492	1504	1514	1519	1527	1522	1521	1512	1494	1474	1469	1466	1466	1465	1459	1456	1463	1466	1470	1472	1470	1474	1477	1477	1469	1456	1451	1456	1467	1467	1476	1463	1453	1445	1453	1452	1474	1469	1454	0	0	0	0	0	0	0
0	0	0	0	0	0	0	0	0	0	0	0	0	0	0	0	0	0	0	0	0	0	0	0	0	0	0	0	0	0	0	0	0	0	0	0	0	0	0	0	0	0	0	0	0	0	0	0	0	0	0	0	0	0	0	0	0	0	0	0	0	0	0	0	0	0	0	0	0	0	0	0	0	0	0	0	0	0	0	0	0	0	0	0	0	0	0	0	0	0	0	0	0	0	1453	1473	1488	1491	1492	1483	1450	1444	1447	1469	1474	1478	1473	1459	1448	1437	1433	1434	1435	1440	1456	1458	1468	1475	1483	1487	1477	1475	1473	1470	1469	1466	1473	1479	1490	1491	1485	1483	1471	1459	1468	1467	1459	1442	1433	1417	1421	1421	1437	1453	1459	1451	1438	1441	1458	1466	1457	1438	1433	1437	1457	1454	1458	1466	1472	1475	1452	1446	1434	1434	1434	1443	1464	1444	1426	1411	1393	1347	1267	1213	1116	976	0	0	0	0	0	0	0	0	0	0	0	0	0	0	0	0	0	0	0	0	0	0	1044	1041	1041	1063	1112	1152	1169	1196	1201	1198	1204	1198	1188	1151	0	0	0	0	0	0	0	0	0	0	0	0	0	0	0	0	0	0	0	0	0	0	0	0	0	0	0	0	0	0	0	0	0	0	0	0	0	0	1182	1299	1421	1446	1447	1455	1474	1488	1498	1492	1480	1472	1479	1515	1517	1507	1495	1500	1501	1511	1522	1535	1522	1507	1496	1493	1495	1497	1496	1497	1496	1487	1480	1474	1469	1483	1448	1476	1473	1505	1521	1520	1510	1503	1496	1494	1498	1499	1498	1491	1485	1478	1483	1492	1499	1521	1487	1482	1485	1503	1528	1538	1535	1528	1499	1499	1493	1495	1488	1478	1469	1473	1480	1484	1493	1489	1476	1469	1467	1457	1455	1451	1452	1461	1474	1489	1489	1484	1484	1483	1491	1490	1487	1483	1488	1492	1494	1494	1505	1512	1513	1510	1504	1495	1488	1494	1509	1518	1521	1509	1501	1500	1501	1497	1497	1493	1489	1482	1485	1482	1486	1487	1488	1489	1482	1475	1483	1492	1499	1500	1496	1479	1472	1471	1475	1489	1481	1477	1484	1488	1481	1476	1479	1483	1490	1502	1510	1512	1517	1516	1510	1500	1484	1484	1496	1509	1513	1509	1515	1510	1506	1501	1498	1491	1487	1476	0	0	0	0	0	0	0	0	0	0	0	0	0	0	0	0	869	821	775	764	771	777	772	768	777	787	793	779	758	746	750	764	802	809	804	793	781	772	770	783	791	801	792	781	776	778	792	801	809	807	792	779	770	765	763	766	752	767	779	799	808	811	801	786	779	777	793	808	816	823	814	797	775	756	751	756	772	783	795	802	806	819	855	896	960	1111	1196	1261	1301	1335	1368	1411	1422	1431	1435	1439	1439	1443	1448	1459	1480	1496	1508	1505	1484	1481	1479	1482	1491	1491	1483	1471	1456	1468	1468	1476	1471	1462	1469	1470	1468	1462	1461	1473	1474	1463	1441	1427	1425	1435	1445	1465	1478	1485	1466	1445	1443	1451	1456	1452	1445	1456	1476	1497	1512	1509	1485	1465	1463	1463	1463	1463	1454	1454	1456	1460	1462	1460	1458	1461	1471	1486	1497	1496	1489	1476	1473	1476	1469	1463	1456	1448	1442	1438	1445	1450	1459	1482	1491	1508	1525	1525	1532	1523	1515	1502	1480	1468	1461	1460	1460	1458	1456	1454	1464	1481	1486	1494	1491	1484	1476	1473	1463	1457	1448	1452	1452	1465	1477	1473	1459	1445	1444	1440	1462	1463	1452	0	0	0	0	0	0	0
0	0	0	0	0	0	0	0	0	0	0	0	0	0	0	0	0	0	0	0	0	0	0	0	0	0	0	0	0	0	0	0	0	0	0	0	0	0	0	0	0	0	0	0	0	0	0	0	0	0	0	0	0	0	0	0	0	0	0	0	0	0	0	0	0	0	0	0	0	0	0	0	0	0	0	0	0	0	0	0	0	0	0	0	0	0	0	0	0	0	0	0	0	0	1451	1469	1486	1489	1486	1473	1448	1446	1460	1462	1468	1474	1466	1450	1438	1430	1427	1431	1445	1447	1463	1467	1466	1473	1480	1479	1479	1470	1470	1471	1464	1463	1465	1467	1480	1472	1467	1470	1483	1472	1465	1464	1457	1447	1437	1424	1422	1428	1435	1447	1447	1437	1427	1430	1442	1452	1450	1429	1416	1413	1423	1436	1441	1461	1473	1482	1475	1447	1432	1423	1422	1432	1438	1427	1391	1340	1241	0	0	0	0	0	0	0	0	0	0	0	0	0	0	0	0	0	0	0	0	0	0	0	0	0	0	0	1021	1010	1017	1038	1075	1115	1137	1141	1153	1185	1187	0	0	0	0	0	0	0	0	0	0	0	0	0	0	0	0	0	0	0	0	0	0	0	0	0	0	0	0	0	0	0	0	0	906	912	924	0	0	0	0	0	1182	1427	1479	1480	1483	1483	1482	1486	1496	1494	1487	1490	1501	1504	1503	1488	1476	1477	1490	1502	1513	1523	1509	1503	1497	1512	1515	1511	1499	1498	1499	1494	1491	1489	1471	1471	1453	1460	1481	1506	1528	1542	1527	1515	1504	1500	1499	1497	1494	1487	1481	1477	1483	1491	1494	1496	1501	1499	1503	1509	1514	1517	1514	1516	1510	1511	1503	1499	1502	1485	1471	1472	1475	1490	1495	1486	1476	1472	1479	1487	1472	1458	1452	1456	1470	1487	1491	1484	1493	1497	1480	1474	1471	1468	1469	1481	1490	1502	1501	1500	1489	1488	1503	1507	1506	1506	1509	1514	1508	1497	1500	1505	1502	1492	1483	1485	1485	1483	1490	1505	1515	1512	1495	1482	1477	1471	1474	1483	1490	1489	1482	1471	1469	1471	1479	1481	1473	1464	1473	1481	1481	1476	1475	1476	1485	1499	1513	1518	1522	1525	1524	1509	1501	1505	1515	1525	1519	1510	1502	1501	1505	1506	1500	1488	1481	1490	1529	0	0	0	0	0	0	0	0	0	0	0	0	0	0	0	0	0	799	774	771	773	769	761	770	773	774	762	753	743	749	763	783	780	776	762	756	757	771	789	795	792	780	765	760	766	778	787	793	789	765	761	757	753	739	732	737	747	765	780	794	797	788	773	763	761	787	799	804	804	792	770	746	731	732	742	758	765	766	768	760	755	767	792	817	852	895	963	1058	1130	1211	1291	1360	1389	1413	1427	1433	1437	1453	1460	1473	1499	1506	1499	1476	1475	1468	1468	1478	1479	1455	1443	1441	1458	1456	1454	1462	1471	1468	1467	1451	1435	1449	1459	1468	1456	1446	1437	1434	1441	1455	1480	1494	1494	1469	1452	1445	1446	1443	1438	1438	1454	1471	1488	1501	1488	1478	1464	1461	1471	1466	1467	1464	1446	1437	1443	1448	1454	1458	1464	1475	1485	1489	1487	1480	1470	1463	1463	1462	1457	1453	1450	1448	1447	1456	1454	1457	1460	1475	1498	1515	1521	1526	1518	1510	1495	1481	1461	1450	1445	1445	1445	1448	1459	1469	1477	1492	1499	1500	1486	1469	1457	1458	1462	1463	1458	1458	1462	1473	1475	1468	1454	1448	1458	1462	1463	1458	1458	0	0	0	0	0	0
0	0	0	0	0	0	0	0	0	0	0	0	0	0	0	0	0	0	0	0	0	0	0	0	0	0	0	0	0	0	0	0	0	0	0	0	0	0	0	0	0	0	0	0	0	0	0	0	0	0	0	0	0	0	0	0	0	0	0	0	0	0	0	0	0	0	0	0	0	0	0	0	0	0	0	0	0	0	0	0	0	0	0	0	0	0	0	0	0	0	0	0	0	0	1481	1462	1476	1486	1480	1463	1446	1450	1465	1468	1471	1474	1464	1454	1438	1425	1434	1436	1445	1467	1472	1477	1472	1469	1473	1469	1468	1468	1473	1476	1472	1458	1455	1458	1470	1468	1456	1454	1479	1479	1466	1470	1472	1465	1451	1440	1429	1429	1434	1437	1433	1420	1418	1423	1440	1450	1450	1436	1421	1412	1418	1426	1437	1460	1469	1475	1470	1439	1433	1417	1405	1393	1369	1293	1139	0	0	0	0	0	0	0	0	0	0	0	0	0	0	0	0	0	0	0	0	0	0	0	0	0	0	0	0	0	0	1007	1015	1025	1054	1077	1095	1103	1104	1108	1108	0	0	1035	0	0	0	0	0	0	0	0	0	0	0	0	0	0	0	0	0	0	0	0	0	0	0	0	0	0	0	0	0	0	899	904	926	0	0	0	0	0	1297	1472	1477	1479	1483	1482	1484	1486	1492	1490	1490	1491	1500	1509	1506	1490	1476	1475	1482	1490	1499	1504	1513	1512	1516	1524	1523	1517	1502	1494	1494	1495	1497	1502	1496	1481	1467	1448	1467	1498	1522	1534	1535	1515	1505	1503	1503	1497	1487	1480	1475	1474	1479	1483	1487	1494	1496	1504	1509	1509	1512	1508	1508	1515	1503	1504	1509	1512	1506	1495	1481	1482	1509	1511	1507	1497	1487	1487	1495	1502	1496	1473	1467	1469	1479	1486	1489	1496	1504	1513	1499	1484	1464	1459	1479	1496	1506	1505	1505	1489	1479	1473	1492	1507	1518	1508	1503	1497	1489	1483	1486	1488	1484	1478	1477	1477	1483	1491	1507	1525	1536	1530	1512	1494	1481	1471	1470	1470	1471	1474	1472	1466	1475	1485	1490	1484	1473	1480	1482	1494	1489	1491	1481	1476	1475	1495	1505	1510	1512	1520	1512	1513	1512	1516	1524	1527	1518	1503	1501	1500	1505	1503	1494	1486	1479	1480	1490	0	0	0	0	0	0	0	0	0	0	0	0	0	0	0	0	0	0	809	798	781	765	756	752	747	741	730	725	730	744	760	755	749	737	736	734	739	756	775	781	772	759	752	749	757	772	778	776	760	754	751	745	738	731	725	727	736	744	763	773	777	771	757	748	757	768	777	780	780	768	745	729	721	725	735	748	752	746	741	732	728	732	747	763	784	815	847	904	974	1051	1134	1235	1306	1361	1397	1419	1435	1453	1466	1482	1499	1502	1484	1470	1457	1452	1458	1463	1457	1444	1434	1440	1461	1458	1450	1455	1457	1456	1458	1440	1435	1444	1459	1468	1463	1462	1460	1457	1453	1469	1487	1502	1502	1468	1451	1441	1443	1440	1434	1431	1444	1466	1473	1483	1487	1483	1474	1471	1474	1479	1479	1473	1464	1436	1436	1445	1452	1457	1467	1474	1482	1477	1472	1466	1455	1459	1462	1456	1459	1459	1451	1449	1455	1464	1463	1463	1455	1460	1480	1501	1508	1514	1512	1506	1490	1475	1457	1441	1441	1432	1438	1453	1461	1474	1480	1484	1488	1478	1470	1459	1457	1459	1461	1459	1464	1458	1456	1462	1461	1472	1473	1478	1470	1456	1452	1449	1449	0	0	0	0	0	0
0	0	0	0	0	0	0	0	0	0	0	0	0	0	0	0	0	0	0	0	0	0	0	0	0	0	0	0	0	0	0	0	0	0	0	0	0	0	0	0	0	0	0	0	0	0	0	0	0	0	0	0	0	0	0	0	0	0	0	0	0	0	0	0	0	0	0	0	0	0	0	0	0	0	0	0	0	0	0	0	0	0	0	0	0	0	0	0	0	0	0	0	0	0	1518	1503	1473	1467	1468	1451	1442	1450	1474	1474	1477	1479	1475	1467	1456	1449	1426	1430	1451	1489	1506	1492	1485	1468	1467	1464	1470	1483	1495	1491	1482	1466	1458	1457	1471	1475	1461	1453	1466	1480	1475	1482	1492	1484	1468	1439	1425	1423	1430	1433	1427	1414	1420	1426	1446	1454	1461	1436	1425	1422	1429	1436	1446	1458	1467	1466	1455	1435	1422	1405	1371	1332	1163	0	0	0	0	0	0	0	0	0	0	0	0	0	0	0	0	0	0	0	0	0	0	0	0	0	0	0	0	0	0	0	0	0	1006	1014	1032	1049	1058	1060	1060	1066	1067	1053	1038	1013	0	0	0	0	0	0	0	0	0	0	0	0	0	0	0	0	0	0	0	0	0	0	0	0	0	0	0	0	0	0	897	899	930	0	0	0	0	1306	1429	1476	1479	1482	1477	1477	1479	1485	1491	1499	1476	1462	1454	1461	1467	1477	1481	1475	1463	1458	1474	1497	1512	1504	1501	1501	1512	1525	1515	1506	1483	1486	1494	1504	1509	1507	1495	1475	1485	1508	1516	1515	1501	1497	1499	1509	1505	1493	1478	1462	1458	1460	1462	1462	1464	1476	1489	1505	1509	1496	1482	1468	1481	1490	1501	1509	1522	1523	1511	1507	1503	1520	1531	1528	1515	1498	1496	1492	1501	1516	1514	1498	1487	1483	1487	1494	1504	1509	1522	1518	1500	1496	1488	1484	1491	1505	1511	1511	1501	1489	1479	1481	1487	1500	1507	1510	1497	1485	1480	1476	1470	1470	1470	1469	1467	1475	1483	1508	1525	1541	1546	1544	1522	1504	1494	1485	1477	1475	1475	1475	1470	1470	1482	1489	1498	1506	1492	1491	1488	1498	1505	1496	1488	1472	1469	1484	1497	1497	1498	1501	1497	1502	1504	1513	1518	1517	1512	1497	1496	1500	1504	1493	1487	1474	1471	1471	1487	1477	0	0	0	0	0	0	0	0	0	0	0	0	0	0	0	0	0	0	835	814	792	750	735	730	724	717	714	714	725	755	746	735	726	720	720	721	731	752	759	751	743	739	741	752	762	766	765	757	752	747	736	729	726	725	722	727	737	748	753	758	752	749	737	738	738	747	752	751	738	730	720	719	729	732	739	735	731	728	722	722	719	723	734	748	760	772	807	846	897	951	1052	1162	1234	1303	1392	1413	1440	1464	1484	1501	1493	1467	1447	1437	1436	1440	1445	1447	1438	1435	1455	1479	1475	1468	1446	1446	1448	1447	1449	1448	1462	1476	1478	1473	1471	1465	1460	1467	1475	1491	1503	1498	1470	1452	1440	1437	1435	1430	1438	1455	1462	1461	1473	1494	1499	1502	1488	1476	1475	1486	1484	1467	1454	1439	1443	1452	1453	1462	1470	1469	1473	1467	1458	1454	1459	1470	1482	1487	1471	1459	1453	1459	1470	1464	1455	1450	1456	1470	1483	1491	1494	1488	1480	1474	1459	1441	1431	1431	1430	1458	1479	1475	1470	1461	1461	1456	1455	1450	1453	1457	1460	1458	1452	1446	1446	1448	1446	1456	1471	1479	1478	1462	1447	1439	1442	1442	0	0	0	0	0	0
0	0	0	0	0	0	0	0	0	0	0	0	0	0	0	0	0	0	0	0	0	0	0	0	0	0	0	0	0	0	0	0	0	0	0	0	0	0	0	0	0	0	0	0	0	0	0	0	0	0	0	0	0	0	0	0	0	0	0	0	0	0	0	0	0	0	0	0	0	0	0	0	0	0	0	0	0	0	0	0	0	0	0	0	0	0	0	0	0	0	0	0	0	0	1520	1502	1486	1473	1459	1444	1432	1439	1469	1473	1477	1483	1480	1478	1474	1464	1433	1447	1459	1476	1506	1504	1490	1472	1461	1463	1472	1486	1495	1492	1478	1467	1458	1467	1481	1485	1472	1467	1463	1481	1487	1494	1505	1495	1472	1444	1424	1419	1429	1435	1438	1430	1432	1437	1454	1455	1462	1443	1436	1438	1442	1449	1460	1464	1465	1457	1432	1405	1399	1276	1134	0	0	0	0	0	0	0	0	0	0	0	0	0	0	0	0	0	0	0	0	0	0	0	0	0	0	0	0	0	0	0	0	0	0	0	0	0	0	0	1047	1034	1032	1035	1040	1039	1031	1033	0	0	0	0	0	0	0	0	0	0	0	0	0	0	0	0	0	0	0	0	0	0	0	0	0	0	0	0	0	906	893	896	940	0	0	0	1305	1443	1468	1479	1476	1471	1473	1473	1476	1486	1499	1505	1489	1467	1460	1465	1475	1489	1494	1486	1472	1469	1480	1497	1507	1498	1492	1496	1510	1514	1508	1499	1490	1493	1502	1510	1512	1506	1496	1490	1502	1522	1521	1504	1490	1488	1495	1509	1515	1494	1475	1463	1461	1465	1465	1463	1465	1474	1497	1511	1508	1496	1478	1466	1477	1490	1499	1510	1519	1515	1513	1512	1518	1538	1537	1532	1518	1502	1494	1498	1516	1527	1527	1503	1495	1495	1502	1508	1519	1530	1531	1518	1504	1496	1493	1489	1490	1499	1504	1507	1505	1496	1485	1478	1478	1487	1498	1499	1493	1484	1479	1475	1470	1463	1468	1463	1461	1462	1474	1498	1525	1542	1543	1538	1528	1518	1502	1497	1498	1495	1495	1491	1480	1476	1502	1503	1518	1514	1508	1500	1482	1488	1496	1495	1484	1471	1474	1483	1491	1494	1493	1489	1487	1490	1495	1505	1511	1504	1499	1491	1493	1502	1502	1487	1471	1470	1459	1472	1476	1458	1458	0	0	0	0	0	0	0	0	0	0	0	0	0	0	0	0	0	0	0	0	0	722	709	712	712	712	716	723	744	746	735	719	708	702	700	705	716	728	729	730	727	727	733	715	722	731	746	743	737	728	723	724	723	722	726	732	734	739	741	742	736	727	719	718	719	725	730	722	717	714	719	724	732	729	722	717	717	723	721	717	716	723	728	727	723	727	744	768	795	857	926	1000	1173	1232	1246	1317	1375	1422	1462	1462	1452	1428	1418	1415	1427	1436	1442	1446	1451	1468	1498	1503	1515	1499	1450	1436	1463	1471	1475	1474	1467	1461	1465	1461	1463	1461	1456	1461	1473	1479	1480	1463	1447	1434	1436	1442	1476	1498	1501	1481	1460	1467	1492	1514	1509	1485	1456	1468	1473	1473	1468	1461	1456	1458	1454	1461	1467	1469	1475	1480	1477	1474	1465	1468	1482	1497	1491	1485	1470	1467	1467	1465	1470	1463	1452	1455	1454	1462	1471	1473	1471	1463	1457	1436	1421	1415	1415	1426	1458	1482	1484	1469	1454	1454	1461	1461	1461	1455	1451	1453	1453	1456	1456	1450	1441	1439	1449	1460	1464	1457	1454	1437	1440	1451	1451	0	0	0	0	0	0
0	0	0	0	0	0	0	0	0	0	0	0	0	0	0	0	0	0	0	0	0	0	0	0	0	0	0	0	0	0	0	0	0	0	0	0	0	0	0	0	0	0	0	0	0	0	0	0	0	0	0	0	0	0	0	0	0	0	0	0	0	0	0	0	0	0	0	0	0	0	0	0	0	0	0	0	0	0	0	0	0	0	0	0	0	0	0	0	0	0	0	0	0	0	1516	1497	1480	1479	1466	1434	1419	1449	1464	1475	1476	1487	1492	1496	1497	1487	1451	1450	1461	1473	1493	1502	1497	1474	1457	1457	1474	1486	1486	1476	1468	1461	1461	1472	1479	1474	1474	1463	1458	1475	1491	1504	1505	1485	1476	1451	1427	1425	1434	1444	1445	1436	1439	1448	1467	1476	1470	1452	1448	1451	1451	1452	1459	1464	1452	1415	1342	1254	1137	0	0	0	0	0	0	0	0	0	0	0	0	0	0	0	0	0	0	0	0	0	0	0	0	0	0	0	0	0	0	0	0	0	0	0	0	0	0	0	0	0	0	1034	1023	1032	1039	1043	0	0	0	0	0	0	0	0	0	0	0	0	0	0	0	0	0	0	0	0	0	0	0	0	0	0	0	0	0	0	0	899	892	907	948	1014	0	1306	1457	1456	1472	1479	1473	1470	1469	1473	1477	1479	1485	1491	1496	1477	1469	1471	1479	1493	1501	1498	1484	1476	1485	1502	1509	1495	1485	1495	1506	1514	1500	1486	1481	1490	1505	1512	1513	1505	1497	1495	1523	1530	1527	1504	1484	1476	1483	1490	1510	1501	1482	1473	1470	1473	1477	1473	1472	1480	1493	1502	1504	1492	1484	1474	1482	1491	1499	1506	1513	1515	1511	1514	1527	1542	1541	1532	1516	1503	1505	1510	1525	1524	1525	1511	1498	1504	1514	1524	1538	1544	1534	1511	1489	1486	1485	1480	1480	1486	1489	1492	1501	1482	1468	1465	1464	1472	1481	1491	1497	1495	1484	1481	1476	1467	1455	1451	1448	1454	1462	1487	1513	1525	1518	1513	1507	1506	1515	1523	1522	1517	1507	1498	1513	1514	1531	1532	1528	1515	1498	1490	1467	1459	1469	1477	1474	1468	1485	1503	1510	1501	1502	1502	1490	1473	1456	1451	1462	1471	1482	1486	1490	1490	1486	1474	1462	1472	1469	1469	1470	1431	1421	0	0	0	0	0	0	0	0	0	0	0	0	0	0	0	0	0	0	0	0	0	0	712	708	717	718	716	719	733	736	725	709	697	686	681	681	694	707	717	722	721	708	702	696	701	715	732	729	726	722	720	721	719	716	717	722	726	723	725	721	714	704	699	699	703	713	716	715	713	713	716	720	717	715	706	706	709	723	725	721	717	717	715	707	696	692	689	693	706	743	777	854	831	1021	1106	1187	1272	1339	1411	1463	1470	1452	1420	1400	1401	1424	1441	1451	1459	1475	1505	1510	1507	1496	1476	1469	1477	1482	1482	1475	1468	1462	1466	1471	1467	1463	1458	1451	1455	1455	1462	1468	1468	1475	1469	1472	1489	1502	1495	1477	1448	1445	1474	1491	1490	1471	1458	1460	1466	1471	1457	1462	1467	1469	1465	1468	1465	1465	1475	1486	1490	1478	1467	1463	1478	1490	1493	1481	1475	1473	1468	1474	1477	1479	1477	1470	1457	1462	1464	1471	1459	1452	1432	1419	1410	1410	1411	1428	1460	1491	1491	1486	1462	1477	1476	1487	1470	1461	1448	1448	1452	1454	1454	1453	1450	1441	1449	1457	1458	1448	1448	1444	1446	1458	1458	0	0	0	0	0	0
0	0	0	0	0	0	0	0	0	0	0	0	0	0	0	0	0	0	0	0	0	0	0	0	0	0	0	0	0	0	0	0	0	0	0	0	0	0	0	0	0	0	0	0	0	0	0	0	0	0	0	0	0	0	0	0	0	0	0	0	0	0	0	0	0	0	0	0	0	0	0	0	0	0	0	0	0	0	0	0	0	0	0	0	0	0	0	0	0	0	0	0	0	0	1475	1477	1485	1483	1445	1412	1412	1449	1470	1483	1486	1493	1502	1502	1506	1492	1480	1454	1454	1465	1468	1476	1483	1474	1463	1460	1474	1481	1480	1470	1458	1452	1455	1457	1462	1459	1463	1448	1439	1458	1478	1494	1496	1489	1471	1448	1430	1424	1439	1442	1444	1437	1442	1453	1471	1483	1482	1449	1443	1448	1444	1443	1426	1387	1319	0	0	0	0	0	0	0	0	0	0	0	0	0	0	0	0	0	0	0	0	0	0	0	0	0	0	0	0	0	0	0	0	0	0	0	0	0	0	0	0	0	0	0	0	0	0	0	1043	1053	1067	0	0	0	0	0	0	0	0	0	0	0	0	0	0	0	0	0	0	0	0	0	0	0	0	0	0	0	0	0	0	0	0	895	897	916	955	1042	1179	1431	1452	1459	1453	1451	1486	1488	1486	1472	1456	1457	1460	1462	1471	1481	1497	1513	1519	1516	1518	1516	1510	1493	1480	1470	1469	1463	1453	1450	1452	1461	1467	1470	1483	1502	1504	1512	1508	1508	1515	1523	1511	1511	1507	1486	1475	1477	1479	1484	1485	1486	1485	1486	1490	1511	1512	1503	1477	1452	1453	1468	1489	1498	1499	1503	1499	1504	1509	1508	1517	1520	1517	1513	1523	1535	1535	1531	1517	1513	1517	1524	1529	1518	1510	1512	1517	1521	1531	1535	1547	1546	1529	1500	1473	1474	1474	1473	1473	1471	1466	1471	1465	1442	1420	1419	1427	1450	1485	1513	1500	1493	1468	1462	1473	1485	1485	1476	1456	1438	1441	1468	1492	1497	1487	1467	1477	1484	1506	1515	1522	1521	1526	1519	1515	1516	1528	1528	1524	1509	1485	1476	1466	1456	1453	1460	1457	1460	1474	1495	1500	1505	1506	1506	1495	1472	1455	1444	1454	1471	1477	1487	1487	1481	1458	1457	1450	1465	1474	1472	1458	1429	1401	1433	0	0	0	0	0	0	0	0	0	0	0	0	0	0	0	0	0	0	0	0	0	0	719	718	718	710	705	714	717	708	696	687	678	677	684	696	707	712	707	707	705	699	692	696	714	713	712	711	714	718	717	710	704	703	706	710	706	692	678	671	673	676	682	695	707	711	709	708	705	705	706	704	697	694	693	700	713	719	721	718	711	702	690	679	676	671	673	676	693	713	726	749	864	941	1000	1092	1198	1301	1407	1443	1435	1412	1388	1394	1412	1429	1452	1455	1469	1480	1489	1485	1469	1463	1462	1461	1472	1478	1479	1473	1479	1483	1489	1485	1484	1475	1462	1451	1445	1456	1470	1478	1492	1490	1492	1491	1488	1486	1468	1444	1436	1457	1476	1474	1458	1449	1463	1470	1467	1452	1458	1468	1473	1477	1468	1462	1458	1465	1484	1490	1483	1463	1455	1458	1473	1475	1480	1478	1470	1471	1476	1484	1487	1494	1487	1490	1487	1477	1458	1435	1417	1404	1414	1412	1412	1418	1431	1466	1484	1488	1484	1476	1481	1493	1494	1480	1464	1442	1434	1440	1443	1443	1444	1438	1437	1444	1446	1452	1451	1450	1453	1452	1452	1450	0	0	0	0	0	0
0	0	0	0	0	0	0	0	0	0	0	0	0	0	0	0	0	0	0	0	0	0	0	0	0	0	0	0	0	0	0	0	0	0	0	0	0	0	0	0	0	0	0	0	0	0	0	0	0	0	0	0	0	0	0	0	0	0	0	0	0	0	0	0	0	0	0	0	0	0	0	0	0	0	0	0	0	0	0	0	0	0	0	0	0	0	0	0	0	0	0	0	0	0	1457	1459	1474	1468	1441	1425	1443	1455	1475	1494	1506	1504	1504	1503	1500	1492	1488	1469	1464	1459	1462	1468	1472	1467	1464	1475	1483	1488	1476	1466	1459	1450	1453	1449	1451	1446	1445	1431	1423	1437	1465	1487	1487	1480	1455	1433	1422	1429	1438	1449	1443	1435	1432	1446	1463	1478	1480	1442	1437	1421	1384	1360	0	0	0	0	0	0	0	0	0	0	0	0	0	0	0	0	0	0	0	0	0	0	0	0	0	0	0	0	0	0	0	0	0	0	0	0	0	0	0	0	0	0	0	0	0	0	0	0	0	0	0	0	0	0	0	0	0	0	0	0	0	0	0	0	0	0	0	0	0	0	0	0	0	0	0	0	0	0	0	0	0	0	0	0	0	898	911	936	992	1193	1392	1443	1457	1460	1461	1465	1478	1486	1480	1461	1461	1470	1465	1461	1466	1482	1502	1509	1515	1513	1508	1507	1504	1490	1477	1469	1477	1477	1473	1476	1469	1472	1472	1475	1480	1504	1518	1517	1504	1505	1510	1520	1511	1501	1501	1493	1484	1489	1486	1487	1490	1487	1490	1491	1498	1510	1520	1513	1503	1489	1476	1465	1472	1493	1503	1506	1504	1503	1493	1495	1509	1518	1511	1502	1504	1518	1521	1510	1501	1501	1507	1512	1517	1500	1500	1503	1516	1521	1523	1528	1532	1537	1529	1494	1469	1467	1470	1477	1470	1467	1475	1464	1465	1439	1428	1423	1432	1451	1484	1506	1500	1485	1482	1485	1492	1501	1502	1487	1471	1455	1452	1469	1482	1485	1474	1466	1483	1486	1506	1524	1522	1512	1523	1529	1527	1524	1513	1494	1487	1478	1471	1470	1458	1446	1454	1459	1459	1466	1465	1488	1497	1497	1502	1508	1503	1480	1452	1433	1437	1451	1466	1481	1469	1448	1434	1439	1444	1458	1470	1472	1463	1439	1428	1407	0	0	0	0	0	0	0	0	0	0	0	0	0	0	0	0	0	0	0	0	0	0	774	721	710	701	682	678	698	693	686	679	677	684	694	704	711	707	704	701	700	698	701	700	706	702	698	695	699	704	705	701	694	691	693	690	678	664	652	646	641	650	661	680	693	699	704	703	697	694	695	692	688	681	678	683	706	707	712	700	696	687	674	667	670	673	669	669	678	690	693	699	749	795	846	882	950	1014	1094	1174	1240	1295	1338	1357	1387	1426	1449	1452	1442	1433	1432	1443	1448	1455	1444	1445	1447	1458	1475	1484	1488	1495	1499	1504	1496	1481	1461	1437	1436	1449	1465	1472	1477	1482	1492	1461	1460	1453	1445	1443	1449	1450	1455	1452	1453	1454	1466	1480	1475	1462	1455	1449	1453	1454	1457	1458	1458	1463	1482	1480	1478	1464	1459	1452	1460	1462	1462	1464	1468	1472	1469	1472	1485	1497	1497	1495	1484	1471	1456	1435	1420	1415	1419	1419	1419	1426	1442	1453	1479	1479	1476	1473	1467	1464	1467	1472	1459	1443	1435	1434	1445	1445	1446	1440	1440	1444	1445	1456	1453	1455	1452	1449	1449	1447	0	0	0	0	0	0
0	0	0	0	0	0	0	0	0	0	0	0	0	0	0	0	0	0	0	0	0	0	0	0	0	0	0	0	0	0	0	0	0	0	0	0	0	0	0	0	0	0	0	0	0	0	0	0	0	0	0	0	0	0	0	0	0	0	0	0	0	0	0	0	0	0	0	0	0	0	0	0	0	0	0	0	0	0	0	0	0	0	0	0	0	0	0	0	0	0	0	0	0	0	1444	1448	1457	1461	1443	1453	1456	1467	1481	1501	1513	1519	1513	1508	1505	1501	1495	1476	1464	1453	1457	1461	1468	1459	1467	1483	1495	1497	1485	1476	1460	1456	1460	1468	1463	1455	1449	1439	1434	1450	1469	1486	1477	1456	1429	1410	1409	1430	1455	1459	1447	1439	1433	1437	1451	1456	1450	1361	1274	0	0	0	0	0	0	0	0	0	0	0	0	0	0	0	0	0	0	0	0	0	0	0	0	0	0	0	0	0	0	0	0	0	0	0	0	0	0	0	0	0	0	0	0	0	0	0	0	0	0	0	0	0	0	0	0	0	0	0	0	0	0	0	0	0	0	0	0	0	0	0	0	0	0	0	0	0	0	0	0	0	0	0	0	0	0	0	0	935	949	997	1157	1368	1433	1458	1468	1468	1473	1482	1487	1480	1467	1459	1468	1476	1478	1470	1476	1488	1503	1496	1488	1490	1505	1506	1503	1494	1480	1484	1487	1502	1521	1517	1507	1501	1490	1479	1482	1501	1516	1522	1506	1501	1504	1523	1523	1509	1488	1485	1483	1489	1492	1494	1489	1485	1488	1493	1505	1513	1513	1504	1510	1502	1486	1474	1475	1485	1495	1506	1512	1512	1509	1501	1514	1521	1511	1499	1502	1508	1511	1504	1491	1491	1499	1505	1506	1490	1492	1501	1510	1515	1514	1518	1530	1531	1519	1503	1480	1484	1480	1477	1463	1460	1466	1477	1481	1474	1451	1444	1454	1463	1476	1492	1496	1495	1501	1513	1522	1523	1514	1502	1483	1479	1486	1490	1498	1505	1495	1491	1524	1538	1533	1532	1519	1508	1509	1516	1523	1524	1515	1505	1493	1490	1483	1477	1475	1466	1454	1471	1477	1478	1482	1468	1469	1471	1481	1498	1493	1482	1460	1448	1443	1449	1465	1470	1464	1458	1466	1472	1474	1466	1455	1445	1445	1455	1464	1468	1465	0	0	0	0	0	0	0	0	0	0	0	0	0	0	0	0	0	0	0	0	0	0	756	714	695	665	669	670	683	687	680	688	690	693	697	705	700	697	696	696	695	702	708	708	698	691	682	680	681	684	684	685	684	683	673	659	642	635	635	630	628	640	662	676	686	689	687	686	688	691	691	683	664	653	657	683	685	686	683	676	671	662	657	664	664	670	671	672	677	675	672	682	712	746	781	831	888	968	1044	1112	1185	1253	1310	1353	1389	1417	1435	1435	1420	1430	1431	1443	1461	1469	1466	1462	1456	1463	1465	1482	1487	1490	1492	1483	1472	1448	1434	1435	1437	1442	1445	1460	1468	1468	1452	1438	1433	1442	1442	1443	1436	1438	1439	1448	1448	1469	1478	1483	1474	1463	1449	1448	1454	1441	1446	1462	1471	1475	1478	1472	1471	1469	1466	1464	1459	1458	1467	1465	1468	1458	1457	1466	1492	1494	1481	1475	1466	1453	1437	1428	1422	1423	1423	1426	1432	1433	1451	1464	1469	1474	1466	1460	1455	1460	1460	1451	1438	1428	1432	1432	1444	1455	1454	1449	1446	1450	1455	1457	1453	1443	1442	1442	1447	0	0	0	0	0	0
0	0	0	0	0	0	0	0	0	0	0	0	0	0	0	0	0	0	0	0	0	0	0	0	0	0	0	0	0	0	0	0	0	0	0	0	0	0	0	0	0	0	0	0	0	0	0	0	0	0	0	0	0	0	0	0	0	0	0	0	0	0	0	0	0	0	0	0	0	0	0	0	0	0	0	0	0	0	0	0	0	0	0	0	0	0	0	0	0	0	0	0	0	0	1448	1438	1455	1463	1464	1470	1470	1470	1476	1494	1514	1531	1530	1518	1513	1508	1486	1467	1449	1447	1450	1461	1476	1482	1484	1483	1487	1497	1499	1485	1475	1463	1458	1454	1463	1487	1491	1488	1490	1498	1494	1483	1459	1451	1427	1415	1412	1433	1451	1459	1453	1442	1432	1426	1428	1420	1377	0	0	0	0	0	0	0	0	0	0	0	0	0	0	0	0	0	0	0	0	0	0	0	0	0	0	0	0	0	0	0	0	0	0	0	0	0	0	0	0	0	0	0	0	0	0	0	0	0	0	0	0	0	0	0	0	0	0	0	0	0	0	0	0	0	0	0	0	0	0	0	0	0	0	0	0	0	0	0	0	0	0	0	0	0	0	0	0	0	0	991	1040	1186	1414	1446	1460	1470	1475	1479	1488	1486	1490	1469	1462	1466	1464	1465	1481	1483	1488	1488	1485	1472	1448	1437	1459	1485	1507	1514	1518	1521	1513	1520	1532	1536	1522	1509	1494	1485	1486	1500	1514	1513	1504	1502	1498	1500	1504	1497	1472	1469	1472	1478	1487	1494	1496	1490	1491	1493	1503	1510	1510	1505	1495	1485	1482	1477	1476	1474	1490	1500	1519	1528	1533	1528	1504	1490	1486	1488	1500	1512	1512	1494	1485	1498	1511	1524	1508	1484	1469	1460	1463	1473	1487	1496	1511	1523	1524	1497	1497	1484	1472	1475	1470	1462	1465	1472	1477	1480	1480	1469	1462	1459	1489	1498	1500	1502	1507	1520	1519	1511	1509	1512	1515	1511	1508	1510	1504	1504	1505	1522	1542	1546	1542	1531	1520	1505	1497	1496	1508	1524	1521	1512	1508	1497	1480	1482	1495	1484	1473	1482	1486	1496	1500	1484	1482	1478	1483	1493	1498	1489	1471	1456	1449	1452	1461	1468	1459	1464	1473	1475	1479	1475	1459	1441	1447	1463	1464	1487	1493	1488	0	0	0	0	0	0	0	0	0	0	0	0	0	0	0	0	0	0	0	0	0	0	0	681	671	667	668	662	666	652	663	676	684	688	689	689	689	695	698	697	699	707	713	704	693	679	665	659	660	664	671	675	671	664	650	637	635	640	626	620	629	645	658	665	665	669	670	681	689	692	678	661	647	644	653	658	665	663	654	651	641	641	637	639	654	660	663	667	667	662	665	671	691	715	744	785	835	913	976	1047	1123	1202	1283	1334	1373	1401	1425	1422	1424	1428	1441	1460	1475	1480	1465	1459	1460	1455	1463	1481	1487	1493	1473	1459	1449	1434	1426	1425	1427	1433	1446	1454	1450	1439	1426	1426	1429	1437	1431	1426	1422	1426	1434	1442	1458	1478	1492	1483	1478	1462	1457	1460	1450	1447	1468	1470	1464	1466	1472	1472	1475	1479	1478	1468	1469	1469	1474	1467	1453	1446	1456	1479	1482	1467	1442	1433	1444	1442	1436	1428	1436	1436	1457	1463	1468	1469	1467	1471	1479	1465	1449	1440	1437	1427	1413	1410	1422	0	0	0	0	0	0	0	0	0	0	1436	1427	1424	1424	1436	0	0	0	0	0	0
0	0	0	0	0	0	0	0	0	0	0	0	0	0	0	0	0	0	0	0	0	0	0	0	0	0	0	0	0	0	0	0	0	0	0	0	0	0	0	0	0	0	0	0	0	0	0	0	0	0	0	0	0	0	0	0	0	0	0	0	0	0	0	0	0	0	0	0	0	0	0	0	0	0	0	0	0	0	0	0	0	0	0	0	0	0	0	0	0	0	0	0	0	0	1451	1449	1463	1475	1475	1469	1469	1470	1471	1463	1470	1485	1488	1502	1495	1493	1476	1459	1445	1436	1449	1467	1478	1484	1485	1479	1480	1491	1500	1488	1474	1459	1451	1442	1457	1470	1490	1500	1504	1503	1493	1480	1461	1457	1437	1422	1409	1409	1417	1421	1409	1397	1308	0	0	0	0	0	0	0	0	0	0	0	0	0	0	0	0	0	0	0	0	0	0	0	0	0	0	0	0	0	0	0	0	0	0	0	0	0	0	0	0	0	0	0	0	0	0	0	0	0	0	0	0	0	0	0	0	0	0	0	0	0	0	0	0	0	0	0	0	0	0	0	0	0	0	0	0	0	0	0	0	0	0	0	0	0	0	0	0	0	0	0	0	0	1041	1051	1237	1419	1444	1452	1458	1468	1475	1479	1483	1486	1478	1466	1455	1451	1450	1455	1461	1482	1490	1493	1489	1470	1450	1440	1456	1476	1493	1509	1517	1524	1524	1521	1525	1525	1515	1510	1492	1484	1485	1500	1513	1508	1506	1497	1499	1495	1498	1494	1480	1467	1462	1473	1487	1495	1499	1499	1495	1490	1496	1499	1506	1501	1498	1495	1492	1491	1490	1498	1506	1501	1502	1496	1497	1490	1481	1472	1475	1481	1500	1510	1509	1495	1485	1488	1501	1498	1482	1478	1462	1462	1462	1473	1477	1487	1491	1492	1496	1497	1496	1492	1492	1514	1502	1510	1495	1470	1477	1484	1472	1463	1456	1463	1484	1490	1492	1496	1509	1516	1516	1505	1501	1503	1512	1510	1514	1525	1524	1518	1518	1532	1548	1554	1537	1522	1511	1495	1484	1487	1497	1512	1526	1522	1510	1498	1492	1489	1512	1520	1501	1497	1510	1518	1522	1525	1513	1498	1484	1488	1499	1500	1485	1470	1457	1463	1478	1478	1468	1471	1475	1481	1486	1479	1467	1460	1474	1502	1518	1514	1507	1468	0	0	0	0	0	0	0	0	0	0	0	0	0	0	0	0	0	0	0	0	0	0	0	720	685	674	661	654	651	653	656	668	673	674	675	676	682	695	700	696	694	705	704	699	685	669	656	646	645	649	660	664	664	654	647	638	637	644	631	622	626	636	641	647	643	648	658	674	687	690	677	660	637	629	635	643	654	655	643	638	638	636	632	625	624	638	646	649	653	659	657	651	662	683	702	719	744	776	829	887	960	1043	1143	1221	1285	1319	1371	1409	1417	1427	1459	1493	1493	1476	1457	1443	1435	1435	1430	1440	1442	1450	1455	1429	1418	1417	1422	1423	1424	1419	1424	1434	1439	1448	1434	1428	1419	1406	1408	1395	1370	1343	1337	1370	1427	1487	0	0	0	0	0	0	0	0	0	0	0	0	0	0	0	0	0	0	0	0	0	0	0	0	0	0	0	0	0	0	0	0	0	0	0	0	0	0	0	0	0	0	0	0	0	0	0	0	0	0	0	0	0	0	0	0	0	0	0	0	0	0	0	0	0	0	0	0	0	0	0	0
0	0	0	0	0	0	0	0	0	0	0	0	0	0	0	0	0	0	0	0	0	0	0	0	0	0	0	0	0	0	0	0	0	0	0	0	0	0	0	0	0	0	0	0	0	0	0	0	0	0	0	0	0	0	0	0	0	0	0	0	0	0	0	0	0	0	0	0	0	0	0	0	0	0	0	0	0	0	0	0	0	0	0	0	0	0	0	0	0	0	0	0	0	1450	1470	1480	1492	1489	1482	1471	1457	1453	1455	1461	1465	1474	1476	1476	1478	1476	1462	1451	1440	1436	1448	1474	1485	1483	1473	1448	1460	1482	1496	1478	1455	1433	1428	1437	1449	1465	1479	1492	1498	1500	1487	1475	1471	1460	1447	1416	1398	1393	1391	1318	0	0	0	0	0	0	0	0	0	0	0	0	0	0	0	0	0	0	0	0	0	0	0	0	0	0	0	0	0	0	0	0	0	0	0	0	0	0	0	0	0	0	0	0	0	0	0	0	0	0	0	0	0	0	0	0	0	0	0	0	0	0	0	0	0	0	0	0	0	0	0	0	0	0	0	0	0	0	0	0	0	0	0	0	0	0	0	0	0	0	0	0	0	0	0	0	1092	1265	1367	1417	1436	1450	1461	1467	1477	1482	1483	1476	1466	1457	1453	1455	1444	1443	1454	1484	1497	1504	1503	1481	1454	1444	1455	1472	1486	1499	1511	1519	1520	1515	1510	1511	1505	1502	1497	1499	1497	1506	1506	1503	1504	1501	1502	1499	1489	1488	1479	1460	1470	1478	1503	1510	1505	1502	1501	1490	1479	1476	1478	1486	1505	1499	1490	1469	1465	1473	1506	1524	1530	1519	1495	1481	1471	1462	1464	1473	1491	1507	1513	1500	1485	1490	1494	1495	1486	1476	1460	1458	1459	1470	1481	1487	1490	1493	1492	1493	1497	1502	1497	1515	1503	1512	1501	1475	1483	1486	1468	1458	1454	1465	1483	1493	1491	1484	1504	1518	1512	1475	1487	1505	1502	1472	1473	1486	1508	1540	1538	1523	1516	1511	0	0	0	0	0	0	0	0	0	0	0	0	0	0	0	0	0	0	0	0	0	0	0	0	0	1425	1454	0	0	0	0	0	0	1507	1466	1455	1457	1470	1480	1486	1501	0	0	0	0	0	0	0	0	0	0	0	0	0	0	0	0	0	0	0	0	0	0	0	0	0	0	0	0	0	0	0	721	719	705	667	648	649	655	659	664	663	665	666	673	685	692	689	682	689	692	690	677	670	662	651	647	651	656	654	655	648	644	639	639	643	639	629	627	633	637	637	637	638	644	659	675	677	669	646	632	618	626	637	647	644	636	632	634	635	630	619	615	621	626	629	633	648	648	643	648	659	674	682	685	693	710	744	790	825	832	829	844	904	0	0	0	0	0	0	0	0	0	0	0	0	0	0	0	0	0	0	0	0	0	0	0	0	0	0	0	0	0	0	0	0	0	0	0	0	0	0	0	0	0	0	0	0	0	0	0	0	0	0	0	0	0	0	0	0	0	0	0	0	0	0	0	0	0	0	0	0	0	0	0	0	0	0	0	0	0	0	0	0	0	0	0	0	0	0	0	0	0	0	0	0	0	0	0	0	0	0	0	0	0	0	0	0	0	0	0	0	0	0	0	0
0	0	0	0	0	0	0	0	0	0	0	0	0	0	0	0	0	0	0	0	0	0	0	0	0	0	0	0	0	0	0	0	0	0	0	0	0	0	0	0	0	0	0	0	0	0	0	0	0	0	0	0	0	0	0	0	0	0	0	0	0	0	0	0	0	0	0	0	0	0	0	0	0	0	0	0	0	0	0	0	0	0	0	0	0	0	0	0	0	0	0	0	0	1447	1448	1459	1477	1488	1494	1471	1459	1454	1464	1469	1478	1483	1474	1464	1461	1456	1447	1442	1435	1439	1454	1470	1478	1475	1432	1435	1443	1460	1456	1445	1430	1416	1417	1424	1435	1452	1470	1500	1536	1478	1443	1431	1437	1450	1434	1404	1309	1237	1206	0	0	0	0	0	0	0	0	0	0	0	0	0	0	0	0	0	0	0	0	0	0	0	0	0	0	0	0	0	0	0	0	0	0	0	0	0	0	0	0	0	0	0	0	0	0	0	0	0	0	0	0	0	0	0	0	0	0	0	0	0	0	0	0	0	0	0	0	0	0	0	0	0	0	0	0	0	0	0	0	0	0	0	0	0	0	0	0	0	0	0	0	0	0	0	0	0	0	1150	1356	1410	1420	1426	1441	1468	1484	1493	1487	1479	1452	1429	1428	1446	1433	1435	1477	1493	1505	1518	1523	1501	1482	1485	1514	1528	1520	1488	1457	1447	1447	1452	1445	1450	1462	1499	1569	1587	1563	1541	1533	0	0	0	0	0	0	0	0	0	0	0	0	0	0	0	0	0	0	0	0	0	0	0	0	0	0	0	0	0	0	0	0	0	0	0	0	1454	1474	1485	1487	1489	1500	1507	1502	1492	1488	1470	1471	1475	1467	1463	1477	1537	1545	1530	1503	1475	1468	1464	1477	1491	1493	1466	1446	1479	1486	1494	1471	1468	1473	1497	1509	1500	0	0	0	0	0	0	0	0	0	0	0	0	0	0	0	0	0	0	0	0	0	0	0	0	0	0	0	0	0	0	0	0	0	0	0	0	0	0	0	0	0	0	0	0	0	0	0	0	0	0	0	0	0	0	0	0	0	0	0	0	0	0	0	0	0	0	0	0	0	0	0	0	0	0	0	0	0	0	0	0	0	0	0	0	0	0	0	0	0	0	0	0	0	696	657	642	647	649	651	653	658	657	663	670	678	678	675	674	672	671	671	676	673	667	659	657	655	649	646	648	643	639	638	647	638	628	625	631	635	639	641	637	634	644	656	657	648	634	618	610	622	637	646	641	629	626	627	628	622	613	607	605	602	608	613	625	627	628	631	644	651	655	651	649	655	664	683	628	626	623	619	612	643	0	0	0	0	0	0	0	0	0	0	0	0	0	0	0	0	0	0	0	0	0	0	0	0	0	0	0	0	0	0	0	0	0	0	0	0	0	0	0	0	0	0	0	0	0	0	0	0	0	0	0	0	0	0	0	0	0	0	0	0	0	0	0	0	0	0	0	0	0	0	0	0	0	0	0	0	0	0	0	0	0	0	0	0	0	0	0	0	0	0	0	0	0	0	0	0	0	0	0	0	0	0	0	0	0	0	0	0	0	0	0
0	0	0	0	0	0	0	0	0	0	0	0	0	0	0	0	0	0	0	0	0	0	0	0	0	0	0	0	0	0	0	0	0	0	0	0	0	0	0	0	0	0	0	0	0	0	0	0	0	0	0	0	0	0	0	0	0	0	0	0	0	0	0	0	0	0	0	0	0	0	0	0	0	0	0	0	0	0	0	0	0	0	0	0	0	0	0	0	0	0	0	0	0	1452	1428	1440	1451	1467	1487	1495	1467	1469	1470	1474	1478	1476	1468	1456	1450	1445	1439	1432	1435	1442	1452	1468	1472	1459	1427	1435	1443	1468	1445	1416	1397	1401	1396	1407	1424	1460	0	0	0	0	0	0	0	0	0	0	0	0	0	0	0	0	0	0	0	0	0	0	0	0	0	0	0	0	0	0	0	0	0	0	0	0	0	0	0	0	0	0	0	0	0	0	0	0	0	0	0	0	0	0	0	0	0	0	0	0	0	0	0	0	0	0	0	0	0	0	0	0	0	0	0	0	0	0	0	0	0	0	0	0	0	0	0	0	0	0	0	0	0	0	0	0	0	0	0	0	0	0	0	0	0	0	0	0	0	0	0	0	0	0	0	0	0	0	0	0	0	0	0	0	0	0	0	0	0	0	0	0	0	0	0	0	0	0	0	0	0	0	0	0	0	0	0	0	0	0	0	0	0	0	0	0	0	0	0	0	0	0	0	0	0	0	0	0	0	0	0	0	0	0	0	0	0	0	0	0	0	0	0	0	0	0	0	0	0	0	0	0	0	0	0	0	0	0	0	0	0	0	0	0	0	0	0	0	0	0	0	0	0	0	0	0	0	0	0	0	0	0	0	0	0	0	0	0	0	0	0	0	0	0	0	0	0	0	0	0	0	0	0	0	0	0	0	0	0	0	0	0	0	0	0	0	0	0	0	0	0	0	0	0	0	0	0	0	0	0	0	0	0	0	0	0	0	0	0	0	0	0	0	0	0	0	0	0	0	0	0	0	0	0	0	0	0	0	0	0	0	0	0	0	0	0	0	0	0	0	0	0	0	0	0	0	0	0	0	0	690	643	637	641	648	651	656	653	656	666	672	674	674	660	653	658	666	681	682	671	663	655	650	647	645	648	646	645	645	644	639	626	620	620	629	637	638	638	629	623	623	629	622	610	605	604	618	633	638	631	622	614	615	613	612	603	596	595	598	600	605	613	614	612	617	622	628	598	587	577	576	587	597	605	608	597	582	581	586	600	600	0	0	0	0	0	0	0	0	0	0	0	0	0	0	0	0	0	0	0	0	0	0	0	0	0	0	0	0	0	0	0	0	0	0	0	0	0	0	0	0	0	0	0	0	0	0	0	0	0	0	0	0	0	0	0	0	0	0	0	0	0	0	0	0	0	0	0	0	0	0	0	0	0	0	0	0	0	0	0	0	0	0	0	0	0	0	0	0	0	0	0	0	0	0	0	0	0	0	0	0	0	0	0	0	0	0	0	0	0
0	0	0	0	0	0	0	0	0	0	0	0	0	0	0	0	0	0	0	0	0	0	0	0	0	0	0	0	0	0	0	0	0	0	0	0	0	0	0	0	0	0	0	0	0	0	0	0	0	0	0	0	0	0	0	0	0	0	0	0	0	0	0	0	0	0	0	0	0	0	0	0	0	0	0	0	0	0	0	0	0	0	0	0	0	0	0	0	0	0	0	0	0	1483	1434	1431	1440	1455	1474	1496	1496	1471	1472	1465	1464	1463	1462	1453	1448	1446	1445	1445	1445	1448	1455	1464	1463	1451	1439	1443	1472	1471	1452	1426	1417	1407	1393	1394	0	0	0	0	0	0	0	0	0	0	0	0	0	0	0	0	0	0	0	0	0	0	0	0	0	0	0	0	0	0	0	0	0	0	0	0	0	0	0	0	0	0	0	0	0	0	0	0	0	0	0	0	0	0	0	0	0	0	0	0	0	0	0	0	0	0	0	0	0	0	0	0	0	0	0	0	0	0	0	0	0	0	0	0	0	0	0	0	0	0	0	0	0	0	0	0	0	0	0	0	0	0	0	0	0	0	0	0	0	0	0	0	0	0	0	0	0	0	0	0	0	0	0	0	0	0	0	0	0	0	0	0	0	0	0	0	0	0	0	0	0	0	0	0	0	0	0	0	0	0	0	0	0	0	0	0	0	0	0	0	0	0	0	0	0	0	0	0	0	0	0	0	0	0	0	0	0	0	0	0	0	0	0	0	0	0	0	0	0	0	0	0	0	0	0	0	0	0	0	0	0	0	0	0	0	0	0	0	0	0	0	0	0	0	0	0	0	0	0	0	0	0	0	0	0	0	0	0	0	0	0	0	0	0	0	0	0	0	0	0	0	0	0	0	0	0	0	0	0	0	0	0	0	0	0	0	0	0	0	0	0	0	0	0	0	0	0	0	0	0	0	0	0	0	0	0	0	0	0	0	0	0	0	0	0	0	0	0	0	0	0	0	0	0	0	0	0	0	0	0	0	0	0	0	0	0	0	0	0	0	0	0	0	0	0	0	0	0	0	0	0	0	0	686	672	668	659	655	654	655	658	664	672	676	664	652	647	649	666	672	674	664	651	644	645	644	646	646	645	648	654	647	639	627	616	613	614	621	625	622	615	612	613	611	599	593	593	604	615	621	623	616	607	601	600	599	603	603	598	597	600	610	609	609	601	603	609	617	610	597	578	567	568	580	595	609	607	594	577	574	594	602	610	606	595	581	0	0	0	0	0	0	0	0	0	0	0	0	0	0	0	0	0	0	0	0	0	0	0	0	0	0	0	0	0	0	0	0	0	0	0	0	0	0	0	0	0	0	0	0	0	0	0	0	0	0	0	0	0	0	0	0	0	0	0	0	0	0	0	0	0	0	0	0	0	0	0	0	0	0	0	0	0	0	0	0	0	0	0	0	0	0	0	0	0	0	0	0	0	0	0	0	0	0	0	0	0	0	0	0	0	0
