0	0	0	0	0	0	0	0	0	0	0	0	0	0	0	0	0	0	0	0	0	0	0	0	0	0	0	0	0	0	0	0	0	0	0	0	0	0	0	0	0	0	0	0	0	0	0	0	0	0	0	0	0	0	0	0	0	0	0	0	0	0	0	0	0	0	0	0	0	0	0	0	0	0	0	0	0	0	0	0	0	0	0	0	0	0	0	0	0	0	0	0	1439	1467	1473	1471	1476	1469	1466	1452	1447	1449	1463	1471	1474	1469	1511	1476	1455	1408	1410	0	1396	1386	1426	1469	1481	1491	1529	1556	1544	1524	1508	1491	0	0	0	0	0	0	0	0	0	0	0	0	0	0	0	0	0	0	0	0	0	0	0	0	0	0	0	0	0	0	0	0	0	0	0	0	0	0	0	0	0	0	0	0	0	0	0	0	0	0	0	0	1368	1376	1382	1398	1408	1411	1411	1407	1408	1406	1394	1393	1402	1413	1410	1410	1412	1419	1434	1440	1437	1438	1428	1424	1423	1417	1412	1423	1431	1416	1409	1408	1412	1407	1391	1383	1399	1411	1428	1408	1396	1398	1407	1446	1449	1445	1428	1456	1476	1475	0	0	0	0	0	0	0	0	0	0	0	1630	1638	1659	1659	1666	1666	1674	1674	1674	1674	1678	1694	1704	1710	1709	1715	1721	1738	1735	0	0	0	0	0	0	0	0	0	0	0	0	0	0	0	0	0	0	0	0	0	0	0	0	0	0	0	0	0	0	0	0	0	0	0	0	0	0	0	0	0	0	0	0	0	0	0	0	0	0	0	0	0	0	0	1402	1417	1390	1390	1382	1389	1394	1394	1403	1401	1401	1393	1392	1389	1385	1381	1376	1381	1378	1376	1383	1391	1389	1385	1382	1378	1369	1363	1360	1366	1383	1387	1388	1381	1375	1364	1359	1361	1370	1379	1380	1378	1371	1369	1370	1362	1362	1371	1382	1390	1390	1410	1527	1613	1676	0	0	0	0	0	0	0	0	0	0	0	0	0	0	0	0	0	0	0	0	0	0	0	0	0	0	0	0	0	0	0	0	0	0	0	0	0	0	0	0	0	0	0	0	0	0	0	0	0	0	0	0	0	0	0	0	0	0	0	0	0	0	0	0	0	0	0	0	0	0	0	0	1678	1694	1695	1713	1737	1742	0	0	0	0	0	0	0	0	0	0	0	0	1419	1394	1384	1389	1381	1364	1363	1368	1365	1361	1355	1353	1351	1356	1368	1374	1363	1359	1359	1359	1361	1365	1357	1351	1347	1347	1352	1349	1352	1355	1356	1362	1359	1365	1373	1381	1380	1367	1352	1348	1347	1351	1355	1345	1343	1338	1335	1323	1337	1392	1505	0	0	0	0	0	0	0	0	0	0	0	0	0	0	0	0	0	0	0	0	0	0	0	0	0	0	0	0	0	0	0	0	0	0	0	0	0	0	0	0	0	0	0	0	0	0	0	0	0	0	0	0	0	0	0	0	0	0	0	0	0	0	0	0	0	0	0	0	0	0	0	0	0	0	0	0	0	0	0	0	0	0	0	0	0	0	0	0	0	0	0	0	0	0	0	0	0	0	0	0	0	0	0	0	0	0	0	0	0	0	0	0	0	0	0	0	0	0	0	0	0	0	0	0	0	0	0	0	0	0	0	0	0
0	0	0	0	0	0	0	0	0	0	0	0	0	0	0	0	0	0	0	0	0	0	0	0	0	0	0	0	0	0	0	0	0	0	0	0	0	0	0	0	0	0	0	0	0	0	0	0	0	0	0	0	0	0	0	0	0	0	0	0	0	0	0	0	0	0	0	0	0	0	0	0	0	0	0	0	0	0	0	0	0	0	0	0	0	0	0	0	0	0	0	0	1453	1472	1471	1459	1460	1441	1441	1431	1431	1452	1462	1468	1468	1469	1481	1471	1450	1455	1457	1454	1430	1437	1443	1460	1475	1485	1522	1563	1560	1539	1503	1495	0	0	0	0	0	0	0	0	0	0	0	0	0	0	0	0	0	0	0	0	0	0	0	0	0	0	0	0	0	0	0	0	0	0	0	0	0	0	0	0	0	0	0	0	0	0	0	0	0	0	0	0	1371	1374	1381	1390	1396	1394	1398	1400	1402	1398	1387	1393	1402	1411	1413	1404	1408	1411	1417	1424	1420	1423	1420	1420	1418	1412	1416	1417	1423	1410	1404	1405	1409	1405	1391	1388	1397	1403	1419	1406	1394	1394	1415	1460	1462	1441	1414	1431	1460	1479	0	0	0	0	0	0	0	0	0	0	0	0	0	1612	1625	1632	1637	1652	1657	1654	1665	0	0	0	1703	1716	1738	1733	1747	1723	0	0	0	0	0	0	0	0	0	0	0	0	0	0	0	0	0	0	0	0	0	0	0	0	0	0	0	0	0	0	0	0	0	0	0	0	0	0	0	0	0	0	0	0	0	0	0	0	0	0	0	0	0	0	1444	1418	1397	1388	1381	1381	1386	1391	1395	1398	1404	1400	1395	1390	1384	1385	1388	1392	1380	1376	1377	1378	1375	1383	1389	1378	1382	1373	1367	1369	1378	1381	1384	1383	1377	1373	1362	1355	1354	1363	1374	1385	1387	1376	1372	1373	1362	1365	1367	1389	1391	1396	1417	1515	1629	0	0	0	0	0	0	0	0	0	0	0	0	0	0	0	0	0	0	0	0	0	0	0	0	0	0	0	0	0	0	0	0	0	0	0	0	0	0	0	0	0	0	0	0	0	0	0	0	0	0	0	0	0	0	0	0	0	0	0	0	0	0	0	0	0	0	0	0	0	0	0	0	0	0	1699	1688	1694	0	0	0	0	0	0	0	0	0	0	0	0	0	0	1420	1375	1369	1386	1392	1386	1379	1377	1370	1364	1360	1360	1357	1356	1368	1377	1371	1369	1367	1366	1367	1371	1366	1353	1349	1350	1356	1360	1364	1361	1366	1349	1348	1359	1372	1380	1382	1368	1355	1349	1346	1349	1348	1347	1347	1344	1334	1323	1334	1368	1429	0	0	0	0	0	0	0	0	0	0	0	0	0	0	0	0	0	0	0	0	0	0	0	0	0	0	0	0	0	0	0	0	0	0	0	0	0	0	0	0	0	0	0	0	0	0	0	0	0	0	0	0	0	0	0	0	0	0	0	0	0	0	0	0	0	0	0	0	0	0	0	0	0	0	0	0	0	0	0	0	0	0	0	0	0	0	0	0	0	0	0	0	0	0	0	0	0	0	0	0	0	0	0	0	0	0	0	0	0	0	0	0	0	0	0	0	0	0	0	0	0	0	0	0	0	0	0	0	0	0	0	0	0
0	0	0	0	0	0	0	0	0	0	0	0	0	0	0	0	0	0	0	0	0	0	0	0	0	0	0	0	0	0	0	0	0	0	0	0	0	0	0	0	0	0	0	0	0	0	0	0	0	0	0	0	0	0	0	0	0	0	0	0	0	0	0	0	0	0	0	0	0	0	0	0	0	0	0	0	0	0	0	0	0	0	0	0	0	0	0	0	0	0	0	0	1488	1466	1446	1436	1437	1434	1432	1427	1427	1449	1461	1467	1470	1471	1482	1461	1455	1457	1456	1446	1437	1442	1446	1454	1464	1479	1514	1554	1545	1526	1505	1491	0	0	0	0	0	0	0	0	0	0	0	0	0	0	0	0	0	0	0	0	0	0	0	0	0	0	0	0	0	0	0	0	0	0	0	0	0	0	0	0	0	0	0	0	0	0	0	0	0	0	0	0	1370	1370	1385	1387	1386	1381	1379	1387	1389	1387	1384	1391	1403	1406	1392	1393	1400	1397	1400	1405	1408	1405	1408	1409	1420	1413	1407	1407	1415	1410	1407	1403	1402	1405	1404	1397	1394	1399	1415	1407	1408	1405	1445	1480	1455	1433	1407	1432	1471	1491	0	0	0	0	0	0	0	0	0	0	0	0	0	0	0	0	0	0	0	0	0	0	0	0	0	0	0	0	0	0	0	0	0	0	0	0	0	0	0	0	0	0	0	0	0	0	0	0	0	0	0	0	0	0	0	0	0	0	0	0	0	0	0	0	0	0	0	0	0	0	0	0	0	0	0	0	0	0	0	0	0	0	0	0	0	1426	1394	1384	1373	1384	1384	1390	1388	1390	1394	1398	1393	1384	1382	1383	1388	1386	1384	1382	1376	1375	1368	1373	1386	1392	1390	1380	1371	1369	1375	1382	1382	1379	1373	1374	1363	1355	1355	1361	1370	1382	1382	1382	1371	1368	1361	1371	1366	1366	1391	1424	1438	1496	1601	0	0	0	0	0	0	0	0	0	0	0	0	0	0	0	0	0	0	0	0	0	0	0	0	0	0	0	0	0	0	0	0	0	0	0	0	0	0	0	0	0	0	0	0	0	0	0	0	0	0	0	0	0	0	0	0	0	0	0	0	0	0	0	0	0	0	0	0	0	0	0	0	0	0	0	0	0	0	0	0	0	0	0	0	0	0	0	0	0	0	0	1414	1360	1354	1372	1383	1389	1383	1377	1373	1367	1363	1359	1357	1357	1357	1373	1376	1377	1374	1378	1375	1376	1372	1368	1358	1359	1359	1361	1359	1356	1350	1340	1342	1349	1365	1375	1377	1373	1358	1355	1351	1350	1344	1346	1353	1350	1342	1335	1339	1360	1406	0	0	0	0	0	0	0	0	0	0	0	0	0	0	0	0	0	0	0	0	0	0	0	0	0	0	0	0	0	0	0	0	0	0	0	0	0	0	0	0	0	0	0	0	0	0	0	0	0	0	0	0	0	0	0	0	0	0	0	0	0	0	0	0	0	0	0	0	0	0	0	0	0	0	0	0	0	0	0	0	0	0	0	0	0	0	0	0	0	0	0	0	0	0	0	0	0	0	0	0	0	0	0	0	0	0	0	0	0	0	0	0	0	0	0	0	0	0	0	0	0	0	0	0	0	0	0	0	0	0	0	0	0
0	0	0	0	0	0	0	0	0	0	0	0	0	0	0	0	0	0	0	0	0	0	0	0	0	0	0	0	0	0	0	0	0	0	0	0	0	0	0	0	0	0	0	0	0	0	0	0	0	0	0	0	0	0	0	0	0	0	0	0	0	0	0	0	0	0	0	0	0	0	0	0	0	0	0	0	0	0	0	0	0	0	0	0	0	0	0	0	0	0	0	0	1464	1450	1440	1436	1436	1437	1438	1421	1431	1446	1464	1473	1475	1468	1479	1466	1459	1457	1452	1445	1442	1447	1451	1450	1451	1463	1511	1531	1512	1508	1484	1468	0	0	0	0	0	0	0	0	0	0	0	0	0	0	0	0	0	0	0	0	0	0	0	0	0	0	0	0	0	0	0	0	0	0	0	0	0	0	0	0	0	0	0	0	0	0	0	0	0	0	0	0	1367	1372	1381	1381	1376	1362	1367	1377	1393	1384	1379	1383	1394	1400	1385	1387	1390	1394	1393	1391	1392	1393	1401	1405	1405	1406	1404	1401	1411	1411	1399	1403	1400	1400	1405	1400	1396	1401	1410	1407	1412	1432	1477	1471	1434	1419	1411	1444	1482	0	0	0	0	0	0	0	0	0	0	0	0	0	0	0	0	0	0	0	0	0	0	0	0	0	0	0	0	0	0	0	0	0	0	0	0	0	0	0	0	0	0	0	0	0	0	0	0	0	0	0	0	0	0	0	0	0	0	0	0	0	0	0	0	0	0	0	0	0	0	0	0	0	0	0	0	0	0	0	0	0	0	0	0	0	0	1430	1412	1381	1377	1394	1396	1396	1387	1386	1391	1392	1386	1381	1377	1373	1376	1383	1388	1392	1387	1381	1372	1372	1385	1392	1390	1382	1370	1368	1372	1376	1374	1370	1373	1372	1372	1367	1365	1371	1377	1379	1380	1375	1369	1367	1379	1376	1363	1352	1375	1416	1446	1503	1576	1632	0	0	0	0	0	0	0	0	0	0	0	0	0	0	0	0	0	0	0	0	0	0	0	0	0	0	0	0	0	0	0	0	0	0	0	0	0	0	0	0	0	0	0	0	0	0	0	0	0	0	0	0	0	0	0	0	0	0	0	0	0	0	0	0	0	0	0	0	0	0	0	0	0	0	0	0	0	0	0	0	0	0	0	0	0	0	0	0	0	0	1413	1351	1337	1353	1367	1375	1378	1373	1367	1364	1355	1353	1353	1349	1348	1359	1380	1380	1376	1373	1377	1374	1376	1373	1370	1366	1362	1356	1352	1347	1342	1337	1335	1339	1354	1365	1372	1371	1370	1370	1366	1350	1348	1350	1355	1354	1352	1345	1343	1346	1386	0	0	0	0	0	0	0	0	0	0	0	0	0	0	0	0	0	0	0	0	0	0	0	0	0	0	0	0	0	0	0	0	0	0	0	0	0	0	0	0	0	0	0	0	0	0	0	0	0	0	0	0	0	0	0	0	0	0	0	0	0	0	0	0	0	0	0	0	0	0	0	0	0	0	0	0	0	0	0	0	0	0	0	0	0	0	0	0	0	0	0	0	0	0	0	0	0	0	0	0	0	0	0	0	0	0	0	0	0	0	0	0	0	0	0	0	0	0	0	0	0	0	0	0	0	0	0	0	0	0	0	0	0
0	0	0	0	0	0	0	0	0	0	0	0	0	0	0	0	0	0	0	0	0	0	0	0	0	0	0	0	0	0	0	0	0	0	0	0	0	0	0	0	0	0	0	0	0	0	0	0	0	0	0	0	0	0	0	0	0	0	0	0	0	0	0	0	0	0	0	0	0	0	0	0	0	0	0	0	0	0	0	0	0	0	0	0	0	0	0	0	0	0	0	0	1451	1451	1445	1442	1443	1448	1443	1430	1438	1464	1483	1480	1470	1468	1465	1467	1457	1451	1451	1451	1451	1449	1454	1454	1457	1459	1500	1511	1487	1478	1467	1463	0	0	0	0	0	0	0	0	0	0	0	0	0	0	0	0	0	0	0	0	0	0	0	0	0	0	0	0	0	0	0	0	0	0	0	0	0	0	0	0	0	0	0	0	0	0	0	0	0	0	0	0	1376	1372	1383	1385	1380	1376	1378	1389	1391	1380	1375	1377	1382	1393	1386	1387	1387	1388	1389	1392	1394	1391	1392	1392	1390	1394	1404	1405	1409	1404	1405	1403	1396	1389	1398	1400	1393	1394	1403	1404	1403	1420	1454	1451	1424	1396	1427	1454	1478	0	0	0	0	0	0	0	0	0	0	0	0	0	0	0	0	0	0	0	0	0	0	0	0	0	0	0	0	0	0	0	0	0	0	0	0	0	0	0	0	0	0	0	0	0	0	0	0	0	0	0	0	0	0	0	0	0	0	0	0	0	0	0	0	0	0	0	0	0	0	0	0	0	0	0	0	0	0	0	0	0	0	0	0	0	0	1412	1416	1386	1388	1396	1406	1408	1395	1379	1381	1375	1377	1376	1371	1372	1370	1375	1385	1395	1392	1394	1378	1373	1377	1383	1382	1374	1363	1363	1369	1373	1374	1368	1370	1381	1378	1373	1372	1383	1388	1381	1376	1374	1371	1366	1380	1372	1356	1346	1361	1403	1462	1510	1563	1601	0	0	0	0	0	0	0	0	0	0	0	0	0	0	0	0	0	0	0	0	0	0	0	0	0	0	0	0	0	0	0	0	0	0	0	0	0	0	0	0	0	0	0	0	0	0	0	0	0	0	0	0	0	0	0	0	0	0	0	0	0	0	0	0	0	0	0	0	0	0	0	0	0	0	0	0	0	0	0	0	0	0	0	0	0	0	0	0	0	0	1438	1375	1347	1341	1355	1364	1371	1369	1363	1358	1350	1346	1347	1348	1347	1358	1368	1385	1383	1376	1371	1372	1378	1383	1391	1385	1375	1362	1342	1345	1339	1338	1338	1334	1345	1354	1366	1369	1374	1375	1372	1356	1353	1355	1355	1370	1366	1342	1332	1325	1388	0	0	0	0	0	0	0	0	0	0	0	0	0	0	0	0	0	0	0	0	0	0	0	0	0	0	0	0	0	0	0	0	0	0	0	0	0	0	0	0	0	0	0	0	0	0	0	0	0	0	0	0	0	0	0	0	0	0	0	0	0	0	0	0	0	0	0	0	0	0	0	0	0	0	0	0	0	0	0	0	0	0	0	0	0	0	0	0	0	0	0	0	0	0	0	0	0	0	0	0	0	0	0	0	0	0	0	0	0	0	0	0	0	0	0	0	0	0	0	0	0	0	0	0	0	0	0	0	0	0	0	0	0
0	0	0	0	0	0	0	0	0	0	0	0	0	0	0	0	0	0	0	0	0	0	0	0	0	0	0	0	0	0	0	0	0	0	0	0	0	0	0	0	0	0	0	0	0	0	0	0	0	0	0	0	0	0	0	0	0	0	0	0	0	0	0	0	0	0	0	0	0	0	0	0	0	0	0	0	0	0	0	0	0	0	0	0	0	0	0	0	0	0	0	0	1442	1445	1443	1457	1462	1456	1460	1446	1455	1466	1483	1482	1468	1466	1457	1454	1458	1457	1450	1457	1465	1474	1476	1470	1468	1463	1489	1494	1474	1472	1468	1475	0	0	0	0	0	0	0	0	0	0	0	0	0	0	0	0	0	0	0	0	0	0	0	0	0	0	0	0	0	0	0	0	0	0	0	0	0	0	0	0	0	0	0	0	0	0	0	0	0	0	0	0	1425	1375	1371	1380	1391	1406	1422	1422	1392	1372	1375	1378	1381	1393	1391	1386	1381	1386	1389	1398	1402	1397	1386	1384	1386	1394	1407	1408	1403	1405	1409	1406	1396	1389	1394	1400	1398	1398	1402	1400	1401	1405	1420	1418	1393	1383	1455	1456	0	0	0	0	0	0	0	0	0	0	0	0	0	0	0	0	0	0	0	0	0	0	0	0	0	0	0	0	0	0	0	0	0	0	0	0	0	0	0	0	0	0	0	0	0	0	0	0	0	0	0	0	0	0	0	0	0	0	0	0	0	0	0	0	0	0	0	0	0	0	0	0	0	0	0	0	0	0	0	0	0	0	0	0	0	0	0	1401	1391	1380	1385	1396	1403	1410	1401	1374	1362	1367	1369	1369	1368	1368	1365	1376	1384	1390	1392	1387	1378	1364	1367	1371	1366	1362	1351	1358	1369	1377	1366	1360	1370	1376	1377	1373	1380	1388	1396	1382	1379	1374	1372	1364	1360	1359	1352	1340	1361	1404	1468	1518	1555	1595	1630	0	0	0	0	0	0	0	0	0	0	0	0	0	0	0	0	0	0	0	0	0	0	0	0	0	0	0	0	0	0	0	0	0	0	0	0	0	0	0	0	0	0	0	0	0	0	0	0	0	0	0	0	0	0	0	0	0	0	0	0	0	0	0	0	0	0	0	0	0	0	0	0	0	0	0	0	0	0	0	0	0	0	0	0	0	0	0	0	0	1471	1397	1362	1347	1350	1362	1370	1370	1360	1358	1350	1344	1344	1348	1356	1364	1374	1384	1385	1382	1374	1369	1378	1393	1401	1394	1373	1358	1348	1344	1341	1343	1340	1337	1345	1351	1362	1361	1364	1367	1364	1358	1354	1353	1357	1371	1364	1346	1343	1365	1415	0	0	0	0	0	0	0	0	0	0	0	0	0	0	0	0	0	0	0	0	0	0	0	0	0	0	0	0	0	0	0	0	0	0	0	0	0	0	0	0	0	0	0	0	0	0	0	0	0	0	0	0	0	0	0	0	0	0	0	0	0	0	0	0	0	0	0	0	0	0	0	0	0	0	0	0	0	0	0	0	0	0	0	0	0	0	0	0	0	0	0	0	0	0	0	0	0	0	0	0	0	0	0	0	0	0	0	0	0	0	0	0	0	0	0	0	0	0	0	0	0	0	0	0	0	0	0	0	0	0	0	0	0
0	0	0	0	0	0	0	0	0	0	0	0	0	0	0	0	0	0	0	0	0	0	0	0	0	0	0	0	0	0	0	0	0	0	0	0	0	0	0	0	0	0	0	0	0	0	0	0	0	0	0	0	0	0	0	0	0	0	0	0	0	0	0	0	0	0	0	0	0	0	0	0	0	0	0	0	0	0	0	0	0	0	0	0	0	0	0	0	0	0	0	0	1459	1466	1465	1465	1474	1474	1472	1455	1461	1469	1476	1475	1472	1463	1453	1448	1451	1454	1457	1463	1473	1480	1487	1481	1468	1461	1473	1479	1466	1468	1464	1464	1471	0	0	0	0	0	0	0	0	0	0	0	0	0	0	0	0	0	0	0	0	0	0	0	0	0	0	0	0	0	0	0	0	0	0	0	0	0	0	0	0	0	0	0	0	0	0	0	0	0	0	0	1410	1380	1369	1367	1381	1398	1405	1404	1386	1372	1380	1384	1394	1406	1412	1398	1383	1381	1391	1402	1409	1402	1390	1384	1387	1394	1408	1405	1396	1399	1406	1406	1403	1396	1400	1407	1404	1401	1404	1402	1392	1388	1402	1397	1368	1378	1466	1486	0	0	0	0	0	0	0	0	0	0	0	0	0	0	0	0	0	0	0	0	0	0	0	0	0	0	0	0	0	0	0	0	0	0	0	0	0	0	0	0	0	0	0	0	0	0	0	0	0	0	0	0	0	0	0	0	0	0	0	0	0	0	0	0	0	0	0	0	0	0	0	0	0	0	0	0	0	0	0	0	0	0	0	0	0	0	0	1398	1386	1376	1386	1396	1402	1405	1397	1366	1363	1368	1365	1369	1368	1364	1365	1373	1380	1389	1386	1383	1375	1366	1367	1369	1360	1351	1345	1357	1370	1384	1385	1375	1369	1366	1361	1363	1374	1382	1387	1382	1383	1385	1382	1371	1356	1355	1344	1349	1375	1413	1467	1502	1537	1584	0	0	0	0	0	0	0	0	0	0	0	0	0	0	0	0	0	0	0	0	0	0	0	0	0	0	0	0	0	0	0	0	0	0	0	0	0	0	0	0	0	0	0	0	0	0	0	0	0	0	0	0	0	0	0	0	0	0	0	0	0	0	0	0	0	0	0	0	0	0	0	0	0	0	0	0	0	0	0	0	0	0	0	0	0	0	0	0	0	0	1496	1411	1369	1344	1351	1367	1374	1372	1359	1353	1353	1347	1343	1348	1360	1374	1376	1373	1372	1366	1360	1361	1372	1392	1401	1389	1371	1357	1345	1337	1343	1356	1362	1359	1364	1366	1364	1358	1360	1358	1356	1350	1351	1354	1360	1372	1370	1365	1386	1406	1451	0	0	0	0	0	0	0	0	0	0	0	0	0	0	0	0	0	0	0	0	0	0	0	0	0	0	0	0	0	0	0	0	0	0	0	0	0	0	0	0	0	0	0	0	0	0	0	0	0	0	0	0	0	0	0	0	0	0	0	0	0	0	0	0	0	0	0	0	0	0	0	0	0	0	0	0	0	0	0	0	0	0	0	0	0	0	0	0	0	0	0	0	0	0	0	0	0	0	0	0	0	0	0	0	0	0	0	0	0	0	0	0	0	0	0	0	0	0	0	0	0	0	0	0	0	0	0	0	0	0	0	0	0
0	0	0	0	0	0	0	0	0	0	0	0	0	0	0	0	0	0	0	0	0	0	0	0	0	0	0	0	0	0	0	0	0	0	0	0	0	0	0	0	0	0	0	0	0	0	0	0	0	0	0	0	0	0	0	0	0	0	0	0	0	0	0	0	0	0	0	0	0	0	0	0	0	0	0	0	0	0	0	0	0	0	0	0	0	0	0	0	0	0	0	0	1468	1467	1466	1469	1476	1486	1483	1468	1460	1459	1458	1461	1464	1457	1445	1433	1451	1463	1466	1466	1473	1483	1482	1472	1463	1460	1458	1466	1461	1467	1478	1477	1478	0	0	0	0	0	0	0	0	0	0	0	0	0	0	0	0	0	0	0	0	0	0	0	0	0	0	0	0	0	0	0	0	0	0	0	0	0	0	0	0	0	0	0	0	0	0	0	0	0	0	0	1395	1388	1380	1365	1374	1386	1392	1394	1389	1389	1390	1395	1407	1410	1414	1401	1384	1376	1378	1387	1394	1399	1401	1394	1394	1400	1402	1393	1386	1374	1394	1397	1403	1410	1407	1413	1404	1403	1403	1403	1395	1388	1392	1379	1373	1408	1458	1494	0	0	0	0	0	0	0	0	0	0	0	0	0	0	0	0	0	0	0	0	0	0	0	0	0	0	0	0	0	0	0	0	0	0	0	0	0	0	0	0	0	0	0	0	0	0	0	0	0	0	0	0	0	0	0	0	0	0	0	0	0	0	0	0	0	0	0	0	0	0	0	0	0	0	0	0	0	0	0	0	0	0	0	0	0	0	0	1398	1388	1381	1386	1395	1392	1398	1395	1382	1375	1369	1371	1371	1378	1381	1382	1380	1383	1385	1386	1383	1381	1385	1386	1387	1371	1364	1357	1362	1378	1395	1397	1385	1372	1364	1361	1360	1367	1378	1380	1383	1387	1393	1397	1379	1363	1355	1351	1355	1386	1403	1443	1471	1544	1608	0	0	0	0	0	0	0	0	0	0	0	0	0	0	0	0	0	0	0	0	0	0	0	0	0	0	0	0	0	0	0	0	0	0	0	0	0	0	0	0	0	0	0	0	0	0	0	0	0	0	0	0	0	0	0	0	0	0	0	0	0	0	0	0	0	0	0	0	0	0	0	0	0	0	0	0	0	0	0	0	0	0	0	0	0	0	0	0	0	0	1483	1403	1363	1350	1362	1372	1376	1369	1363	1358	1347	1349	1350	1361	1371	1378	1373	1366	1358	1350	1350	1357	1376	1386	1395	1386	1370	1354	1340	1335	1349	1361	1367	1369	1372	1370	1364	1357	1354	1353	1350	1350	1350	1353	1362	1371	1374	1382	1417	1442	1475	0	0	0	0	0	0	0	0	0	0	0	0	0	0	0	0	0	0	0	0	0	0	0	0	0	0	0	0	0	0	0	0	0	0	0	0	0	0	0	0	0	0	0	0	0	0	0	0	0	0	0	0	0	0	0	0	0	0	0	0	0	0	0	0	0	0	0	0	0	0	0	0	0	0	0	0	0	0	0	0	0	0	0	0	0	0	0	0	0	0	0	0	0	0	0	0	0	0	0	0	0	0	0	0	0	0	0	0	0	0	0	0	0	0	0	0	0	0	0	0	0	0	0	0	0	0	0	0	0	0	0	0	0
0	0	0	0	0	0	0	0	0	0	0	0	0	0	0	0	0	0	0	0	0	0	0	0	0	0	0	0	0	0	0	0	0	0	0	0	0	0	0	0	0	0	0	0	0	0	0	0	0	0	0	0	0	0	0	0	0	0	0	0	0	0	0	0	0	0	0	0	0	0	0	0	0	0	0	0	0	0	0	0	0	0	0	0	0	0	0	0	0	0	0	0	1456	1467	1458	1466	1479	1490	1489	1479	1469	1452	1446	1437	1439	1448	1439	1444	1457	1465	1466	1469	1468	1473	1470	1463	1460	1457	1465	1472	1483	1489	1491	1490	1493	0	0	0	0	0	0	0	0	0	0	0	0	0	0	0	0	0	0	0	0	0	0	0	0	0	0	0	0	0	0	0	0	0	0	0	0	0	0	0	0	0	0	0	0	0	0	0	0	0	0	0	1426	1393	1393	1377	1373	1370	1376	1385	1393	1402	1405	1411	1411	1407	1405	1394	1390	1381	1378	1379	1386	1391	1397	1395	1392	1389	1390	1389	1381	1373	1385	1394	1402	1410	1413	1407	1400	1400	1404	1400	1396	1391	1388	1388	1406	1425	1461	1515	0	0	0	0	0	0	0	0	0	0	0	0	0	0	0	0	0	0	0	0	0	0	0	0	0	0	0	0	0	0	0	0	0	0	0	0	0	0	0	0	0	0	0	0	0	0	0	0	0	0	0	0	0	0	0	0	0	0	0	0	0	0	0	0	0	0	0	0	0	0	0	0	0	0	0	0	0	0	0	0	0	0	0	0	0	0	0	1395	1390	1393	1388	1388	1391	1393	1397	1404	1399	1390	1383	1386	1377	1383	1389	1382	1380	1375	1371	1373	1387	1398	1400	1385	1370	1366	1360	1374	1385	1401	1398	1381	1364	1356	1358	1357	1371	1384	1385	1383	1388	1394	1392	1379	1370	1363	1369	1376	1383	1401	1413	1462	1570	0	0	0	0	0	0	0	0	0	0	0	0	0	0	0	0	0	0	0	0	0	0	0	0	0	0	0	0	0	0	0	0	0	0	0	0	0	0	0	0	0	0	0	0	0	0	0	0	0	0	0	0	0	0	0	0	0	0	0	0	0	0	0	0	0	0	0	0	0	0	0	0	0	0	0	0	0	0	0	0	0	0	0	0	0	0	0	0	0	0	0	1469	1387	1357	1360	1366	1370	1372	1365	1361	1359	1348	1347	1360	1372	1381	1381	1372	1364	1359	1361	1369	1375	1383	1390	1398	1389	1382	1363	1348	1344	1353	1361	1367	1368	1370	1367	1365	1357	1350	1343	1351	1352	1355	1351	1350	1360	1369	1391	1426	1443	1490	0	0	0	0	0	0	0	0	0	0	0	0	0	0	0	0	0	0	0	0	0	0	0	0	0	0	0	0	0	0	0	0	0	0	0	0	0	0	0	0	0	0	0	0	0	0	0	0	0	0	0	0	0	0	0	0	0	0	0	0	0	0	0	0	0	0	0	0	0	0	0	0	0	0	0	0	0	0	0	0	0	0	0	0	0	0	0	0	0	0	0	0	0	0	0	0	0	0	0	0	0	0	0	0	0	0	0	0	0	0	0	0	0	0	0	0	0	0	0	0	0	0	0	0	0	0	0	0	0	0	0	0	0
0	0	0	0	0	0	0	0	0	0	0	0	0	0	0	0	0	0	0	0	0	0	0	0	0	0	0	0	0	0	0	0	0	0	0	0	0	0	0	0	0	0	0	0	0	0	0	0	0	0	0	0	0	0	0	0	0	0	0	0	0	0	0	0	0	0	0	0	0	0	0	0	0	0	0	0	0	0	0	0	0	0	0	0	0	0	0	0	0	0	0	0	1453	1450	1458	1466	1473	1476	1468	1470	1469	1452	1441	1435	1436	1443	1439	1443	1445	1461	1467	1463	1465	1462	1459	1459	1461	1465	1475	1483	1508	1521	1516	1518	1500	0	0	0	0	0	0	0	0	0	0	0	0	0	0	0	0	0	0	0	0	0	0	0	0	0	0	0	0	0	0	0	0	0	0	0	0	0	0	0	0	0	0	0	0	0	0	0	0	0	0	0	1404	1401	1399	1381	1374	1372	1372	1389	1392	1409	1416	1410	1406	1405	1397	1393	1392	1390	1381	1369	1372	1383	1393	1396	1393	1388	1398	1407	1404	1399	1398	1400	1409	1415	1415	1400	1394	1396	1397	1395	1392	1388	1384	1409	1440	1436	1458	0	0	0	0	0	0	0	0	0	0	0	0	0	0	0	0	0	0	0	0	0	0	0	0	0	0	0	0	0	0	0	0	0	0	0	0	0	0	0	0	0	0	0	0	0	0	0	0	0	0	0	0	0	0	0	0	0	0	0	0	0	0	0	0	0	0	0	0	0	0	0	0	0	0	0	0	0	0	0	0	0	0	0	0	0	0	0	0	1380	1388	1384	1378	1381	1383	1390	1397	1407	1411	1412	1410	1399	1403	1410	1401	1390	1377	1364	1362	1358	1379	1403	1407	1385	1379	1369	1367	1383	1401	1419	1402	1372	1352	1358	1366	1376	1388	1388	1387	1383	1380	1384	1382	1375	1369	1373	1379	1391	1401	1392	1381	1455	1585	0	0	0	0	0	0	0	0	0	0	0	0	0	0	0	0	0	0	0	0	0	0	0	0	0	0	0	0	0	0	0	0	0	0	0	0	0	0	0	0	0	0	0	0	0	0	0	0	0	0	0	0	0	0	0	0	0	0	0	0	0	0	0	0	0	0	0	0	0	0	0	0	0	0	0	0	0	0	0	0	0	0	0	0	0	0	0	0	0	0	0	1445	1377	1359	1374	1367	1369	1371	1367	1359	1359	1359	1354	1368	1373	1366	1358	1357	1357	1361	1369	1377	1383	1383	1389	1388	1388	1385	1373	1359	1355	1358	1360	1359	1363	1364	1362	1361	1354	1350	1354	1361	1357	1354	1347	1340	1352	1356	1376	1403	1422	1472	0	0	0	0	0	0	0	0	0	0	0	0	0	0	0	0	0	0	0	0	0	0	0	0	0	0	0	0	0	0	0	0	0	0	0	0	0	0	0	0	0	0	0	0	0	0	0	0	0	0	0	0	0	0	0	0	0	0	0	0	0	0	0	0	0	0	0	0	0	0	0	0	0	0	0	0	0	0	0	0	0	0	0	0	0	0	0	0	0	0	0	0	0	0	0	0	0	0	0	0	0	0	0	0	0	0	0	0	0	0	0	0	0	0	0	0	0	0	0	0	0	0	0	0	0	0	0	0	0	0	0	0	0
0	0	0	0	0	0	0	0	0	0	0	0	0	0	0	0	0	0	0	0	0	0	0	0	0	0	0	0	0	0	0	0	0	0	0	0	0	0	0	0	0	0	0	0	0	0	0	0	0	0	0	0	0	0	0	0	0	0	0	0	0	0	0	0	0	0	0	0	0	0	0	0	0	0	0	0	0	0	0	0	0	0	0	0	0	0	0	0	0	0	0	0	1436	1452	1453	1463	1463	1459	1455	1456	1467	1457	1451	1446	1445	1441	1440	1446	1444	1456	1457	1454	1455	1458	1458	1460	1465	1474	1475	1485	1512	1532	1532	1523	1509	0	0	0	0	0	0	0	0	0	0	0	0	0	0	0	0	0	0	0	0	0	0	0	0	0	0	0	0	0	0	0	0	0	0	0	0	0	0	0	0	0	0	0	0	0	0	0	0	0	0	0	1370	1403	1395	1388	1384	1389	1397	1404	1409	1407	1412	1406	1404	1403	1402	1399	1401	1398	1385	1369	1371	1386	1396	1397	1395	1392	1405	1426	1427	1414	1397	1400	1404	1416	1413	1401	1396	1392	1391	1385	1393	1390	1393	1435	1468	1440	1443	0	0	0	0	0	0	0	0	0	0	0	0	0	0	0	0	0	0	0	0	0	0	0	0	0	0	0	0	0	0	0	0	0	0	0	0	0	0	0	0	0	0	0	0	0	0	0	0	0	0	0	0	0	0	0	0	0	0	0	0	0	0	0	0	0	0	0	0	0	0	0	0	0	0	0	0	0	0	0	0	0	0	0	0	0	0	0	0	1385	1379	1374	1371	1372	1378	1384	1396	1405	1408	1411	1406	1401	1397	1404	1407	1398	1382	1361	1354	1357	1384	1401	1409	1385	1380	1380	1381	1386	1420	1417	1401	1379	1374	1386	1401	1405	1398	1393	1391	1382	1374	1375	1375	1374	1373	1385	1391	1402	1408	1391	1381	1481	1587	0	0	0	0	0	0	0	0	0	0	0	0	0	0	0	0	0	0	0	0	0	0	0	0	0	0	0	0	0	0	0	0	0	0	0	0	0	0	0	0	0	0	0	0	0	0	0	0	0	0	0	0	0	0	0	0	0	0	0	0	0	0	0	0	0	0	0	0	0	0	0	0	0	0	0	0	0	0	0	0	0	0	0	0	0	0	0	0	0	0	0	0	1386	1365	1372	1362	1362	1375	1379	1369	1361	1364	1368	1368	1362	1346	1338	1339	1347	1355	1365	1374	1377	1370	1370	1371	1372	1372	1358	1357	1355	1359	1359	1354	1357	1362	1366	1364	1362	1348	1362	1369	1368	1354	1342	1337	1334	1344	1364	1379	1388	1446	0	0	0	0	0	0	0	0	0	0	0	0	0	0	0	0	0	0	0	0	0	0	0	0	0	0	0	0	0	0	0	0	0	0	0	0	0	0	0	0	0	0	0	0	0	0	0	0	0	0	0	0	0	0	0	0	0	0	0	0	0	0	0	0	0	0	0	0	0	0	0	0	0	0	0	0	0	0	0	0	0	0	0	0	0	0	0	0	0	0	0	0	0	0	0	0	0	0	0	0	0	0	0	0	0	0	0	0	0	0	0	0	0	0	0	0	0	0	0	0	0	0	0	0	0	0	0	0	0	0	0	0	0
0	0	0	0	0	0	0	0	0	0	0	0	0	0	0	0	0	0	0	0	0	0	0	0	0	0	0	0	0	0	0	0	0	0	0	0	0	0	0	0	0	0	0	0	0	0	0	0	0	0	0	0	0	0	0	0	0	0	0	0	0	0	0	0	0	0	0	0	0	0	0	0	0	0	0	0	0	0	0	0	0	0	0	0	0	0	0	0	0	0	0	0	0	1454	1453	1459	1461	1449	1444	1448	1467	1477	1467	1470	1461	1448	1439	1450	1454	1453	1450	1444	1452	1459	1462	1468	1471	1470	1468	1472	1484	1510	1522	1515	1504	0	0	0	0	0	0	0	0	0	0	0	0	0	0	0	0	0	0	0	0	0	0	0	0	0	0	0	0	0	0	0	0	0	0	0	0	0	0	0	0	0	0	0	0	0	0	0	0	0	0	0	1353	1411	1402	1396	1398	1411	1420	1420	1414	1409	1407	1409	1412	1414	1416	1408	1408	1400	1391	1377	1379	1392	1400	1399	1396	1391	1399	1430	1443	1428	1394	1394	1397	1410	1412	1410	1405	1403	1406	1417	1417	1403	1410	1454	1483	1449	1427	0	0	0	0	0	0	0	0	0	0	0	0	0	0	0	0	0	0	0	0	0	0	0	0	0	0	0	0	0	0	0	0	0	0	0	0	0	0	0	0	0	0	0	0	0	0	0	0	0	0	0	0	0	0	0	0	0	0	0	0	0	0	0	0	0	0	0	0	0	0	0	0	0	0	0	0	0	0	0	0	0	0	0	0	0	0	0	0	1393	1381	1374	1370	1368	1374	1382	1396	1402	1404	1399	1397	1394	1391	1395	1394	1400	1400	1393	1380	1366	1384	1403	1399	1388	1387	1386	1385	1391	1396	1404	1396	1385	1383	1390	1400	1401	1394	1388	1387	1381	1377	1375	1378	1378	1380	1380	1387	1406	1409	1389	1386	1484	1585	0	0	0	0	0	0	0	0	0	0	0	0	0	0	0	0	0	0	0	0	0	0	0	0	0	0	0	0	0	0	0	0	0	0	0	0	0	0	0	0	0	0	0	0	0	0	0	0	0	0	0	0	0	0	0	0	0	0	0	0	0	0	0	0	0	0	0	0	0	0	0	0	0	0	0	0	0	0	0	0	0	0	0	0	0	0	0	0	0	0	0	0	1397	1362	1351	1346	1354	1367	1374	1360	1348	1354	1357	1364	1355	1345	1332	1332	1344	1347	1353	1360	1364	1356	1354	1345	1349	1351	1353	1348	1351	1345	1349	1350	1354	1360	1372	1375	1373	1363	1365	1375	1371	1359	1343	1331	1330	1351	1374	1371	1367	1417	0	0	0	0	0	0	0	0	0	0	0	0	0	0	0	0	0	0	0	0	0	0	0	0	0	0	0	0	0	0	0	0	0	0	0	0	0	0	0	0	0	0	0	0	0	0	0	0	0	0	0	0	0	0	0	0	0	0	0	0	0	0	0	0	0	0	0	0	0	0	0	0	0	0	0	0	0	0	0	0	0	0	0	0	0	0	0	0	0	0	0	0	0	0	0	0	0	0	0	0	0	0	0	0	0	0	0	0	0	0	0	0	0	0	0	0	0	0	0	0	0	0	0	0	0	0	0	0	0	0	0	0	0
0	0	0	0	0	0	0	0	0	0	0	0	0	0	0	0	0	0	0	0	0	0	0	0	0	0	0	0	0	0	0	0	0	0	0	0	0	0	0	0	0	0	0	0	0	0	0	0	0	0	0	0	0	0	0	0	0	0	0	0	0	0	0	0	0	0	0	0	0	0	0	0	0	0	0	0	0	0	0	0	0	0	0	0	0	0	0	0	0	0	0	0	0	1459	1465	1470	1471	1458	1446	1445	1470	1479	1480	1475	1471	1459	1446	1451	1458	1451	1451	1442	1447	1454	1463	1464	1465	1460	1451	1449	1460	1478	1494	1494	0	0	0	0	0	0	0	0	0	0	0	0	0	0	0	0	0	0	0	0	0	0	0	0	0	0	0	0	0	0	0	0	0	0	0	0	0	0	0	0	0	0	0	0	0	0	0	0	0	0	0	0	1361	1412	1398	1401	1409	1425	1436	1433	1419	1405	1408	1423	1429	1434	1431	1416	1412	1408	1400	1392	1392	1396	1394	1398	1404	1400	1401	1422	1429	1428	1395	1391	1392	1406	1415	1414	1412	1409	1413	1424	1426	1420	1429	1445	1462	1446	1423	0	0	0	0	0	0	0	0	0	0	0	0	0	0	0	0	0	0	0	0	0	0	0	0	0	0	0	0	0	0	0	0	0	0	0	0	0	0	0	0	0	0	0	0	0	0	0	0	0	0	0	0	0	0	0	0	0	0	0	0	0	0	0	0	0	0	0	0	0	0	0	0	0	0	0	0	0	0	0	0	0	0	0	0	0	0	0	0	1408	1385	1378	1376	1376	1379	1383	1393	1397	1395	1393	1397	1391	1388	1386	1381	1371	1369	1372	1384	1389	1384	1386	1382	1380	1379	1383	1388	1388	1386	1386	1389	1391	1389	1396	1394	1388	1377	1376	1368	1374	1378	1380	1389	1386	1373	1371	1379	1404	1416	1404	1406	1453	1577	0	0	0	0	0	0	0	0	0	0	0	0	0	0	0	0	0	0	0	0	0	0	0	0	0	0	0	0	0	0	0	0	0	0	0	0	0	0	0	0	0	0	0	0	0	0	0	0	0	0	0	0	0	0	0	0	0	0	0	0	0	0	0	0	0	0	0	0	0	0	0	0	0	0	0	0	0	0	0	0	0	0	0	0	0	0	0	0	0	0	0	1439	1401	1387	1361	1358	1364	1367	1359	1341	1338	1336	1343	1351	1346	1339	1335	1339	1345	1347	1345	1350	1351	1348	1340	1336	1338	1342	1342	1346	1349	1347	1351	1355	1350	1354	1362	1371	1373	1369	1367	1376	1369	1357	1349	1333	1333	1361	1379	1376	1371	1430	0	0	0	0	0	0	0	0	0	0	0	0	0	0	0	0	0	0	0	0	0	0	0	0	0	0	0	0	0	0	0	0	0	0	0	0	0	0	0	0	0	0	0	0	0	0	0	0	0	0	0	0	0	0	0	0	0	0	0	0	0	0	0	0	0	0	0	0	0	0	0	0	0	0	0	0	0	0	0	0	0	0	0	0	0	0	0	0	0	0	0	0	0	0	0	0	0	0	0	0	0	0	0	0	0	0	0	0	0	0	0	0	0	0	0	0	0	0	0	0	0	0	0	0	0	0	0	0	0	0	0	0	0
0	0	0	0	0	0	0	0	0	0	0	0	0	0	0	0	0	0	0	0	0	0	0	0	0	0	0	0	0	0	0	0	0	0	0	0	0	0	0	0	0	0	0	0	0	0	0	0	0	0	0	0	0	0	0	0	0	0	0	0	0	0	0	0	0	0	0	0	0	0	0	0	0	0	0	0	0	0	0	0	0	0	0	0	0	0	0	0	0	0	0	0	0	1470	1479	1489	1490	1478	1465	1464	1477	1476	1475	1475	1479	1470	1464	1457	1454	1454	1452	1448	1452	1454	1462	1458	1450	1450	1439	1442	1447	1473	1488	1486	0	0	0	0	0	0	0	0	0	0	0	0	0	0	0	0	0	0	0	0	0	0	0	0	0	0	0	0	0	0	0	0	0	0	0	0	0	0	0	0	0	0	0	0	0	0	0	0	0	0	0	0	1375	1406	1395	1402	1413	1431	1439	1434	1421	1417	1421	1439	1439	1438	1427	1414	1420	1417	1407	1400	1392	1389	1393	1398	1410	1416	1416	1423	1420	1419	1408	1407	1404	1409	1418	1415	1412	1414	1423	1426	1421	1415	1410	1420	1434	1441	1431	0	0	0	0	0	0	0	0	0	0	0	0	0	0	0	0	0	0	0	0	0	0	0	0	0	0	0	0	0	0	0	0	0	0	0	0	0	0	0	0	0	0	0	0	0	0	0	0	0	0	0	0	0	0	0	0	0	0	0	0	0	0	0	0	0	0	0	0	0	0	0	0	0	0	0	0	0	0	0	0	0	0	0	0	0	0	0	0	1417	1410	1388	1385	1384	1387	1386	1391	1395	1393	1394	1395	1391	1388	1383	1374	1364	1353	1361	1381	1402	1405	1392	1376	1378	1382	1382	1385	1383	1378	1371	1379	1385	1389	1389	1373	1371	1363	1368	1363	1366	1374	1385	1388	1384	1370	1363	1384	1398	1417	1414	1423	1456	1580	0	0	0	0	0	0	0	0	0	0	0	0	0	0	0	0	0	0	0	0	0	0	0	0	0	0	0	0	0	0	0	0	0	0	0	0	0	0	0	0	0	0	0	0	0	0	0	0	0	0	0	0	0	0	0	0	0	0	0	0	0	0	0	0	0	0	0	0	0	0	0	0	0	0	0	0	0	0	0	0	0	0	0	0	0	0	0	0	0	0	0	0	1397	1394	1379	1369	1376	1372	1358	1337	1330	1336	1336	1333	1335	1344	1345	1354	1354	1353	1345	1339	1343	1339	1331	1326	1332	1336	1344	1350	1354	1360	1358	1359	1348	1344	1345	1347	1360	1365	1365	1365	1365	1360	1350	1325	1342	1365	1371	1376	1399	1429	0	0	0	0	0	0	0	0	0	0	0	0	0	0	0	0	0	0	0	0	0	0	0	0	0	0	0	0	0	0	0	0	0	0	0	0	0	0	0	0	0	0	0	0	0	0	0	0	0	0	0	0	0	0	0	0	0	0	0	0	0	0	0	0	0	0	0	0	0	0	0	0	0	0	0	0	0	0	0	0	0	0	0	0	0	0	0	0	0	0	0	0	0	0	0	0	0	0	0	0	0	0	0	0	0	0	0	0	0	0	0	0	0	0	0	0	0	0	0	0	0	0	0	0	0	0	0	0	0	0	0	0	0
0	0	0	0	0	0	0	0	0	0	0	0	0	0	0	0	0	0	0	0	0	0	0	0	0	0	0	0	0	0	0	0	0	0	0	0	0	0	0	0	0	0	0	0	0	0	0	0	0	0	0	0	0	0	0	0	0	0	0	0	0	0	0	0	0	0	0	0	0	0	0	0	0	0	0	0	0	0	0	0	0	0	0	0	0	0	0	0	0	0	0	0	0	1471	1493	1503	1506	1493	1466	1464	1470	1473	1472	1477	1480	1482	1479	1460	1456	1452	1452	1457	1461	1466	1468	1456	1450	1445	1438	1428	1453	1502	1509	1498	0	0	0	0	0	0	0	0	0	0	0	0	0	0	0	0	0	0	0	0	0	0	0	0	0	0	0	0	0	0	0	0	0	0	0	0	0	0	0	0	0	0	0	0	0	0	0	0	0	0	0	0	1446	1398	1399	1403	1419	1430	1437	1429	1418	1416	1427	1436	1433	1424	1415	1421	1429	1421	1404	1403	1391	1383	1383	1402	1423	1433	1431	1418	1415	1408	1420	1418	1412	1414	1412	1408	1406	1412	1413	1419	1409	1400	1399	1399	1414	1431	1426	0	0	0	0	0	0	0	0	0	0	0	0	0	0	0	0	0	0	0	0	0	0	0	0	0	0	0	0	0	0	0	0	0	0	0	0	0	0	0	0	0	0	0	0	0	0	0	0	0	0	0	0	0	0	0	0	0	0	0	0	0	0	0	0	0	0	0	0	0	0	0	0	0	0	0	0	0	0	0	0	0	0	0	0	0	0	0	0	1417	1410	1401	1394	1391	1394	1396	1391	1396	1394	1389	1391	1389	1386	1382	1373	1354	1354	1367	1385	1402	1399	1380	1381	1386	1393	1394	1394	1386	1372	1365	1371	1382	1383	1387	1373	1364	1361	1368	1364	1361	1368	1380	1383	1388	1376	1367	1380	1394	1408	1421	1435	1504	1592	0	0	0	0	0	0	0	0	0	0	0	0	0	0	0	0	0	0	0	0	0	0	0	0	0	0	0	0	0	0	0	0	0	0	0	0	0	0	0	0	0	0	0	0	0	0	0	0	0	0	0	0	0	0	0	0	0	0	0	0	0	0	0	0	0	0	0	0	0	0	0	0	0	0	0	0	0	0	0	0	0	0	0	0	0	0	0	0	0	0	0	0	1389	1395	1387	1378	1377	1373	1366	1345	1332	1334	1336	1338	1342	1352	1357	1362	1365	1359	1347	1335	1335	1334	1327	1326	1326	1333	1341	1351	1358	1363	1366	1362	1351	1333	1332	1336	1353	1356	1359	1357	1361	1352	1348	1329	1347	1361	1372	1371	1395	1417	1447	0	0	0	0	0	0	0	0	0	0	0	0	0	0	0	0	0	0	0	0	0	0	0	0	0	0	0	0	0	0	0	0	0	0	0	0	0	0	0	0	0	0	0	0	0	0	0	0	0	0	0	0	0	0	0	0	0	0	0	0	0	0	0	0	0	0	0	0	0	0	0	0	0	0	0	0	0	0	0	0	0	0	0	0	0	0	0	0	0	0	0	0	0	0	0	0	0	0	0	0	1446	0	0	0	0	0	0	0	0	0	0	0	0	0	0	0	0	0	0	0	0	0	1399	1385	1384	0	0	0	0	0	0	0
0	0	0	0	0	0	0	0	0	0	0	0	0	0	0	0	0	0	0	0	0	0	0	0	0	0	0	0	0	0	0	0	0	0	0	0	0	0	0	0	0	0	0	0	0	0	0	0	0	0	0	0	0	0	0	0	0	0	0	0	0	0	0	0	0	0	0	0	0	0	0	0	0	0	0	0	0	0	0	0	0	0	0	0	0	0	0	0	0	0	0	0	0	1472	1496	1506	1506	1473	1464	1461	1467	1474	1477	1478	1484	1487	1481	1457	1448	1449	1454	1459	1474	1478	1472	1459	1452	1453	1438	1435	1468	1522	1522	1513	1506	0	0	0	0	0	0	0	0	0	0	0	0	0	0	0	0	0	0	0	0	0	0	0	0	0	0	0	0	0	0	0	0	0	0	0	0	0	0	0	0	0	0	0	0	0	0	0	0	0	0	0	0	1406	1401	1406	1406	1417	1421	1420	1408	1405	1413	1422	1418	1416	1413	1431	1435	1428	1403	1388	1385	1384	1388	1402	1414	1425	1431	1426	1414	1401	1414	1425	1413	1409	1404	1396	1396	1402	1400	1405	1402	1400	1402	1392	1406	1438	1439	0	0	0	0	0	0	0	0	0	0	0	0	0	0	0	0	0	0	0	0	0	0	0	0	0	0	0	0	0	0	0	0	0	0	0	0	0	0	0	0	0	0	0	0	0	0	0	0	0	0	0	0	0	0	0	0	0	0	0	0	0	0	0	0	0	0	0	0	0	0	0	0	0	0	0	0	0	0	0	0	0	0	0	0	0	0	0	0	1426	1402	1407	1402	1399	1396	1391	1394	1398	1399	1397	1395	1388	1389	1391	1378	1363	1373	1376	1385	1397	1384	1375	1384	1395	1406	1409	1404	1394	1379	1366	1376	1390	1391	1383	1374	1367	1370	1369	1367	1367	1358	1376	1385	1387	1384	1374	1385	1389	1409	1443	1458	1520	1585	1632	0	0	0	0	0	0	0	0	0	0	0	0	0	0	0	0	0	0	0	0	0	0	0	0	0	0	0	0	0	0	0	0	0	0	0	0	0	0	0	0	0	0	0	0	0	0	0	0	0	0	0	0	0	0	0	0	0	0	0	0	0	0	0	0	0	0	0	0	0	0	0	0	0	0	0	0	0	0	0	0	0	0	1411	1451	1448	1429	0	0	0	0	0	1389	1382	1373	1364	1366	1371	1362	1350	1344	1341	1341	1347	1364	1359	1356	1362	1366	1360	1349	1332	1329	1330	1330	1331	1333	1335	1343	1351	1354	1365	1366	1361	1351	1336	1332	1342	1350	1351	1351	1350	1356	1355	1346	1339	1352	1360	1371	1370	1383	1411	1423	1439	1467	1480	1473	1471	1495	0	0	0	0	0	0	1482	1451	1434	1438	1471	0	0	0	1438	1427	1419	0	0	1386	1377	1397	1417	1438	1457	1475	1479	1486	0	0	0	0	0	0	0	1485	1499	1504	1479	1457	1457	1463	1459	1440	0	0	0	1485	1479	1476	1466	1471	1474	1477	1484	1481	1475	1463	1443	1458	1480	1485	1488	1502	1521	1531	1548	1550	1522	1498	1496	1496	1495	1479	1475	1476	1483	1487	1467	1446	1435	1444	1452	1453	1457	1485	1504	1512	1515	1496	1481	1472	1474	1476	1479	1471	1475	1494	1494	1505	1480	1464	1451	1438	1415	1408	1426	1449	1458	1452	1458	1472	1479	1479	1471	1466	1460	1460	1450	0	0	0	0	0	0	0
0	0	0	0	0	0	0	0	0	0	0	0	0	0	0	0	0	0	0	0	0	0	0	0	0	0	0	0	0	0	0	0	0	0	0	0	0	0	0	0	0	0	0	0	0	0	0	0	0	0	0	0	0	0	0	0	0	0	0	0	0	0	0	0	0	0	0	0	0	0	0	0	0	0	0	0	0	0	0	0	0	0	0	0	0	0	0	0	0	0	0	0	0	1473	1494	1504	1494	1474	1467	1465	1477	1487	1489	1478	1475	1479	1474	1456	1443	1444	1450	1457	1466	1473	1479	1468	1457	1455	1461	1468	1485	1513	1513	1506	1519	1526	0	0	0	0	0	0	0	0	0	0	0	0	0	0	0	0	0	0	0	0	0	0	0	0	0	0	0	0	0	0	0	0	0	0	0	0	0	0	0	0	0	0	0	0	0	0	0	0	0	0	0	1415	1411	1406	1399	1400	1403	1402	1394	1392	1405	1408	1410	1409	1415	1437	1439	1426	1404	1390	1386	1384	1386	1389	1396	1408	1421	1427	1418	1409	1419	1432	1414	1399	1395	1389	1391	1392	1392	1396	1403	1409	1410	1400	1417	1464	1458	0	0	0	0	0	1376	1370	1355	0	0	0	0	0	0	0	0	0	0	0	0	0	0	0	0	0	0	0	0	0	0	0	0	0	0	0	0	0	0	0	0	0	0	0	0	0	0	0	0	0	0	0	0	0	0	0	0	0	0	0	0	0	0	0	0	0	0	0	0	0	0	0	0	0	0	0	0	0	0	0	0	0	0	0	0	0	0	0	1469	1434	1406	1416	1410	1399	1391	1384	1389	1395	1399	1397	1399	1397	1400	1405	1395	1385	1378	1377	1388	1389	1381	1375	1379	1394	1404	1406	1404	1398	1390	1381	1390	1393	1392	1380	1374	1375	1382	1379	1377	1374	1368	1374	1379	1385	1384	1378	1387	1406	1419	1465	1469	1484	1567	1596	0	0	0	0	0	0	0	1561	1528	1524	1539	0	0	0	0	1553	1503	1498	1512	1525	1508	1484	1482	1493	1501	1503	1510	1507	1498	1500	1509	1539	1577	0	0	0	0	0	0	0	0	0	0	0	0	0	0	0	0	0	0	0	0	1167	1108	1081	1084	1096	1099	1095	1083	1076	1076	1098	1107	1105	1110	0	0	0	0	0	0	0	0	0	0	1138	1140	1193	1235	1271	1317	1371	1426	1439	1437	0	0	0	0	1392	1365	1349	1347	1361	1367	1362	1354	1347	1343	1347	1359	1367	1363	1351	1348	1350	1355	1356	1344	1328	1330	1343	1352	1348	1346	1345	1348	1353	1356	1358	1357	1347	1338	1337	1348	1355	1353	1347	1344	1345	1349	1336	1343	1355	1365	1378	1377	1405	1420	1427	1464	1499	1507	1507	1494	1481	1455	1441	1465	1499	1503	1492	1478	1468	1475	1486	1497	1489	1473	1462	1469	1462	1448	1431	1438	1449	1447	1457	1468	1488	1492	1490	1492	1501	1511	1500	1469	1451	1445	1463	1474	1476	1462	1441	1436	1447	1453	1468	1473	1472	1470	1473	1479	1487	1490	1485	1495	1501	1499	1481	1472	1478	1481	1472	1449	1444	1450	1460	1468	1467	1490	1499	1501	1494	1482	1467	1468	1464	1461	1445	1434	1440	1455	1471	1470	1451	1448	1462	1462	1451	1458	1478	1507	1515	1502	1483	1473	1459	1453	1456	1454	1447	1442	1442	1439	1448	1448	1450	1439	1426	1411	1409	1423	1438	1429	1432	1440	1457	1471	1471	1480	1476	1475	1464	1455	0	0	0	0	0	0	0
0	0	0	0	0	0	0	0	0	0	0	0	0	0	0	0	0	0	0	0	0	0	0	0	0	0	0	0	0	0	0	0	0	0	0	0	0	0	0	0	0	0	0	0	0	0	0	0	0	0	0	0	0	0	0	0	0	0	0	0	0	0	0	0	0	0	0	0	0	0	0	0	0	0	0	0	0	0	0	0	0	0	0	0	0	0	0	0	0	0	0	0	0	1465	1494	1497	1489	1475	1466	1472	1487	1507	1509	1490	1475	1467	1466	1459	1449	1442	1447	1448	1460	1473	1478	1477	1470	1467	1472	1475	1491	1498	1498	1498	1519	1531	1520	0	0	0	0	0	0	0	0	0	0	0	0	0	0	0	0	0	0	0	0	0	0	0	0	0	0	0	0	0	0	0	0	0	0	0	0	0	0	0	0	0	0	0	0	0	0	0	0	0	1465	1425	1415	1402	1396	1390	1390	1393	1402	1410	1407	1408	1414	1413	1410	1420	1421	1415	1399	1386	1383	1379	1379	1382	1383	1393	1415	1420	1418	1410	1407	1423	1412	1400	1396	1386	1387	1389	1383	1388	1404	1413	1413	1406	1468	1508	1489	0	0	0	1363	1346	1307	1288	1265	1241	1206	1192	0	0	0	0	0	0	0	0	0	0	0	0	0	0	0	0	0	1157	1170	1191	1179	0	0	0	0	0	1151	1157	1151	1126	1138	1191	0	0	0	0	0	1466	1505	1510	1491	1485	1490	1475	1448	1439	1445	1489	1532	0	0	1480	1468	1485	1507	1508	1500	1500	1510	1521	1533	1521	1505	1482	1460	1452	1454	1464	1467	1466	1471	1478	1477	1468	1456	1448	1440	1434	1406	1413	1411	1400	1383	1381	1387	1394	1396	1392	1392	1397	1410	1417	1404	1389	1378	1382	1391	1387	1380	1378	1379	1387	1394	1394	1394	1397	1395	1390	1387	1384	1383	1377	1373	1379	1395	1396	1397	1389	1381	1376	1382	1382	1375	1372	1393	1423	1467	1476	1480	1469	1477	1500	1515	1511	1496	1487	1495	1492	1489	1464	1452	1452	1468	1486	1500	1515	1506	1484	1475	1482	1504	1516	1509	1486	1471	1459	1464	1476	1485	1493	1498	1495	1499	1497	1517	1503	1484	1477	1461	1414	0	0	0	0	0	0	0	0	0	0	0	0	0	0	1126	1115	1077	1062	1062	1063	1069	1071	1068	1067	1064	1066	1072	1092	1084	1075	1070	1062	1058	1073	1082	1090	1057	1073	1097	1109	1112	1126	1157	1186	1216	1323	1417	1425	1396	1350	0	0	1391	1395	1376	1334	1333	1353	1372	1367	1357	1349	1338	1334	1345	1360	1367	1349	1338	1339	1349	1353	1351	1338	1333	1345	1354	1356	1348	1349	1348	1348	1352	1348	1347	1343	1341	1349	1348	1346	1342	1339	1343	1349	1349	1340	1351	1370	1373	1377	1403	1431	1435	1441	1462	1485	1498	1507	1491	1467	1448	1451	1475	1490	1484	1475	1469	1470	1479	1496	1500	1488	1461	1457	1468	1463	1455	1445	1464	1472	1473	1478	1487	1489	1494	1482	1482	1486	1486	1481	1459	1430	1437	1448	1461	1466	1460	1443	1445	1453	1466	1478	1482	1484	1481	1474	1473	1482	1490	1498	1505	1506	1488	1475	1478	1485	1489	1475	1453	1449	1452	1462	1468	1472	1477	1486	1479	1481	1471	1472	1469	1459	1450	1435	1429	1436	1454	1476	1471	1462	1460	1475	1467	1458	1460	1466	1497	1487	1472	1464	1461	1460	1457	1450	1448	1445	1440	1440	1431	1431	1439	1447	1446	1430	1417	1422	1429	1434	1415	1410	1406	1426	1426	1465	1483	1477	1476	1468	1448	0	0	0	0	0	0	0
0	0	0	0	0	0	0	0	0	0	0	0	0	0	0	0	0	0	0	0	0	0	0	0	0	0	0	0	0	0	0	0	0	0	0	0	0	0	0	0	0	0	0	0	0	0	0	0	0	0	0	0	0	0	0	0	0	0	0	0	0	0	0	0	0	0	0	0	0	0	0	0	0	0	0	0	0	0	0	0	0	0	0	0	0	0	0	0	0	0	0	0	0	1460	1479	1476	1474	1473	1471	1480	1496	1509	1513	1497	1477	1463	1458	1453	1450	1442	1441	1442	1456	1471	1478	1476	1473	1473	1474	1480	1482	1490	1487	1489	1505	1521	1503	1463	1413	1389	1399	0	0	1435	0	0	0	0	1484	1501	0	0	0	0	0	0	1456	1462	0	0	0	0	0	0	0	0	0	0	0	0	0	0	1494	1469	1450	1436	1429	1443	1456	1447	1441	1431	1428	1424	1423	1436	1446	1438	1433	1423	1397	1388	1394	1418	1436	1440	1426	1414	1407	1407	1402	1398	1395	1393	1378	1373	1375	1381	1376	1379	1390	1413	1417	1417	1415	1412	1409	1412	1414	1407	1410	1418	1400	1383	1384	1396	1420	1423	1408	1410	1473	1529	1519	1487	1391	1377	1359	1298	1257	1202	1179	1164	1151	1156	1165	0	0	0	0	0	0	0	0	0	0	0	0	0	0	1123	1114	1109	1112	1111	1109	1104	1102	1112	1112	1117	1111	1114	1100	1094	1099	1125	1154	1180	1219	1273	1355	1432	1482	1468	1469	1473	1480	1478	1478	1477	1485	1479	1470	1471	1474	1474	1473	1479	1482	1478	1446	1434	1448	1480	1497	1493	1481	1472	1474	1483	1493	1497	1495	1482	1475	1466	1462	1455	1454	1446	1445	1435	1410	1405	1407	1397	1384	1393	1393	1396	1401	1395	1388	1394	1405	1405	1403	1387	1382	1390	1402	1404	1389	1384	1380	1383	1388	1390	1386	1388	1393	1397	1387	1382	1377	1376	1383	1386	1402	1417	1407	1401	1388	1390	1383	1381	1370	1369	1391	1435	1465	1475	1472	1464	1459	1477	1488	1494	1494	1492	1489	1482	1484	1480	1464	1450	1459	1490	1497	1500	1493	1485	1479	1479	1492	1498	1490	1468	1451	1449	1456	1474	1480	1483	1492	1500	1506	1509	1501	1473	1464	1463	1465	1425	0	0	0	0	0	0	0	0	0	0	0	0	0	0	1090	1076	1057	1043	1039	1040	1051	1052	1054	1053	1051	1058	1065	1080	1076	1065	1060	1055	1048	1049	1039	1034	1040	1057	1079	1089	1089	1091	1112	1122	1126	1121	1130	1182	1283	1309	1299	1327	1372	1386	1385	1362	1342	1358	1384	1401	1367	1338	1317	1310	1317	1342	1359	1353	1333	1333	1348	1353	1356	1352	1344	1340	1343	1344	1343	1346	1346	1356	1360	1360	1358	1367	1365	1357	1352	1343	1336	1338	1351	1356	1347	1348	1363	1367	1385	1404	1411	1439	1438	1434	1452	1466	1490	1500	1487	1464	1450	1458	1480	1490	1491	1474	1468	1467	1469	1498	1498	1485	1462	1466	1473	1470	1462	1449	1468	1491	1495	1489	1488	1486	1483	1477	1468	1467	1464	1446	1425	1417	1422	1440	1454	1462	1470	1452	1450	1456	1462	1472	1480	1481	1479	1472	1476	1476	1490	1494	1494	1488	1487	1484	1488	1501	1504	1494	1475	1464	1468	1479	1480	1472	1470	1477	1474	1474	1475	1475	1467	1450	1444	1433	1432	1442	1454	1464	1463	1473	1471	1475	1478	1480	1476	1473	1472	1453	1439	1439	1451	1461	1465	1457	1458	1448	1444	1444	1435	1432	1443	1453	1459	1450	1437	1438	1424	1417	1403	1401	1405	1421	1421	1456	1475	1483	1476	1452	1444	0	0	0	0	0	0	0
0	0	0	0	0	0	0	0	0	0	0	0	0	0	0	0	0	0	0	0	0	0	0	0	0	0	0	0	0	0	0	0	0	0	0	0	0	0	0	0	0	0	0	0	0	0	0	0	0	0	0	0	0	0	0	0	0	0	0	0	0	0	0	0	0	0	0	0	0	0	0	0	0	0	0	0	0	0	0	0	0	0	0	0	0	0	0	0	0	0	0	0	0	1468	1458	1450	1459	1471	1480	1489	1496	1499	1503	1495	1475	1465	1454	1451	1443	1439	1435	1452	1471	1475	1479	1471	1464	1461	1465	1471	1476	1473	1480	1488	1494	1491	1468	1445	1444	1436	1436	1481	1489	1518	1529	1538	1532	1519	1501	1509	1531	1558	1543	1509	1504	1499	1492	1475	1452	1450	1440	1431	1440	1451	1459	1458	1453	1453	1469	1480	1503	1500	1493	1446	1455	1464	1467	1469	1468	1454	1442	1440	1446	1452	1454	1440	1450	1437	1436	1441	1425	1414	1417	1444	1461	1467	1457	1425	1407	1396	1385	1381	1373	1374	1368	1367	1375	1395	1416	1444	1448	1442	1428	1423	1417	1412	1413	1409	1413	1426	1438	1449	1446	1426	1422	1432	1449	1430	1411	1400	1416	1508	1489	1432	1354	1336	1309	1227	1149	1128	1118	1114	1106	1123	1137	1143	0	0	0	1093	0	0	0	0	0	0	0	0	1106	1102	1100	1093	1084	1087	1089	1091	1092	1093	1092	1091	1099	1100	1081	1077	1078	1095	1127	1161	1204	1258	1339	1472	1476	1484	1481	1476	1487	1489	1485	1494	1497	1485	1487	1494	1488	1481	1474	1481	1491	1481	1456	1445	1449	1469	1492	1489	1474	1461	1466	1479	1488	1496	1490	1483	1477	1467	1459	1455	1450	1454	1442	1423	1405	1405	1399	1400	1396	1400	1405	1415	1430	1425	1411	1405	1418	1430	1439	1424	1413	1413	1422	1432	1429	1396	1385	1387	1393	1391	1384	1382	1396	1412	1393	1391	1389	1397	1405	1409	1410	1405	1410	1413	1411	1399	1399	1387	1376	1389	1419	1431	1451	1469	1468	1454	1465	1484	1504	1503	1497	1486	1486	1485	1491	1486	1472	1454	1462	1486	1502	1508	1507	1497	1494	1490	1490	1485	1471	1451	1440	1441	1454	1469	1479	1486	1488	1499	1510	1512	1504	1465	1455	1454	1427	0	0	0	0	0	0	0	0	0	0	0	0	0	1066	1057	1058	1056	1043	1030	1023	1021	1026	1029	1031	1032	1035	1049	1070	1081	1071	1061	1052	1046	1053	1059	1053	1045	1045	1052	1068	1079	1081	1079	1082	1086	1081	1081	1090	1120	1163	1233	1246	1280	1326	1370	1379	1379	1374	1382	1405	1424	1421	1383	1339	1310	1313	1333	1348	1347	1349	1369	1377	1376	1367	1369	1368	1390	1382	1361	1345	1344	1349	1369	1367	1377	1378	1383	1383	1391	1401	1390	1388	1396	1394	1383	1371	1363	1365	1396	1400	1409	1414	1428	1433	1430	1447	1459	1476	1477	1476	1462	1455	1468	1487	1498	1498	1484	1479	1471	1470	1479	1483	1484	1476	1480	1485	1488	1468	1449	1467	1491	1493	1490	1487	1484	1488	1481	1466	1449	1430	1406	1397	1409	1414	1429	1449	1467	1480	1474	1467	1462	1458	1461	1470	1476	1478	1470	1471	1477	1482	1478	1473	1475	1486	1495	1502	1511	1512	1507	1493	1480	1482	1486	1494	1479	1478	1473	1470	1470	1474	1470	1459	1442	1430	1429	1427	1434	1442	1450	1459	1469	1470	1480	1490	1493	1490	1479	1466	1442	1428	1429	1438	1455	1464	1467	1467	1459	1455	1455	1447	1448	1453	1463	1468	1462	1449	1448	1430	1407	1408	1405	1409	1421	1421	1452	1476	1476	1474	1458	1449	0	0	0	0	0	0	0
0	0	0	0	0	0	0	0	0	0	0	0	0	0	0	0	0	0	0	0	0	0	0	0	0	0	0	0	0	0	0	0	0	0	0	0	0	0	0	0	0	0	0	0	0	0	0	0	0	0	0	0	0	0	0	0	0	0	0	0	0	0	0	0	0	0	0	0	0	0	0	0	0	0	0	0	0	0	0	0	0	0	0	0	0	0	0	0	0	0	0	0	0	1473	1441	1431	1447	1468	1477	1482	1482	1482	1480	1482	1471	1461	1452	1446	1438	1431	1438	1455	1476	1481	1473	1461	1452	1449	1457	1463	1461	1467	1457	1445	1439	1441	1456	1463	1465	1461	1458	1485	1485	1479	1495	1504	1497	1499	1496	1498	1507	1504	1494	1484	1492	1495	1492	1478	1460	1453	1444	1438	1439	1447	1458	1466	1457	1463	1470	1481	1492	1497	1485	1458	1460	1465	1465	1466	1459	1449	1446	1445	1448	1455	1463	1470	1463	1447	1443	1450	1446	1448	1452	1465	1471	1467	1452	1434	1421	1411	1405	1400	1400	1389	1385	1383	1390	1414	1438	1465	1474	1466	1449	1433	1428	1423	1415	1415	1418	1432	1439	1452	1459	1460	1457	1451	1450	1433	1412	1406	1401	1391	1387	1371	1271	1184	1146	1120	1102	1096	1092	1092	1095	1100	1107	1116	1115	1104	1090	1081	1066	1055	1060	1055	1084	0	0	1096	1101	1101	1099	1085	1077	1078	1090	1098	1097	1094	1090	1090	1086	1092	1087	1078	1078	1093	1123	1163	1205	1253	1337	1450	1491	1493	1488	1484	1492	1503	1502	1505	1498	1495	1494	1499	1492	1481	1469	1477	1489	1493	1472	1463	1458	1472	1483	1480	1460	1458	1471	1488	1493	1495	1486	1488	1488	1470	1464	1452	1451	1450	1443	1411	1407	1416	1412	1412	1412	1424	1437	1439	1430	1419	1421	1422	1426	1446	1472	1471	1468	1449	1443	1441	1438	1423	1410	1417	1412	1402	1397	1391	1404	1419	1433	1407	1410	1413	1426	1439	1437	1421	1410	1408	1425	1454	1471	1466	1450	1437	1421	1425	1437	1459	1467	1467	1481	1495	1506	1511	1499	1489	1486	1492	1493	1496	1482	1470	1479	1494	1511	1517	1517	1511	1503	1497	1495	1486	1469	1448	1437	1442	1451	1462	1474	1485	1488	1494	1505	1507	1500	1470	1463	1454	1427	0	0	0	0	0	0	0	0	0	0	0	0	0	1038	1041	1047	1046	1041	1021	1018	1013	1012	1005	1005	1008	1017	1030	1050	1064	1028	1026	1025	1035	1046	1059	1062	1054	1050	1050	1055	1056	1062	1062	1059	1051	1051	1055	1068	1072	1108	1135	1156	1214	1309	1347	1367	1377	1380	1382	1399	1437	1439	1423	1392	1354	1351	1357	1383	1394	1407	1455	1471	1468	1437	1420	1413	1406	1404	1406	1409	1418	1422	1425	1446	1466	1466	1457	1432	1426	1426	1430	1433	1428	1432	1436	1420	1403	1388	1400	1404	1408	1412	1427	1443	1448	1451	1458	1470	1469	1464	1462	1460	1469	1481	1496	1498	1485	1481	1469	1465	1466	1474	1480	1483	1491	1497	1498	1477	1452	1465	1477	1487	1492	1487	1493	1498	1484	1461	1446	1428	1406	1400	1407	1416	1432	1450	1472	1493	1499	1485	1475	1463	1461	1465	1476	1472	1467	1467	1463	1463	1454	1457	1463	1487	1499	1510	1510	1517	1512	1494	1473	1470	1483	1490	1485	1479	1473	1465	1460	1461	1459	1445	1434	1431	1432	1437	1436	1441	1458	1463	1471	1479	1489	1491	1496	1490	1481	1467	1448	1432	1424	1429	1442	1457	1467	1470	1461	1459	1459	1460	1459	1459	1463	1463	1461	1454	1440	1426	1415	1406	1410	1415	1424	1424	1441	1474	1483	1476	1462	1455	0	0	0	0	0	0	0
0	0	0	0	0	0	0	0	0	0	0	0	0	0	0	0	0	0	0	0	0	0	0	0	0	0	0	0	0	0	0	0	0	0	0	0	0	0	0	0	0	0	0	0	0	0	0	0	0	0	0	0	0	0	0	0	0	0	0	0	0	0	0	0	0	0	0	0	0	0	0	0	0	0	0	0	0	0	0	0	0	0	0	0	0	0	0	0	0	0	0	0	0	1467	1435	1432	1445	1471	1487	1484	1470	1459	1463	1470	1463	1458	1454	1449	1440	1431	1437	1432	1457	1480	1476	1465	1454	1453	1451	1450	1445	1448	1465	1463	1458	1452	1457	1466	1471	1472	1477	1462	1460	1457	1480	1492	1492	1490	1490	1496	1511	1516	1505	1497	1490	1494	1495	1490	1474	1454	1447	1443	1439	1447	1455	1468	1468	1471	1475	1476	1485	1492	1497	1472	1473	1472	1464	1466	1458	1454	1455	1454	1458	1459	1464	1473	1482	1466	1452	1449	1461	1465	1481	1488	1480	1461	1440	1433	1425	1419	1420	1418	1424	1421	1419	1411	1414	1434	1454	1474	1480	1476	1472	1458	1440	1444	1438	1437	1438	1450	1457	1466	1468	1465	1459	1446	1429	1424	1411	1392	1377	1364	1360	1314	1122	1102	1091	1088	1086	1079	1074	1074	1079	1077	1077	1078	1075	1066	1064	1057	1051	1042	1040	1030	1037	1035	1079	1086	1100	1099	1097	1088	1072	1077	1086	1096	1091	1084	1086	1091	1091	1095	1092	1093	1096	1110	0	0	0	1257	1318	1434	1491	1491	1501	1506	1510	1507	1509	1503	1488	1484	1483	1491	1490	1480	1471	1473	1480	1492	1484	1472	1462	1454	1453	1452	1451	1460	1483	1494	1499	1492	1490	1489	1494	1484	1470	1459	1448	1450	1446	1445	1438	1436	1439	1436	1430	1432	1440	1440	1430	1422	1427	1431	1434	1452	1478	1482	1478	1463	1453	1448	1444	1423	1412	1409	1414	1415	1411	1487	1488	1498	1502	1530	1530	1507	1473	1467	1455	1435	1414	1420	1433	1463	1479	1487	1480	1465	1452	1434	1462	1484	1487	1487	1493	1497	1506	1506	1499	1488	1492	1496	1499	1494	1478	1455	1450	1474	1499	1514	1522	1520	1513	1505	1501	1482	1461	1444	1436	1443	1448	1454	1462	1472	1481	1473	1490	1496	1484	1474	1473	1467	1446	0	0	0	0	0	0	0	0	0	0	0	0	0	1029	1035	0	0	1039	1025	1015	1005	1001	999	994	994	1000	1008	988	1001	1004	1009	1012	1017	1027	1041	1053	1051	1047	1037	1035	1029	1037	1039	1040	1029	0	0	0	0	1014	1015	1037	1093	1137	1294	1331	1347	1372	1392	1413	1439	1438	1425	1410	1393	1393	1407	1404	1411	1433	1482	1504	1496	1473	1452	1438	1431	1432	1426	1429	1440	1438	1445	1463	1487	1492	1474	1458	1450	1455	1462	1459	1457	1464	1459	1459	1441	1429	1411	1414	1433	1451	1463	1478	1468	1464	1463	1469	1470	1459	1452	1456	1472	1483	1493	1489	1483	1477	1474	1464	1462	1466	1477	1484	1500	1507	1499	1479	1457	1462	1474	1489	1497	1504	1504	1506	1494	1482	1459	1442	1423	1415	1418	1425	1435	1446	1470	1498	1503	1492	1479	1470	1468	1474	1478	1474	1466	1459	1450	1448	1447	1444	1455	1484	1492	1503	1509	1510	1502	1484	1468	1466	1467	1480	1483	1483	1470	1463	1451	1455	1447	1442	1440	1449	1450	1447	1454	1464	1481	1496	1489	1485	1487	1488	1483	1476	1468	1463	1455	1442	1428	1433	1445	1454	1460	1464	1461	1463	1463	1463	1467	1464	1461	1459	1453	1449	1437	1431	1425	1418	1419	1423	1428	1428	1436	1458	1467	1469	1465	1459	0	0	0	0	0	0	0
0	0	0	0	0	0	0	0	0	0	0	0	0	0	0	0	0	0	0	0	0	0	0	0	0	0	0	0	0	0	0	0	0	0	0	0	0	0	0	0	0	0	0	0	0	0	0	0	0	0	0	0	0	0	0	0	0	0	0	0	0	0	0	0	0	0	0	0	0	0	0	0	0	0	0	0	0	0	0	0	0	0	0	0	0	0	0	0	0	0	0	0	0	1450	1445	1462	1480	1496	1498	1485	1460	1448	1457	1462	1467	1466	1462	1456	1456	1446	1436	1421	1427	1468	1476	1469	1455	1448	1451	1443	1438	1446	1463	1475	1473	1466	1465	1459	1475	1480	1484	1478	1448	1447	1448	1467	1487	1484	1485	1490	1508	1521	1522	1507	1500	1504	1505	1499	1471	1465	1458	1450	1443	1444	1449	1456	1464	1468	1475	1482	1487	1493	1486	1484	1474	1467	1469	1464	1468	1469	1467	1471	1471	1477	1485	1477	1468	1460	1454	1451	1450	1464	1506	1526	1509	1484	1461	1450	1452	1458	1465	1470	1475	1479	1473	1458	1447	1448	1452	1461	1455	1464	1468	1458	1448	1460	1457	1448	1451	1457	1462	1470	1473	1464	1449	1436	1428	1414	1401	1366	1305	1224	1191	1149	1078	1064	1062	1071	1067	1061	1056	1060	1069	1060	1052	1047	1035	1025	1020	1019	1012	1011	1014	1019	1022	1021	1026	1036	1080	1092	1094	1080	1072	1072	1082	1084	1074	1065	1066	1073	1075	1080	1094	1100	1107	0	0	0	0	0	1324	1421	1480	1487	1486	1493	1497	1493	1501	1497	1482	1481	1486	1487	1484	1476	1473	1471	1476	1472	1476	1476	1472	1464	1458	1452	1450	1462	1477	1497	1505	1505	1498	1491	1485	1481	1472	1465	1457	1452	1450	1453	1466	1480	1495	1496	1493	1491	1486	1479	1481	1492	1488	1496	1510	1516	1511	1502	1492	1473	1472	1486	1504	1507	1499	1476	1458	1453	1478	1500	1496	1498	1500	1510	1517	1511	1501	1489	1489	1489	1487	1478	1459	1449	1469	1492	1505	1500	1491	1483	1493	1498	1500	1498	1496	1497	1494	1489	1484	1488	1487	1489	1494	1488	1471	1452	1451	1467	1482	1508	1520	1515	1507	1504	1502	1486	1467	1449	1443	1444	1442	1446	1449	1463	1461	1458	1473	1482	1483	1478	1474	1468	1467	0	0	0	0	0	0	0	0	0	0	0	0	0	0	0	0	0	0	1027	1017	1012	1009	999	1000	989	981	973	963	982	991	1002	1008	1012	1014	1024	1035	1040	1033	1021	1014	1015	0	0	0	0	0	0	0	0	0	0	993	1025	1066	1096	1150	1255	1340	1377	1422	1426	1421	1416	1423	1429	1441	1458	1444	1432	1441	1455	1469	1484	1485	1481	1467	1462	1460	1467	1476	1481	1479	1460	1468	1479	1488	1493	1482	1476	1481	1483	1484	1482	1485	1493	1492	1488	1460	1457	1463	1468	1480	1498	1494	1479	1468	1461	1466	1468	1462	1449	1448	1476	1484	1486	1482	1478	1474	1465	1462	1463	1472	1487	1497	1507	1500	1491	1479	1459	1465	1475	1486	1498	1506	1507	1502	1492	1478	1465	1451	1435	1436	1436	1441	1442	1453	1466	1482	1497	1490	1473	1468	1463	1470	1481	1481	1467	1449	1444	1446	1447	1444	1447	1469	1477	1489	1497	1501	1502	1496	1478	1473	1485	1490	1498	1492	1483	1461	1440	1445	1441	1443	1460	1465	1469	1468	1465	1477	1501	1515	1514	1495	1488	1483	1472	1459	1458	1458	1453	1446	1438	1442	1446	1447	1451	1454	1459	1459	1461	1465	1467	1465	1464	1456	1454	1445	1436	1432	1428	1428	1426	1426	1425	1425	1421	1431	1440	1450	1453	1457	0	0	0	0	0	0	0
0	0	0	0	0	0	0	0	0	0	0	0	0	0	0	0	0	0	0	0	0	0	0	0	0	0	0	0	0	0	0	0	0	0	0	0	0	0	0	0	0	0	0	0	0	0	0	0	0	0	0	0	0	0	0	0	0	0	0	0	0	0	0	0	0	0	0	0	0	0	0	0	0	0	0	0	0	0	0	0	0	0	0	0	0	0	0	0	0	0	0	0	0	1431	1453	1475	1496	1506	1498	1483	1464	1454	1459	1469	1479	1478	1473	1470	1471	1471	1457	1428	1445	1456	1469	1466	1450	1448	1457	1456	1457	1449	1468	1480	1479	1475	1470	1458	1476	1479	1481	1471	1444	1442	1444	1463	1471	1475	1480	1489	1501	1514	1517	1505	1491	1496	1496	1475	1475	1466	1463	1455	1443	1439	1443	1446	1444	1461	1470	1478	1490	1496	1490	1484	1473	1470	1472	1473	1483	1480	1475	1473	1482	1492	1497	1487	1478	1465	1456	1450	1442	1456	1487	1511	1494	1476	1462	1453	1461	1460	1472	1480	1487	1485	1479	1467	1452	1453	1455	1461	1452	1454	1466	1462	1455	1468	1458	1450	1451	1457	1473	1469	1466	1451	1440	1428	1406	1348	1278	1217	1161	1133	1123	1106	1063	1057	1053	1056	1053	1047	1048	1058	1055	1049	1036	1024	1004	992	980	974	977	999	1009	1014	1020	1018	1018	1021	1032	1036	1067	1061	1057	1059	1068	1068	1062	1045	1053	1058	1063	1076	1088	1104	0	0	0	0	0	0	1339	1427	1475	1477	1479	1484	1484	1483	1491	1496	1491	1482	1477	1479	1480	1476	1473	1472	1469	1467	1465	1475	1476	1473	1457	1445	1448	1455	1468	1489	1502	1503	1493	1482	1480	1477	1468	1462	1453	1446	1449	1454	1465	1481	1502	1504	1506	1500	1487	1472	1463	1472	1486	1507	1517	1515	1510	1500	1485	1462	1469	1480	1500	1511	1504	1484	1470	1454	1475	1492	1496	1497	1500	1502	1507	1501	1494	1484	1498	1503	1493	1477	1452	1435	1455	1472	1495	1500	1491	1481	1491	1506	1520	1512	1507	1496	1486	1478	1478	1479	1486	1489	1491	1485	1468	1452	1456	1473	1500	1510	1504	1499	1498	1501	1501	1489	1481	1461	1451	1450	1449	1451	1458	1472	1467	1460	1458	1474	1488	1475	1465	1459	1477	0	0	0	0	0	0	0	0	0	0	0	0	0	0	0	0	0	0	0	0	0	0	0	0	0	0	0	0	968	987	1002	1007	1007	1010	1016	1020	1021	1009	1004	1003	1009	0	0	0	0	0	0	0	0	0	0	0	1006	1032	1061	1074	1072	1067	1102	1181	1350	1403	1412	1435	1449	1461	1479	1464	1465	1445	1447	1460	1472	1478	1479	1470	1463	1468	1471	1480	1484	1476	1454	1458	1470	1479	1486	1483	1483	1485	1483	1486	1484	1486	1498	1499	1495	1476	1464	1468	1475	1492	1506	1502	1485	1468	1464	1466	1467	1460	1447	1459	1478	1485	1486	1483	1473	1468	1459	1458	1465	1483	1499	1502	1494	1492	1483	1472	1458	1466	1478	1487	1499	1498	1481	1469	1467	1468	1465	1458	1449	1452	1450	1454	1458	1462	1460	1474	1489	1485	1471	1465	1463	1468	1482	1480	1470	1449	1440	1446	1454	1458	1448	1447	1455	1472	1482	1492	1502	1501	1499	1505	1498	1499	1500	1493	1478	1455	1436	1428	1426	1447	1464	1474	1477	1473	1475	1483	1507	1523	1523	1505	1493	1484	1470	1458	1453	1451	1446	1445	1444	1446	1451	1447	1445	1445	1452	1452	1456	1458	1458	1460	1464	1459	1458	1441	1435	1430	1424	1430	1431	1431	1423	1423	1418	1429	1444	1454	1450	1452	0	0	0	0	0	0	0
0	0	0	0	0	0	0	0	0	0	0	0	0	0	0	0	0	0	0	0	0	0	0	0	0	0	0	0	0	0	0	0	0	0	0	0	0	0	0	0	0	0	0	0	0	0	0	0	0	0	0	0	0	0	0	0	0	0	0	0	0	0	0	0	0	0	0	0	0	0	0	0	0	0	0	0	0	0	0	0	0	0	0	0	0	0	0	0	0	0	0	0	0	1431	1453	1469	1489	1497	1498	1490	1478	1469	1472	1478	1486	1486	1475	1467	1475	1490	1484	1466	1451	1452	1449	1447	1436	1443	1462	1466	1464	1463	1468	1478	1480	1476	1467	1463	1466	1473	1466	1456	1434	1437	1440	1452	1459	1462	1474	1469	1478	1491	1494	1479	1472	1461	1458	1469	1471	1472	1467	1451	1444	1451	1451	1448	1445	1451	1463	1483	1496	1496	1493	1481	1461	1467	1472	1486	1483	1488	1478	1476	1487	1499	1511	1500	1484	1469	1467	1454	1445	1460	1487	1494	1477	1460	1450	1449	1455	1467	1468	1477	1486	1488	1481	1472	1462	1456	1459	1464	1465	1466	1481	1493	1496	1483	1474	1455	1459	1472	1471	1456	1444	1422	1395	1346	1289	1238	1201	1169	1140	1125	1115	1111	1109	0	1057	1043	1033	1031	1039	1045	1041	1036	1026	1014	990	960	942	940	959	987	1002	1010	1016	1023	1019	1020	1021	1022	1012	1004	1032	1042	1053	1057	1046	1040	1043	1051	1062	1074	0	0	0	0	0	0	0	1358	1441	1469	1471	1473	1475	1479	1477	1476	1477	1491	1490	1487	1482	1478	1475	1472	1475	1474	1461	1453	1457	1471	1482	1480	1465	1444	1440	1442	1462	1477	1493	1495	1485	1477	1473	1472	1468	1459	1450	1450	1455	1462	1483	1493	1509	1513	1511	1503	1488	1467	1451	1457	1481	1503	1508	1508	1498	1493	1492	1482	1490	1488	1475	1455	1444	1443	1451	1463	1474	1479	1473	1477	1485	1479	1466	1472	1484	1501	1505	1501	1487	1464	1443	1432	1435	1452	1477	1475	1482	1485	1497	1528	1539	1530	1514	1493	1478	1476	1478	1487	1495	1493	1487	1481	1471	1459	1465	1480	1500	1508	1493	1489	1494	1504	1503	1500	1492	1477	1467	1469	1465	1466	1479	1483	1470	1454	1451	1490	1491	1479	1463	1459	1464	1467	0	0	0	0	0	0	0	0	0	0	0	0	0	0	0	0	0	0	0	0	0	0	0	0	0	0	0	0	0	0	0	0	0	0	1002	995	991	989	992	1004	0	0	0	0	0	0	0	0	0	0	0	0	0	1053	1054	1041	1027	1035	1045	1084	1203	1270	1379	1435	1449	1479	1485	1474	1458	1454	1457	1461	1475	1477	1477	1475	1473	1487	1488	1483	1470	1457	1461	1474	1475	1485	1486	1483	1489	1485	1484	1478	1482	1484	1483	1472	1461	1467	1472	1479	1489	1499	1496	1479	1463	1456	1464	1474	1463	1450	1460	1477	1487	1487	1477	1472	1468	1457	1460	1476	1495	1502	1498	1490	1481	1475	1455	1437	1462	1485	1498	1496	1479	1459	1439	1437	1448	1455	1457	1464	1468	1473	1477	1479	1472	1466	1473	1478	1481	1474	1469	1465	1467	1470	1474	1460	1448	1444	1453	1474	1480	1466	1461	1458	1465	1478	1486	1488	1505	1503	1499	1496	1500	1497	1493	1476	1453	1425	1418	1427	1446	1459	1467	1476	1476	1479	1485	1505	1514	1514	1500	1494	1489	1475	1463	1458	1454	1449	1447	1450	1450	1457	1459	1454	1449	1442	1442	1445	1452	1455	1454	1453	1459	1453	1443	1423	1418	1414	1421	1428	1427	1427	1426	1428	1441	1452	1461	1452	1449	0	0	0	0	0	0	0
0	0	0	0	0	0	0	0	0	0	0	0	0	0	0	0	0	0	0	0	0	0	0	0	0	0	0	0	0	0	0	0	0	0	0	0	0	0	0	0	0	0	0	0	0	0	0	0	0	0	0	0	0	0	0	0	0	0	0	0	0	0	0	0	0	0	0	0	0	0	0	0	0	0	0	0	0	0	0	0	0	0	0	0	0	0	0	0	0	0	0	0	0	1438	1449	1455	1470	1484	1500	1494	1481	1477	1483	1494	1495	1493	1471	1462	1469	1482	1486	1474	1459	1449	1443	1434	1430	1439	1465	1475	1475	1470	1469	1473	1473	1466	1465	1463	1468	1469	1461	1450	1438	1442	1445	1453	1453	1456	1456	1461	1469	1485	1487	1464	1452	1435	1441	1455	1470	1481	1474	1459	1459	1455	1461	1466	1466	1466	1471	1486	1496	1504	1495	1477	1455	1464	1473	1487	1495	1493	1482	1479	1485	1499	1501	1492	1478	1477	1477	1463	1459	1468	1486	1484	1464	1449	1448	1447	1458	1469	1478	1482	1483	1482	1477	1477	1487	1488	1489	1490	1491	1498	1501	1505	1505	1495	1488	1473	1467	1469	1462	1435	1399	1324	1262	1244	1233	1222	1193	1167	1150	0	0	0	0	0	1049	1021	1009	1013	1017	1018	1024	1031	1033	1020	988	961	942	939	953	973	987	998	1022	0	0	0	0	1013	1001	0	0	1005	1037	1035	1041	1026	1030	1043	0	0	0	0	0	0	0	0	1358	1445	1461	1467	1472	1474	1481	1480	1479	1484	1486	1487	1485	1486	1493	1491	1480	1468	1456	1458	1461	1463	1484	1499	1516	1518	1514	1505	1506	1495	1499	1495	1505	1511	1509	1501	1490	1481	1489	1496	1486	1478	1466	1478	1477	1495	1503	1492	1471	1484	1472	1458	1448	1451	1479	1497	1495	1491	1490	1493	1498	1502	1498	1497	1476	1450	1443	1450	1462	1478	1486	1491	1491	1481	1476	1476	1483	1485	1494	1499	1505	1500	1488	1479	1462	1448	1439	1439	1452	1460	1473	1486	1507	1528	1537	1537	1518	1496	1483	1478	1493	1501	1500	1487	1476	1470	1473	1470	1475	1487	1489	1489	1487	1486	1490	1498	1493	1501	1492	1489	1494	1488	1487	1485	1475	1472	1461	1452	1454	1500	1501	1491	1475	1460	1460	1500	0	0	0	0	0	0	0	0	0	0	0	0	0	0	0	0	0	0	0	0	0	0	0	0	0	0	0	0	0	0	0	0	0	0	0	0	0	0	0	0	0	0	0	0	0	0	0	0	0	0	0	0	0	1045	1029	1012	999	989	996	1014	1037	1077	1120	1296	1383	1450	1463	1462	1458	1460	1459	1469	1476	1486	1489	1479	1478	1492	1496	1494	1473	1474	1480	1482	1489	1484	1481	1483	1486	1487	1475	1468	1471	1469	1461	1444	1450	1455	1463	1470	1475	1482	1477	1462	1455	1452	1466	1471	1469	1460	1466	1472	1480	1483	1471	1460	1463	1459	1470	1485	1497	1505	1503	1491	1469	1462	1437	1440	1458	1481	1495	1497	1473	1453	1436	1429	1438	1455	1470	1475	1484	1489	1495	1491	1481	1472	1467	1471	1472	1471	1473	1472	1469	1466	1458	1458	1452	1449	1465	1484	1494	1487	1482	1475	1471	1478	1479	1490	1488	1487	1486	1484	1484	1484	1489	1475	1457	1436	1415	1424	1440	1455	1466	1470	1474	1477	1487	1491	1490	1484	1476	1472	1476	1478	1474	1469	1462	1454	1458	1460	1469	1477	1476	1468	1448	1441	1441	1437	1447	1451	1452	1451	1446	1441	1430	1412	1411	1409	1415	1426	1434	1434	1437	1433	1447	1456	1451	1453	1427	0	0	0	0	0	0	0
0	0	0	0	0	0	0	0	0	0	0	0	0	0	0	0	0	0	0	0	0	0	0	0	0	0	0	0	0	0	0	0	0	0	0	0	0	0	0	0	0	0	0	0	0	0	0	0	0	0	0	0	0	0	0	0	0	0	0	0	0	0	0	0	0	0	0	0	0	0	0	0	0	0	0	0	0	0	0	0	0	0	0	0	0	0	0	0	0	0	0	0	0	1460	1436	1447	1456	1471	1464	1466	1469	1479	1492	1501	1515	1512	1481	1473	1475	1478	1479	1468	1461	1454	1454	1452	1456	1455	1467	1472	1473	1484	1493	1483	1473	1468	1478	1476	1477	1473	1472	1471	1467	1472	1473	1476	1471	1465	1455	1460	1468	1478	1483	1460	1451	1430	1450	1458	1472	1480	1483	1471	1463	1465	1477	1485	1491	1480	1477	1478	1492	1502	1490	1470	1443	1457	1473	1494	1500	1494	1488	1482	1484	1488	1477	1470	1469	1482	1489	1476	1463	1476	1489	1489	1472	1463	1458	1454	1460	1467	1472	1475	1471	1471	1476	1484	1508	1491	1490	1498	1500	1504	1505	1503	1496	1494	1488	1481	1465	1391	1313	1278	1263	1237	1228	1226	1219	1211	1197	1176	1160	0	0	0	0	0	1018	1005	998	988	986	994	0	0	1025	1020	1003	975	957	950	950	955	967	980	1010	0	0	0	0	1009	995	0	0	0	0	0	1022	1023	0	0	0	0	0	0	0	0	0	1347	1434	1460	1465	1472	1467	1478	1480	1486	1478	1487	1488	1485	1485	1491	1495	1491	1485	1473	1462	1457	1463	1469	1480	1494	1502	1500	1501	1505	1510	1508	1505	1507	1508	1508	1510	1503	1498	1489	1488	1496	1489	1471	1468	1469	1482	1496	1503	1481	1471	1460	1464	1459	1453	1456	1476	1486	1486	1482	1484	1490	1497	1507	1510	1491	1472	1447	1448	1470	1484	1492	1497	1495	1500	1498	1494	1491	1496	1494	1504	1505	1500	1492	1487	1498	1492	1490	1463	1452	1432	1443	1463	1486	1507	1518	1525	1522	1511	1502	1494	1493	1495	1492	1490	1477	1467	1469	1474	1490	1503	1503	1494	1471	1467	1470	1480	1486	1484	1495	1494	1497	1500	1499	1496	1485	1480	1474	1463	1457	1465	1496	1499	1494	1480	1469	1459	1484	1519	0	0	0	0	0	0	0	0	0	0	0	0	0	0	0	0	0	0	0	947	948	945	934	924	916	0	0	0	962	962	969	0	0	0	0	0	0	0	0	0	0	0	0	0	0	0	0	0	0	1005	1008	1017	1007	984	978	972	969	975	978	988	1013	1041	1078	1196	1371	1417	1439	1451	1457	1467	1476	1486	1493	1493	1490	1494	1498	1499	1500	1498	1501	1502	1500	1500	1488	1472	1474	1473	1471	1464	1457	1463	1457	1453	1442	1443	1448	1449	1453	1456	1466	1466	1466	1460	1466	1477	1493	1493	1480	1467	1467	1473	1473	1472	1468	1461	1464	1459	1471	1483	1498	1501	1496	1483	1469	1437	1441	1453	1480	1495	1498	1477	1453	1437	1428	1442	1462	1472	1481	1486	1490	1494	1499	1488	1479	1465	1461	1460	1468	1472	1471	1470	1458	1452	1445	1449	1458	1473	1482	1487	1489	1484	1482	1478	1480	1484	1484	1472	1465	1465	1460	1466	1464	1471	1469	1463	1449	1422	1423	1435	1449	1460	1469	1477	1480	1478	1475	1464	1453	1444	1449	1457	1466	1467	1471	1470	1468	1470	1471	1482	1486	1494	1485	1457	1435	1435	1438	1446	1456	1456	1454	1442	1429	1411	1402	1401	1397	1408	1426	1441	1441	1443	1442	1447	1454	1459	1446	1428	0	0	0	0	0	0	0
0	0	0	0	0	0	0	0	0	0	0	0	0	0	0	0	0	0	0	0	0	0	0	0	0	0	0	0	0	0	0	0	0	0	0	0	0	0	0	0	0	0	0	0	0	0	0	0	0	0	0	0	0	0	0	0	0	0	0	0	0	0	0	0	0	0	0	0	0	0	0	0	0	0	0	0	0	0	0	0	0	0	0	0	0	0	0	0	0	0	0	0	0	1468	1433	1433	1442	1439	1439	1443	1448	1462	1479	1495	1512	1521	1496	1482	1478	1481	1480	1471	1460	1455	1458	1456	1462	1461	1467	1465	1466	1474	1477	1477	1477	1482	1492	1490	1480	1477	1475	1479	1476	1475	1475	1472	1472	1459	1443	1436	1452	1477	1481	1475	1469	1471	1479	1488	1490	1483	1482	1478	1472	1473	1485	1495	1488	1478	1460	1466	1474	1484	1481	1463	1448	1456	1480	1498	1500	1487	1487	1489	1479	1475	1457	1455	1465	1480	1502	1479	1471	1478	1485	1489	1482	1477	1473	1468	1464	1456	1457	1460	1457	1463	1471	1484	1483	1488	1484	1495	1493	1494	1490	1491	1488	1484	1477	1437	1249	1211	1199	1208	1206	1205	1200	1200	1196	1192	1180	1175	0	0	0	0	0	0	997	985	987	970	967	965	976	995	998	999	996	972	964	955	954	950	948	962	990	1013	0	1015	997	990	993	0	0	0	0	0	0	0	0	0	0	0	0	0	0	0	1383	1430	1454	1468	1475	1474	1475	1478	1483	1484	1493	1500	1494	1488	1492	1497	1494	1493	1489	1481	1480	1476	1476	1478	1485	1486	1489	1489	1492	1501	1515	1518	1515	1512	1510	1508	1504	1500	1496	1493	1493	1485	1486	1487	1487	1487	1492	1499	1498	1481	1477	1471	1454	1462	1459	1463	1479	1483	1481	1476	1472	1481	1486	1499	1503	1492	1468	1459	1466	1483	1493	1492	1488	1490	1498	1507	1510	1502	1501	1498	1504	1505	1494	1483	1489	1502	1509	1498	1478	1453	1439	1445	1464	1488	1504	1508	1509	1507	1497	1476	1487	1485	1487	1489	1483	1477	1472	1483	1496	1510	1515	1514	1491	1459	1448	1456	1468	1478	1481	1485	1488	1496	1496	1497	1488	1477	1477	1462	1468	1476	1493	1491	1487	1485	1483	1471	1461	1460	1480	1528	0	0	0	0	0	0	0	0	0	0	0	0	0	0	0	0	947	931	924	926	926	927	923	920	903	913	926	937	947	955	951	934	915	913	934	951	961	0	0	977	953	939	944	949	956	966	976	971	970	957	952	958	957	955	956	958	965	963	960	970	985	1001	1019	1127	1197	1359	1412	1442	1462	1479	1487	1496	1495	1491	1487	1499	1493	1491	1495	1502	1505	1503	1496	1485	1460	1448	1454	1449	1454	1452	1466	1464	1467	1471	1463	1455	1444	1444	1446	1454	1457	1471	1478	1482	1502	1518	1508	1486	1466	1468	1471	1480	1486	1483	1478	1461	1449	1453	1465	1485	1503	1510	1502	1477	1445	1442	1454	1472	1491	1481	1474	1456	1429	1430	1447	1465	1474	1480	1474	1470	1463	1470	1492	1504	1498	1488	1481	1465	1460	1460	1457	1445	1443	1449	1458	1469	1473	1470	1463	1463	1483	1479	1471	1463	1466	1452	1436	1445	1442	1451	1452	1446	1444	1447	1455	1454	1441	1431	1442	1459	1460	1468	1476	1475	1469	1460	1447	1432	1427	1431	1441	1444	1446	1450	1464	1466	1472	1474	1479	1490	1498	1493	1467	1467	1440	1433	1449	1464	1468	1465	1448	1429	1410	1394	1393	1398	1411	1430	1444	1444	1450	1447	1440	1459	1465	1459	1431	0	0	0	0	0	0	0
0	0	0	0	0	0	0	0	0	0	0	0	0	0	0	0	0	0	0	0	0	0	0	0	0	0	0	0	0	0	0	0	0	0	0	0	0	0	0	0	0	0	0	0	0	0	0	0	0	0	0	0	0	0	0	0	0	0	0	0	0	0	0	0	0	0	0	0	0	0	0	0	0	0	0	0	0	0	0	0	0	0	0	0	0	0	0	0	0	0	0	0	0	1450	1425	1429	1438	1440	1430	1433	1438	1460	1470	1485	1513	1516	1507	1490	1481	1479	1470	1462	1454	1450	1454	1459	1465	1470	1475	1463	1459	1456	1463	1468	1482	1502	1509	1499	1488	1481	1479	1482	1473	1466	1462	1458	1454	1447	1426	1420	1435	1465	1469	1467	1458	1461	1463	1467	1474	1462	1462	1467	1479	1486	1490	1483	1487	1465	1443	1447	1453	1469	1477	1470	1464	1473	1478	1487	1481	1475	1479	1490	1489	1477	1454	1454	1465	1477	1484	1473	1461	1470	1481	1490	1486	1480	1471	1473	1473	1463	1450	1445	1446	1466	1481	1493	1497	1493	1489	1485	1481	1479	1481	1475	1452	1366	1223	1208	1146	1146	1145	1147	1156	1160	1164	1157	1152	1151	1146	0	0	0	0	0	0	984	975	972	974	967	959	954	947	951	963	968	963	957	954	956	956	952	947	960	983	998	1004	990	978	980	992	0	0	0	0	0	0	0	0	0	0	0	0	0	0	0	1443	1432	1449	1463	1472	1467	1477	1484	1492	1502	1505	1507	1504	1495	1491	1493	1490	1492	1490	1504	1480	1469	1453	1467	1479	1483	1482	1479	1482	1497	1515	1523	1524	1521	1514	1507	1496	1497	1494	1497	1497	1484	1475	1469	1473	1480	1480	1483	1495	1483	1480	1473	1460	1445	1448	1464	1480	1489	1491	1480	1473	1467	1476	1482	1487	1485	1474	1467	1473	1493	1495	1488	1469	1471	1494	1506	1514	1506	1501	1497	1494	1489	1476	1474	1486	1506	1518	1508	1497	1468	1460	1464	1475	1489	1486	1485	1499	1493	1473	1463	1461	1474	1479	1486	1489	1486	1485	1487	1501	1506	1510	1504	1484	1460	1439	1450	1458	1475	1483	1482	1483	1480	1475	1479	1478	1476	1471	1469	1475	1485	1502	1497	1485	1482	1483	1475	1467	1472	1473	1476	1516	0	0	0	0	0	0	0	0	0	0	0	0	0	0	948	932	921	911	915	924	934	943	915	898	896	908	921	932	933	929	910	905	911	931	938	949	946	953	939	928	922	923	922	934	944	949	949	941	933	936	936	943	944	947	950	949	949	937	933	941	954	984	992	1010	1076	1115	1257	1367	1402	1436	1464	1479	1477	1478	1480	1480	1480	1473	1489	1493	1495	1491	1472	1443	1427	1431	1444	1445	1463	1476	1476	1483	1485	1479	1466	1454	1442	1441	1449	1469	1481	1493	1501	1511	1515	1508	1482	1462	1455	1463	1483	1500	1498	1488	1468	1453	1445	1457	1464	1481	1487	1489	1481	1469	1474	1479	1479	1471	1467	1460	1451	1440	1441	1450	1455	1472	1471	1477	1466	1456	1464	1487	1495	1492	1478	1472	1455	1449	1449	1460	1452	1450	1457	1458	1464	1475	1481	1478	1475	1487	1480	1469	1448	1438	1427	1415	1409	1419	1436	1450	1454	1444	1439	1441	1441	1449	1455	1474	1479	1477	1469	1464	1465	1466	1446	1444	1429	1424	1426	1433	1431	1428	1432	1447	1460	1468	1471	1475	1481	1486	1482	1469	1469	1444	1441	1452	1470	1480	1479	1460	1440	1429	1409	1400	1407	1423	1437	1449	1449	1442	1439	1447	1459	1467	1472	1430	0	0	0	0	0	0	0
0	0	0	0	0	0	0	0	0	0	0	0	0	0	0	0	0	0	0	0	0	0	0	0	0	0	0	0	0	0	0	0	0	0	0	0	0	0	0	0	0	0	0	0	0	0	0	0	0	0	0	0	0	0	0	0	0	0	0	0	0	0	0	0	0	0	0	0	0	0	0	0	0	0	0	0	0	0	0	0	0	0	0	0	0	0	0	0	0	0	0	0	0	1418	1415	1419	1436	1436	1430	1437	1442	1452	1472	1484	1507	1513	1499	1488	1478	1466	1439	1455	1454	1448	1453	1463	1474	1479	1479	1466	1461	1453	1455	1463	1488	1514	1520	1507	1490	1477	1473	1476	1461	1448	1439	1434	1441	1435	1427	1423	1445	1454	1457	1454	1451	1449	1449	1455	1462	1443	1454	1463	1474	1482	1479	1471	1458	1440	1427	1427	1435	1456	1475	1483	1483	1473	1466	1465	1458	1466	1476	1486	1485	1479	1474	1470	1470	1472	1466	1453	1458	1461	1479	1488	1485	1471	1463	1460	1468	1454	1442	1435	1440	1468	1481	1490	1494	1484	1477	1454	1445	1432	1419	1289	1217	1107	1075	1076	1080	1088	1089	1104	1118	1124	1120	1124	1106	1101	1097	0	0	0	0	0	984	964	961	967	975	976	962	945	933	929	936	939	939	934	943	952	955	952	951	964	978	993	995	980	969	975	1000	0	0	0	0	0	0	0	0	0	0	0	0	0	0	0	1457	1448	1448	1461	1466	1464	1472	1487	1499	1507	1507	1504	1499	1495	1490	1489	1481	1473	1475	1534	1558	1507	1495	1471	1497	1500	1492	1479	1482	1494	1514	1525	1529	1524	1519	1507	1498	1492	1491	1511	1520	1520	1503	1481	1479	1482	1491	1479	1473	1483	1485	1481	1468	1459	1475	1490	1497	1497	1492	1483	1475	1468	1465	1474	1481	1482	1474	1472	1478	1481	1479	1471	1466	1477	1483	1495	1497	1495	1491	1492	1484	1465	1460	1473	1482	1503	1520	1519	1503	1490	1483	1492	1493	1493	1483	1475	1472	1471	1459	1449	1461	1475	1485	1490	1494	1498	1496	1491	1493	1492	1492	1489	1471	1450	1437	1443	1457	1474	1486	1493	1489	1462	1455	1458	1465	1475	1481	1482	1488	1507	1509	1501	1498	1494	1501	1497	1487	1480	1474	1475	1490	1495	0	0	0	0	0	0	0	0	0	0	0	0	0	930	914	906	903	903	910	925	947	930	905	892	907	920	921	912	903	892	903	911	925	928	919	916	919	913	903	898	898	897	903	918	916	919	915	914	913	913	916	922	931	935	940	934	917	908	908	919	938	950	967	981	1000	1071	1142	1230	1302	1381	1415	1447	1456	1466	1476	1478	1481	1488	1490	1490	1477	1460	1435	1420	1429	1440	1456	1477	1490	1493	1490	1498	1491	1477	1461	1457	1452	1466	1482	1485	1487	1495	1501	1502	1484	1464	1456	1455	1465	1485	1494	1496	1492	1478	1465	1454	1453	1450	1462	1463	1469	1464	1477	1485	1485	1472	1457	1438	1442	1446	1450	1453	1455	1457	1461	1461	1464	1465	1454	1459	1471	1486	1481	1473	1460	1441	1430	1443	1461	1473	1475	1473	1472	1471	1476	1483	1483	1482	1485	1482	1458	1431	1422	1420	1402	1407	1420	1436	1458	1473	1486	1488	1474	1463	1457	1460	1463	1481	1483	1481	1466	1462	1462	1462	1461	1453	1439	1435	1437	1428	1421	1426	1436	1451	1462	1462	1467	1467	1472	1464	1449	1449	1439	1441	1454	1466	1476	1468	1459	1449	1444	1440	1421	1422	1431	1444	1437	1437	1430	1425	1436	1457	1467	1470	1428	0	0	0	0	0	0	0
0	0	0	0	0	0	0	0	0	0	0	0	0	0	0	0	0	0	0	0	0	0	0	0	0	0	0	0	0	0	0	0	0	0	0	0	0	0	0	0	0	0	0	0	0	0	0	0	0	0	0	0	0	0	0	0	0	0	0	0	0	0	0	0	0	0	0	0	0	0	0	0	0	0	0	0	0	0	0	0	0	0	0	0	0	0	0	0	0	0	0	0	0	1401	1416	1420	1431	1442	1452	1456	1460	1462	1470	1494	1511	1502	1488	1478	1472	1436	1427	1430	1463	1460	1464	1476	1488	1489	1488	1476	1467	1457	1456	1464	1488	1517	1529	1511	1485	1473	1465	1460	1444	1431	1421	1422	1426	1432	1433	1443	1455	1455	1451	1442	1442	1443	1449	1461	1460	1445	1459	1458	1458	1459	1454	1448	1439	1429	1432	1437	1454	1469	1487	1507	1511	1497	1479	1467	1453	1466	1473	1477	1483	1483	1476	1478	1471	1462	1447	1459	1462	1468	1479	1484	1485	1469	1454	1446	1458	1455	1450	1443	1439	1467	1475	1485	1481	1466	1420	1370	1351	1329	1171	1087	1081	1078	1069	1053	1043	1036	1042	1062	1090	1097	1092	1080	1069	1063	1065	1065	0	0	0	988	962	952	963	970	981	982	965	945	928	920	930	927	921	925	932	942	952	947	946	957	972	975	976	963	956	973	0	0	0	0	0	0	0	0	0	0	0	0	1333	1405	1387	1423	1443	1452	1472	1459	1464	1468	1478	1490	1500	1501	1501	1491	1487	1486	1483	1476	1471	1471	1515	1539	1534	1500	1482	1511	1524	1515	1493	1481	1482	1495	1515	1530	1529	1525	1512	1503	1494	1488	1491	1523	1528	1549	1526	1502	1481	1487	1501	1501	1468	1473	1475	1476	1474	1475	1495	1504	1509	1504	1501	1500	1495	1495	1498	1498	1497	1486	1479	1476	1478	1456	1457	1460	1460	1465	1479	1484	1485	1486	1486	1487	1499	1485	1473	1476	1492	1508	1521	1524	1516	1508	1511	1512	1510	1502	1482	1476	1475	1477	1464	1462	1479	1505	1498	1499	1501	1503	1496	1485	1487	1490	1487	1476	1466	1441	1432	1434	1458	1482	1494	1497	1483	1461	1449	1459	1485	1506	1501	1496	1493	1509	1511	1511	1516	1515	1515	1506	1490	1480	1476	1483	1485	1509	0	0	0	0	0	0	0	0	0	0	0	0	0	0	898	889	887	887	887	910	939	934	910	905	911	916	914	902	891	892	897	901	899	891	884	889	900	897	885	875	866	868	867	876	879	882	883	890	895	892	897	909	918	925	923	916	902	895	897	898	904	911	922	930	944	975	1024	1103	1183	1234	1314	1372	1432	1448	1471	1479	1487	1491	1483	1476	1468	1455	1438	1428	1435	1452	1475	1503	1516	1517	1511	1504	1494	1473	1466	1466	1466	1481	1490	1487	1481	1481	1478	1477	1473	1457	1466	1455	1469	1477	1485	1489	1487	1474	1473	1460	1448	1447	1450	1460	1466	1469	1473	1483	1482	1467	1454	1441	1445	1448	1455	1464	1471	1464	1458	1457	1458	1459	1445	1439	1459	1466	1466	1467	1461	1452	1432	1438	1464	1490	1486	1482	1473	1470	1479	1482	1484	1476	1474	1466	1447	1428	1414	1415	1406	1422	1427	1450	1471	1497	1504	1506	1492	1479	1465	1461	1451	1465	1473	1481	1475	1468	1474	1479	1501	1476	1468	1455	1446	1441	1436	1435	1442	1445	1454	1457	1468	1463	1469	1460	1447	1447	1438	1438	1447	1456	1459	1457	1451	1447	1451	1444	1447	1445	1452	1453	1438	1438	1425	1419	1433	1455	1465	1471	1427	0	0	0	0	0	0	0
0	0	0	0	0	0	0	0	0	0	0	0	0	0	0	0	0	0	0	0	0	0	0	0	0	0	0	0	0	0	0	0	0	0	0	0	0	0	0	0	0	0	0	0	0	0	0	0	0	0	0	0	0	0	0	0	0	0	0	0	0	0	0	0	0	0	0	0	0	0	0	0	0	0	0	0	0	0	0	0	0	0	0	0	0	0	0	0	0	0	0	0	0	1407	1429	1432	1436	1449	1468	1471	1477	1462	1473	1493	1507	1495	1480	1469	1463	1434	1444	1457	1477	1470	1472	1473	1489	1488	1483	1474	1466	1460	1459	1466	1484	1511	1513	1505	1486	1466	1457	1452	1437	1428	1441	1429	1428	1432	1445	1457	1467	1465	1459	1452	1444	1449	1460	1465	1471	1464	1461	1462	1442	1419	1425	1427	1426	1428	1436	1444	1462	1474	1491	1501	1489	1483	1473	1465	1470	1475	1475	1480	1476	1475	1472	1471	1464	1455	1435	1460	1481	1491	1487	1482	1477	1467	1455	1449	1456	1466	1471	1466	1452	1449	1460	1463	1449	1354	1284	1244	1128	1034	1029	1040	1059	1068	1068	1065	1053	1025	1029	1047	1072	1076	1067	1056	1049	1049	1055	1055	1052	0	0	977	959	950	963	974	983	983	972	945	927	927	930	925	916	922	927	944	940	931	930	930	942	952	943	946	951	0	0	0	0	0	0	0	0	0	0	0	0	1335	1409	1428	1456	1492	1450	1458	1474	1466	1472	1477	1477	1468	1468	1495	1497	1492	1486	1477	1474	1460	1463	1471	1488	1521	1526	1497	1496	1531	1532	1524	1495	1485	1484	1496	1520	1531	1532	1519	1502	1493	1488	1486	1494	1503	1532	1530	1510	1495	1490	1454	1482	1482	1462	1464	1467	1474	1484	1491	1496	1501	1504	1500	1509	1513	1513	1517	1514	1505	1496	1493	1487	1484	1474	1448	1449	1455	1463	1467	1472	1471	1473	1477	1484	1507	1518	1509	1490	1491	1501	1518	1529	1539	1526	1524	1527	1518	1506	1498	1494	1497	1499	1498	1493	1486	1500	1521	1514	1512	1499	1496	1476	1472	1482	1493	1491	1484	1463	1443	1440	1443	1461	1479	1492	1497	1482	1461	1449	1459	1486	1505	1505	1499	1493	1493	1494	1500	1510	1516	1506	1492	1478	1479	1483	1487	1496	1503	0	0	0	0	0	0	0	0	0	0	0	0	0	0	901	881	866	859	860	884	913	903	891	889	897	903	907	898	894	893	894	886	877	865	862	869	882	884	871	854	846	844	841	845	850	856	868	878	879	876	877	897	915	924	918	907	892	889	891	892	882	884	885	886	896	921	947	986	1031	1101	1184	1236	1285	1365	1442	1462	1477	1479	1474	1471	1458	1456	1457	1456	1463	1478	1493	1514	1523	1521	1519	1510	1494	1479	1468	1464	1476	1497	1505	1512	1496	1488	1496	1497	1483	1474	1464	1453	1457	1475	1485	1486	1478	1477	1467	1466	1459	1454	1461	1467	1476	1473	1472	1481	1474	1461	1458	1461	1464	1469	1474	1483	1480	1473	1475	1473	1483	1475	1455	1445	1447	1446	1460	1471	1474	1463	1439	1438	1468	1486	1497	1488	1470	1469	1475	1486	1484	1477	1471	1463	1450	1428	1415	1413	1422	1430	1441	1456	1463	1486	1500	1503	1495	1480	1466	1456	1457	1464	1476	1479	1480	1476	1480	1487	1493	1483	1459	1452	1446	1454	1454	1454	1455	1452	1456	1458	1461	1466	1465	1465	1446	1446	1440	1436	1436	1444	1444	1447	1454	1448	1451	1456	1464	1464	1470	1462	1462	1450	1434	1422	1436	1454	1470	1474	0	0	0	0	0	0	0	0
0	0	0	0	0	0	0	0	0	0	0	0	0	0	0	0	0	0	0	0	0	0	0	0	0	0	0	0	0	0	0	0	0	0	0	0	0	0	0	0	0	0	0	0	0	0	0	0	0	0	0	0	0	0	0	0	0	0	0	0	0	0	0	0	0	0	0	0	0	0	0	0	0	0	0	0	0	0	0	0	0	0	0	0	0	0	0	0	0	0	0	0	0	1428	1434	1435	1447	1464	1472	1482	1473	1460	1466	1483	1494	1482	1478	1468	1465	1449	1467	1480	1478	1470	1475	1475	1474	1477	1472	1468	1465	1463	1463	1463	1475	1489	1496	1488	1479	1464	1453	1449	1440	1455	1459	1448	1445	1451	1459	1473	1478	1480	1476	1469	1464	1466	1465	1468	1475	1466	1469	1471	1443	1415	1406	1415	1427	1441	1449	1457	1464	1474	1482	1494	1481	1448	1439	1447	1458	1469	1479	1479	1477	1470	1452	1445	1457	1440	1430	1454	1474	1479	1467	1468	1459	1462	1455	1449	1453	1464	1473	1470	1456	1438	1402	1341	1229	1148	1108	1071	1032	1020	1024	1035	1043	1059	1069	1074	1069	1039	1036	1051	1066	1077	1061	1056	1048	1052	1055	1056	1051	0	0	0	977	970	975	982	0	0	0	0	0	0	0	0	0	930	937	941	925	914	908	0	0	0	0	0	0	0	0	0	0	0	0	0	0	0	0	0	1359	1444	1440	1442	1472	1452	1452	1453	1461	1470	1477	1483	1478	1474	1473	1480	1497	1494	1487	1478	1465	1456	1458	1476	1501	1501	1498	1492	1506	1522	1523	1503	1489	1482	1477	1497	1519	1530	1533	1507	1502	1493	1489	1491	1497	1510	1506	1504	1499	1493	1484	1441	1457	1457	1458	1474	1478	1483	1496	1497	1493	1494	1495	1500	1507	1518	1517	1502	1498	1498	1494	1498	1493	1486	1471	1454	1453	1470	1475	1478	1469	1456	1461	1463	1481	1507	1528	1526	1514	1514	1525	1538	1553	1552	1538	1524	1526	1514	1496	1492	1497	1508	1508	1507	1504	1505	1513	1525	1520	1509	1504	1489	1469	1473	1483	1508	1506	1490	1472	1446	1436	1442	1457	1472	1489	1493	1481	1472	1461	1467	1483	1498	1506	1504	1477	1474	1470	1483	1479	1486	1486	1493	1489	1486	1489	1496	1504	1497	1491	1497	0	0	0	0	0	0	0	0	0	0	0	0	0	893	863	855	854	862	872	867	856	868	880	887	890	891	891	891	888	878	865	850	848	854	869	873	861	845	838	837	827	826	833	845	860	870	869	858	856	874	901	916	916	902	890	886	891	890	877	870	863	861	869	884	900	901	907	945	990	1038	1104	1166	1271	1436	1443	1454	1457	1454	1456	1463	1471	1479	1485	1499	1510	1511	1515	1513	1516	1511	1485	1471	1461	1472	1481	1482	1492	1494	1498	1499	1502	1507	1489	1479	1467	1453	1451	1460	1483	1488	1482	1474	1467	1463	1465	1461	1467	1480	1489	1484	1476	1475	1467	1457	1462	1471	1472	1489	1490	1493	1489	1484	1480	1496	1508	1499	1480	1462	1448	1450	1453	1467	1476	1469	1454	1453	1474	1497	1502	1488	1474	1466	1471	1481	1490	1481	1482	1476	1463	1447	1428	1429	1435	1449	1457	1459	1454	1457	1474	1493	1490	1477	1464	1457	1461	1472	1485	1488	1487	1485	1494	1494	1494	1478	1459	1445	1445	1460	1465	1462	1465	1460	1454	1456	1459	1465	1469	1464	1464	1455	1443	1435	1437	1444	1451	1453	1457	1454	1454	1465	1479	1485	1472	1463	1463	1456	1443	1437	1443	1456	1464	1468	0	0	0	0	0	0	0	0
0	0	0	0	0	0	0	0	0	0	0	0	0	0	0	0	0	0	0	0	0	0	0	0	0	0	0	0	0	0	0	0	0	0	0	0	0	0	0	0	0	0	0	0	0	0	0	0	0	0	0	0	0	0	0	0	0	0	0	0	0	0	0	0	0	0	0	0	0	0	0	0	0	0	0	0	0	0	0	0	0	0	0	0	0	0	0	0	0	0	0	0	0	1447	1437	1441	1447	1456	1465	1469	1462	1449	1450	1466	1481	1481	1475	1471	1464	1462	1483	1494	1484	1460	1459	1463	1466	1469	1466	1463	1460	1455	1455	1451	1464	1463	1472	1470	1472	1467	1460	1452	1461	1467	1463	1462	1464	1467	1474	1480	1484	1480	1480	1488	1491	1487	1478	1473	1463	1465	1473	1474	1446	1414	1400	1421	1436	1455	1471	1469	1463	1458	1462	1470	1471	1430	1419	1427	1452	1475	1486	1493	1483	1469	1454	1442	1438	1438	1435	1450	1466	1470	1466	1450	1453	1441	1450	1441	1437	1443	1455	1435	1357	1329	1185	1168	1150	1122	1097	1065	1045	1039	1044	1050	1056	1060	1072	1081	1089	1071	1060	1067	1083	1087	1084	1078	1075	1087	0	0	0	0	0	0	0	0	0	0	0	0	0	0	0	0	0	0	0	0	0	0	930	911	0	0	0	0	0	0	0	0	0	0	0	0	0	0	0	0	1260	1352	1456	1470	1468	1473	1476	1495	1478	1466	1500	1489	1484	1481	1477	1474	1478	1486	1499	1498	1496	1487	1471	1458	1484	1493	1513	1498	1494	1483	1487	1517	1526	1487	1471	1462	1473	1494	1513	1522	1528	1514	1510	1505	1497	1496	1504	1506	1505	1499	1497	1489	1466	1436	1443	1431	1464	1486	1491	1502	1510	1505	1493	1494	1495	1496	1498	1503	1499	1487	1475	1480	1476	1487	1486	1477	1471	1467	1472	1487	1492	1490	1470	1455	1444	1453	1462	1478	1503	1519	1526	1527	1525	1544	1555	1556	1544	1526	1505	1489	1483	1491	1498	1513	1516	1514	1514	1511	1514	1521	1519	1509	1500	1493	1479	1478	1491	1514	1509	1497	1476	1455	1448	1441	1446	1467	1481	1491	1485	1479	1471	1474	1482	1494	1506	1500	1467	1469	1466	1475	1480	1478	1485	1495	1503	1502	1504	1511	1513	1501	1482	1477	1456	0	0	0	0	0	0	0	0	0	0	0	0	0	0	862	856	853	831	824	830	847	860	864	870	872	878	882	878	871	862	849	836	838	853	857	851	841	838	840	825	817	818	832	850	860	858	851	853	862	882	898	897	887	880	883	887	891	880	870	858	854	851	860	871	868	874	890	922	961	1006	1031	1058	1357	1391	1416	1426	1439	1444	1448	1460	1476	1493	1501	1510	1493	1492	1496	1495	1489	1480	1464	1464	1462	1466	1461	1461	1468	1484	1495	1500	1491	1483	1463	1460	1457	1447	1460	1480	1482	1472	1466	1458	1459	1458	1458	1469	1486	1499	1497	1484	1473	1463	1456	1456	1470	1485	1498	1491	1488	1486	1484	1493	1503	1515	1514	1501	1485	1471	1455	1461	1470	1472	1472	1469	1484	1502	1511	1504	1490	1477	1472	1474	1476	1477	1478	1490	1491	1484	1472	1452	1446	1454	1466	1465	1462	1461	1456	1472	1490	1487	1472	1459	1459	1467	1479	1491	1492	1497	1502	1504	1505	1501	1494	1474	1458	1462	1467	1464	1470	1469	1461	1454	1449	1462	1466	1463	1458	1458	1445	1436	1434	1443	1452	1456	1458	1462	1461	1459	1470	1476	1479	1466	1448	1448	1455	1454	1447	1449	1443	1446	1442	0	0	0	0	0	0	0	0
0	0	0	0	0	0	0	0	0	0	0	0	0	0	0	0	0	0	0	0	0	0	0	0	0	0	0	0	0	0	0	0	0	0	0	0	0	0	0	0	0	0	0	0	0	0	0	0	0	0	0	0	0	0	0	0	0	0	0	0	0	0	0	0	0	0	0	0	0	0	0	0	0	0	0	0	0	0	0	0	0	0	0	0	0	0	0	0	0	0	0	0	0	1440	1441	1442	1446	1459	1463	1464	1454	1436	1440	1451	1471	1480	1476	1471	1459	1458	1473	1501	1477	1454	1446	1449	1453	1459	1458	1458	1453	1456	1456	1448	1444	1454	1464	1472	1474	1468	1462	1453	1461	1464	1467	1469	1473	1476	1479	1478	1475	1475	1477	1490	1498	1498	1485	1468	1466	1461	1478	1466	1442	1420	1419	1437	1454	1471	1480	1474	1460	1444	1440	1449	1460	1435	1411	1425	1457	1487	1504	1498	1491	1472	1447	1435	1434	1437	1446	1461	1466	1469	1457	1448	1441	1442	1439	1434	1425	1425	1408	1285	1191	1143	1144	1139	1126	1104	1089	1071	1061	1069	1079	1080	1077	1081	1086	1101	1114	1114	1107	1113	1112	1117	1123	1123	1127	0	0	0	0	0	0	0	0	0	0	0	0	0	0	0	0	0	0	0	0	0	0	0	0	0	0	0	0	0	0	0	0	0	0	0	0	0	0	0	0	1238	1324	1437	1478	1485	1488	1483	1496	1518	1517	1467	1512	1518	1497	1480	1471	1468	1473	1487	1504	1510	1510	1503	1488	1472	1492	1510	1518	1516	1480	1478	1480	1509	1515	1475	1459	1463	1478	1499	1511	1521	1531	1522	1517	1511	1498	1497	1503	1504	1504	1499	1502	1491	1444	1436	1442	1463	1473	1490	1501	1519	1523	1510	1497	1492	1496	1498	1496	1494	1495	1482	1476	1474	1473	1480	1473	1468	1466	1469	1482	1493	1502	1496	1473	1457	1446	1457	1466	1468	1479	1501	1510	1514	1504	1509	1529	1540	1533	1514	1500	1494	1493	1497	1500	1508	1500	1499	1504	1504	1509	1514	1510	1510	1502	1493	1483	1484	1492	1509	1503	1496	1478	1469	1449	1445	1451	1471	1484	1492	1485	1478	1475	1472	1485	1496	1498	1474	1456	1462	1478	1487	1482	1479	1483	1497	1507	1508	1516	1522	1521	1497	1483	1474	1470	1438	0	0	0	0	0	0	0	0	0	0	0	0	0	891	869	851	805	805	815	833	844	842	845	856	866	867	864	859	855	842	832	838	849	849	842	833	834	839	825	810	806	816	834	848	848	836	836	839	863	874	878	872	866	867	876	888	886	871	860	849	841	846	851	853	859	876	896	913	921	930	950	1012	1190	1309	1394	1410	1420	1430	1442	1453	1467	1480	1459	1476	1485	1482	1494	1497	1487	1469	1460	1454	1449	1448	1455	1466	1478	1489	1495	1485	1475	1459	1461	1458	1458	1457	1466	1469	1469	1457	1460	1460	1460	1467	1473	1490	1505	1510	1491	1482	1466	1452	1451	1464	1478	1484	1483	1470	1467	1477	1485	1499	1513	1516	1508	1497	1484	1467	1475	1478	1475	1472	1494	1505	1508	1501	1482	1474	1472	1469	1465	1457	1464	1484	1491	1499	1501	1489	1475	1460	1467	1476	1463	1461	1458	1474	1487	1505	1496	1481	1467	1466	1471	1483	1492	1494	1497	1503	1511	1509	1508	1498	1488	1480	1472	1468	1474	1479	1484	1482	1470	1476	1481	1476	1465	1454	1454	1443	1433	1441	1452	1460	1454	1454	1459	1462	1468	1470	1469	1460	1449	1455	1455	1456	1458	1459	1458	1460	1444	1428	0	0	0	0	0	0	0	0
0	0	0	0	0	0	0	0	0	0	0	0	0	0	0	0	0	0	0	0	0	0	0	0	0	0	0	0	0	0	0	0	0	0	0	0	0	0	0	0	0	0	0	0	0	0	0	0	0	0	0	0	0	0	0	0	0	0	0	0	0	0	0	0	0	0	0	0	0	0	0	0	0	0	0	0	0	0	0	0	0	0	0	0	0	0	0	0	0	0	0	0	0	1450	1443	1444	1452	1461	1464	1456	1445	1434	1439	1453	1460	1484	1482	1470	1452	1446	1454	1476	1463	1445	1439	1449	1452	1458	1454	1451	1447	1454	1457	1451	1448	1454	1476	1483	1480	1467	1457	1448	1463	1468	1462	1464	1468	1471	1474	1477	1473	1473	1478	1484	1495	1499	1484	1478	1479	1478	1481	1468	1444	1428	1438	1452	1466	1478	1477	1471	1455	1442	1435	1437	1459	1444	1427	1438	1468	1499	1519	1512	1496	1464	1442	1428	1425	1429	1447	1466	1462	1462	1458	1439	1426	1386	1346	1422	1380	1327	1221	1146	1115	1090	0	0	0	0	0	0	1077	1094	1112	1117	1110	1111	1114	1127	1149	1161	1161	1163	1166	1160	1159	1164	0	0	0	0	0	0	0	0	0	0	0	0	0	0	0	0	0	0	0	0	0	0	0	0	0	0	0	0	0	0	0	0	0	0	0	0	0	0	0	0	1263	1334	1417	1443	1461	1478	1496	1483	1464	1506	1496	1467	1445	1513	1517	1518	1534	1466	1457	1474	1504	1532	1536	1527	1501	1482	1484	1510	1513	1518	1491	1479	1482	1513	1515	1461	1452	1461	1475	1510	1514	1508	1499	1492	1477	1459	1454	1484	1500	1502	1503	1519	1541	1483	1459	1441	1462	1462	1473	1489	1506	1527	1516	1502	1490	1492	1493	1505	1504	1505	1497	1486	1475	1468	1470	1469	1463	1464	1457	1460	1475	1489	1499	1493	1480	1461	1460	1470	1467	1466	1467	1473	1481	1485	1485	1476	1474	1495	1505	1499	1492	1491	1491	1495	1496	1497	1495	1500	1507	1504	1506	1503	1505	1510	1511	1495	1487	1485	1498	1509	1503	1491	1491	1479	1465	1464	1470	1481	1494	1500	1494	1486	1478	1481	1486	1490	1488	1474	1471	1478	1495	1499	1483	1466	1468	1477	1487	1477	1499	1518	1515	1503	1495	1483	1485	1454	0	0	0	0	0	0	0	0	0	0	0	0	0	0	897	854	796	804	815	822	824	823	827	831	845	852	845	845	844	841	836	840	845	844	836	828	824	832	827	810	802	807	823	831	828	820	817	822	844	857	860	857	854	855	863	878	880	870	857	844	837	835	833	844	852	879	891	886	871	858	865	933	971	1013	1093	1327	1360	1385	1331	1334	1348	1379	1418	1454	1475	1480	1492	1494	1495	1474	1464	1451	1433	1428	1446	1461	1475	1475	1474	1474	1459	1463	1467	1461	1459	1459	1468	1493	1484	1467	1465	1461	1463	1461	1473	1487	1507	1526	1508	1490	1474	1454	1449	1452	1457	1468	1460	1456	1444	1458	1473	1482	1497	1502	1508	1488	1466	1450	1468	1481	1474	1475	1492	1505	1507	1493	1477	1467	1468	1462	1447	1439	1453	1478	1498	1504	1484	1481	1471	1463	1469	1478	1474	1474	1472	1489	1509	1507	1497	1479	1466	1462	1467	1481	1486	1492	1493	1499	1504	1497	1491	1488	1482	1486	1474	1467	1473	1486	1498	1498	1492	1492	1488	1482	1476	1475	1463	1456	1461	1458	1464	1463	1456	1451	1455	1461	1465	1462	1462	1451	1454	1456	1456	1456	1465	1465	1471	1470	1462	1420	0	0	0	0	0	0	0	0
0	0	0	0	0	0	0	0	0	0	0	0	0	0	0	0	0	0	0	0	0	0	0	0	0	0	0	0	0	0	0	0	0	0	0	0	0	0	0	0	0	0	0	0	0	0	0	0	0	0	0	0	0	0	0	0	0	0	0	0	0	0	0	0	0	0	0	0	0	0	0	0	0	0	0	0	0	0	0	0	0	0	0	0	0	0	0	0	0	0	0	0	0	0	1462	1439	1444	1458	1463	1452	1444	1448	1462	1468	1479	1483	1481	1471	1455	1440	1446	1457	1458	1444	1444	1446	1454	1453	1448	1449	1454	1459	1458	1455	1457	1470	1487	1493	1481	1464	1449	1441	1456	1461	1464	1465	1467	1475	1477	1474	1475	1475	1477	1479	1485	1486	1486	1483	1486	1486	1481	1460	1442	1437	1445	1465	1474	1466	1452	1446	1449	1454	1449	1458	1472	1461	1445	1456	1479	1510	1517	1509	1492	1477	1429	1420	1415	1425	1432	1449	1455	1449	1439	1380	1256	1191	0	0	0	0	0	0	0	0	0	0	0	0	0	0	1091	1118	1135	1142	1137	1141	1149	1167	1186	1201	1201	1209	1206	1218	1220	0	0	0	0	0	0	0	0	0	0	0	0	0	0	0	0	0	0	0	0	0	0	0	0	0	0	0	0	0	0	0	0	0	0	0	0	0	0	0	0	0	1357	1408	1423	1433	1455	1474	1482	1481	1462	1446	1479	1465	1439	1474	1499	1507	1520	1555	1534	1505	1506	1521	1533	1503	1494	1485	1488	1506	1512	1526	1507	1487	1488	1525	1512	1474	1470	1469	1499	1495	1511	1511	1502	1493	1488	1459	1462	1473	1498	1504	1520	1562	1502	1479	1459	1482	1474	1459	1468	1482	1498	1511	1498	1487	1486	1492	1498	1499	1503	1513	1510	1499	1484	1470	1466	1464	1473	1466	1461	1461	1466	1478	1489	1487	1489	1502	1498	1486	1472	1452	1448	1457	1459	1461	1468	1470	1468	1462	1464	1473	1483	1491	1501	1500	1497	1495	1491	1504	1508	1500	1497	1500	1502	1498	1490	1482	1478	1478	1490	1502	1501	1500	1501	1501	1496	1500	1499	1503	1509	1505	1507	1497	1498	1496	1489	1486	1482	1483	1490	1495	1508	1507	1478	1464	1458	1446	1448	1461	1486	1500	1510	1511	1499	1485	1480	1474	1438	0	0	0	0	0	0	0	0	0	0	0	0	0	0	832	805	806	811	816	813	813	817	822	827	833	833	836	842	840	842	844	845	844	830	820	819	829	820	810	803	802	812	819	822	816	817	826	841	852	851	845	840	846	848	862	863	861	849	841	831	828	832	839	853	873	884	871	841	814	812	869	911	940	967	920	941	953	987	1172	1254	1285	1341	1387	1434	1453	1469	1478	1484	1479	1463	1438	1420	1421	1438	1457	1470	1469	1466	1461	1453	1470	1470	1472	1463	1471	1489	1507	1499	1480	1469	1457	1451	1452	1468	1478	1506	1525	1503	1486	1470	1453	1451	1442	1453	1452	1449	1444	1437	1444	1446	1477	1486	1490	1486	1469	1442	1439	1457	1466	1467	1462	1478	1487	1493	1494	1485	1468	1454	1450	1440	1435	1443	1472	1492	1492	1485	1472	1469	1475	1473	1474	1481	1493	1507	1506	1509	1500	1478	1468	1456	1455	1462	1476	1479	1481	1472	1475	1477	1471	1470	1471	1481	1476	1463	1468	1476	1489	1496	1494	1491	1495	1491	1477	1473	1473	1472	1475	1475	1473	1473	1467	1466	1463	1463	1460	1459	1452	1451	1452	1452	1452	1464	1465	1470	1471	1471	1471	1460	1405	0	0	0	0	0	0	0	0
0	0	0	0	0	0	0	0	0	0	0	0	0	0	0	0	0	0	0	0	0	0	0	0	0	0	0	0	0	0	0	0	0	0	0	0	0	0	0	0	0	0	0	0	0	0	0	0	0	0	0	0	0	0	0	0	0	0	0	0	0	0	0	0	0	0	0	0	0	0	0	0	0	0	0	0	0	0	0	0	0	0	0	0	0	0	0	0	0	0	0	0	0	0	1469	1437	1433	1444	1453	1452	1452	1466	1477	1481	1474	1476	1483	1476	1457	1445	1441	1452	1454	1451	1449	1456	1449	1442	1446	1450	1459	1462	1458	1458	1463	1480	1497	1494	1464	1451	1448	1446	1453	1460	1463	1466	1473	1479	1483	1477	1474	1479	1474	1476	1468	1469	1472	1472	1471	1487	1477	1454	1444	1440	1451	1463	1469	1457	1440	1432	1442	1465	1474	1500	1505	1464	1453	1456	1481	1501	1506	1492	1484	1469	1434	1406	1394	1396	1409	1426	1405	1270	1226	1159	0	0	0	0	0	0	0	0	0	0	0	0	0	0	0	0	0	0	0	1166	1169	1176	1186	1203	1210	1222	1208	1217	1237	1243	0	0	0	0	0	0	0	0	0	0	0	0	0	0	0	0	0	0	0	0	0	0	0	0	0	0	0	0	0	0	0	0	0	0	0	0	0	0	0	0	0	1361	1412	1432	1440	1440	1508	1525	1476	1463	1450	1435	1447	1465	1462	1471	1486	1488	1503	1516	1511	1494	1483	1517	1534	1491	1477	1466	1479	1490	1514	1527	1510	1483	1475	1518	1510	1496	1491	1479	1475	1486	1503	1505	1496	1488	1483	1463	1477	1493	1507	1512	1544	1500	1490	1470	1500	1497	1472	1463	1468	1478	1486	1500	1481	1480	1488	1492	1496	1497	1502	1506	1502	1495	1495	1486	1474	1473	1477	1477	1492	1514	1520	1521	1506	1478	1454	1468	1496	1498	1489	1464	1487	1498	1464	1470	1481	1491	1496	1498	1482	1477	1479	1484	1490	1507	1506	1504	1504	1508	1509	1503	1497	1494	1496	1489	1487	1480	1475	1477	1483	1490	1492	1492	1487	1493	1503	1512	1520	1522	1529	1518	1525	1519	1522	1515	1502	1487	1475	1483	1497	1505	1511	1506	1489	1490	1470	1454	1450	1458	1465	1479	1484	1484	1488	1478	1469	1460	1476	1470	0	0	0	0	0	0	0	0	0	0	0	0	0	0	832	815	807	802	808	816	820	816	815	814	825	836	842	842	842	840	847	839	831	816	812	820	817	807	801	800	807	819	822	822	823	833	846	849	844	835	830	830	836	844	843	845	834	826	819	822	829	838	849	859	868	844	821	802	793	833	831	839	843	859	868	878	881	890	1048	1153	1233	1277	1342	1378	1432	1448	1464	1469	1454	1436	1420	1420	1442	1458	1476	1478	1469	1467	1471	1471	1481	1483	1472	1473	1493	1516	1504	1483	1459	1447	1444	1446	1460	1475	1495	1504	1480	1466	1456	1461	1462	1462	1449	1443	1438	1435	1434	1437	1441	1470	1478	1481	1472	1457	1437	1426	1444	1454	1457	1465	1463	1471	1483	1484	1482	1460	1438	1437	1439	1443	1445	1453	1463	1464	1465	1464	1468	1478	1482	1479	1478	1495	1510	1509	1496	1473	1457	1450	1448	1449	1459	1464	1469	1470	1462	1457	1455	1447	1454	1463	1468	1467	1457	1457	1471	1485	1489	1482	1482	1488	1492	1487	1481	1481	1472	1475	1473	1467	1466	1472	1477	1477	1474	1466	1453	1449	1443	1440	1446	1446	1458	1467	1466	1471	1465	1462	1453	1398	0	0	0	0	0	0	0	0
0	0	0	0	0	0	0	0	0	0	0	0	0	0	0	0	0	0	0	0	0	0	0	0	0	0	0	0	0	0	0	0	0	0	0	0	0	0	0	0	0	0	0	0	0	0	0	0	0	0	0	0	0	0	0	0	0	0	0	0	0	0	0	0	0	0	0	0	0	0	0	0	0	0	0	0	0	0	0	0	0	0	0	0	0	0	0	0	0	0	0	0	0	0	1490	1451	1436	1440	1447	1462	1462	1467	1475	1471	1472	1477	1485	1484	1468	1451	1441	1443	1445	1444	1448	1459	1454	1452	1446	1453	1456	1460	1456	1454	1463	1478	1484	1468	1437	1432	1447	1454	1463	1464	1465	1469	1471	1475	1475	1469	1466	1473	1474	1473	1461	1452	1455	1466	1469	1485	1474	1454	1439	1441	1451	1464	1464	1455	1439	1438	1455	1476	1501	1526	1524	1458	1444	1458	1465	1472	1468	1468	1469	1458	1432	1392	1364	1354	1363	1344	1121	0	0	0	0	0	0	0	0	0	0	0	0	0	0	0	0	0	0	0	0	0	0	0	1194	1203	1218	1222	1217	1206	1187	1192	1215	0	0	0	0	0	0	0	0	0	0	0	0	0	0	0	0	0	0	0	0	0	0	0	0	0	0	0	0	0	0	0	0	0	0	0	0	0	0	0	0	0	0	1377	1425	1452	1459	1511	1533	1513	1484	1444	1441	1443	1463	1471	1478	1479	1496	1511	1510	1491	1482	1475	1477	1488	1491	1474	1445	1453	1459	1478	1515	1520	1502	1450	1449	1496	1511	1505	1506	1507	1480	1470	1466	1466	1469	1481	1487	1493	1501	1501	1505	1522	1491	1477	1480	1492	1506	1503	1475	1465	1464	1473	1487	1494	1489	1489	1488	1489	1494	1495	1485	1492	1486	1496	1501	1502	1494	1478	1471	1483	1502	1514	1507	1495	1480	1468	1463	1483	1489	1491	1498	1475	1470	1481	1482	1474	1483	1493	1499	1506	1504	1493	1486	1490	1492	1507	1510	1513	1513	1515	1513	1503	1490	1487	1489	1491	1496	1488	1483	1482	1484	1486	1480	1482	1479	1487	1490	1505	1515	1522	1527	1527	1523	1526	1524	1525	1507	1490	1465	1465	1478	1499	1509	1511	1513	1506	1490	1475	1463	1461	1462	1465	1466	1475	1474	1479	1464	1464	1474	1497	0	0	0	0	0	0	0	0	0	0	0	0	0	0	0	0	822	795	802	814	818	819	809	809	819	833	836	834	832	834	838	839	830	816	807	809	809	803	798	799	810	823	822	820	821	831	837	842	836	826	821	816	822	820	816	818	815	809	805	811	827	837	844	842	838	832	816	808	816	821	821	818	815	825	827	826	825	820	828	900	1014	1162	1231	1270	1363	1390	1421	1443	1445	1434	1427	1431	1452	1477	1485	1491	1480	1482	1483	1484	1480	1483	1483	1487	1502	1508	1499	1477	1452	1437	1439	1454	1469	1473	1489	1492	1465	1459	1462	1471	1484	1478	1464	1444	1435	1432	1433	1425	1444	1464	1473	1476	1464	1447	1432	1429	1446	1445	1456	1461	1460	1471	1466	1476	1459	1441	1428	1435	1451	1462	1458	1452	1447	1451	1452	1460	1471	1480	1477	1472	1473	1484	1508	1498	1470	1454	1448	1448	1450	1454	1458	1465	1463	1466	1463	1458	1456	1449	1452	1454	1461	1460	1455	1462	1475	1488	1489	1483	1472	1477	1485	1488	1486	1486	1476	1472	1459	1461	1455	1456	1464	1477	1475	1464	1454	1443	1430	1431	1436	1436	1445	1455	1466	1462	1457	1453	1444	1406	1406	0	0	0	0	0	0	0
0	0	0	0	0	0	0	0	0	0	0	0	0	0	0	0	0	0	0	0	0	0	0	0	0	0	0	0	0	0	0	0	0	0	0	0	0	0	0	0	0	0	0	0	0	0	0	0	0	0	0	0	0	0	0	0	0	0	0	0	0	0	0	0	0	0	0	0	0	0	0	0	0	0	0	0	0	0	0	0	0	0	0	0	0	0	0	0	0	0	0	0	0	0	1514	1479	1459	1457	1464	1468	1464	1462	1466	1462	1467	1476	1488	1487	1471	1454	1431	1420	1429	1439	1448	1456	1457	1453	1448	1454	1457	1451	1446	1453	1459	1475	1474	1464	1448	1435	1447	1475	1477	1467	1471	1466	1464	1468	1465	1460	1456	1461	1468	1465	1461	1448	1454	1465	1476	1486	1483	1467	1442	1444	1449	1461	1470	1471	1461	1454	1466	1485	1509	1521	1509	1456	1440	1451	1460	1466	1473	1471	1457	1441	1410	1373	1346	1284	1138	0	0	0	0	0	0	0	0	0	0	0	0	0	0	0	0	0	0	0	0	0	0	0	0	0	1191	1213	1223	1226	1213	1179	1142	1151	1159	1173	0	0	0	0	0	0	0	0	0	0	0	0	0	0	0	0	0	0	0	0	0	0	0	0	0	0	0	0	0	900	0	0	0	0	0	0	0	0	0	0	1371	1398	1445	1471	1480	1516	1524	1499	1476	1460	1458	1449	1460	1479	1483	1486	1500	1507	1501	1488	1479	1473	1478	1487	1492	1495	1493	1452	1463	1477	1498	1514	1489	1420	1411	1456	1499	1503	1503	1508	1507	1498	1492	1489	1495	1491	1490	1489	1495	1502	1512	1508	1467	1465	1470	1471	1515	1516	1496	1458	1475	1488	1492	1501	1496	1498	1493	1488	1489	1489	1485	1485	1487	1492	1499	1504	1500	1491	1484	1485	1486	1490	1477	1471	1477	1461	1504	1503	1500	1491	1494	1485	1496	1491	1500	1492	1488	1496	1503	1501	1498	1486	1487	1495	1499	1504	1504	1504	1505	1505	1504	1496	1479	1477	1482	1488	1495	1492	1488	1486	1488	1486	1479	1470	1466	1472	1473	1491	1490	1499	1511	1507	1507	1510	1509	1523	1511	1474	1469	1467	1471	1471	1477	1496	1505	1503	1496	1482	1473	1476	1472	1469	1465	1465	1471	1474	1474	1475	1479	1478	1454	0	0	0	0	0	0	0	0	0	0	0	0	0	0	0	0	822	800	808	810	808	803	806	816	823	822	820	818	824	826	827	819	815	797	796	795	793	794	801	811	815	812	805	804	810	819	824	825	820	807	801	799	797	797	796	794	782	788	801	818	831	832	826	800	798	800	805	823	820	812	807	809	810	809	803	796	785	782	797	823	829	909	1111	1248	1276	1329	1376	1403	1413	1422	1438	1466	1492	1497	1494	1484	1483	1483	1476	1482	1490	1494	1505	1510	1513	1496	1465	1444	1443	1450	1459	1468	1477	1480	1473	1467	1462	1472	1489	1500	1492	1470	1455	1442	1441	1438	1426	1440	1453	1466	1476	1461	1452	1441	1438	1436	1455	1461	1465	1467	1462	1461	1462	1452	1439	1436	1450	1460	1475	1470	1460	1448	1445	1456	1466	1475	1472	1467	1462	1465	1478	1499	1492	1473	1454	1454	1458	1460	1468	1465	1453	1458	1462	1469	1468	1461	1457	1456	1454	1461	1459	1460	1460	1473	1485	1489	1476	1464	1461	1471	1479	1479	1482	1470	1462	1452	1454	1451	1454	1452	1453	1461	1461	1450	1442	1432	1424	1427	1427	1439	1455	1458	1462	1451	1446	1438	1435	1414	0	0	0	0	0	0	0
