0	0	0	0	0	0	0	0	0	0	0	0	0	0	0	0	0	0	0	0	0	0	0	0	0	0	0	0	0	0	0	0	0	0	0	0	0	0	0	0	0	0	0	0	0	0	0	0	0	0	0	0	0	0	0	0	0	0	0	0	0	0	0	0	0	0	0	0	0	0	0	0	0	0	0	0	0	0	0	0	0	0	0	0	0	0	0	0	0	0	0	0	0	1420	1437	1442	1446	1445	1456	1477	1488	1485	1472	1460	1461	1465	1469	1462	1456	1459	1458	1455	1453	1452	1445	1448	1458	1478	1501	1522	1529	1490	1472	1479	1495	1511	0	0	0	0	0	0	0	0	0	0	0	0	0	0	0	0	0	0	0	0	0	0	0	0	0	0	0	0	0	0	0	0	0	0	0	0	0	0	0	0	0	0	0	0	0	0	0	0	0	0	1429	1412	1401	1395	1411	1428	1434	1435	1427	1427	1422	1416	1416	1406	1399	1378	1377	1392	1409	1418	1411	1394	1404	1408	1400	1384	1378	1382	1386	1391	1409	1426	1423	1400	1392	1388	1407	1425	1427	1418	1411	1400	1393	1389	1398	1410	1413	1439	0	1451	1436	1370	1341	1314	1306	0	0	0	0	0	0	0	0	0	0	0	0	0	0	0	0	0	0	0	0	0	0	0	0	0	0	0	1161	1153	1134	1143	1132	1131	1139	1145	1170	1203	1270	0	0	1451	1465	1470	1443	1425	1437	1432	1438	1482	0	0	0	0	0	0	0	0	0	0	1491	1491	1510	1537	1571	0	0	1488	1465	1475	1489	1513	1521	1511	1496	1466	1453	1447	1444	1445	1433	1438	1426	1423	1411	1396	1376	1385	1397	1397	1389	1382	1379	1374	1373	1378	1390	1392	1382	1380	1389	1394	1391	1375	1365	1361	1363	1367	1368	1370	1368	1368	1369	1372	1376	1383	1383	1380	1384	1385	1384	1385	1381	1387	1395	1400	1403	1395	1385	1377	1393	1427	1442	1450	1473	1503	1514	1528	1529	1525	1519	1496	1479	1463	1467	1505	1521	1510	1493	1482	1485	1503	1513	1503	1471	1442	1439	1451	1483	1506	1520	1522	1501	1487	1483	1500	1530	1544	1558	1497	1461	1428	1420	1372	0	0	0	0	0	0	0	0	0	0	0	0	0	0	1097	1090	1080	1071	1066	1074	1082	1090	1098	1092	1093	1093	1085	1083	1073	1083	1089	1104	1109	1116	1120	0	1071	1073	1066	1052	1062	1104	1137	1177	1213	1311	1357	1376	1354	1338	0	0	0	1431	1425	1394	1364	1361	1367	1363	1346	1332	1327	1330	1331	1330	1328	1322	1325	1332	1330	1326	1323	1330	1339	1349	1355	1352	1347	1347	1346	1357	1364	1367	1369	1370	1367	1367	1355	1349	1343	1343	1346	1349	1344	1328	1330	1352	1353	1357	1372	1383	1405	1420	1450	1492	1514	1533	1521	1517	1510	1490	1482	1482	1483	1491	1489	1469	1451	1436	1441	1451	1462	1471	1475	1471	1474	1463	1450	1442	1452	1467	1471	1467	1457	1458	1463	1459	1457	1467	1466	1457	1452	1455	1470	1484	1489	1490	1480	1466	1456	1450	1446	1444	1451	1454	1473	1490	1490	1474	1442	1427	1434	1455	1478	1494	1500	1487	1461	1444	1443	1443	1442	1447	1450	1465	1461	1459	1465	1479	1487	1495	1485	1472	1467	1461	1461	1480	1488	1487	1497	1506	1485	1469	1460	1451	1452	1444	1434	1439	1464	1496	1512	1504	1496	1486	1488	1488	1490	1473	1455	1442	1443	1450	1483	1492	1481	1459	1442	1451	1465	1472	1472	1467	1448	1426	1432	1436	1432	0	0	0	0	0	0	0
0	0	0	0	0	0	0	0	0	0	0	0	0	0	0	0	0	0	0	0	0	0	0	0	0	0	0	0	0	0	0	0	0	0	0	0	0	0	0	0	0	0	0	0	0	0	0	0	0	0	0	0	0	0	0	0	0	0	0	0	0	0	0	0	0	0	0	0	0	0	0	0	0	0	0	0	0	0	0	0	0	0	0	0	0	0	0	0	0	0	0	0	0	1438	1442	1442	1446	1448	1459	1483	1496	1483	1462	1454	1452	1457	1450	1449	1454	1468	1462	1454	1447	1440	1436	1435	1452	1470	1492	1512	1519	1501	1477	1489	1507	1527	1526	0	0	0	0	0	0	0	0	0	0	0	0	0	0	0	0	0	0	0	0	0	0	0	0	0	0	0	0	0	0	0	0	0	0	0	0	0	0	0	0	0	0	1449	1468	1476	1473	1472	1462	1444	1434	1419	1414	1416	1425	1429	1436	1438	1437	1426	1422	1418	1416	1410	1414	1407	1393	1397	1411	1427	1429	1413	1401	1397	1387	1381	1372	1374	1369	1371	1396	1433	1433	1433	1415	1400	1402	1404	1407	1406	1403	1400	1397	1401	1398	1411	1413	1424	1436	1408	1369	1322	1273	1256	1243	0	0	0	0	0	0	0	0	0	0	0	0	0	0	1158	1141	1123	1104	1112	1111	1116	0	0	0	0	0	1098	1110	1118	1109	1101	1094	1095	1089	1085	1083	1110	1145	1196	1260	1331	1378	1401	1421	1438	1437	1403	1413	1439	1479	1489	1484	1490	1504	1505	1494	1495	1503	1507	1488	1491	1511	1531	1542	1543	1533	1527	1523	1529	1527	1519	1494	1470	1457	1450	1439	1444	1472	1462	1446	1434	1418	1423	1420	1401	1378	1396	1398	1401	1393	1387	1379	1368	1369	1371	1389	1380	1373	1371	1389	1397	1394	1381	1371	1367	1369	1368	1362	1365	1363	1363	1367	1369	1373	1387	1397	1396	1387	1394	1384	1379	1374	1377	1386	1398	1402	1390	1379	1388	1407	1446	1457	1469	1484	1485	1500	1525	1545	1551	1539	1521	1496	1480	1479	1482	1488	1504	1505	1500	1488	1474	1459	1449	1447	1448	1446	1446	1455	1469	1488	1495	1480	1455	1445	1456	1515	1545	1542	1504	1482	1449	1429	1404	0	0	1117	0	0	0	0	0	0	0	0	0	0	0	1087	1072	1065	1052	1052	1057	1065	1067	1075	1072	1081	1083	1072	1069	1071	1081	1082	1077	1069	1041	1041	1038	1044	1051	1048	1044	1040	1053	1079	1112	1138	1130	1155	1287	1300	1305	1345	1391	0	1418	1413	1391	1364	1353	1359	1354	1336	1323	1324	1326	1319	1310	1320	1333	1338	1344	1332	1327	1332	1361	1384	1383	1359	1347	1329	1333	1339	1356	1360	1361	1363	1362	1354	1356	1354	1350	1346	1345	1352	1349	1333	1327	1339	1349	1351	1347	1358	1390	1416	1430	1452	1474	1501	1515	1517	1517	1515	1504	1498	1492	1489	1485	1483	1477	1458	1446	1442	1448	1458	1476	1480	1477	1481	1454	1440	1439	1455	1475	1484	1488	1484	1476	1476	1468	1455	1440	1447	1465	1467	1463	1463	1455	1455	1442	1438	1438	1433	1429	1427	1439	1444	1451	1457	1442	1441	1428	1421	1417	1431	1452	1475	1494	1494	1477	1455	1447	1444	1442	1434	1426	1424	1434	1431	1438	1450	1469	1480	1492	1483	1476	1474	1478	1478	1471	1455	1450	1439	1446	1451	1448	1446	1441	1441	1446	1437	1439	1455	1484	1495	1487	1484	1475	1479	1479	1472	1471	1466	1465	1463	1462	1467	1481	1458	1447	1446	1460	1470	1479	1479	1481	1464	1454	1456	1451	1437	0	0	0	0	0	0	0
0	0	0	0	0	0	0	0	0	0	0	0	0	0	0	0	0	0	0	0	0	0	0	0	0	0	0	0	0	0	0	0	0	0	0	0	0	0	0	0	0	0	0	0	0	0	0	0	0	0	0	0	0	0	0	0	0	0	0	0	0	0	0	0	0	0	0	0	0	0	0	0	0	0	0	0	0	0	0	0	0	0	0	0	0	0	0	0	0	0	0	0	0	1465	1441	1441	1439	1441	1453	1478	1487	1480	1458	1451	1447	1446	1432	1440	1452	1470	1461	1441	1432	1434	1442	1441	1446	1464	1479	1487	1488	1466	1445	1488	1501	1503	1485	1457	1455	1463	1468	1450	1432	1436	1473	1485	1466	1448	1433	1442	1454	1454	1451	1450	1447	1441	1459	1481	1484	1480	1492	1499	1506	1499	1478	1458	1443	1440	1443	1476	1498	1490	1470	1464	1463	1446	1432	1435	1443	1443	1441	1438	1442	1446	1449	1439	1430	1404	1404	1408	1407	1419	1428	1432	1426	1413	1407	1419	1419	1409	1409	1418	1425	1417	1432	1441	1433	1425	1416	1404	1395	1393	1399	1385	1372	1366	1381	1430	1438	1436	1442	1436	1414	1407	1406	1409	1416	1413	1411	1402	1407	1409	1400	1390	1384	1335	1305	1251	1203	1188	1179	1156	0	0	0	1090	1093	0	0	0	0	0	0	0	0	1134	1121	1103	1090	1090	1084	1085	1081	0	0	1062	1064	1071	1081	1096	1097	1093	1074	1070	1066	1069	1075	1090	1118	1166	1245	1348	1378	1421	1436	1441	1440	1426	1431	1459	1483	1475	1473	1472	1473	1474	1480	1486	1498	1498	1496	1506	1517	1537	1538	1540	1533	1533	1528	1530	1523	1501	1471	1453	1445	1435	1428	1433	1448	1472	1456	1441	1429	1427	1422	1412	1406	1400	1404	1404	1405	1412	1413	1408	1401	1385	1391	1376	1367	1367	1380	1395	1395	1384	1379	1375	1371	1362	1363	1364	1368	1372	1370	1372	1376	1396	1410	1413	1400	1384	1380	1371	1358	1361	1377	1389	1391	1385	1389	1410	1444	1459	1468	1477	1469	1479	1502	1516	1531	1543	1540	1524	1504	1491	1493	1480	1475	1492	1504	1499	1487	1469	1465	1455	1456	1456	1461	1458	1462	1467	1482	1487	1477	1464	1453	1452	1463	1500	1529	1511	1490	1475	1446	0	0	0	0	0	0	0	0	0	0	0	0	0	0	1063	1072	1066	1047	1037	1037	1041	1049	1050	1055	1060	1065	1067	1064	1060	1072	1076	1077	1048	1040	1035	1038	1037	1035	1034	1040	1041	1033	1029	1049	1071	1095	1099	1092	1103	1136	1246	1279	1323	1375	1407	1396	1378	1362	1352	1354	1351	1333	1321	1316	1319	1325	1330	1356	1380	1392	1391	1394	1377	1362	1375	1390	1395	1373	1358	1345	1345	1360	1392	1381	1382	1378	1372	1356	1361	1376	1373	1374	1376	1361	1353	1343	1336	1351	1355	1353	1357	1365	1392	1419	1437	1459	1464	1478	1492	1511	1520	1524	1519	1516	1503	1493	1477	1479	1477	1473	1462	1456	1454	1457	1472	1475	1480	1477	1450	1445	1442	1453	1465	1483	1494	1506	1511	1500	1474	1450	1430	1448	1468	1474	1470	1457	1445	1434	1429	1431	1432	1426	1426	1432	1442	1453	1458	1460	1452	1446	1441	1434	1434	1448	1470	1487	1493	1485	1468	1455	1446	1448	1442	1433	1423	1422	1436	1435	1438	1449	1463	1478	1487	1481	1473	1465	1466	1462	1452	1440	1431	1426	1436	1446	1450	1442	1440	1439	1437	1440	1438	1449	1470	1477	1473	1474	1472	1465	1465	1466	1471	1476	1480	1477	1474	1456	1463	1453	1442	1456	1471	1477	1482	1482	1487	1474	1468	1470	1456	1446	0	0	0	0	0	0	0
0	0	0	0	0	0	0	0	0	0	0	0	0	0	0	0	0	0	0	0	0	0	0	0	0	0	0	0	0	0	0	0	0	0	0	0	0	0	0	0	0	0	0	0	0	0	0	0	0	0	0	0	0	0	0	0	0	0	0	0	0	0	0	0	0	0	0	0	0	0	0	0	0	0	0	0	0	0	0	0	0	0	0	0	0	0	0	0	0	0	0	0	0	1514	1459	1438	1436	1429	1437	1457	1475	1478	1467	1460	1456	1450	1431	1439	1449	1467	1465	1464	1446	1446	1448	1448	1456	1466	1475	1482	1489	1474	1455	1436	1432	1446	1461	1475	1490	1493	1481	1446	1433	1434	1446	1449	1448	1447	1453	1450	1456	1460	1461	1457	1439	1415	1419	1441	1502	1504	1496	1490	1478	1477	1475	1468	1459	1453	1450	1466	1481	1481	1466	1463	1455	1442	1430	1437	1448	1449	1451	1446	1455	1455	1437	1427	1411	1387	1405	1413	1416	1421	1419	1425	1414	1396	1390	1411	1409	1405	1403	1406	1437	1453	1456	1447	1439	1433	1437	1436	1432	1430	1424	1403	1390	1376	1382	1428	1436	1435	1441	1446	1440	1421	1420	1432	1439	1439	1423	1409	1401	1392	1374	1370	1342	1248	1161	1143	1139	1134	1128	1107	1084	1068	1054	1053	1052	1063	1073	1078	0	0	0	0	0	1121	1111	1095	1084	1082	1077	1071	1071	1066	1067	1060	1057	1055	1066	0	0	0	1069	1058	1053	1060	1075	1098	1126	1165	1263	1368	1412	1424	1437	1448	1450	1446	1459	1472	1474	1472	1468	1463	1467	1477	1488	1496	1501	1504	1505	1507	1520	1537	1528	1526	1524	1530	1528	1524	1516	1498	1475	1454	1449	1429	1422	1413	1434	1453	1463	1442	1438	1443	1427	1415	1402	1409	1426	1440	1436	1427	1432	1433	1429	1426	1419	1409	1412	1422	1421	1413	1398	1394	1393	1407	1409	1415	1400	1373	1376	1383	1385	1380	1390	1406	1425	1425	1417	1407	1390	1372	1360	1364	1393	1415	1417	1420	1423	1435	1458	1458	1476	1468	1467	1481	1494	1510	1521	1526	1527	1519	1502	1498	1498	1488	1481	1488	1499	1487	1487	1482	1479	1470	1470	1475	1476	1474	1478	1477	1486	1494	1491	1477	1473	1470	1465	1488	1512	1510	1504	1486	1454	0	0	0	0	0	0	0	0	0	0	0	0	1042	1043	1045	1048	1042	1032	1025	1025	1026	1029	1029	1031	1035	1047	1046	1047	1042	1025	1043	1045	1038	1036	1041	1044	1041	1029	1023	1025	1029	1025	1027	1043	1070	1089	1092	1076	1064	1101	1140	1194	1245	1297	1344	1373	1367	1357	1349	1350	1359	1353	1356	1366	1372	1362	1357	1397	1423	1441	1440	1432	1418	1404	1393	1391	1385	1384	1386	1392	1397	1402	1439	1463	1485	1481	1466	1438	1419	1405	1403	1405	1405	1407	1408	1396	1385	1385	1385	1377	1377	1381	1408	1434	1455	1470	1468	1477	1497	1513	1521	1526	1521	1514	1507	1492	1483	1483	1488	1486	1480	1472	1462	1455	1457	1466	1472	1469	1446	1446	1451	1449	1458	1464	1484	1496	1505	1486	1471	1434	1430	1445	1466	1467	1467	1454	1441	1425	1425	1429	1435	1443	1452	1453	1465	1469	1470	1477	1474	1466	1457	1456	1453	1466	1483	1497	1495	1487	1474	1456	1443	1439	1446	1440	1425	1425	1439	1445	1443	1445	1464	1467	1467	1466	1465	1463	1466	1461	1451	1435	1426	1426	1441	1450	1454	1449	1445	1438	1436	1435	1436	1447	1461	1467	1470	1468	1459	1460	1460	1458	1463	1474	1480	1482	1477	1465	1455	1449	1450	1454	1471	1476	1476	1476	1477	1469	1466	1464	1458	1448	0	0	0	0	0	0	0
0	0	0	0	0	0	0	0	0	0	0	0	0	0	0	0	0	0	0	0	0	0	0	0	0	0	0	0	0	0	0	0	0	0	0	0	0	0	0	0	0	0	0	0	0	0	0	0	0	0	0	0	0	0	0	0	0	0	0	0	0	0	0	0	0	0	0	0	0	0	0	0	0	0	0	0	0	0	0	0	0	0	0	0	0	0	0	0	0	0	0	0	0	1519	1463	1456	1439	1441	1443	1450	1467	1480	1483	1475	1466	1457	1452	1449	1447	1449	1473	1480	1473	1453	1457	1458	1464	1470	1479	1483	1493	1489	1468	1452	1445	1449	1472	1493	1510	1512	1509	1455	1445	1441	1442	1444	1451	1462	1466	1466	1467	1478	1482	1468	1440	1414	1413	1444	1493	1511	1500	1479	1471	1471	1472	1478	1469	1463	1462	1471	1479	1481	1472	1458	1448	1443	1442	1453	1460	1462	1462	1465	1464	1461	1443	1420	1389	1380	1428	1435	1427	1419	1419	1413	1398	1388	1384	1399	1410	1411	1404	1409	1443	1462	1468	1461	1454	1451	1460	1465	1467	1457	1453	1438	1414	1423	1424	1452	1459	1464	1464	1452	1443	1430	1432	1447	1464	1475	1462	1418	1390	1361	1340	1322	1142	1124	1107	1105	1107	1106	1103	1096	1082	1062	1047	1033	1028	1031	1051	1053	1062	1073	1081	1077	1080	1080	1095	1085	1077	1066	1064	1069	1071	1069	1065	1061	1056	1053	1057	1073	1087	1079	1066	1056	1054	1061	1077	1106	1142	1189	1281	1381	1423	1441	1454	1466	1481	1474	1474	1473	1478	1475	1468	1464	1466	1481	1503	1513	1509	1505	1486	1476	1472	1455	1455	1463	1492	1515	1528	1518	1513	1501	1490	1467	1457	1442	1426	1422	1419	1433	1451	1476	1475	1460	1436	1420	1405	1407	1421	1437	1439	1429	1431	1434	1436	1431	1428	1427	1431	1433	1429	1423	1401	1395	1396	1406	1414	1422	1416	1459	1481	1487	1487	1485	1447	1433	1436	1431	1423	1413	1397	1388	1377	1383	1411	1434	1438	1435	1445	1462	1482	1494	1489	1466	1473	1482	1492	1483	1475	1477	1493	1488	1491	1496	1503	1492	1485	1474	1476	1485	1496	1501	1500	1492	1490	1475	1471	1474	1480	1489	1496	1502	1511	1508	1495	1477	1483	1489	1512	1514	1504	1490	1463	0	0	0	0	0	0	0	0	0	0	0	1047	1052	1044	1035	1038	1030	1022	1014	1010	1011	1007	1004	1005	1011	1022	1028	1015	1006	1004	1012	1015	1023	1035	1041	1050	1044	1033	1025	1025	1023	1029	1033	1052	1080	0	0	1085	1050	1045	1055	1088	1132	1209	1290	1333	1340	1359	1371	1366	1373	1368	1373	1394	1402	1397	1396	1420	1448	1464	1465	1454	1441	1429	1422	1403	1393	1395	1404	1416	1435	1435	1461	1480	1496	1493	1476	1458	1441	1435	1435	1437	1429	1423	1423	1433	1417	1413	1412	1411	1422	1430	1453	1462	1471	1480	1476	1484	1504	1513	1511	1514	1513	1510	1501	1495	1495	1495	1500	1499	1494	1488	1470	1447	1455	1456	1456	1454	1451	1456	1470	1461	1452	1454	1472	1487	1484	1471	1443	1436	1437	1448	1455	1463	1463	1457	1443	1434	1429	1440	1455	1463	1474	1471	1472	1476	1485	1492	1499	1495	1489	1477	1475	1482	1493	1499	1501	1490	1472	1449	1438	1439	1450	1444	1441	1434	1437	1448	1451	1459	1455	1461	1460	1465	1460	1456	1465	1461	1454	1435	1425	1428	1441	1453	1460	1456	1446	1441	1433	1430	1436	1446	1456	1463	1462	1456	1449	1462	1462	1462	1465	1475	1487	1486	1488	1473	1459	1457	1449	1449	1456	1467	1470	1470	1466	1454	1453	1453	1453	1449	0	0	0	0	0	0	0
0	0	0	0	0	0	0	0	0	0	0	0	0	0	0	0	0	0	0	0	0	0	0	0	0	0	0	0	0	0	0	0	0	0	0	0	0	0	0	0	0	0	0	0	0	0	0	0	0	0	0	0	0	0	0	0	0	0	0	0	0	0	0	0	0	0	0	0	0	0	0	0	0	0	0	0	0	0	0	0	0	0	0	0	0	0	0	0	0	0	0	0	0	1507	1475	1475	1476	1472	1455	1436	1459	1478	1486	1482	1471	1466	1463	1456	1449	1436	1450	1463	1467	1469	1474	1471	1473	1479	1483	1483	1490	1489	1479	1460	1445	1448	1470	1492	1520	1520	1510	1485	1448	1447	1447	1445	1461	1474	1485	1485	1486	1489	1493	1486	1460	1442	1439	1456	1503	1517	1493	1485	1475	1473	1476	1475	1467	1464	1466	1469	1486	1468	1458	1450	1443	1447	1453	1467	1482	1475	1465	1455	1461	1466	1467	1451	1430	1407	1411	1414	1417	1420	1427	1424	1422	1429	1431	1428	1432	1433	1440	1453	1460	1466	1473	1480	1486	1489	1489	1496	1482	1487	1487	1483	1476	1466	1457	1462	1480	1485	1483	1475	1459	1448	1446	1453	1462	1472	1461	1431	1388	1310	1192	1141	1094	1086	1088	1088	1084	1086	1091	1086	1084	1065	1047	1033	1026	1028	1030	1038	1039	1049	1057	1063	1060	1045	1035	1029	1050	1047	1053	1067	1068	1069	1067	1069	1066	1065	1069	1075	1076	1073	1068	1064	1063	0	0	0	0	0	1325	1397	1448	1459	1465	1482	1493	1487	1480	1474	1476	1474	1470	1464	1464	1474	1492	1509	1505	1496	1489	1481	1474	1459	1454	1466	1487	1514	1516	1514	1511	1511	1508	1499	1477	1462	1446	1451	1455	1473	1484	1491	1505	1509	1510	1498	1485	1473	1484	1491	1499	1485	1472	1466	1465	1462	1463	1473	1484	1499	1487	1469	1450	1434	1424	1411	1425	1448	1459	1476	1507	1494	1511	1503	1481	1480	1469	1462	1464	1454	1441	1428	1429	1451	1478	1494	1503	1509	1512	1518	1514	1497	1478	1467	1470	1485	1489	1486	1481	1476	1475	1472	1485	1499	1500	1492	1487	1477	1469	1484	1507	1516	1515	1501	1491	1472	1466	1469	1479	1491	1500	1507	1517	1521	1506	1493	1502	1508	1508	1509	1502	1490	1485	0	0	0	0	0	0	0	0	0	0	0	1057	1056	0	0	0	0	1022	1009	1004	1003	997	994	995	995	993	998	1003	1001	991	993	1000	1014	1028	1040	1044	1042	1036	1034	1032	1027	1027	0	0	0	0	0	0	0	1025	1016	1032	1057	1086	1100	1171	1271	1353	1379	1397	1392	1392	1405	1429	1443	1445	1463	1469	1477	1490	1486	1477	1478	1472	1460	1450	1447	1462	1474	1480	1481	1475	1480	1490	1492	1490	1487	1480	1485	1491	1496	1498	1496	1497	1483	1470	1465	1462	1446	1441	1439	1437	1443	1456	1469	1484	1483	1495	1508	1514	1511	1500	1499	1500	1498	1492	1491	1499	1500	1504	1495	1485	1468	1455	1453	1444	1447	1453	1464	1494	1492	1482	1459	1456	1470	1481	1475	1456	1438	1431	1432	1448	1450	1464	1464	1464	1458	1443	1436	1449	1464	1477	1475	1468	1462	1472	1489	1498	1507	1504	1498	1487	1489	1485	1491	1493	1485	1479	1462	1450	1442	1455	1474	1466	1455	1441	1441	1446	1448	1464	1453	1460	1468	1469	1461	1458	1456	1462	1452	1440	1428	1431	1447	1455	1456	1451	1447	1441	1439	1442	1445	1449	1452	1453	1451	1448	1445	1445	1463	1466	1473	1484	1494	1497	1496	1488	1466	1458	1452	1444	1447	1457	1455	1455	1444	1443	1443	1447	1452	1460	0	0	0	0	0	0	0
0	0	0	0	0	0	0	0	0	0	0	0	0	0	0	0	0	0	0	0	0	0	0	0	0	0	0	0	0	0	0	0	0	0	0	0	0	0	0	0	0	0	0	0	0	0	0	0	0	0	0	0	0	0	0	0	0	0	0	0	0	0	0	0	0	0	0	0	0	0	0	0	0	0	0	0	0	0	0	0	0	0	0	0	0	0	0	0	0	0	0	0	0	1495	1467	1466	1473	1478	1472	1456	1460	1478	1486	1479	1474	1470	1468	1459	1448	1439	1428	1454	1475	1491	1502	1496	1492	1488	1475	1474	1487	1490	1475	1458	1445	1456	1474	1485	1508	1505	1493	1471	1457	1456	1459	1460	1464	1475	1485	1499	1499	1499	1492	1484	1476	1467	1463	1467	1476	1456	1458	1472	1479	1484	1482	1481	1464	1453	1455	1455	1454	1453	1447	1447	1439	1448	1465	1474	1489	1483	1466	1454	1457	1463	1468	1461	1443	1416	1405	1408	1412	1411	1422	1433	1435	1439	1443	1441	1442	1450	1471	1475	1467	1470	1473	1482	1485	1490	1491	1490	1474	1472	1480	1488	1484	1470	1457	1460	1472	1482	1481	1462	1454	1452	1450	1445	1454	1422	1320	1254	1200	1156	1126	1099	1075	1073	1076	1076	1069	1076	1078	1082	1065	1053	1031	1025	1023	1030	1026	1024	1023	1032	1041	1042	1040	1027	1015	1003	996	997	1041	1051	1064	1065	1065	1070	1072	1066	1069	1069	1072	1072	1078	0	0	0	0	0	0	0	1341	1399	1464	1472	1487	1498	1497	1491	1474	1475	1474	1472	1464	1456	1460	1466	1477	1489	1490	1494	1490	1487	1478	1468	1462	1464	1485	1504	1506	1504	1506	1506	1508	1501	1485	1464	1457	1467	1478	1491	1496	1496	1498	1503	1510	1497	1492	1486	1491	1492	1492	1491	1489	1485	1479	1472	1472	1481	1489	1490	1488	1474	1454	1443	1431	1416	1428	1448	1452	1467	1503	1493	1508	1494	1468	1472	1470	1469	1475	1464	1445	1430	1427	1443	1476	1493	1505	1522	1529	1528	1514	1499	1481	1464	1470	1481	1487	1489	1483	1479	1479	1480	1496	1506	1504	1492	1485	1485	1486	1493	1499	1506	1510	1506	1495	1476	1470	1474	1484	1490	1502	1508	1515	1522	1528	1536	1525	1510	1504	1500	1497	1490	1503	0	0	0	0	0	0	0	0	0	0	0	0	0	0	0	0	0	0	1006	1000	1005	1001	995	0	0	0	987	985	991	989	988	1000	1011	1027	1036	1037	1031	1030	1039	1038	1034	0	0	0	0	0	0	0	0	0	0	0	0	0	1044	1044	1062	1139	1212	1274	1371	1411	1426	1447	1455	1452	1468	1469	1488	1481	1478	1480	1475	1467	1453	1451	1457	1469	1480	1485	1476	1472	1470	1477	1489	1492	1490	1485	1486	1487	1488	1489	1482	1480	1477	1471	1464	1469	1452	1453	1448	1447	1450	1454	1469	1480	1493	1504	1504	1506	1500	1499	1491	1492	1486	1482	1482	1487	1492	1487	1482	1471	1459	1451	1445	1444	1446	1461	1495	1507	1504	1485	1470	1466	1476	1482	1470	1453	1437	1435	1445	1450	1454	1467	1472	1467	1463	1452	1432	1452	1470	1482	1481	1465	1463	1472	1487	1504	1502	1500	1494	1492	1489	1485	1480	1469	1459	1450	1443	1444	1456	1476	1482	1470	1453	1440	1442	1447	1456	1462	1453	1463	1472	1472	1467	1454	1453	1446	1451	1451	1446	1447	1447	1449	1443	1442	1441	1457	1468	1474	1470	1465	1460	1457	1454	1449	1442	1442	1445	1463	1473	1486	1499	1502	1503	1480	1467	1461	1451	1447	1443	1449	1450	1450	1442	1445	1447	1452	1452	1455	0	0	0	0	0	0	0
0	0	0	0	0	0	0	0	0	0	0	0	0	0	0	0	0	0	0	0	0	0	0	0	0	0	0	0	0	0	0	0	0	0	0	0	0	0	0	0	0	0	0	0	0	0	0	0	0	0	0	0	0	0	0	0	0	0	0	0	0	0	0	0	0	0	0	0	0	0	0	0	0	0	0	0	0	0	0	0	0	0	0	0	0	0	0	0	0	0	0	0	0	1495	1451	1450	1453	1472	1463	1470	1481	1486	1480	1473	1465	1468	1469	1455	1446	1443	1448	1463	1492	1511	1511	1503	1497	1484	1448	1461	1478	1487	1472	1455	1458	1471	1481	1483	1483	1484	1475	1466	1460	1470	1475	1474	1467	1466	1479	1484	1486	1481	1482	1482	1493	1490	1473	1463	1458	1437	1448	1461	1479	1499	1501	1485	1460	1447	1445	1444	1449	1447	1447	1446	1438	1448	1466	1486	1489	1491	1475	1466	1459	1464	1473	1472	1460	1436	1422	1415	1411	1417	1431	1441	1441	1440	1443	1441	1445	1470	1479	1487	1472	1469	1474	1477	1482	1483	1481	1474	1464	1462	1478	1484	1486	1475	1462	1454	1465	1476	1471	1459	1450	1451	1437	1371	1304	1228	1199	1190	1171	1140	1110	1087	0	0	1076	1070	1069	1069	1072	1062	0	1018	1012	1004	1006	1011	1005	1006	1006	1012	1017	1016	1016	1020	1003	985	974	976	986	1004	1043	1053	1060	1071	1071	1062	1056	1059	1062	1083	0	0	0	0	0	0	0	1315	1381	1458	1480	1486	1497	1508	1503	1479	1466	1471	1467	1467	1463	1462	1456	1458	1466	1475	1482	1487	1488	1484	1480	1470	1468	1470	1483	1489	1496	1498	1499	1503	1506	1499	1483	1468	1463	1474	1492	1504	1503	1502	1506	1502	1507	1501	1494	1496	1502	1497	1486	1490	1500	1513	1505	1494	1484	1490	1498	1498	1497	1495	1492	1498	1491	1485	1483	1473	1471	1467	1466	1472	1488	1482	1456	1469	1485	1499	1497	1490	1481	1461	1454	1456	1474	1483	1507	1512	1529	1528	1516	1493	1477	1478	1478	1471	1471	1483	1481	1483	1492	1496	1508	1511	1506	1491	1483	1480	1487	1496	1496	1496	1505	1505	1500	1497	1492	1487	1483	1496	1502	1509	1513	1513	1517	1524	1516	1494	1487	1495	1489	1494	1500	1533	0	0	0	0	0	0	0	0	0	0	0	0	0	0	0	0	0	0	0	0	0	0	0	0	0	0	0	0	0	999	1005	1014	1015	1026	1028	1028	1030	1036	1037	1035	0	0	0	0	0	0	0	0	0	0	0	0	0	0	1037	1036	1043	1056	1077	1176	1312	1336	1407	1430	1443	1454	1467	1474	1471	1469	1468	1464	1458	1454	1454	1461	1472	1477	1480	1472	1463	1461	1468	1476	1483	1488	1487	1477	1468	1462	1462	1460	1458	1467	1462	1472	1465	1468	1460	1455	1461	1462	1457	1463	1475	1485	1495	1505	1500	1495	1486	1486	1483	1474	1469	1472	1483	1482	1475	1466	1460	1451	1447	1448	1449	1453	1461	1488	1507	1502	1490	1476	1470	1484	1480	1465	1447	1443	1453	1463	1465	1470	1469	1473	1472	1467	1458	1426	1443	1475	1482	1481	1474	1471	1473	1485	1490	1484	1480	1482	1485	1482	1479	1468	1451	1443	1434	1428	1445	1459	1472	1468	1459	1447	1438	1441	1445	1454	1459	1461	1464	1471	1469	1472	1461	1446	1444	1457	1471	1471	1463	1447	1439	1427	1426	1443	1466	1486	1492	1483	1471	1463	1455	1454	1447	1445	1445	1448	1452	1460	1475	1492	1491	1481	1471	1458	1456	1455	1449	1451	1444	1444	1447	1458	1457	1456	1456	1451	1448	0	0	0	0	0	0	0
0	0	0	0	0	0	0	0	0	0	0	0	0	0	0	0	0	0	0	0	0	0	0	0	0	0	0	0	0	0	0	0	0	0	0	0	0	0	0	0	0	0	0	0	0	0	0	0	0	0	0	0	0	0	0	0	0	0	0	0	0	0	0	0	0	0	0	0	0	0	0	0	0	0	0	0	0	0	0	0	0	0	0	0	0	0	0	0	0	0	0	0	0	1494	1451	1430	1421	1438	1457	1467	1471	1472	1472	1468	1468	1472	1469	1451	1440	1440	1454	1479	1502	1513	1506	1495	1483	1470	1442	1450	1465	1474	1472	1472	1480	1483	1485	1477	1476	1475	1470	1466	1468	1481	1482	1471	1459	1451	1457	1466	1468	1474	1473	1477	1495	1498	1483	1463	1458	1446	1449	1459	1483	1500	1498	1480	1457	1438	1425	1431	1436	1442	1449	1453	1443	1451	1467	1485	1493	1497	1485	1474	1469	1466	1476	1480	1472	1455	1438	1432	1430	1437	1445	1445	1440	1435	1440	1446	1463	1480	1490	1491	1472	1465	1464	1465	1468	1470	1468	1469	1468	1465	1471	1474	1479	1471	1459	1445	1452	1457	1460	1444	1394	1367	1290	1243	1220	1205	1201	1180	1163	1144	1132	0	0	0	0	1073	1067	1073	1065	1050	0	0	986	984	983	984	985	983	988	993	995	997	1002	1001	0	0	0	943	961	989	1001	1017	1050	1056	1061	1049	1034	1044	0	0	0	0	0	0	0	0	1301	1383	1440	1474	1489	1485	1487	1493	1492	1485	1478	1471	1469	1471	1469	1467	1459	1461	1471	1486	1497	1486	1469	1461	1471	1482	1492	1491	1491	1491	1497	1490	1492	1489	1493	1490	1483	1472	1467	1483	1490	1507	1507	1512	1492	1497	1502	1504	1505	1505	1508	1498	1488	1487	1517	1526	1519	1508	1497	1502	1505	1508	1499	1501	1497	1496	1489	1486	1488	1485	1482	1480	1479	1468	1461	1456	1457	1468	1483	1487	1492	1488	1477	1472	1472	1475	1473	1478	1491	1497	1515	1521	1515	1494	1480	1483	1484	1473	1469	1467	1476	1480	1489	1497	1505	1501	1497	1483	1469	1471	1481	1493	1496	1502	1497	1504	1503	1513	1503	1497	1496	1495	1507	1513	1497	1490	1491	1492	1495	1488	1487	1492	1499	1492	1491	1490	0	0	0	0	0	0	0	0	0	0	0	0	0	0	0	0	0	0	0	0	0	0	0	0	0	0	0	0	0	0	0	0	0	0	0	0	0	0	0	0	0	0	0	0	0	0	0	0	0	0	0	0	0	0	1035	1028	1025	1022	1026	1041	1072	1149	1255	1307	1405	1443	1444	1443	1450	1458	1462	1464	1455	1454	1464	1466	1459	1463	1467	1468	1471	1468	1467	1465	1474	1479	1471	1462	1457	1450	1447	1454	1452	1472	1469	1473	1485	1480	1473	1470	1469	1468	1465	1465	1470	1478	1489	1492	1497	1493	1493	1484	1474	1463	1459	1460	1473	1480	1476	1467	1467	1460	1460	1457	1453	1451	1473	1486	1500	1505	1488	1475	1470	1479	1472	1457	1448	1449	1462	1477	1476	1474	1476	1471	1471	1468	1456	1435	1453	1482	1488	1483	1475	1480	1484	1489	1478	1474	1472	1479	1481	1476	1467	1457	1441	1429	1422	1434	1449	1465	1465	1456	1449	1444	1440	1439	1438	1448	1454	1455	1458	1461	1462	1472	1471	1458	1454	1471	1486	1486	1467	1448	1437	1422	1420	1438	1464	1487	1489	1484	1471	1463	1460	1460	1455	1453	1453	1449	1453	1456	1459	1464	1467	1465	1465	1454	1452	1458	1457	1458	1457	1457	1465	1464	1474	1463	1454	1449	1434	0	0	0	0	0	0	0
0	0	0	0	0	0	0	0	0	0	0	0	0	0	0	0	0	0	0	0	0	0	0	0	0	0	0	0	0	0	0	0	0	0	0	0	0	0	0	0	0	0	0	0	0	0	0	0	0	0	0	0	0	0	0	0	0	0	0	0	0	0	0	0	0	0	0	0	0	0	0	0	0	0	0	0	0	0	0	0	0	0	0	0	0	0	0	0	0	0	0	0	0	1506	1454	1434	1432	1442	1461	1463	1453	1450	1441	1441	1452	1464	1468	1466	1454	1447	1450	1462	1488	1493	1489	1472	1469	1460	1446	1443	1458	1481	1490	1484	1467	1462	1463	1461	1469	1472	1475	1479	1485	1481	1481	1477	1471	1467	1463	1460	1458	1459	1463	1477	1499	1498	1483	1463	1452	1461	1462	1465	1475	1483	1477	1465	1445	1427	1415	1410	1421	1441	1451	1461	1454	1456	1470	1483	1491	1489	1486	1484	1479	1469	1472	1477	1471	1461	1445	1446	1443	1447	1455	1459	1450	1449	1444	1451	1462	1476	1478	1479	1471	1457	1457	1454	1459	1440	1450	1461	1461	1455	1455	1460	1458	1458	1448	1440	1431	1406	1383	1322	1255	1240	1231	1227	1216	1205	1196	1180	1158	1152	0	0	0	0	0	0	1074	1062	1061	1046	1018	988	966	955	954	956	963	963	966	972	980	990	1002	1004	0	0	0	0	0	0	989	1001	1010	0	1038	1034	0	0	0	0	0	0	0	0	0	1303	1394	1428	1458	1468	1468	1476	1478	1483	1477	1479	1476	1467	1469	1473	1479	1471	1466	1465	1476	1486	1491	1488	1473	1469	1476	1484	1493	1493	1493	1492	1489	1487	1484	1485	1491	1490	1484	1473	1468	1478	1488	1496	1511	1507	1497	1498	1503	1503	1512	1518	1509	1500	1487	1501	1521	1528	1526	1510	1504	1504	1511	1507	1501	1490	1489	1489	1483	1485	1490	1497	1494	1486	1484	1473	1463	1450	1453	1461	1472	1479	1479	1476	1475	1475	1471	1475	1474	1481	1469	1472	1492	1505	1515	1510	1491	1484	1485	1485	1481	1478	1474	1477	1478	1480	1480	1483	1475	1478	1472	1469	1481	1492	1497	1496	1495	1498	1499	1514	1509	1502	1495	1496	1504	1501	1494	1480	1468	1473	1479	1482	1488	1491	1494	1493	1487	1487	1492	0	0	0	0	0	0	0	0	0	0	0	0	0	0	0	0	0	963	956	944	933	939	944	941	0	0	0	0	0	0	0	0	0	0	0	0	0	0	0	0	0	0	0	0	0	0	0	0	0	0	0	1044	1021	1006	1007	1006	999	996	1004	1024	1043	1074	1150	1249	1399	1432	1439	1444	1449	1459	1461	1453	1456	1458	1457	1454	1447	1451	1463	1469	1469	1469	1463	1470	1471	1462	1462	1457	1469	1472	1470	1477	1494	1493	1490	1492	1487	1477	1471	1469	1471	1476	1474	1477	1478	1490	1506	1507	1500	1492	1486	1472	1459	1452	1459	1464	1476	1472	1469	1473	1484	1482	1473	1468	1469	1475	1490	1501	1494	1480	1469	1466	1467	1467	1452	1440	1443	1454	1464	1473	1478	1472	1471	1471	1465	1456	1442	1460	1484	1488	1489	1485	1488	1490	1481	1479	1472	1471	1474	1476	1470	1456	1441	1428	1420	1424	1444	1458	1467	1462	1445	1445	1441	1446	1446	1446	1453	1457	1454	1451	1452	1459	1467	1480	1478	1472	1483	1488	1478	1460	1445	1432	1425	1424	1442	1461	1481	1482	1480	1470	1461	1466	1464	1464	1458	1458	1453	1454	1451	1447	1450	1454	1461	1461	1451	1450	1446	1455	1459	1464	1464	1471	1470	1480	1471	1463	1450	1442	0	0	0	0	0	0	0
0	0	0	0	0	0	0	0	0	0	0	0	0	0	0	0	0	0	0	0	0	0	0	0	0	0	0	0	0	0	0	0	0	0	0	0	0	0	0	0	0	0	0	0	0	0	0	0	0	0	0	0	0	0	0	0	0	0	0	0	0	0	0	0	0	0	0	0	0	0	0	0	0	0	0	0	0	0	0	0	0	0	0	0	0	0	0	0	0	0	0	0	0	1488	1460	1446	1448	1451	1458	1456	1446	1440	1439	1445	1458	1469	1474	1469	1461	1454	1449	1468	1487	1489	1481	1480	1477	1473	1466	1464	1474	1487	1484	1452	1443	1442	1445	1454	1465	1476	1479	1483	1481	1485	1489	1496	1492	1487	1475	1466	1462	1467	1485	1491	1494	1491	1480	1468	1453	1452	1459	1466	1472	1469	1460	1443	1426	1415	1407	1417	1424	1447	1463	1461	1454	1457	1466	1472	1482	1478	1481	1489	1478	1467	1465	1467	1471	1460	1458	1455	1457	1462	1460	1463	1464	1463	1463	1466	1465	1460	1460	1465	1463	1450	1448	1447	1437	1439	1445	1457	1453	1444	1437	1441	1447	1448	1436	1411	1256	1198	1188	1179	1193	1197	1204	1215	1204	1198	1185	1170	1152	0	0	0	0	0	0	1067	1069	1054	1049	1031	1005	975	954	944	946	944	955	952	953	963	975	983	998	1009	1000	985	0	0	958	959	972	0	0	0	0	0	0	0	0	0	0	0	0	0	1298	1384	1414	1429	1432	1446	1460	1465	1459	1460	1472	1476	1477	1473	1469	1475	1479	1477	1473	1467	1474	1489	1495	1490	1481	1469	1475	1484	1488	1485	1488	1489	1486	1478	1475	1477	1482	1483	1483	1480	1474	1478	1485	1491	1503	1508	1499	1495	1495	1507	1522	1529	1499	1497	1491	1507	1518	1528	1521	1511	1497	1498	1501	1501	1497	1485	1487	1486	1483	1479	1484	1496	1498	1496	1486	1477	1465	1456	1454	1461	1469	1475	1477	1481	1477	1474	1465	1464	1474	1473	1462	1463	1473	1490	1506	1515	1509	1495	1489	1471	1481	1475	1470	1469	1469	1468	1462	1467	1471	1467	1464	1469	1477	1494	1496	1499	1496	1501	1506	1506	1499	1490	1488	1497	1500	1494	1487	1462	1455	1455	1469	1470	1470	1475	1479	1484	1484	1487	1485	1486	0	0	0	0	0	0	0	0	0	0	0	0	0	0	0	975	964	943	925	921	916	920	923	927	960	957	0	0	0	931	918	930	945	963	959	962	972	981	981	981	971	947	951	957	944	914	920	939	966	973	976	975	973	980	979	975	977	981	988	994	1005	1022	1061	1144	1330	1386	1407	1437	1455	1457	1449	1448	1449	1452	1444	1442	1439	1446	1459	1468	1473	1467	1465	1468	1459	1457	1469	1475	1483	1487	1503	1504	1509	1493	1490	1486	1475	1469	1472	1478	1479	1485	1484	1484	1497	1511	1518	1507	1494	1499	1487	1467	1457	1452	1464	1468	1461	1469	1478	1496	1498	1501	1501	1502	1487	1489	1492	1491	1474	1466	1458	1460	1454	1439	1428	1426	1435	1448	1456	1447	1448	1453	1458	1460	1455	1442	1448	1464	1481	1486	1493	1489	1495	1491	1483	1482	1483	1486	1478	1471	1459	1456	1447	1443	1448	1453	1455	1462	1457	1453	1451	1446	1450	1459	1463	1466	1470	1467	1462	1455	1457	1478	1489	1487	1480	1481	1470	1462	1444	1434	1427	1424	1425	1437	1465	1479	1489	1484	1473	1466	1470	1472	1464	1464	1452	1442	1446	1444	1437	1443	1453	1457	1455	1448	1442	1435	1441	1450	1463	1463	1468	1475	1472	1475	1471	1468	1438	0	0	0	0	0	0	0
0	0	0	0	0	0	0	0	0	0	0	0	0	0	0	0	0	0	0	0	0	0	0	0	0	0	0	0	0	0	0	0	0	0	0	0	0	0	0	0	0	0	0	0	0	0	0	0	0	0	0	0	0	0	0	0	0	0	0	0	0	0	0	0	0	0	0	0	0	0	0	0	0	0	0	0	0	0	0	0	0	0	0	0	0	0	0	0	0	0	0	0	0	1469	1460	1448	1444	1448	1445	1448	1443	1444	1438	1450	1470	1473	1486	1475	1469	1460	1470	1483	1488	1481	1470	1476	1478	1482	1476	1482	1487	1486	1478	1455	1433	1437	1440	1451	1464	1477	1487	1482	1465	1473	1493	1504	1502	1501	1485	1477	1473	1484	1493	1497	1494	1492	1477	1469	1460	1441	1436	1443	1442	1436	1420	1414	1418	1416	1433	1452	1464	1467	1468	1463	1450	1450	1454	1468	1473	1475	1477	1479	1478	1465	1453	1454	1464	1470	1480	1475	1464	1459	1465	1468	1476	1477	1478	1480	1478	1461	1454	1452	1455	1458	1460	1462	1469	1466	1460	1452	1448	1436	1424	1424	1409	1361	1234	1205	1150	1148	1134	1130	1143	1155	1168	1177	1168	1161	1152	1138	1118	0	0	0	0	1044	1043	1047	1040	1026	1013	1004	983	955	946	947	955	958	956	952	950	952	964	974	990	992	986	976	960	955	952	953	0	0	0	0	0	0	0	0	0	0	0	0	0	0	1351	1376	1413	1409	1416	1423	1445	1453	1459	1462	1466	1474	1477	1479	1470	1475	1479	1484	1473	1461	1459	1465	1478	1487	1479	1473	1474	1477	1477	1484	1488	1494	1489	1482	1471	1475	1477	1481	1482	1485	1469	1478	1488	1485	1477	1484	1496	1489	1490	1499	1517	1515	1494	1476	1476	1497	1507	1511	1518	1509	1499	1495	1496	1493	1490	1490	1493	1487	1481	1477	1476	1487	1482	1485	1489	1477	1466	1455	1464	1467	1475	1478	1483	1486	1486	1474	1475	1472	1482	1479	1469	1464	1470	1481	1489	1498	1513	1501	1481	1471	1466	1477	1475	1470	1466	1452	1451	1451	1459	1458	1456	1462	1476	1494	1496	1508	1498	1495	1497	1496	1490	1485	1485	1491	1495	1494	1482	1458	1450	1439	1457	1461	1454	1454	1462	1471	1488	1490	1488	1477	1464	0	0	0	0	0	0	0	0	0	0	0	0	0	0	972	950	930	915	910	912	916	917	945	960	958	943	934	923	916	913	918	931	933	930	927	935	947	954	955	937	936	940	940	935	903	906	926	941	950	958	954	946	941	942	940	944	958	959	957	957	966	1012	1038	1068	1154	1231	1344	1414	1437	1442	1446	1442	1445	1444	1438	1438	1439	1447	1461	1467	1462	1462	1465	1460	1454	1465	1473	1475	1487	1492	1509	1523	1499	1490	1477	1471	1476	1484	1485	1490	1491	1486	1482	1491	1511	1524	1515	1507	1506	1499	1477	1458	1452	1452	1462	1471	1479	1487	1493	1486	1482	1485	1482	1482	1481	1478	1477	1475	1487	1484	1473	1461	1439	1427	1426	1441	1448	1447	1438	1445	1454	1460	1465	1461	1447	1450	1467	1480	1485	1476	1473	1476	1483	1488	1492	1508	1507	1494	1481	1472	1480	1485	1476	1465	1454	1445	1436	1437	1448	1447	1453	1456	1463	1477	1486	1489	1486	1482	1474	1471	1484	1484	1491	1484	1468	1470	1453	1444	1426	1424	1423	1430	1446	1471	1487	1492	1482	1470	1463	1469	1473	1458	1458	1443	1442	1437	1434	1432	1435	1444	1452	1453	1447	1437	1427	1430	1439	1449	1449	1460	1471	1482	1482	1477	1473	1429	0	0	0	0	0	0	0
0	0	0	0	0	0	0	0	0	0	0	0	0	0	0	0	0	0	0	0	0	0	0	0	0	0	0	0	0	0	0	0	0	0	0	0	0	0	0	0	0	0	0	0	0	0	0	0	0	0	0	0	0	0	0	0	0	0	0	0	0	0	0	0	0	0	0	0	0	0	0	0	0	0	0	0	0	0	0	0	0	0	0	0	0	0	0	0	0	0	0	0	0	1442	1457	1455	1451	1442	1436	1437	1435	1437	1449	1455	1471	1488	1491	1481	1477	1465	1472	1495	1482	1463	1453	1451	1465	1467	1479	1484	1484	1481	1475	1461	1447	1443	1447	1458	1471	1483	1486	1473	1453	1457	1472	1497	1504	1498	1495	1493	1500	1500	1500	1495	1491	1489	1478	1467	1469	1435	1435	1434	1436	1435	1427	1417	1416	1425	1435	1449	1468	1485	1479	1468	1441	1436	1445	1462	1471	1471	1469	1467	1463	1454	1449	1453	1463	1479	1496	1484	1474	1463	1460	1469	1474	1481	1482	1481	1477	1455	1443	1447	1460	1474	1476	1475	1476	1468	1458	1446	1440	1430	1407	1306	1199	1137	1116	1115	1098	1092	1087	1090	1101	1119	1125	1134	1130	1124	1113	1095	0	0	0	0	0	1014	1021	1020	1011	993	977	966	947	937	940	951	966	970	963	953	943	940	947	960	964	973	972	949	947	955	962	0	0	0	0	0	0	0	0	0	0	0	0	0	0	1366	1391	1392	1419	1415	1415	1428	1442	1456	1459	1463	1467	1475	1480	1482	1461	1467	1467	1466	1433	1442	1471	1480	1481	1487	1470	1474	1477	1476	1478	1486	1494	1500	1497	1488	1484	1484	1490	1493	1487	1471	1480	1485	1491	1485	1480	1470	1479	1500	1486	1490	1499	1513	1494	1473	1488	1495	1496	1497	1495	1496	1494	1487	1486	1488	1484	1490	1491	1492	1485	1475	1473	1474	1479	1486	1480	1464	1448	1450	1456	1472	1479	1474	1490	1504	1495	1483	1474	1478	1488	1489	1483	1483	1488	1486	1474	1482	1488	1493	1476	1467	1472	1483	1487	1475	1457	1448	1438	1440	1443	1443	1450	1463	1484	1496	1506	1505	1500	1491	1493	1500	1507	1493	1488	1493	1494	1487	1476	1461	1453	1459	1461	1462	1465	1460	1460	1478	1485	1486	1485	1477	1458	0	0	0	0	0	0	0	0	0	0	0	0	0	0	956	934	915	907	904	906	910	916	942	947	937	927	915	902	900	908	909	922	917	910	900	896	907	925	924	925	929	936	936	926	891	888	904	912	925	936	937	929	913	909	910	916	931	935	941	938	939	964	983	1000	1012	1042	1078	1213	1368	1403	1424	1435	1434	1441	1444	1447	1445	1456	1464	1468	1464	1457	1471	1465	1459	1460	1463	1470	1476	1495	1519	1523	1505	1491	1474	1473	1489	1505	1514	1515	1510	1502	1493	1491	1508	1517	1524	1516	1510	1503	1483	1475	1474	1483	1490	1496	1496	1492	1488	1479	1468	1463	1463	1466	1460	1464	1463	1491	1494	1489	1487	1473	1457	1439	1438	1452	1447	1438	1433	1438	1459	1463	1463	1455	1454	1468	1480	1482	1475	1464	1443	1448	1466	1484	1509	1518	1522	1512	1500	1489	1498	1501	1492	1479	1460	1445	1440	1441	1453	1455	1455	1454	1464	1478	1474	1480	1480	1470	1477	1478	1480	1487	1484	1484	1477	1473	1460	1458	1463	1472	1466	1460	1461	1473	1483	1490	1476	1466	1462	1476	1471	1461	1461	1453	1443	1435	1428	1427	1437	1448	1458	1456	1445	1437	1426	1426	1431	1433	1433	1453	1469	1481	1487	1483	1468	1413	0	0	0	0	0	0	0
0	0	0	0	0	0	0	0	0	0	0	0	0	0	0	0	0	0	0	0	0	0	0	0	0	0	0	0	0	0	0	0	0	0	0	0	0	0	0	0	0	0	0	0	0	0	0	0	0	0	0	0	0	0	0	0	0	0	0	0	0	0	0	0	0	0	0	0	0	0	0	0	0	0	0	0	0	0	0	0	0	0	0	0	0	0	0	0	0	0	0	0	0	1424	1459	1457	1456	1449	1436	1429	1428	1432	1440	1462	1472	1489	1494	1484	1476	1454	1477	1476	1460	1444	1437	1441	1443	1451	1465	1469	1474	1470	1467	1465	1461	1462	1466	1463	1467	1487	1488	1478	1442	1448	1456	1473	1483	1480	1483	1497	1511	1511	1501	1493	1489	1487	1481	1479	1474	1454	1447	1443	1443	1443	1433	1431	1421	1421	1430	1438	1458	1477	1483	1479	1469	1464	1469	1473	1471	1467	1453	1440	1445	1442	1440	1452	1465	1481	1493	1499	1487	1473	1467	1463	1470	1474	1470	1462	1465	1452	1450	1460	1465	1478	1474	1472	1467	1461	1430	1405	1354	1290	1167	1111	1106	1095	1082	1074	1063	1058	1058	1070	1093	1108	1112	1103	1099	1087	1076	1062	1048	0	1030	1010	995	986	1004	998	982	963	949	942	934	932	935	947	958	964	958	944	933	925	926	935	937	939	931	926	938	963	0	0	0	0	0	0	0	0	0	0	0	0	1371	1424	1393	1426	1423	1433	1430	1455	1443	1451	1463	1471	1477	1481	1482	1476	1479	1476	1467	1448	1449	1419	1429	1455	1462	1449	1456	1484	1464	1475	1482	1485	1490	1491	1499	1505	1504	1501	1500	1503	1506	1504	1497	1478	1476	1491	1489	1494	1491	1471	1475	1474	1501	1487	1486	1493	1481	1474	1485	1487	1495	1492	1491	1491	1483	1483	1477	1485	1489	1490	1489	1483	1481	1463	1460	1459	1468	1474	1468	1457	1447	1448	1464	1477	1486	1489	1505	1513	1509	1490	1477	1475	1480	1484	1493	1504	1505	1497	1475	1473	1478	1485	1475	1472	1480	1497	1488	1478	1460	1441	1438	1434	1439	1450	1459	1480	1490	1492	1497	1499	1500	1490	1485	1491	1496	1493	1493	1494	1490	1480	1472	1461	1458	1476	1483	1481	1484	1490	1499	1489	1482	1480	1482	1481	1469	1445	0	0	0	0	0	0	0	0	0	0	0	0	0	956	932	913	894	887	888	898	909	926	927	912	898	885	881	889	901	909	908	902	889	875	871	880	891	897	905	915	922	918	908	870	873	880	891	902	913	919	914	903	894	892	897	905	918	932	934	930	936	945	954	949	945	948	1012	1068	1109	1289	1396	1406	1421	1429	1436	1441	1458	1471	1470	1468	1464	1465	1468	1456	1454	1462	1465	1472	1497	1524	1537	1518	1498	1468	1478	1503	1533	1558	1566	1551	1529	1508	1495	1506	1532	1539	1506	1483	1489	1486	1483	1486	1496	1503	1506	1496	1483	1485	1482	1473	1469	1461	1458	1454	1448	1455	1477	1481	1479	1478	1476	1474	1462	1461	1469	1458	1442	1436	1435	1449	1461	1460	1453	1454	1462	1487	1482	1468	1450	1447	1444	1461	1483	1505	1521	1526	1522	1516	1508	1505	1510	1501	1480	1461	1435	1445	1453	1465	1452	1458	1465	1475	1477	1480	1472	1472	1462	1467	1468	1479	1475	1478	1486	1492	1493	1477	1478	1479	1482	1472	1458	1460	1467	1472	1471	1464	1463	1476	1475	1471	1462	1462	1461	1451	1438	1428	1433	1447	1460	1463	1457	1448	1435	1430	1430	1433	1441	1441	1454	1469	1480	1487	1482	1458	1403	0	0	0	0	0	0	0
0	0	0	0	0	0	0	0	0	0	0	0	0	0	0	0	0	0	0	0	0	0	0	0	0	0	0	0	0	0	0	0	0	0	0	0	0	0	0	0	0	0	0	0	0	0	0	0	0	0	0	0	0	0	0	0	0	0	0	0	0	0	0	0	0	0	0	0	0	0	0	0	0	0	0	0	0	0	0	0	0	0	0	0	0	0	0	0	0	0	0	0	0	1436	1461	1463	1457	1442	1435	1430	1425	1428	1445	1453	1458	1487	1488	1479	1471	1484	1468	1458	1434	1438	1439	1437	1439	1447	1460	1467	1465	1465	1469	1476	1475	1479	1472	1463	1468	1485	1486	1478	1444	1451	1458	1453	1454	1450	1463	1488	1503	1504	1498	1492	1488	1488	1480	1475	1473	1479	1467	1452	1436	1431	1441	1440	1428	1429	1431	1442	1457	1475	1478	1476	1479	1488	1483	1483	1474	1456	1438	1435	1430	1434	1437	1442	1461	1481	1487	1501	1496	1481	1473	1466	1471	1464	1458	1452	1452	1460	1470	1467	1468	1467	1456	1438	1428	1400	1297	1170	1108	1078	1078	1082	1080	1069	1068	1064	1059	1040	1046	1065	1095	1109	1104	1094	1080	1072	1060	1043	1034	1025	1014	999	981	973	990	985	962	937	919	920	915	924	928	937	946	949	945	938	921	910	905	911	913	908	893	916	946	0	0	0	0	0	0	0	0	0	0	0	0	1363	1419	1465	1478	1490	1454	1462	1459	1487	1477	1473	1476	1481	1490	1494	1490	1481	1476	1470	1459	1445	1446	1427	1444	1453	1457	1444	1448	1467	1461	1481	1493	1493	1493	1494	1497	1507	1513	1515	1514	1516	1516	1513	1504	1497	1481	1476	1507	1504	1491	1485	1470	1468	1479	1474	1477	1481	1481	1480	1476	1484	1491	1489	1490	1486	1486	1482	1483	1475	1472	1482	1472	1471	1462	1447	1451	1450	1452	1457	1458	1452	1450	1463	1483	1504	1498	1495	1494	1508	1505	1493	1476	1478	1468	1482	1499	1515	1521	1512	1490	1480	1482	1481	1474	1464	1475	1484	1493	1488	1468	1452	1437	1437	1450	1470	1500	1508	1498	1483	1493	1503	1498	1485	1479	1480	1479	1481	1478	1479	1479	1473	1466	1460	1469	1484	1493	1494	1509	1522	1508	1485	1473	1473	1475	1479	1484	1478	0	0	0	0	0	0	0	0	0	0	0	0	0	0	943	906	875	865	863	872	885	904	898	891	875	869	872	890	895	894	892	886	876	871	869	872	879	884	889	895	898	894	862	851	853	864	882	891	901	906	906	904	892	886	884	894	916	928	931	925	925	930	925	914	904	914	926	948	972	1054	1233	1259	1319	1374	1399	1406	1448	1461	1476	1471	1466	1469	1463	1458	1464	1469	1466	1471	1487	1513	1533	1520	1505	1497	1495	1506	1536	1563	1577	1570	1548	1525	1519	1528	1535	1541	1482	1470	1478	1498	1490	1491	1490	1503	1502	1494	1488	1483	1484	1482	1475	1475	1468	1455	1449	1450	1455	1452	1459	1463	1477	1482	1483	1474	1481	1473	1453	1447	1448	1453	1461	1456	1444	1446	1464	1475	1466	1455	1444	1448	1453	1470	1484	1493	1505	1510	1508	1508	1502	1500	1496	1490	1469	1448	1438	1439	1456	1460	1458	1455	1468	1476	1484	1478	1477	1473	1468	1467	1467	1469	1470	1468	1471	1478	1478	1468	1463	1466	1460	1464	1455	1445	1448	1451	1457	1460	1470	1479	1471	1463	1461	1461	1464	1462	1446	1441	1446	1466	1478	1479	1463	1448	1442	1436	1440	1450	1450	1457	1458	1464	1476	1479	1480	1444	1396	0	0	0	0	0	0	0
0	0	0	0	0	0	0	0	0	0	0	0	0	0	0	0	0	0	0	0	0	0	0	0	0	0	0	0	0	0	0	0	0	0	0	0	0	0	0	0	0	0	0	0	0	0	0	0	0	0	0	0	0	0	0	0	0	0	0	0	0	0	0	0	0	0	0	0	0	0	0	0	0	0	0	0	0	0	0	0	0	0	0	0	0	0	0	0	0	0	0	0	0	1499	1474	1461	1450	1446	1443	1439	1430	1440	1448	1454	1458	1480	1493	1486	1478	1490	1464	1443	1430	1437	1455	1449	1449	1456	1468	1472	1468	1469	1468	1478	1481	1484	1474	1465	1465	1477	1461	1447	1431	1441	1454	1449	1443	1436	1459	1488	1491	1492	1495	1497	1497	1488	1474	1463	1459	1469	1463	1443	1433	1437	1447	1449	1450	1450	1461	1464	1475	1478	1480	1483	1490	1485	1486	1486	1473	1464	1451	1441	1444	1439	1433	1430	1450	1463	1482	1497	1495	1478	1459	1468	1460	1462	1453	1448	1459	1476	1471	1458	1454	1444	1401	1328	1291	1219	1081	1050	1056	1066	1071	1075	1065	1064	1070	1082	1084	1049	1049	1075	1100	1110	1101	1083	1072	1062	1058	1049	1034	1023	1006	989	989	981	0	0	0	0	0	0	0	0	933	933	937	939	937	936	925	912	912	0	0	899	880	889	0	0	0	0	0	0	0	0	0	0	0	0	1373	1424	1446	1459	1482	1492	1486	1484	1460	1489	1485	1485	1488	1494	1505	1503	1491	1482	1478	1473	1459	1453	1458	1453	1457	1463	1457	1457	1456	1444	1452	1492	1503	1502	1490	1488	1490	1502	1515	1515	1512	1508	1504	1501	1500	1502	1498	1497	1493	1490	1487	1484	1468	1461	1461	1471	1481	1485	1486	1487	1483	1484	1481	1480	1481	1488	1491	1469	1465	1466	1461	1469	1461	1456	1453	1450	1448	1450	1443	1448	1448	1450	1462	1481	1506	1517	1508	1493	1487	1499	1500	1499	1496	1484	1473	1474	1495	1519	1520	1513	1499	1482	1472	1470	1466	1461	1465	1477	1491	1490	1486	1467	1450	1456	1469	1492	1517	1511	1494	1479	1483	1492	1489	1480	1483	1485	1482	1477	1474	1476	1482	1481	1470	1470	1480	1485	1488	1499	1518	1524	1508	1484	1459	1459	1468	1474	1490	1488	1489	1453	0	0	0	0	0	0	0	0	0	0	0	0	0	912	863	846	839	832	855	873	874	875	872	872	886	892	895	891	885	875	871	865	869	872	875	873	876	879	882	878	850	846	848	862	879	891	896	893	893	891	890	887	883	897	909	921	924	917	916	918	913	898	884	887	895	908	923	941	985	1027	1109	1250	1321	1400	1425	1449	1468	1476	1474	1475	1472	1471	1469	1467	1466	1470	1480	1497	1517	1515	1509	1505	1504	1503	1502	1497	1513	1535	1536	1521	1513	1519	1516	1506	1475	1470	1484	1494	1505	1494	1482	1487	1485	1485	1485	1487	1483	1492	1494	1491	1481	1468	1461	1444	1437	1435	1432	1452	1468	1486	1490	1488	1483	1481	1469	1461	1462	1461	1467	1463	1439	1446	1462	1474	1466	1450	1445	1444	1460	1476	1485	1479	1476	1485	1493	1483	1477	1478	1481	1477	1460	1437	1427	1437	1459	1466	1465	1457	1458	1471	1481	1489	1488	1479	1470	1461	1466	1466	1464	1452	1463	1464	1460	1449	1447	1450	1449	1466	1468	1457	1447	1443	1447	1458	1470	1474	1469	1462	1462	1463	1468	1477	1461	1454	1459	1481	1489	1486	1472	1459	1452	1451	1451	1466	1466	1467	1463	1461	1469	1475	1478	1430	0	0	0	0	0	0	0	0
0	0	0	0	0	0	0	0	0	0	0	0	0	0	0	0	0	0	0	0	0	0	0	0	0	0	0	0	0	0	0	0	0	0	0	0	0	0	0	0	0	0	0	0	0	0	0	0	0	0	0	0	0	0	0	0	0	0	0	0	0	0	0	0	0	0	0	0	0	0	0	0	0	0	0	0	0	0	0	0	0	0	0	0	0	0	0	0	0	0	0	0	0	0	1530	1482	1459	1444	1440	1446	1467	1464	1469	1470	1472	1486	1490	1483	1468	1455	1464	1446	1439	1455	1469	1473	1462	1465	1474	1482	1479	1472	1472	1483	1487	1482	1474	1467	1470	1470	1450	1417	1400	1426	1441	1445	1447	1455	1477	1483	1485	1488	1489	1499	1500	1490	1474	1456	1446	1445	1436	1428	1422	1427	1442	1458	1463	1468	1480	1488	1486	1486	1489	1495	1502	1487	1473	1473	1472	1463	1460	1454	1446	1439	1431	1430	1433	1447	1469	1494	1487	1470	1464	1458	1458	1447	1451	1452	1463	1464	1449	1429	1416	1408	1232	1164	1126	1079	1053	1043	1055	1075	1085	1078	1069	1059	1077	1094	1106	1087	1086	1098	1101	1105	1094	1083	1077	1078	1071	1065	0	0	0	0	0	0	0	0	0	0	0	0	0	0	0	0	0	0	0	0	0	0	0	0	0	0	0	0	0	0	0	0	0	0	0	0	0	0	0	1384	1427	1448	1451	1463	1493	1505	1495	1478	1472	1481	1488	1492	1492	1504	1505	1500	1495	1487	1486	1480	1474	1462	1472	1480	1489	1474	1466	1462	1466	1446	1458	1498	1507	1496	1490	1483	1485	1491	1509	1511	1506	1505	1500	1499	1500	1502	1499	1496	1491	1479	1484	1480	1471	1459	1470	1481	1484	1487	1485	1491	1489	1480	1472	1469	1464	1478	1476	1465	1458	1459	1454	1462	1456	1463	1477	1478	1474	1457	1444	1442	1445	1456	1463	1488	1515	1517	1503	1477	1468	1494	1504	1508	1506	1495	1485	1479	1486	1507	1516	1514	1503	1489	1463	1466	1466	1468	1475	1487	1492	1498	1490	1476	1463	1466	1482	1490	1492	1497	1488	1477	1480	1471	1466	1475	1487	1494	1496	1481	1475	1479	1491	1492	1481	1475	1482	1489	1487	1497	1510	1511	1502	1482	1459	1453	1459	1476	1490	1496	1484	1471	1429	0	0	0	0	0	0	0	0	0	0	0	0	944	877	847	832	822	831	850	855	864	873	881	890	895	892	885	875	865	862	859	857	868	870	865	865	869	872	865	849	844	847	854	869	882	890	895	895	890	885	885	888	892	901	913	914	906	897	895	895	881	865	858	854	868	886	892	915	933	949	961	1042	1349	1398	1439	1458	1473	1480	1484	1481	1482	1477	1474	1473	1475	1480	1486	1500	1506	1508	1507	1509	1499	1486	1481	1487	1501	1510	1507	1501	1496	1487	1462	1465	1482	1493	1517	1523	1504	1479	1474	1468	1474	1470	1476	1484	1497	1503	1506	1491	1479	1464	1450	1430	1429	1432	1454	1466	1493	1506	1503	1493	1483	1476	1470	1474	1478	1475	1470	1447	1456	1475	1480	1472	1448	1438	1444	1457	1461	1457	1452	1460	1465	1469	1458	1459	1460	1470	1471	1460	1447	1437	1446	1464	1472	1468	1452	1453	1465	1480	1485	1492	1485	1470	1462	1460	1464	1457	1453	1453	1455	1452	1456	1450	1451	1466	1492	1484	1478	1478	1495	1508	1474	1484	1475	1469	1457	1457	1454	1457	1472	1475	1457	1468	1490	1499	1495	1483	1468	1459	1467	1468	1471	1471	1473	1463	1461	1469	1470	1463	1410	0	0	0	0	0	0	0	0
0	0	0	0	0	0	0	0	0	0	0	0	0	0	0	0	0	0	0	0	0	0	0	0	0	0	0	0	0	0	0	0	0	0	0	0	0	0	0	0	0	0	0	0	0	0	0	0	0	0	0	0	0	0	0	0	0	0	0	0	0	0	0	0	0	0	0	0	0	0	0	0	0	0	0	0	0	0	0	0	0	0	0	0	0	0	0	0	0	0	0	0	0	0	1554	1501	1463	1454	1450	1462	1484	1492	1488	1487	1484	1493	1490	1485	1464	1446	1433	1448	1460	1479	1489	1488	1471	1466	1469	1475	1474	1469	1473	1474	1474	1478	1475	1475	1482	1473	1451	1423	1401	1419	1444	1455	1461	1475	1488	1489	1481	1481	1489	1498	1505	1487	1466	1442	1435	1431	1425	1418	1423	1443	1460	1466	1467	1473	1483	1488	1486	1486	1492	1498	1498	1477	1461	1460	1463	1460	1459	1460	1456	1443	1436	1427	1437	1449	1468	1489	1478	1468	1453	1455	1453	1449	1448	1450	1453	1438	1407	1370	1306	1205	1157	0	0	1090	1064	1057	1068	1090	1101	1097	1084	1082	1089	1105	1121	1132	0	1138	1128	1118	1108	1105	1111	1110	0	0	0	0	0	0	0	0	0	0	0	0	0	0	0	0	0	0	0	0	0	0	0	0	0	0	0	0	0	0	0	0	0	0	0	0	0	0	0	0	1388	1442	1434	1445	1462	1470	1480	1494	1483	1458	1470	1479	1487	1499	1505	1501	1501	1497	1497	1497	1500	1495	1488	1486	1480	1481	1489	1495	1459	1457	1463	1457	1464	1500	1499	1499	1491	1483	1485	1495	1502	1506	1507	1503	1498	1498	1501	1500	1498	1495	1491	1508	1505	1497	1492	1498	1477	1484	1485	1485	1484	1487	1485	1470	1461	1456	1456	1458	1467	1469	1474	1474	1470	1466	1459	1473	1489	1494	1487	1464	1465	1461	1459	1459	1463	1479	1488	1493	1476	1466	1463	1480	1503	1513	1506	1510	1501	1499	1501	1516	1524	1516	1501	1477	1456	1464	1481	1494	1494	1488	1485	1491	1486	1476	1464	1466	1478	1486	1485	1482	1476	1469	1456	1451	1456	1470	1481	1489	1490	1480	1471	1478	1494	1502	1495	1487	1488	1485	1482	1493	1494	1497	1493	1483	1472	1473	1476	1505	1496	1490	1477	1464	1445	0	0	0	0	0	0	0	0	0	0	0	0	0	911	869	846	827	822	829	836	846	858	869	874	881	879	877	867	859	846	843	848	855	860	858	852	855	856	852	839	835	840	839	850	858	873	880	887	880	887	885	886	886	891	894	905	897	888	880	877	868	854	845	846	847	853	858	863	880	890	904	918	1003	1102	1302	1440	1458	1474	1485	1484	1484	1479	1470	1460	1472	1485	1483	1491	1495	1494	1489	1494	1496	1492	1482	1490	1494	1487	1492	1493	1487	1474	1449	1469	1485	1502	1511	1508	1496	1474	1456	1453	1462	1472	1479	1488	1501	1508	1508	1488	1479	1464	1450	1437	1434	1443	1453	1473	1481	1495	1498	1495	1487	1485	1482	1486	1483	1475	1461	1455	1458	1471	1479	1466	1447	1434	1441	1444	1447	1444	1447	1445	1449	1452	1441	1438	1446	1458	1467	1468	1460	1453	1458	1460	1468	1458	1452	1454	1462	1478	1487	1485	1477	1465	1458	1455	1462	1459	1462	1466	1465	1469	1466	1469	1472	1486	1499	1499	1493	1492	1509	1521	1521	1513	1495	1476	1460	1460	1444	1446	1448	1458	1465	1476	1490	1496	1492	1482	1474	1467	1468	1475	1480	1480	1472	1466	1466	1473	1475	1464	1414	0	0	0	0	0	0	0	0
0	0	0	0	0	0	0	0	0	0	0	0	0	0	0	0	0	0	0	0	0	0	0	0	0	0	0	0	0	0	0	0	0	0	0	0	0	0	0	0	0	0	0	0	0	0	0	0	0	0	0	0	0	0	0	0	0	0	0	0	0	0	0	0	0	0	0	0	0	0	0	0	0	0	0	0	0	0	0	0	0	0	0	0	0	0	0	0	0	0	0	0	0	0	1546	1496	1464	1458	1460	1474	1486	1490	1495	1497	1489	1503	1501	1485	1462	1446	1444	1459	1486	1500	1513	1507	1486	1465	1461	1461	1464	1474	1475	1473	1469	1463	1469	1476	1482	1479	1458	1434	1415	1428	1454	1465	1479	1487	1497	1494	1486	1486	1487	1492	1494	1471	1454	1444	1444	1437	1434	1438	1449	1463	1477	1475	1466	1467	1473	1474	1475	1470	1476	1481	1484	1455	1448	1445	1442	1451	1459	1463	1452	1445	1431	1428	1432	1440	1463	1475	1469	1461	1458	1453	1444	1438	1390	1442	1430	1378	1255	1198	1134	1136	0	0	0	0	0	1080	1080	1099	1119	1121	1117	1116	1121	1126	1136	1169	0	0	0	1166	1156	1152	1148	0	0	0	0	0	0	0	0	0	0	0	0	0	0	0	0	0	0	0	0	0	0	0	0	0	0	0	0	0	0	0	0	0	0	0	0	0	0	0	0	1395	1484	1463	1449	1444	1468	1475	1489	1456	1435	1433	1467	1491	1487	1510	1519	1497	1490	1497	1505	1512	1508	1501	1500	1497	1501	1484	1477	1494	1447	1444	1452	1480	1471	1487	1487	1488	1475	1468	1461	1469	1488	1502	1508	1500	1488	1508	1505	1502	1498	1494	1477	1500	1524	1516	1510	1487	1480	1481	1482	1482	1483	1481	1470	1453	1447	1458	1456	1457	1462	1472	1483	1485	1483	1470	1466	1477	1485	1484	1486	1475	1473	1477	1474	1465	1457	1466	1471	1476	1471	1465	1461	1470	1489	1497	1500	1503	1508	1520	1520	1521	1525	1516	1500	1479	1466	1475	1503	1511	1504	1485	1478	1478	1480	1464	1452	1459	1474	1483	1477	1467	1462	1460	1447	1446	1455	1465	1475	1482	1479	1472	1466	1472	1488	1502	1504	1497	1497	1495	1498	1500	1497	1481	1487	1489	1490	1501	1506	1509	1504	1494	1484	1469	1462	1445	0	0	0	0	0	0	0	0	0	0	0	0	0	896	874	847	821	817	816	823	837	846	850	848	855	860	854	846	835	830	836	845	854	849	849	844	841	834	830	831	824	827	835	846	855	862	868	868	872	878	879	872	875	883	892	886	876	869	867	861	858	853	848	854	855	856	854	859	865	867	875	937	978	1019	1103	1330	1413	1448	1364	1386	1401	1409	1422	1441	1464	1476	1491	1487	1486	1485	1496	1500	1496	1489	1485	1485	1476	1475	1480	1493	1481	1457	1471	1487	1496	1494	1490	1481	1464	1448	1445	1457	1481	1492	1496	1493	1499	1507	1494	1473	1465	1456	1455	1453	1457	1463	1469	1474	1471	1480	1474	1479	1482	1485	1482	1476	1456	1445	1440	1449	1455	1456	1448	1437	1436	1441	1443	1439	1438	1438	1443	1442	1439	1431	1436	1448	1451	1463	1462	1467	1466	1470	1463	1463	1454	1448	1450	1460	1475	1475	1470	1464	1457	1459	1467	1473	1472	1473	1478	1483	1487	1489	1479	1479	1484	1494	1489	1490	1489	1500	1505	1507	1502	1484	1467	1451	1450	1437	1442	1442	1452	1475	1485	1487	1484	1478	1477	1477	1481	1477	1480	1483	1483	1474	1472	1469	1473	1472	1468	1432	0	0	0	0	0	0	0	0
0	0	0	0	0	0	0	0	0	0	0	0	0	0	0	0	0	0	0	0	0	0	0	0	0	0	0	0	0	0	0	0	0	0	0	0	0	0	0	0	0	0	0	0	0	0	0	0	0	0	0	0	0	0	0	0	0	0	0	0	0	0	0	0	0	0	0	0	0	0	0	0	0	0	0	0	0	0	0	0	0	0	0	0	0	0	0	0	0	0	0	0	0	1532	1511	1473	1461	1462	1474	1486	1488	1491	1501	1505	1490	1497	1491	1481	1466	1458	1466	1478	1494	1510	1512	1502	1485	1457	1448	1453	1460	1469	1480	1478	1471	1466	1462	1467	1474	1467	1457	1436	1427	1434	1459	1476	1488	1498	1497	1489	1485	1475	1465	1452	1457	1455	1455	1449	1456	1455	1465	1469	1480	1482	1489	1478	1470	1463	1460	1463	1462	1456	1461	1465	1463	1439	1440	1437	1441	1450	1455	1458	1449	1431	1424	1426	1429	1447	1456	1470	1455	1445	1435	1420	1333	1262	1195	0	0	0	1083	1081	1085	0	0	0	0	0	0	0	0	1126	1145	1161	1165	1161	1158	1152	1161	1186	0	0	0	1209	1207	1196	0	0	0	0	0	0	0	0	0	0	0	0	0	0	0	0	0	0	0	0	0	0	0	0	0	0	0	0	0	0	0	0	0	0	0	0	0	0	0	0	1387	1492	1491	1473	1459	1457	1468	1470	1471	1464	1423	1427	1446	1495	1508	1509	1506	1507	1503	1501	1506	1507	1505	1496	1501	1506	1506	1486	1479	1493	1442	1438	1443	1492	1470	1468	1472	1470	1459	1419	1441	1460	1470	1467	1453	1447	1485	1488	1511	1506	1497	1453	1461	1504	1521	1511	1496	1480	1478	1476	1477	1476	1490	1485	1467	1451	1445	1451	1453	1464	1465	1479	1484	1486	1485	1469	1469	1469	1470	1475	1470	1473	1477	1482	1477	1463	1454	1457	1470	1472	1469	1465	1462	1458	1469	1480	1494	1508	1531	1540	1534	1530	1529	1515	1501	1491	1480	1491	1503	1509	1499	1484	1475	1473	1466	1453	1448	1456	1465	1476	1466	1456	1460	1465	1452	1457	1455	1467	1476	1472	1475	1463	1464	1478	1488	1498	1499	1505	1507	1508	1515	1511	1495	1479	1477	1489	1500	1504	1506	1500	1502	1504	1490	1477	1475	1463	1424	0	0	0	0	0	0	0	0	0	0	0	0	0	896	855	832	811	801	802	812	823	821	822	827	840	843	837	824	823	827	835	844	846	846	844	842	830	830	827	818	814	817	833	844	851	858	855	855	855	854	856	856	866	874	876	864	853	852	857	859	865	867	864	862	861	864	864	857	846	840	887	920	951	991	938	982	995	1050	1248	1321	1336	1369	1383	1430	1461	1475	1480	1480	1484	1494	1502	1498	1497	1479	1471	1470	1469	1481	1496	1482	1465	1465	1485	1487	1484	1479	1473	1465	1460	1461	1477	1493	1498	1501	1487	1487	1498	1491	1477	1466	1468	1472	1466	1474	1479	1473	1466	1454	1447	1441	1463	1472	1476	1468	1450	1429	1421	1416	1423	1438	1439	1442	1438	1449	1456	1445	1439	1440	1446	1451	1443	1433	1423	1437	1453	1465	1469	1468	1470	1472	1475	1480	1478	1462	1451	1453	1464	1465	1466	1454	1443	1451	1466	1471	1483	1484	1480	1482	1487	1492	1485	1479	1475	1474	1480	1476	1477	1482	1482	1484	1489	1479	1465	1451	1451	1442	1438	1441	1441	1458	1479	1484	1485	1467	1463	1469	1475	1477	1482	1475	1475	1483	1484	1480	1474	1467	1463	1460	1435	0	0	0	0	0	0	0	0
0	0	0	0	0	0	0	0	0	0	0	0	0	0	0	0	0	0	0	0	0	0	0	0	0	0	0	0	0	0	0	0	0	0	0	0	0	0	0	0	0	0	0	0	0	0	0	0	0	0	0	0	0	0	0	0	0	0	0	0	0	0	0	0	0	0	0	0	0	0	0	0	0	0	0	0	0	0	0	0	0	0	0	0	0	0	0	0	0	0	0	0	0	1467	1451	1446	1460	1469	1479	1483	1484	1491	1500	1506	1483	1478	1480	1472	1464	1467	1483	1497	1501	1503	1502	1490	1469	1455	1441	1443	1456	1464	1477	1489	1482	1472	1463	1460	1455	1452	1453	1454	1433	1430	1437	1474	1494	1497	1495	1486	1468	1448	1443	1452	1446	1449	1449	1439	1448	1468	1497	1502	1500	1493	1490	1484	1482	1475	1470	1470	1459	1450	1447	1450	1456	1435	1444	1443	1446	1460	1460	1453	1444	1435	1417	1408	1412	1425	1441	1450	1424	1347	1255	1160	1118	0	0	0	0	0	0	0	0	0	0	0	0	0	0	0	0	0	1183	1190	1200	1201	1193	1187	1191	1212	0	0	0	0	0	0	0	0	0	0	0	0	0	0	0	0	0	0	0	0	0	0	0	0	0	0	0	0	0	0	0	0	0	0	0	0	0	0	0	0	0	0	0	0	0	1367	1474	1496	1492	1485	1472	1454	1448	1456	1451	1463	1438	1435	1457	1501	1506	1502	1497	1487	1483	1482	1477	1499	1495	1484	1473	1502	1502	1500	1497	1506	1450	1429	1435	1490	1464	1462	1459	1463	1458	1413	1431	1460	1469	1465	1452	1447	1481	1492	1501	1501	1462	1467	1496	1508	1503	1486	1479	1485	1483	1478	1475	1481	1502	1494	1478	1452	1445	1448	1460	1471	1474	1476	1467	1442	1447	1453	1460	1455	1453	1456	1465	1480	1485	1464	1459	1466	1486	1489	1486	1472	1479	1465	1448	1453	1458	1464	1468	1486	1511	1534	1537	1513	1503	1510	1507	1496	1497	1494	1490	1490	1485	1479	1475	1464	1456	1455	1457	1462	1466	1464	1457	1458	1464	1473	1478	1469	1465	1463	1475	1476	1479	1469	1471	1481	1493	1498	1505	1511	1514	1515	1522	1519	1502	1496	1490	1499	1513	1516	1505	1502	1495	1488	1489	1484	1479	1473	1490	0	0	0	0	0	0	0	0	0	0	0	0	0	0	892	846	816	791	790	801	806	801	802	813	821	826	820	814	816	818	821	823	830	841	847	852	841	840	832	817	806	813	826	837	842	837	834	833	827	830	835	841	847	857	854	840	837	835	842	853	859	862	860	854	853	862	867	858	840	823	832	816	821	833	865	888	897	918	935	1139	1226	1301	1315	1368	1417	1450	1458	1466	1475	1487	1490	1493	1485	1472	1461	1465	1478	1490	1502	1498	1470	1475	1481	1492	1492	1480	1479	1478	1482	1483	1487	1493	1486	1482	1473	1478	1488	1487	1481	1482	1488	1490	1491	1488	1485	1478	1454	1448	1442	1442	1460	1469	1461	1445	1434	1418	1414	1414	1419	1428	1448	1442	1457	1473	1469	1452	1436	1433	1447	1454	1451	1430	1426	1440	1459	1476	1476	1475	1472	1483	1487	1484	1478	1474	1464	1460	1462	1463	1453	1450	1451	1458	1470	1484	1488	1485	1479	1477	1480	1487	1484	1472	1471	1468	1475	1471	1471	1478	1478	1477	1479	1471	1456	1442	1442	1437	1438	1440	1443	1443	1466	1472	1466	1455	1451	1452	1461	1471	1467	1468	1468	1465	1473	1475	1472	1463	1460	1456	1443	0	0	0	0	0	0	0	0
0	0	0	0	0	0	0	0	0	0	0	0	0	0	0	0	0	0	0	0	0	0	0	0	0	0	0	0	0	0	0	0	0	0	0	0	0	0	0	0	0	0	0	0	0	0	0	0	0	0	0	0	0	0	0	0	0	0	0	0	0	0	0	0	0	0	0	0	0	0	0	0	0	0	0	0	0	0	0	0	0	0	0	0	0	0	0	0	0	0	0	0	0	0	1434	1443	1456	1469	1469	1471	1474	1475	1488	1494	1473	1466	1462	1462	1461	1472	1483	1491	1488	1480	1472	1480	1466	1460	1444	1440	1455	1464	1476	1484	1484	1481	1469	1463	1458	1452	1468	1480	1438	1423	1437	1466	1477	1490	1488	1468	1432	1431	1438	1458	1464	1458	1444	1440	1445	1479	1521	1516	1505	1498	1494	1494	1494	1484	1479	1473	1462	1451	1452	1458	1450	1442	1452	1463	1462	1462	1467	1466	1457	1439	1416	1400	1383	1385	1382	1358	1174	1098	1078	0	0	0	0	0	0	0	0	0	0	0	0	0	0	0	0	0	0	0	0	1197	1211	1219	1212	1212	1210	1215	0	0	0	0	0	0	0	0	0	0	0	0	0	0	0	0	0	0	0	0	0	0	0	0	0	0	0	0	0	0	0	0	0	0	0	0	0	0	0	0	0	0	0	0	0	1382	1460	1495	1497	1484	1468	1449	1439	1431	1457	1471	1464	1456	1472	1503	1496	1487	1491	1500	1502	1495	1486	1478	1475	1467	1500	1491	1490	1495	1510	1513	1463	1428	1434	1479	1463	1458	1463	1466	1463	1466	1475	1489	1505	1502	1488	1478	1489	1505	1504	1504	1500	1524	1523	1517	1498	1481	1473	1483	1481	1478	1488	1492	1510	1498	1479	1454	1445	1450	1461	1486	1488	1479	1454	1438	1436	1444	1460	1467	1466	1467	1477	1493	1470	1459	1467	1485	1489	1490	1499	1489	1490	1478	1451	1456	1470	1476	1483	1492	1502	1509	1517	1509	1494	1494	1496	1499	1494	1487	1486	1482	1486	1479	1473	1462	1468	1468	1470	1477	1473	1462	1458	1465	1487	1500	1495	1485	1476	1466	1470	1482	1478	1474	1476	1488	1495	1501	1518	1521	1523	1522	1521	1524	1518	1511	1520	1527	1534	1533	1520	1504	1493	1478	1472	1479	1475	1474	1474	1509	0	0	0	0	0	0	0	0	0	0	0	0	0	0	0	863	818	793	793	793	788	789	801	808	811	806	802	808	816	816	809	808	822	838	850	850	843	833	814	800	804	814	823	826	825	821	813	809	809	820	833	840	845	837	823	814	818	825	839	840	842	837	825	828	848	856	853	822	809	814	814	808	810	829	842	849	858	853	850	880	1052	1205	1220	1272	1368	1383	1413	1440	1466	1475	1475	1460	1456	1462	1461	1473	1483	1500	1496	1488	1491	1490	1504	1499	1492	1481	1481	1478	1478	1475	1473	1469	1460	1453	1470	1488	1491	1494	1492	1495	1502	1504	1494	1484	1469	1452	1455	1455	1473	1479	1470	1457	1445	1424	1421	1418	1426	1418	1433	1451	1459	1476	1480	1475	1446	1432	1428	1440	1451	1451	1442	1434	1437	1459	1473	1483	1485	1486	1491	1496	1495	1489	1488	1471	1464	1465	1464	1469	1469	1474	1481	1483	1488	1489	1483	1472	1470	1469	1476	1474	1475	1475	1480	1477	1477	1470	1470	1475	1481	1484	1474	1461	1445	1445	1441	1438	1444	1443	1436	1433	1436	1449	1444	1441	1447	1447	1450	1457	1452	1452	1446	1452	1460	1460	1461	1456	1452	1454	1444	0	0	0	0	0	0	0
0	0	0	0	0	0	0	0	0	0	0	0	0	0	0	0	0	0	0	0	0	0	0	0	0	0	0	0	0	0	0	0	0	0	0	0	0	0	0	0	0	0	0	0	0	0	0	0	0	0	0	0	0	0	0	0	0	0	0	0	0	0	0	0	0	0	0	0	0	0	0	0	0	0	0	0	0	0	0	0	0	0	0	0	0	0	0	0	0	0	0	0	0	0	1438	1452	1457	1465	1460	1449	1447	1450	1462	1470	1461	1455	1456	1455	1456	1464	1465	1468	1474	1473	1469	1475	1473	1467	1457	1450	1457	1469	1473	1469	1469	1476	1476	1470	1464	1466	1486	1506	1445	1429	1446	1462	1472	1479	1478	1462	1438	1435	1449	1470	1480	1462	1438	1430	1455	1485	1518	1506	1491	1489	1491	1502	1498	1494	1488	1476	1466	1460	1462	1461	1452	1452	1454	1457	1460	1465	1474	1480	1468	1448	1405	1368	1345	1282	1125	1100	0	0	0	0	0	0	0	0	0	0	0	0	0	0	0	0	0	0	0	0	0	0	0	1199	1212	1227	1227	1224	1216	1201	1189	1186	1177	1169	1173	0	0	0	0	0	0	0	0	0	0	0	0	0	0	0	0	0	0	0	0	0	0	0	0	0	0	0	0	0	0	0	0	0	0	0	0	0	0	0	1323	1400	1459	1493	1496	1481	1470	1447	1442	1444	1460	1484	1484	1479	1480	1486	1490	1490	1498	1505	1505	1500	1497	1488	1474	1472	1473	1480	1480	1480	1484	1505	1474	1433	1438	1462	1457	1460	1457	1469	1484	1491	1495	1493	1494	1496	1492	1483	1476	1505	1508	1520	1534	1539	1545	1549	1507	1478	1479	1491	1518	1520	1516	1511	1502	1494	1472	1455	1441	1447	1467	1489	1495	1477	1456	1451	1464	1476	1488	1495	1505	1512	1513	1481	1470	1471	1496	1518	1514	1501	1496	1512	1501	1483	1467	1476	1485	1495	1499	1503	1502	1499	1497	1487	1480	1480	1487	1488	1486	1484	1484	1483	1478	1471	1465	1454	1466	1479	1486	1486	1478	1468	1463	1471	1492	1505	1499	1498	1483	1475	1477	1481	1482	1478	1470	1478	1491	1526	1535	1536	1530	1516	1508	1513	1516	1520	1529	1541	1543	1539	1520	1501	1486	1472	1465	1469	1472	1469	1469	1477	1488	0	0	0	0	0	0	0	0	0	0	0	0	0	0	0	0	821	792	781	778	783	795	805	803	794	790	797	803	802	792	787	796	820	847	842	833	817	802	790	790	800	807	810	809	810	810	802	802	814	826	830	830	823	811	803	800	810	814	814	808	804	804	813	816	823	817	799	803	810	816	806	807	812	822	828	828	821	812	814	838	909	1018	1141	1215	1268	1321	1370	1414	1439	1437	1442	1449	1454	1463	1471	1484	1494	1491	1492	1505	1521	1516	1509	1493	1473	1474	1467	1466	1458	1456	1452	1442	1438	1452	1492	1494	1494	1490	1497	1504	1508	1490	1476	1446	1450	1466	1476	1496	1490	1476	1464	1449	1444	1445	1436	1425	1428	1438	1453	1464	1474	1473	1462	1443	1427	1421	1433	1444	1450	1442	1442	1442	1452	1468	1480	1483	1485	1490	1501	1499	1493	1489	1476	1470	1467	1469	1482	1489	1495	1490	1482	1476	1476	1467	1462	1456	1463	1471	1477	1474	1478	1479	1478	1471	1466	1461	1464	1468	1474	1476	1469	1469	1462	1454	1445	1445	1442	1436	1429	1433	1441	1441	1439	1438	1436	1437	1439	1438	1438	1435	1436	1447	1452	1464	1463	1457	1449	1451	0	0	0	0	0	0	0
0	0	0	0	0	0	0	0	0	0	0	0	0	0	0	0	0	0	0	0	0	0	0	0	0	0	0	0	0	0	0	0	0	0	0	0	0	0	0	0	0	0	0	0	0	0	0	0	0	0	0	0	0	0	0	0	0	0	0	0	0	0	0	0	0	0	0	0	0	0	0	0	0	0	0	0	0	0	0	0	0	0	0	0	0	0	0	0	0	0	0	0	0	0	1465	1466	1460	1454	1448	1438	1425	1428	1439	1456	1456	1455	1458	1456	1457	1450	1456	1450	1462	1461	1465	1471	1473	1475	1472	1468	1470	1476	1469	1465	1458	1466	1474	1480	1474	1473	1482	1503	1455	1439	1457	1469	1473	1477	1477	1469	1453	1446	1456	1473	1476	1452	1437	1429	1446	1472	1495	1482	1477	1479	1485	1491	1500	1500	1494	1483	1475	1476	1471	1471	1465	1458	1449	1446	1446	1458	1464	1469	1430	1406	1364	1269	1186	1038	0	0	0	0	0	0	0	0	0	0	0	0	0	0	0	0	0	1112	1119	1134	0	0	0	1166	0	0	0	1237	1233	1223	1207	1190	1169	1162	1151	1142	1140	0	0	0	0	0	0	0	0	0	0	0	0	0	0	0	0	0	0	0	0	0	0	0	0	0	0	0	0	0	0	0	0	0	0	0	0	0	0	1321	1413	1488	1462	1486	1488	1477	1473	1467	1455	1448	1461	1489	1496	1486	1479	1478	1494	1501	1510	1498	1497	1505	1500	1491	1477	1468	1463	1463	1462	1469	1465	1490	1474	1506	1499	1459	1460	1465	1458	1468	1483	1484	1493	1495	1497	1492	1484	1474	1473	1472	1495	1510	1521	1544	1552	1523	1524	1499	1479	1484	1503	1526	1525	1522	1507	1497	1484	1467	1460	1461	1476	1490	1490	1473	1461	1457	1471	1482	1489	1492	1504	1508	1511	1519	1502	1476	1497	1519	1513	1504	1515	1507	1497	1464	1485	1487	1498	1505	1506	1510	1503	1500	1491	1483	1479	1479	1484	1482	1484	1483	1479	1473	1471	1469	1466	1461	1479	1497	1501	1497	1490	1478	1474	1480	1488	1494	1490	1499	1500	1496	1496	1493	1492	1482	1471	1475	1489	1528	1529	1509	1506	1499	1495	1496	1499	1514	1525	1537	1537	1531	1511	1496	1480	1471	1473	1473	1480	1474	1473	1473	1477	1449	0	0	0	0	0	0	0	0	0	0	0	0	0	0	0	0	815	786	778	782	791	800	795	784	772	775	780	778	777	777	789	804	827	823	810	804	791	782	780	780	785	790	796	800	804	801	802	808	816	816	812	809	804	803	802	808	806	802	789	772	777	792	803	804	791	776	795	808	812	809	803	807	815	816	811	800	785	780	787	803	848	946	1035	1122	1191	1264	1320	1367	1388	1414	1430	1442	1454	1466	1481	1489	1492	1489	1509	1525	1527	1506	1485	1455	1455	1466	1462	1454	1447	1442	1440	1434	1441	1478	1483	1486	1479	1482	1494	1507	1493	1459	1438	1439	1466	1491	1498	1491	1473	1459	1455	1458	1456	1454	1440	1438	1445	1462	1468	1472	1471	1467	1448	1441	1440	1442	1444	1442	1439	1436	1435	1444	1456	1472	1484	1488	1497	1500	1505	1502	1493	1489	1477	1476	1480	1481	1483	1486	1494	1482	1476	1469	1462	1452	1463	1469	1472	1477	1473	1473	1471	1465	1459	1446	1446	1436	1441	1452	1475	1475	1475	1476	1470	1457	1450	1448	1436	1429	1432	1439	1431	1427	1429	1427	1433	1434	1434	1434	1432	1432	1435	1451	1467	1471	1469	1459	1453	0	0	0	0	0	0	0
0	0	0	0	0	0	0	0	0	0	0	0	0	0	0	0	0	0	0	0	0	0	0	0	0	0	0	0	0	0	0	0	0	0	0	0	0	0	0	0	0	0	0	0	0	0	0	0	0	0	0	0	0	0	0	0	0	0	0	0	0	0	0	0	0	0	0	0	0	0	0	0	0	0	0	0	0	0	0	0	0	0	0	0	0	0	0	0	0	0	0	0	0	0	1478	1472	1462	1450	1442	1441	1432	1428	1436	1449	1449	1457	1457	1462	1456	1449	1447	1458	1457	1454	1465	1466	1475	1476	1479	1477	1471	1464	1465	1460	1461	1468	1478	1474	1473	1473	1478	1485	1462	1457	1472	1478	1477	1478	1485	1473	1465	1454	1461	1467	1463	1454	1438	1435	1441	1447	1459	1447	1447	1455	1475	1481	1485	1491	1490	1488	1489	1496	1491	1482	1474	1466	1447	1435	1442	1443	1440	1411	1334	1219	1066	998	960	0	0	0	0	0	0	0	0	0	0	0	0	0	0	0	0	0	0	1063	1077	1095	1100	1107	1109	1119	1139	1167	1186	1235	1222	1200	1192	1179	0	1144	1137	1132	0	0	0	0	0	0	0	0	0	0	0	0	0	0	0	0	0	0	0	0	0	0	0	0	0	0	0	0	0	889	0	0	0	0	0	0	1185	1242	1366	1443	1479	1485	1485	1482	1484	1477	1475	1487	1481	1486	1486	1475	1476	1477	1467	1477	1495	1511	1512	1502	1496	1492	1494	1488	1472	1462	1456	1452	1453	1451	1449	1460	1502	1477	1479	1488	1468	1474	1476	1482	1491	1497	1501	1496	1498	1494	1485	1471	1469	1473	1490	1492	1501	1503	1511	1520	1522	1505	1491	1486	1516	1520	1521	1524	1512	1504	1498	1494	1483	1478	1481	1484	1480	1469	1461	1465	1473	1479	1485	1485	1475	1475	1475	1470	1473	1490	1506	1508	1508	1512	1505	1495	1479	1468	1462	1475	1487	1499	1511	1513	1503	1487	1484	1481	1486	1481	1483	1467	1464	1464	1462	1468	1467	1468	1471	1482	1509	1514	1510	1505	1497	1490	1486	1486	1481	1478	1483	1492	1506	1513	1512	1514	1499	1489	1484	1487	1508	1500	1501	1495	1488	1480	1472	1474	1485	1502	1518	1529	1526	1518	1509	1498	1491	1485	1485	1486	1490	1486	1473	1467	1467	1472	0	0	0	0	0	0	0	0	0	0	0	0	0	0	0	0	0	810	792	784	785	785	781	761	751	746	751	751	755	756	770	787	806	803	794	787	785	781	772	768	767	768	774	785	791	791	792	798	800	799	794	795	796	798	799	803	791	786	777	776	776	784	782	775	764	757	784	798	811	810	805	802	797	796	787	778	764	755	759	773	789	826	864	954	1031	1096	1172	1274	1307	1346	1380	1413	1447	1472	1486	1492	1491	1477	1489	1508	1508	1497	1477	1461	1454	1476	1474	1461	1452	1443	1439	1441	1434	1457	1461	1467	1463	1473	1490	1505	1492	1469	1445	1441	1456	1477	1484	1484	1467	1461	1466	1471	1475	1466	1441	1440	1451	1464	1469	1474	1469	1463	1460	1457	1457	1456	1452	1442	1437	1435	1439	1440	1442	1466	1489	1500	1502	1501	1502	1503	1496	1488	1483	1483	1476	1471	1468	1470	1485	1492	1489	1473	1463	1465	1474	1475	1469	1477	1463	1456	1449	1442	1434	1429	1427	1427	1429	1442	1460	1476	1476	1482	1473	1462	1457	1448	1443	1441	1442	1446	1438	1426	1419	1431	1434	1439	1439	1440	1436	1434	1443	1455	1472	1481	1479	1474	1466	0	0	0	0	0	0	0
0	0	0	0	0	0	0	0	0	0	0	0	0	0	0	0	0	0	0	0	0	0	0	0	0	0	0	0	0	0	0	0	0	0	0	0	0	0	0	0	0	0	0	0	0	0	0	0	0	0	0	0	0	0	0	0	0	0	0	0	0	0	0	0	0	0	0	0	0	0	0	0	0	0	0	0	0	0	0	0	0	0	0	0	0	0	0	0	0	0	0	0	0	0	1484	1474	1470	1455	1451	1453	1449	1444	1444	1451	1456	1465	1473	1471	1461	1451	1450	1454	1460	1453	1466	1463	1465	1470	1479	1477	1467	1453	1449	1454	1464	1474	1480	1472	1469	1466	1476	1479	1468	1472	1473	1479	1480	1489	1494	1484	1469	1453	1450	1454	1458	1460	1449	1447	1434	1433	1437	1430	1434	1447	1461	1471	1477	1475	1483	1487	1490	1498	1500	1483	1470	1456	1432	1415	1375	1369	1334	1130	0	0	0	0	0	0	0	0	0	0	0	0	0	0	0	0	0	0	0	0	0	0	0	1047	1061	1076	1086	1077	1071	1079	1096	1115	1121	1117	1115	1170	1168	1156	1140	1116	1114	1106	0	0	0	0	0	0	0	0	0	0	0	0	0	0	0	0	0	0	0	0	0	0	0	0	0	0	0	0	872	878	893	0	0	0	0	0	1191	1425	1434	1448	1470	1490	1491	1482	1483	1473	1475	1485	1494	1487	1492	1485	1475	1459	1460	1463	1492	1508	1499	1493	1479	1479	1480	1482	1469	1459	1453	1452	1451	1450	1448	1456	1499	1514	1512	1492	1478	1482	1486	1498	1502	1504	1502	1496	1496	1493	1489	1479	1479	1491	1501	1503	1499	1488	1481	1473	1469	1458	1465	1483	1494	1508	1511	1513	1510	1507	1500	1499	1493	1483	1478	1479	1472	1469	1469	1477	1479	1478	1476	1469	1465	1471	1477	1482	1507	1521	1513	1508	1505	1497	1485	1480	1468	1465	1460	1465	1465	1480	1504	1507	1495	1480	1479	1484	1485	1484	1486	1478	1473	1469	1467	1469	1472	1468	1480	1501	1515	1518	1514	1502	1496	1496	1493	1486	1479	1475	1476	1487	1495	1510	1519	1514	1504	1489	1480	1475	1478	1480	1477	1480	1481	1472	1468	1464	1470	1491	1507	1512	1515	1510	1509	1506	1498	1489	1481	1483	1487	1494	1483	1472	1463	1479	1499	0	0	0	0	0	0	0	0	0	0	0	0	0	0	0	0	0	810	786	777	768	758	748	740	743	745	739	735	736	748	763	793	784	779	770	770	766	762	759	754	752	755	761	766	773	778	786	793	786	783	788	793	793	769	759	764	771	773	778	777	776	767	753	738	738	768	788	800	806	799	782	770	764	761	756	748	744	747	757	764	760	775	805	849	895	976	1066	1168	1226	1283	1350	1395	1446	1475	1489	1477	1462	1469	1484	1485	1478	1469	1466	1471	1486	1481	1465	1458	1455	1447	1446	1447	1441	1439	1443	1448	1469	1490	1505	1516	1493	1468	1444	1448	1458	1472	1474	1470	1460	1471	1481	1491	1482	1453	1447	1450	1467	1474	1486	1479	1468	1463	1466	1473	1465	1467	1454	1440	1442	1447	1444	1451	1469	1495	1507	1505	1499	1496	1489	1477	1468	1468	1472	1471	1460	1454	1454	1473	1491	1492	1476	1470	1471	1480	1471	1466	1462	1455	1455	1448	1444	1435	1430	1425	1429	1436	1449	1458	1465	1465	1468	1461	1460	1456	1444	1444	1446	1453	1455	1448	1432	1435	1440	1442	1442	1442	1441	1443	1445	1442	1460	1473	1482	1480	1475	1468	1468	0	0	0	0	0	0
0	0	0	0	0	0	0	0	0	0	0	0	0	0	0	0	0	0	0	0	0	0	0	0	0	0	0	0	0	0	0	0	0	0	0	0	0	0	0	0	0	0	0	0	0	0	0	0	0	0	0	0	0	0	0	0	0	0	0	0	0	0	0	0	0	0	0	0	0	0	0	0	0	0	0	0	0	0	0	0	0	0	0	0	0	0	0	0	0	0	0	0	0	0	1488	1478	1469	1467	1458	1464	1461	1461	1463	1469	1471	1479	1482	1479	1473	1458	1462	1464	1455	1464	1461	1458	1448	1459	1467	1468	1442	1434	1442	1447	1462	1468	1464	1456	1456	1461	1475	1479	1470	1471	1471	1478	1482	1490	1494	1485	1464	1442	1446	1456	1460	1468	1471	1459	1442	1424	1423	1430	1437	1447	1451	1456	1461	1470	1475	1478	1482	1480	1480	1468	1433	1416	1384	1318	1151	1056	0	0	0	0	0	0	0	0	0	0	0	0	0	0	0	0	0	0	0	0	0	0	0	0	0	0	0	0	0	0	0	0	1052	1057	1051	1051	1060	1071	1089	1100	1114	1078	1074	0	0	0	0	0	0	0	0	0	0	0	0	0	0	0	0	0	0	0	0	0	0	0	0	0	0	0	0	0	866	863	877	0	0	0	0	0	1306	1443	1441	1455	1472	1495	1496	1488	1481	1474	1478	1491	1499	1500	1495	1486	1475	1461	1451	1453	1469	1490	1493	1482	1463	1458	1470	1489	1492	1467	1455	1458	1462	1461	1454	1462	1486	1502	1494	1482	1472	1475	1487	1494	1504	1509	1501	1493	1490	1489	1484	1480	1489	1502	1505	1507	1499	1490	1480	1466	1457	1445	1453	1473	1483	1493	1502	1495	1486	1487	1493	1488	1480	1473	1473	1472	1471	1468	1474	1485	1490	1481	1472	1470	1471	1479	1488	1503	1513	1522	1515	1508	1501	1487	1482	1470	1472	1467	1462	1452	1455	1465	1488	1491	1490	1476	1479	1486	1488	1490	1491	1481	1480	1472	1472	1472	1473	1477	1485	1500	1513	1514	1506	1490	1487	1486	1490	1485	1486	1475	1474	1479	1488	1496	1504	1502	1499	1469	1462	1467	1472	1476	1474	1476	1468	1471	1466	1465	1471	1490	1495	1506	1506	1506	1506	1504	1501	1486	1478	1476	1482	1494	1486	1480	1477	1489	1490	0	0	0	0	0	0	0	0	0	0	0	0	0	0	0	0	0	0	0	797	765	749	741	741	743	742	733	725	724	728	761	775	770	744	744	749	747	745	746	749	746	744	747	756	759	766	771	774	774	779	766	766	759	745	734	740	753	767	769	768	766	752	735	724	735	752	764	774	779	765	745	736	735	736	735	733	732	737	745	747	735	729	737	755	771	790	850	966	1077	1132	1213	1276	1338	1391	1435	1465	1456	1458	1465	1467	1466	1467	1467	1483	1482	1478	1471	1476	1469	1468	1467	1459	1438	1429	1426	1437	1459	1482	1506	1508	1508	1479	1449	1441	1450	1467	1477	1471	1459	1464	1481	1490	1487	1466	1454	1450	1465	1481	1493	1478	1470	1466	1475	1485	1494	1484	1464	1455	1455	1458	1459	1464	1479	1501	1509	1504	1497	1490	1481	1457	1446	1440	1450	1461	1457	1454	1455	1471	1486	1487	1470	1464	1471	1482	1474	1472	1466	1466	1467	1463	1459	1451	1439	1443	1454	1456	1455	1453	1453	1454	1453	1451	1450	1455	1449	1449	1461	1460	1459	1447	1439	1440	1444	1449	1462	1444	1440	1448	1448	1452	1458	1458	1455	1460	1456	1454	1454	0	0	0	0	0	0
0	0	0	0	0	0	0	0	0	0	0	0	0	0	0	0	0	0	0	0	0	0	0	0	0	0	0	0	0	0	0	0	0	0	0	0	0	0	0	0	0	0	0	0	0	0	0	0	0	0	0	0	0	0	0	0	0	0	0	0	0	0	0	0	0	0	0	0	0	0	0	0	0	0	0	0	0	0	0	0	0	0	0	0	0	0	0	0	0	0	0	0	0	0	1492	1483	1464	1458	1459	1458	1465	1473	1482	1482	1480	1479	1478	1480	1476	1469	1448	1460	1480	1486	1476	1455	1442	1445	1458	1454	1438	1438	1443	1458	1467	1461	1447	1436	1434	1457	1473	1479	1479	1472	1470	1475	1483	1490	1495	1478	1458	1442	1447	1461	1474	1479	1490	1480	1452	1427	1416	1411	1426	1436	1436	1448	1464	1474	1474	1463	1455	1449	1439	1419	1365	1336	1189	0	0	0	0	0	0	0	0	0	0	0	0	0	0	0	0	0	0	0	0	0	0	0	0	0	0	0	0	0	0	0	0	0	0	0	0	0	1010	1021	1031	1052	1072	1086	1086	1056	1049	0	0	0	0	0	0	0	0	0	0	0	0	0	0	0	0	0	0	0	0	0	0	0	0	0	0	0	0	0	872	862	879	0	0	0	0	1312	1447	1451	1465	1492	1522	1523	1508	1488	1482	1479	1474	1478	1483	1496	1482	1471	1460	1462	1472	1480	1483	1471	1454	1446	1453	1478	1487	1499	1498	1492	1493	1506	1519	1519	1508	1507	1510	1515	1510	1495	1472	1471	1479	1494	1495	1499	1497	1487	1477	1474	1478	1479	1482	1492	1497	1507	1499	1490	1478	1467	1449	1432	1443	1454	1465	1477	1485	1476	1469	1474	1478	1479	1484	1481	1474	1464	1463	1463	1475	1487	1494	1482	1469	1468	1473	1485	1499	1505	1509	1505	1495	1494	1490	1482	1477	1485	1482	1472	1458	1453	1453	1472	1479	1485	1485	1485	1484	1488	1489	1494	1493	1488	1485	1478	1468	1469	1475	1488	1502	1513	1511	1508	1496	1489	1478	1481	1487	1495	1489	1479	1473	1476	1475	1472	1475	1469	1467	1463	1453	1458	1470	1474	1481	1478	1465	1471	1480	1482	1482	1491	1498	1506	1506	1503	1503	1506	1499	1485	1475	1469	1473	1477	1490	1481	1483	1496	1507	1488	0	0	0	0	0	0	0	0	0	0	0	0	0	0	0	0	0	0	0	814	771	744	740	742	735	724	717	717	716	718	733	731	722	724	727	729	729	736	742	741	739	742	745	750	756	755	754	745	750	750	750	741	728	722	723	728	742	753	755	753	744	731	716	725	731	737	741	736	728	724	719	713	718	717	719	721	728	733	738	728	719	714	716	719	727	752	782	839	958	1023	1095	1181	1262	1332	1418	1434	1446	1451	1455	1462	1466	1467	1481	1482	1473	1471	1477	1476	1469	1468	1460	1454	1438	1428	1426	1445	1468	1489	1494	1490	1482	1459	1448	1462	1477	1481	1472	1467	1467	1471	1474	1478	1477	1462	1453	1466	1478	1489	1479	1470	1473	1486	1512	1522	1498	1479	1471	1462	1467	1470	1477	1487	1507	1511	1495	1486	1476	1458	1440	1418	1411	1430	1452	1460	1456	1462	1469	1482	1471	1453	1450	1468	1484	1484	1490	1483	1492	1503	1505	1502	1484	1470	1463	1466	1465	1459	1446	1446	1438	1441	1448	1448	1448	1445	1454	1500	1516	1483	1447	1438	1438	1449	1466	1479	1479	1464	1467	1473	1471	1472	1466	1456	1444	1442	1444	1444	0	0	0	0	0	0
0	0	0	0	0	0	0	0	0	0	0	0	0	0	0	0	0	0	0	0	0	0	0	0	0	0	0	0	0	0	0	0	0	0	0	0	0	0	0	0	0	0	0	0	0	0	0	0	0	0	0	0	0	0	0	0	0	0	0	0	0	0	0	0	0	0	0	0	0	0	0	0	0	0	0	0	0	0	0	0	0	0	0	0	0	0	0	0	0	0	0	0	0	0	1486	1480	1468	1462	1457	1461	1471	1480	1491	1489	1483	1477	1470	1468	1467	1472	1456	1470	1481	1493	1494	1454	1445	1444	1459	1453	1449	1449	1460	1461	1466	1457	1440	1427	1430	1451	1466	1482	1482	1475	1473	1472	1475	1484	1489	1478	1456	1446	1453	1466	1481	1488	1496	1495	1481	1452	1420	1418	1423	1430	1436	1442	1465	1476	1472	1453	1423	1405	1390	1277	1192	1112	0	0	0	0	0	0	0	0	0	0	0	0	0	0	0	0	0	0	0	0	0	0	0	0	0	0	0	0	0	0	0	0	0	0	0	0	0	0	0	1027	1049	1066	1079	1084	1085	1079	0	0	0	0	0	0	0	0	0	0	0	0	0	0	0	0	0	0	0	0	0	0	0	0	0	0	0	0	0	0	875	868	0	0	0	0	1253	1438	1459	1451	1471	1493	1518	1523	1501	1487	1479	1478	1469	1466	1485	1493	1488	1473	1469	1471	1483	1493	1492	1473	1460	1455	1462	1482	1490	1492	1493	1489	1497	1510	1525	1526	1515	1504	1509	1512	1505	1495	1472	1458	1468	1482	1479	1477	1486	1496	1498	1496	1495	1489	1479	1482	1493	1504	1511	1510	1508	1498	1487	1454	1460	1476	1490	1492	1486	1475	1474	1479	1481	1484	1488	1496	1489	1469	1455	1457	1472	1488	1497	1485	1472	1467	1476	1486	1496	1495	1493	1482	1475	1473	1474	1476	1478	1485	1485	1473	1460	1458	1459	1473	1479	1481	1479	1482	1485	1485	1491	1495	1498	1491	1485	1476	1468	1461	1464	1481	1504	1523	1523	1507	1495	1490	1472	1476	1493	1506	1503	1485	1483	1476	1474	1454	1459	1469	1474	1464	1442	1444	1459	1485	1503	1487	1471	1473	1484	1494	1495	1498	1505	1519	1510	1508	1504	1504	1501	1497	1481	1475	1479	1476	1480	1488	1486	1497	1499	1494	1484	0	0	0	0	0	0	0	0	0	0	0	0	0	0	0	0	0	0	0	0	781	752	737	725	712	706	708	709	703	705	702	705	713	716	713	714	725	733	737	732	731	733	735	715	715	717	729	735	733	729	718	713	711	716	724	726	733	741	735	729	717	714	714	713	714	709	710	710	718	715	713	704	705	711	721	724	724	721	717	715	711	705	697	695	703	719	736	751	814	931	1003	1096	1169	1252	1267	1330	1382	1409	1427	1433	1458	1471	1476	1465	1470	1471	1471	1465	1464	1461	1460	1446	1435	1432	1427	1415	1441	1457	1469	1469	1474	1483	1489	1486	1483	1473	1462	1456	1449	1444	1442	1454	1450	1448	1458	1467	1476	1471	1474	1503	1538	1548	1533	1504	1478	1472	1468	1491	1499	1497	1501	1501	1506	1494	1477	1457	1444	1434	1417	1419	1435	1454	1455	1453	1451	1452	1454	1456	1473	1500	1525	1514	1521	1508	1503	1512	1517	1521	1502	1480	1464	1471	1478	1480	1458	1436	1436	1422	1431	1439	1440	1434	1425	1438	1494	1510	1494	1471	1447	1445	1450	1463	1463	1479	1484	1491	1497	1494	1480	1470	1458	1447	1446	1463	1463	0	0	0	0	0	0
0	0	0	0	0	0	0	0	0	0	0	0	0	0	0	0	0	0	0	0	0	0	0	0	0	0	0	0	0	0	0	0	0	0	0	0	0	0	0	0	0	0	0	0	0	0	0	0	0	0	0	0	0	0	0	0	0	0	0	0	0	0	0	0	0	0	0	0	0	0	0	0	0	0	0	0	0	0	0	0	0	0	0	0	0	0	0	0	0	0	0	0	0	0	1462	1470	1463	1472	1467	1473	1478	1492	1496	1487	1482	1474	1463	1462	1462	1468	1454	1467	1473	1510	1506	1472	1458	1448	1461	1469	1466	1462	1463	1468	1462	1452	1442	1429	1423	1434	1454	1464	1479	1483	1475	1469	1472	1473	1484	1476	1464	1461	1467	1480	1490	1495	1504	1506	1494	1479	1460	1437	1433	1431	1435	1454	1472	1479	1457	1422	1362	1287	0	0	0	0	0	0	0	0	0	0	0	0	0	0	0	0	0	0	0	0	0	0	0	0	0	0	0	0	0	0	0	0	0	0	0	0	0	0	0	0	0	0	0	0	0	1097	0	1091	1092	1083	0	0	0	0	0	0	0	0	0	0	0	0	0	0	0	0	0	0	0	0	0	0	0	0	0	0	0	0	0	0	0	0	0	0	0	1258	1430	1451	1470	1464	1478	1494	1513	1516	1499	1480	1476	1471	1467	1469	1484	1496	1490	1475	1471	1479	1493	1498	1502	1488	1474	1466	1481	1490	1489	1493	1487	1484	1490	1508	1524	1523	1517	1506	1502	1508	1505	1492	1479	1465	1466	1470	1464	1469	1483	1506	1512	1516	1506	1494	1483	1484	1495	1508	1503	1500	1507	1503	1495	1478	1479	1493	1503	1503	1488	1482	1483	1486	1494	1499	1500	1505	1502	1477	1458	1449	1467	1480	1493	1492	1479	1474	1474	1483	1490	1488	1474	1462	1454	1457	1465	1469	1474	1483	1480	1465	1461	1449	1455	1470	1483	1481	1481	1477	1483	1489	1499	1510	1504	1487	1479	1467	1461	1457	1453	1476	1501	1517	1516	1507	1492	1483	1475	1482	1500	1512	1509	1497	1491	1484	1469	1444	1439	1433	1442	1449	1440	1438	1455	1492	1528	1519	1489	1467	1469	1472	1490	1504	1516	1516	1506	1493	1486	1486	1491	1490	1487	1488	1501	1497	1474	1478	1482	1487	1485	1499	1497	0	0	0	0	0	0	0	0	0	0	0	0	0	0	0	0	0	0	0	0	0	0	764	729	703	688	693	698	700	693	691	700	710	712	705	702	712	719	718	716	712	688	690	696	698	704	710	712	714	707	700	695	698	707	714	715	718	721	718	715	708	703	701	698	695	695	701	706	716	721	714	705	706	714	727	729	715	705	709	712	711	702	693	689	692	699	706	705	711	734	757	805	894	1023	1120	1205	1268	1313	1357	1391	1419	1434	1441	1442	1441	1455	1472	1477	1471	1470	1471	1466	1459	1449	1426	1404	1397	1413	1425	1449	1464	1472	1475	1471	1457	1451	1441	1427	1415	1405	1412	1433	1445	1454	1465	1474	1470	1453	1463	1487	1517	1531	1518	1496	1487	1478	1473	1489	1497	1500	1494	1492	1500	1497	1467	1447	1439	1440	1442	1442	1453	1455	1456	1447	1435	1435	1443	1448	1473	1502	1526	1523	1521	1514	1505	1511	1506	1513	1502	1478	1476	1475	1483	1477	1460	1460	1438	1431	1432	1433	1439	1435	1429	1438	1452	1479	1492	1489	1457	1452	1452	1468	1468	1480	1494	1485	1472	1484	1468	1461	1461	1458	1463	1470	1470	0	0	0	0	0	0
0	0	0	0	0	0	0	0	0	0	0	0	0	0	0	0	0	0	0	0	0	0	0	0	0	0	0	0	0	0	0	0	0	0	0	0	0	0	0	0	0	0	0	0	0	0	0	0	0	0	0	0	0	0	0	0	0	0	0	0	0	0	0	0	0	0	0	0	0	0	0	0	0	0	0	0	0	0	0	0	0	0	0	0	0	0	0	0	0	0	0	0	0	0	1447	1460	1479	1481	1483	1476	1471	1485	1489	1485	1482	1479	1468	1453	1453	1453	1457	1460	1496	1518	1497	1472	1455	1447	1462	1469	1471	1470	1467	1462	1460	1454	1442	1425	1420	1425	1446	1457	1475	1494	1484	1464	1462	1464	1478	1476	1470	1469	1492	1497	1498	1500	1505	1509	1498	1489	1482	1477	1445	1429	1434	1448	1456	1416	1285	1137	0	0	0	0	0	0	0	0	0	0	0	0	0	0	0	0	0	0	0	0	0	0	0	0	0	0	0	0	0	0	0	0	0	0	0	0	0	0	0	0	0	0	0	0	0	0	0	0	0	0	1101	0	0	0	0	0	0	0	0	0	0	0	0	0	0	0	0	0	0	0	0	0	0	0	0	0	0	0	0	0	0	0	0	0	0	999	1175	1405	1432	1458	1479	1480	1478	1481	1495	1497	1489	1483	1475	1474	1478	1482	1487	1485	1474	1473	1477	1482	1486	1490	1494	1484	1479	1480	1477	1482	1485	1487	1485	1471	1465	1465	1471	1495	1502	1495	1487	1494	1486	1508	1527	1530	1499	1492	1491	1490	1495	1495	1522	1521	1506	1519	1519	1489	1482	1470	1467	1470	1488	1499	1481	1474	1480	1502	1515	1516	1502	1493	1492	1483	1478	1473	1476	1479	1491	1497	1496	1488	1488	1490	1501	1526	1534	1531	1533	1532	1539	1506	1484	1461	1452	1450	1467	1486	1483	1479	1458	1449	1451	1451	1454	1482	1492	1494	1480	1470	1471	1504	1510	1507	1496	1487	1476	1483	1482	1469	1458	1466	1492	1497	1494	1479	1481	1478	1486	1505	1513	1494	1477	1477	1479	1484	1471	1454	1434	1428	1430	1445	1446	1447	1464	1498	1519	1519	1490	1468	1460	1465	1482	1496	1506	1509	1496	1480	1470	1470	1475	1486	1485	1486	1489	1491	1464	1463	1465	1471	1489	1504	1510	0	0	0	0	0	0	0	0	0	0	0	0	0	0	0	0	0	0	0	0	0	0	0	751	696	677	677	698	698	692	693	700	710	707	701	698	703	707	704	689	683	675	680	683	687	690	691	697	698	695	691	688	692	696	699	699	701	703	700	697	695	698	690	684	682	689	693	699	710	711	709	706	711	718	728	724	712	687	697	705	707	704	699	696	705	711	705	698	686	691	709	741	780	880	957	1056	1126	1191	1258	1332	1390	1416	1440	1436	1441	1448	1466	1484	1480	1477	1476	1483	1481	1476	1435	1403	1395	1404	1427	1442	1453	1459	1455	1458	1458	1457	1449	1437	1418	1409	1415	1433	1453	1461	1468	1469	1453	1441	1442	1461	1487	1500	1495	1483	1481	1470	1467	1485	1495	1504	1497	1489	1493	1491	1440	1431	1436	1443	1450	1455	1454	1459	1453	1446	1437	1432	1435	1449	1460	1474	1490	1501	1501	1498	1489	1492	1488	1486	1490	1501	1499	1497	1484	1476	1469	1469	1457	1458	1446	1454	1460	1468	1463	1452	1458	1471	1487	1484	1470	1454	1450	1457	1457	1483	1495	1489	1471	1448	1455	1457	1460	1464	1470	1470	1478	0	0	0	0	0	0
0	0	0	0	0	0	0	0	0	0	0	0	0	0	0	0	0	0	0	0	0	0	0	0	0	0	0	0	0	0	0	0	0	0	0	0	0	0	0	0	0	0	0	0	0	0	0	0	0	0	0	0	0	0	0	0	0	0	0	0	0	0	0	0	0	0	0	0	0	0	0	0	0	0	0	0	0	0	0	0	0	0	0	0	0	0	0	0	0	0	0	0	0	0	1430	1457	1476	1481	1477	1464	1469	1472	1476	1481	1477	1472	1455	1440	1436	1445	1450	1450	1465	1477	1480	1470	1454	1445	1449	1468	1470	1464	1460	1450	1451	1448	1456	1448	1437	1430	1441	1452	1464	1484	1479	1463	1455	1454	1461	1466	1469	1487	1495	1496	1491	1494	1501	1507	1497	1483	1482	1472	1445	1419	1394	1379	0	0	0	0	0	0	0	0	0	0	0	0	0	0	0	0	0	0	0	0	0	0	0	0	0	0	0	0	0	0	0	0	0	0	0	0	0	0	0	0	0	0	0	0	0	0	0	0	0	0	0	0	0	0	0	0	0	0	0	0	0	0	0	0	0	0	0	0	0	0	0	0	0	0	0	0	0	0	0	0	0	0	0	0	0	0	0	909	1029	1196	1382	1428	1455	1476	1503	1507	1500	1483	1479	1481	1485	1484	1476	1477	1489	1492	1476	1470	1471	1472	1475	1489	1496	1500	1496	1491	1494	1501	1495	1494	1490	1488	1486	1481	1470	1473	1480	1494	1506	1499	1490	1491	1495	1514	1523	1529	1511	1502	1500	1503	1504	1500	1478	1457	1456	1499	1515	1481	1451	1444	1448	1477	1504	1499	1482	1472	1492	1524	1528	1519	1505	1495	1489	1481	1479	1472	1470	1474	1481	1490	1499	1493	1492	1491	1491	1511	1529	1533	1531	1534	1538	1534	1500	1470	1461	1458	1469	1483	1478	1471	1457	1446	1452	1458	1466	1477	1491	1489	1483	1481	1485	1492	1502	1503	1492	1487	1482	1485	1487	1494	1489	1484	1484	1492	1481	1475	1482	1490	1500	1511	1507	1487	1477	1471	1478	1487	1490	1486	1483	1463	1442	1443	1453	1461	1474	1493	1513	1515	1490	1468	1455	1459	1472	1489	1493	1490	1472	1466	1462	1466	1474	1477	1478	1471	1468	1469	1466	1457	1455	1461	1486	1508	1522	1516	0	0	0	0	0	0	0	0	0	0	0	0	0	0	0	0	0	0	0	0	0	0	779	706	669	670	696	690	685	691	698	707	706	703	703	703	699	693	687	680	678	679	680	680	678	678	685	690	692	691	690	693	691	687	681	678	679	683	686	686	689	684	678	676	680	680	685	692	695	697	697	702	702	709	712	698	674	678	692	694	699	702	703	713	723	716	700	683	676	687	705	722	765	807	872	937	988	1056	1119	1214	1295	1366	1409	1426	1440	1466	1468	1466	1457	1476	1491	1496	1490	1453	1413	1399	1408	1427	1439	1447	1443	1429	1428	1454	1470	1476	1474	1466	1461	1451	1460	1466	1451	1445	1444	1434	1441	1441	1446	1462	1473	1481	1471	1457	1432	1434	1457	1499	1509	1502	1488	1461	1427	1421	1428	1432	1440	1451	1457	1456	1465	1457	1458	1451	1455	1469	1483	1480	1465	1469	1480	1484	1487	1474	1465	1458	1460	1475	1499	1514	1507	1487	1466	1467	1467	1471	1472	1463	1465	1471	1475	1479	1472	1472	1480	1487	1470	1459	1444	1437	1447	1447	1464	1498	1494	1474	1450	1446	1453	1461	1471	1475	1475	1474	0	0	0	0	0	0
0	0	0	0	0	0	0	0	0	0	0	0	0	0	0	0	0	0	0	0	0	0	0	0	0	0	0	0	0	0	0	0	0	0	0	0	0	0	0	0	0	0	0	0	0	0	0	0	0	0	0	0	0	0	0	0	0	0	0	0	0	0	0	0	0	0	0	0	0	0	0	0	0	0	0	0	0	0	0	0	0	0	0	0	0	0	0	0	0	0	0	0	0	0	1445	1463	1470	1466	1447	1449	1454	1462	1465	1470	1469	1461	1450	1440	1441	1451	1457	1453	1461	1464	1464	1459	1449	1439	1449	1464	1463	1461	1451	1438	1430	1442	1469	1495	1478	1454	1444	1438	1453	1475	1469	1460	1441	1428	1429	1442	1465	1481	1487	1477	1467	1462	1467	1472	1465	1450	1432	1406	1356	0	0	0	0	0	0	0	0	0	0	0	0	0	0	0	0	0	0	0	0	0	0	0	0	0	0	0	0	0	0	0	0	0	0	0	0	0	0	0	0	0	0	0	0	0	0	0	0	0	0	0	0	0	0	0	0	0	0	0	0	0	0	0	0	0	0	0	0	0	0	0	0	0	0	0	0	0	0	0	0	0	0	0	0	0	0	0	0	0	918	996	1149	1351	1415	1451	1470	1492	1508	1511	1504	1486	1474	1479	1481	1480	1482	1486	1493	1491	1481	1468	1465	1468	1483	1496	1509	1507	1504	1497	1502	1512	1516	1505	1499	1493	1496	1494	1489	1487	1501	1513	1510	1500	1480	1486	1491	1501	1491	1505	1512	1515	1509	1513	1505	1495	1484	1470	1462	1470	1479	1481	1454	1446	1458	1474	1495	1500	1479	1473	1499	1525	1527	1515	1500	1488	1480	1478	1484	1475	1472	1474	1474	1480	1489	1496	1493	1481	1483	1497	1521	1529	1531	1534	1538	1521	1488	1487	1484	1469	1454	1449	1446	1444	1441	1439	1444	1469	1480	1481	1485	1490	1488	1486	1495	1495	1496	1495	1495	1500	1489	1493	1505	1513	1510	1503	1493	1488	1480	1481	1482	1493	1493	1495	1487	1488	1485	1478	1480	1489	1499	1501	1495	1478	1452	1450	1448	1453	1453	1463	1473	1471	1465	1443	1454	1466	1480	1479	1469	1464	1466	1467	1470	1460	1469	1468	1465	1458	1464	1475	1477	1465	1452	1448	1454	1489	1507	1503	1498	0	0	0	0	0	0	0	0	0	0	0	0	0	0	0	0	0	0	0	0	0	0	754	671	669	682	682	673	680	694	700	709	698	699	701	701	696	690	685	683	684	682	681	669	669	677	681	682	686	689	689	687	679	670	665	665	669	676	678	673	666	662	662	659	669	675	679	679	679	680	684	681	676	670	668	658	656	667	684	690	695	702	706	718	713	695	678	670	675	684	689	699	728	767	805	861	932	1005	1077	1165	1239	1301	1345	1386	1421	1447	1450	1449	1464	1474	1484	1480	1455	1425	1414	1414	1422	1427	1428	1429	1429	1428	1442	1469	1480	1487	1486	1492	1488	1482	1463	1449	1447	1445	1441	1442	1448	1458	1472	1482	1490	1484	1461	1436	1422	1442	1479	1507	1505	1483	1454	1428	1434	1427	1431	1449	1454	1460	1461	1463	1458	1462	1468	1482	1493	1498	1484	1464	1455	1464	1470	1476	1470	1452	1445	1452	1476	1503	1509	1496	1476	1456	1456	1459	1469	1462	1465	1460	1466	1472	1479	1483	1491	1490	1485	1464	1444	1432	1431	1431	1437	1460	1495	1496	1478	1453	1449	1454	1461	1470	1468	1468	1461	0	0	0	0	0	0
0	0	0	0	0	0	0	0	0	0	0	0	0	0	0	0	0	0	0	0	0	0	0	0	0	0	0	0	0	0	0	0	0	0	0	0	0	0	0	0	0	0	0	0	0	0	0	0	0	0	0	0	0	0	0	0	0	0	0	0	0	0	0	0	0	0	0	0	0	0	0	0	0	0	0	0	0	0	0	0	0	0	0	0	0	0	0	0	0	0	0	0	0	0	1466	1474	1470	1467	1451	1436	1436	1446	1455	1458	1463	1463	1463	1460	1459	1464	1475	1481	1485	1479	1464	1455	1456	1461	1470	1472	1465	1463	1453	1432	1434	1446	1478	1493	1500	1493	1469	1448	1442	1463	1468	1456	1435	1418	1406	1413	1450	1471	1469	1457	1435	1426	1433	1427	1414	1390	0	0	0	0	0	0	0	0	0	0	0	0	0	0	0	0	0	0	0	0	0	0	0	0	0	0	0	0	0	0	0	0	0	0	0	0	0	0	0	0	0	0	0	0	0	0	0	0	0	0	0	0	0	0	0	0	0	0	0	0	0	0	0	0	0	0	0	0	0	0	0	0	0	0	0	0	0	0	0	0	0	0	0	0	0	0	0	0	0	0	0	954	1026	1232	1400	1431	1437	1438	1451	1465	1481	1477	1479	1486	1485	1484	1485	1491	1486	1480	1466	1456	1449	1448	1448	1460	1477	1491	1503	1496	1490	1487	1497	1511	1513	1505	1499	1488	1494	1498	1500	1502	1511	1523	1515	1495	1481	1482	1491	1494	1486	1482	1481	1478	1468	1466	1475	1491	1489	1486	1483	1494	1494	1494	1488	1488	1484	1479	1478	1467	1467	1473	1490	1507	1508	1487	1458	1452	1462	1475	1502	1520	1518	1504	1492	1484	1485	1482	1481	1484	1494	1507	1515	1535	1536	1528	1510	1488	1489	1496	1490	1466	1451	1447	1452	1460	1460	1451	1454	1468	1472	1472	1483	1498	1509	1511	1512	1506	1498	1499	1506	1509	1500	1496	1506	1523	1527	1517	1509	1513	1506	1493	1483	1479	1475	1472	1472	1472	1475	1475	1477	1490	1501	1505	1502	1482	1444	1442	1454	1458	1463	1468	1472	1468	1451	1443	1460	1477	1491	1489	1476	1471	1472	1475	1473	1469	1464	1461	1456	1450	1460	1470	1476	1469	1452	1449	1462	1485	1478	1486	1484	1481	0	0	0	0	0	0	0	0	0	0	0	0	0	0	0	0	0	0	0	0	0	0	763	687	675	665	661	655	666	653	664	676	680	681	693	695	687	684	684	688	686	681	668	668	668	674	670	674	679	680	677	669	661	654	653	658	667	668	658	650	645	642	646	659	667	669	666	664	665	667	664	662	661	660	656	654	659	663	671	682	678	687	696	703	689	672	664	666	672	670	673	686	705	718	735	773	825	927	1052	1126	1196	1261	1324	1385	1428	1444	1446	1446	1462	1467	1464	1452	1431	1423	1420	1425	1424	1413	1422	1428	1437	1463	1466	1479	1487	1493	1491	1496	1491	1464	1446	1442	1439	1441	1441	1450	1470	1500	1510	1517	1500	1474	1436	1424	1437	1467	1493	1497	1477	1456	1451	1456	1442	1438	1452	1459	1459	1458	1464	1464	1461	1475	1486	1499	1505	1488	1458	1440	1440	1455	1460	1453	1446	1438	1449	1473	1491	1497	1482	1463	1446	1446	1441	1439	1448	1452	1448	1433	1438	1453	1492	1524	1523	1504	1464	1427	1421	1417	1417	1432	1430	1424	1420	0	0	0	0	1470	1466	1457	1457	1451	0	0	0	0	0	0
0	0	0	0	0	0	0	0	0	0	0	0	0	0	0	0	0	0	0	0	0	0	0	0	0	0	0	0	0	0	0	0	0	0	0	0	0	0	0	0	0	0	0	0	0	0	0	0	0	0	0	0	0	0	0	0	0	0	0	0	0	0	0	0	0	0	0	0	0	0	0	0	0	0	0	0	0	0	0	0	0	0	0	0	0	0	0	0	0	0	0	0	0	0	1489	1493	1479	1455	1433	1419	1424	1435	1449	1461	1468	1476	1474	1474	1473	1478	1477	1481	1494	1478	1474	1462	1456	1461	1476	1479	1466	1450	1454	1449	1450	1463	1479	1492	1499	1494	1479	1456	1445	1468	1471	1466	1450	1432	1415	1412	1419	1417	1415	1396	1384	1341	1285	0	0	0	0	0	0	0	0	0	0	0	0	0	0	0	0	0	0	0	0	0	0	0	0	0	0	0	0	0	0	0	0	0	0	0	0	0	0	0	0	0	0	0	0	0	0	0	0	0	0	0	0	0	0	0	0	0	0	0	0	0	0	0	0	0	0	0	0	0	0	0	0	0	0	0	0	0	0	0	0	0	0	0	0	0	0	0	0	0	0	0	0	0	1006	1059	1243	1406	1439	1450	1442	1437	1439	1451	1467	1468	1472	1475	1481	1474	1480	1485	1482	1475	1458	1457	1454	1448	1454	1461	1484	1493	1494	1497	1494	1492	1499	1506	1509	1495	1480	1473	1469	1478	1484	1496	1517	1526	1524	1499	1488	1485	1492	1494	1491	1476	1476	1468	1460	1455	1462	1488	1494	1494	1498	1501	1503	1498	1492	1495	1493	1484	1467	1467	1469	1477	1491	1507	1500	1476	1452	1449	1457	1478	1507	1521	1532	1520	1507	1494	1480	1467	1467	1480	1489	1501	1517	1517	1483	1473	1480	1490	1491	1497	1480	1467	1476	1500	1491	1513	1523	1506	1500	1485	1484	1482	1488	1504	1521	1523	1520	1508	1507	1507	1508	1502	1483	1468	1475	1473	1493	1508	1523	1523	1514	1493	1480	1468	1453	1424	1432	1445	1459	1460	1471	1483	1503	1509	1503	1463	1448	1435	1457	1470	1466	1475	1488	1480	1458	1442	1463	1485	1496	1493	1488	1482	1478	1481	1477	1463	1459	1457	1449	1442	1449	1471	1480	1472	1464	1470	1478	1488	1489	1475	1475	1456	0	0	0	0	0	0	0	0	0	0	0	0	0	0	0	0	0	0	0	0	0	0	0	697	673	653	642	632	640	642	641	653	655	658	666	674	678	679	676	679	681	669	661	664	657	657	658	666	672	670	666	657	648	640	640	646	657	663	648	638	633	633	644	658	661	662	658	656	660	663	661	656	649	655	655	654	656	660	656	654	655	660	673	678	670	658	654	658	666	666	668	672	676	676	680	697	724	753	825	880	1036	1112	1092	1115	1240	1339	1419	1419	1425	1436	1441	1450	1475	1499	1492	1465	1420	1422	1433	1503	1511	1500	1487	1464	1459	1463	1457	1464	1469	1459	1465	1482	1499	1499	1505	0	1555	1567	1568	1537	1498	1453	1429	1418	1422	1424	1416	1395	1393	0	0	0	0	0	0	0	0	0	0	0	0	0	0	0	0	0	0	0	0	0	0	0	0	0	0	0	0	0	0	0	0	0	0	0	0	0	0	0	0	0	0	0	0	0	0	0	0	0	0	0	0	0	0	0	0	0	0	0	0	0	0	0	0	0	0	0	0	0
0	0	0	0	0	0	0	0	0	0	0	0	0	0	0	0	0	0	0	0	0	0	0	0	0	0	0	0	0	0	0	0	0	0	0	0	0	0	0	0	0	0	0	0	0	0	0	0	0	0	0	0	0	0	0	0	0	0	0	0	0	0	0	0	0	0	0	0	0	0	0	0	0	0	0	0	0	0	0	0	0	0	0	0	0	0	0	0	0	0	0	0	0	1506	1505	1480	1472	1459	1451	1443	1439	1444	1452	1466	1480	1485	1481	1474	1471	1467	1470	1472	1498	1486	1475	1469	1458	1463	1471	1470	1468	1466	1454	1470	1484	1485	1480	1483	1487	1491	1476	1457	1449	1475	1482	1477	1460	1443	1428	1420	1417	1406	1397	1373	1281	0	0	0	0	0	0	0	0	0	0	0	0	0	0	0	0	0	0	0	0	0	0	0	0	0	0	0	0	0	0	0	0	0	0	0	0	0	0	0	0	0	0	0	0	0	0	0	0	0	0	0	0	0	0	0	0	0	0	0	0	0	0	0	0	0	0	0	0	0	0	0	0	0	0	0	0	0	0	0	0	0	0	0	0	0	0	0	0	0	0	0	0	0	0	0	1054	1209	1286	1392	1439	1455	1447	1436	1435	1439	1452	1459	1462	1471	1482	1484	1473	1475	1476	1468	1461	1480	1480	1465	1460	1469	1485	1492	1495	1500	1502	1496	1500	1494	1492	1483	1464	1452	1449	1458	1470	1500	1518	1516	1518	1509	1504	1499	1493	1493	1485	1484	1483	1474	1464	1457	1463	1468	1488	1511	1536	1529	1498	1493	1509	1513	1505	1488	1466	1444	1446	1466	1494	1505	1481	1480	1450	1447	1458	1480	1506	1529	1536	1526	1514	1504	1480	1469	1463	1475	1484	1495	1509	1511	1479	1468	1474	1488	1494	1494	1492	1472	1486	1499	1492	1512	1525	1510	1506	1498	1494	1489	1496	1513	1524	1529	1523	1507	1510	1511	1507	1562	1542	1504	1469	1458	1485	1511	1556	1571	1555	1486	1457	1447	1435	1417	1401	1402	0	0	0	1469	1451	1420	1396	1357	1364	1392	1421	1422	0	0	0	0	1467	1472	1484	1499	1511	1488	0	0	0	0	0	1454	1423	1432	1465	1487	1501	1495	1499	1509	1519	1515	1487	1464	1431	1419	1422	0	0	0	0	0	0	0	0	0	0	0	0	0	0	0	0	0	0	0	0	0	0	0	0	0	695	681	650	632	627	625	624	628	640	645	652	659	667	665	667	668	670	660	657	657	653	656	662	672	675	668	654	640	633	628	628	631	641	651	645	632	628	635	645	655	662	658	652	656	666	670	667	647	635	647	649	650	648	642	635	629	625	628	631	644	644	639	639	645	656	668	677	675	669	656	652	660	676	690	696	698	723	783	818	885	913	0	0	0	0	0	0	0	0	0	0	0	0	0	0	0	0	0	0	0	0	0	0	0	0	0	0	0	0	0	0	0	0	0	0	0	0	0	0	0	0	0	0	0	0	0	0	0	0	0	0	0	0	0	0	0	0	0	0	0	0	0	0	0	0	0	0	0	0	0	0	0	0	0	0	0	0	0	0	0	0	0	0	0	0	0	0	0	0	0	0	0	0	0	0	0	0	0	0	0	0	0	0	0	0	0	0	0	0	0	0	0	0	0
