0	0	0	0	0	0	0	0	0	0	0	0	0	0	0	0	0	0	0	0	0	0	0	0	0	0	0	0	0	0	0	0	0	0	0	0	0	0	0	0	0	0	0	0	0	0	0	0	0	0	0	0	0	0	0	0	0	0	0	0	0	0	0	0	0	0	0	0	0	0	0	0	0	0	0	0	0	0	0	0	0	0	0	0	0	0	0	0	0	0	0	0	0	1505	1495	1469	1464	1467	1471	1485	1501	1508	1494	1460	1454	1458	1466	1463	1465	1474	1484	1496	1501	1497	1487	1478	1477	1464	1464	1484	1486	1479	1493	1502	1501	1501	1494	1504	0	0	0	0	0	0	0	0	0	0	0	0	0	0	0	0	0	0	0	0	0	0	0	0	0	0	0	0	0	0	0	0	0	0	0	0	0	0	0	0	0	0	0	0	0	0	0	0	1414	1374	1383	1397	1407	1413	1413	1419	1416	1422	1414	1403	1397	1401	1403	1404	1379	1381	1381	1390	1390	1396	1394	1391	1390	1388	1382	1390	1396	1402	1400	1408	1407	1402	1391	1383	1379	1386	1398	1396	1401	1423	1452	1457	1419	1406	1404	1395	1366	1356	1327	1303	1285	1280	0	0	0	0	0	0	0	0	0	0	0	0	0	0	0	0	0	1141	1154	1161	1171	1193	1186	1159	1134	1121	1118	1128	1142	1155	1163	1163	1171	1168	1151	1132	1132	1146	1161	1188	1219	1316	1398	1446	1453	1428	1422	1471	1503	1528	1557	1551	1521	1473	1453	1451	1465	1484	1493	1506	1499	1485	1475	1476	1469	1462	1457	1464	1471	1478	1489	1499	1506	1502	1499	1495	1490	1482	1468	1426	1413	1410	1392	1384	1379	1369	1355	1364	1366	1381	1398	1415	1413	1403	1390	1361	1366	1365	1368	1372	1380	1394	1402	1406	1394	1388	1379	1378	1373	1385	1393	1400	1398	1392	1392	1406	1417	1426	1420	1428	1412	1403	1391	1387	1380	1373	1359	1358	1360	1376	1391	1408	1420	1442	1465	1451	1445	1443	1453	1472	1495	1504	1512	1498	1473	1451	1441	1462	1471	1477	1481	1484	1488	1496	1489	1480	1476	1491	1507	1508	1483	1463	1459	1466	1479	1482	1475	1477	1477	1499	1534	1532	1485	1386	1260	1195	1152	1131	0	0	0	0	0	0	0	0	0	1043	1038	1042	1043	1048	1061	1067	1082	1087	1084	1066	1062	1071	1085	1103	1092	1074	1067	1067	1072	1050	1044	1048	1052	1057	1056	1055	1056	1053	1064	1070	1081	1102	1180	1248	1306	1362	1358	1354	1361	1381	1390	1370	1372	1378	1382	1389	1385	1375	1364	1349	1346	1356	1348	1346	1351	1358	1357	1350	1353	1362	1367	1361	1354	1339	1332	1339	1353	1375	1377	1374	1366	1352	1338	1334	1339	1346	1342	1342	1349	1349	1339	1340	1370	1374	1352	1333	1344	1364	1387	1419	1438	1445	1459	1487	1501	1510	1510	1494	1487	1486	1488	1495	1503	1501	1490	1485	1483	1480	1485	1502	1509	1500	1482	1456	1462	1460	1455	1439	1424	1429	1442	1446	1449	1441	1426	1405	1401	1407	1417	1421	1423	1422	1420	1420	1422	1424	1425	1418	1417	1413	1401	1389	1388	1394	1425	1452	1481	1492	1504	1497	1486	1469	1454	1456	1445	1437	1434	1432	1437	1450	1465	1476	1459	1437	1425	1423	1429	1448	1449	1454	1455	1461	1470	1477	1472	1478	1481	1488	1483	1474	1481	1499	1508	1508	1492	1470	1461	1453	1444	1442	1437	1439	1446	1446	1452	1463	1469	1474	1482	1493	1492	1491	1470	1470	1469	1467	1452	1435	1435	1434	1426	1423	1442	1461	1481	0	0	0	0	0	0	0
0	0	0	0	0	0	0	0	0	0	0	0	0	0	0	0	0	0	0	0	0	0	0	0	0	0	0	0	0	0	0	0	0	0	0	0	0	0	0	0	0	0	0	0	0	0	0	0	0	0	0	0	0	0	0	0	0	0	0	0	0	0	0	0	0	0	0	0	0	0	0	0	0	0	0	0	0	0	0	0	0	0	0	0	0	0	0	0	0	0	0	0	0	1503	1493	1476	1465	1464	1474	1489	1497	1500	1488	1460	1454	1459	1466	1466	1460	1457	1462	1476	1488	1491	1484	1472	1459	1441	1437	1447	1472	1467	1477	1489	1485	1468	1442	1443	1468	1486	1512	1552	1540	1511	1501	1485	1457	1438	1424	1426	1437	1443	1457	1477	1471	1446	1437	1430	1421	1421	1418	1421	1451	1491	1485	1461	1450	1433	1411	1394	1401	1410	1429	1435	1450	1461	1477	1486	1495	1496	1513	1531	1523	1492	1458	1423	1413	1400	1412	1423	1423	1436	1445	1459	1463	1461	1433	1415	1405	1395	1397	1405	1420	1420	1415	1402	1407	1410	1415	1405	1394	1389	1383	1388	1393	1395	1402	1412	1410	1394	1385	1380	1393	1397	1404	1408	1434	1458	1466	1459	1447	1422	1411	1375	1330	1314	1301	1257	1219	0	0	0	0	0	0	0	0	0	1081	1085	1089	0	0	0	0	1098	1099	1108	1117	1123	1130	1130	1131	1128	1123	1119	1118	1127	1140	1150	1160	1163	1160	1149	1131	1120	1118	1126	1148	1177	1222	1364	1445	1480	1474	1454	1446	1433	1440	1466	1502	1517	1507	1492	1476	1475	1474	1471	1475	1487	1499	1518	1517	1503	1492	1472	1454	1454	1471	1486	1500	1494	1483	1491	1502	1502	1495	1483	1461	1440	1414	1424	1419	1400	1388	1403	1405	1390	1384	1392	1405	1413	1405	1387	1367	1354	1371	1374	1369	1367	1371	1381	1395	1397	1392	1386	1384	1376	1382	1388	1400	1407	1397	1397	1401	1406	1417	1431	1438	1429	1420	1406	1389	1382	1381	1366	1357	1355	1375	1402	1409	1412	1420	1443	1459	1457	1461	1459	1468	1479	1495	1506	1503	1484	1472	1445	1439	1455	1469	1480	1487	1487	1491	1486	1484	1477	1475	1486	1500	1494	1475	1463	1471	1480	1486	1490	1485	1485	1481	1495	1519	1541	1468	1341	0	0	0	0	0	0	0	0	0	0	0	0	0	1045	1036	1027	1029	1030	1036	1043	1054	1054	1052	1045	1048	1057	1074	1094	1086	1077	1069	1050	1046	1036	1038	1043	1047	1055	1055	1048	1027	1007	1007	1025	1047	1078	1104	1145	1193	1271	1294	1313	1345	1373	1378	1377	1379	1376	1375	1378	1378	1371	1353	1346	1366	1392	1346	1341	1361	1380	1385	1377	1368	1363	1367	1367	1359	1354	1345	1347	1355	1389	1386	1380	1367	1347	1338	1343	1351	1357	1348	1351	1360	1375	1376	1388	1394	1389	1382	1376	1364	1376	1407	1439	1452	1442	1449	1468	1495	1498	1500	1501	1498	1496	1496	1499	1511	1504	1493	1488	1487	1491	1493	1505	1505	1504	1477	1448	1441	1446	1445	1443	1440	1447	1452	1462	1459	1450	1435	1421	1412	1413	1419	1430	1430	1416	1404	1430	1444	1438	1428	1413	1408	1395	1378	1360	1357	1384	1409	1428	1454	1468	1474	1475	1466	1462	1455	1451	1449	1439	1433	1437	1448	1456	1473	1484	1474	1465	1450	1438	1434	1447	1454	1460	1463	1462	1464	1460	1471	1477	1485	1484	1471	1465	1474	1499	1512	1492	1477	1465	1458	1451	1446	1440	1442	1445	1449	1449	1461	1473	1479	1477	1484	1494	1481	1468	1449	1443	1461	1459	1451	1439	1439	1438	1427	1428	1446	1470	1485	0	0	0	0	0	0	0
0	0	0	0	0	0	0	0	0	0	0	0	0	0	0	0	0	0	0	0	0	0	0	0	0	0	0	0	0	0	0	0	0	0	0	0	0	0	0	0	0	0	0	0	0	0	0	0	0	0	0	0	0	0	0	0	0	0	0	0	0	0	0	0	0	0	0	0	0	0	0	0	0	0	0	0	0	0	0	0	0	0	0	0	0	0	0	0	0	0	0	0	0	1485	1479	1462	1452	1452	1454	1467	1484	1485	1462	1460	1456	1458	1459	1455	1444	1441	1447	1462	1471	1475	1470	1460	1453	1435	1435	1445	1453	1445	1444	1439	1441	1445	1451	1458	1468	1486	1489	1505	1466	1440	1441	1447	1462	1465	1459	1453	1458	1462	1474	1477	1481	1470	1462	1461	1454	1441	1436	1428	1420	1422	1436	1450	1453	1441	1431	1432	1427	1425	1420	1450	1463	1481	1490	1493	1492	1496	1505	1521	1520	1504	1481	1451	1429	1430	1451	1461	1468	1462	1458	1468	1470	1464	1441	1414	1398	1394	1391	1396	1416	1418	1406	1410	1409	1423	1425	1422	1402	1395	1396	1398	1398	1403	1409	1417	1415	1407	1392	1394	1407	1424	1426	1427	1433	1453	1465	1456	1433	1404	1371	1343	1280	1246	1182	1154	1153	1154	0	0	0	0	1090	1078	1072	1071	1071	1067	1071	1084	1091	1084	1102	1085	1095	1101	1100	1096	1086	1086	1098	1109	1120	1120	1122	0	0	0	0	1151	1151	1139	1126	1116	1116	1132	1154	1189	1230	1416	1484	1486	1476	1457	1447	1437	1441	1460	1482	1508	1504	1490	1479	1475	1477	1476	1479	1484	1504	1520	1527	1523	1500	1478	1462	1457	1471	1487	1489	1471	1465	1472	1499	1507	1499	1472	1459	1438	1426	1423	1429	1407	1394	1409	1432	1451	1458	1450	1437	1433	1428	1412	1397	1394	1397	1392	1386	1376	1367	1370	1394	1415	1420	1412	1395	1389	1388	1397	1401	1404	1403	1405	1416	1425	1425	1416	1412	1411	1402	1381	1366	1361	1367	1372	1378	1396	1414	1435	1432	1406	1431	1466	1472	1479	1478	1487	1494	1490	1497	1496	1476	1469	1453	1444	1445	1456	1473	1484	1490	1496	1492	1492	1489	1480	1479	1485	1491	1489	1483	1478	1478	1487	1494	1497	1492	1487	1484	1497	1515	1540	1455	0	0	0	0	0	0	0	0	0	0	0	0	0	1055	1050	1049	1034	1020	1020	1027	1031	1030	1027	1022	1026	1038	1046	1053	1068	1023	1031	1036	1041	1033	1039	1039	1043	1051	1052	1050	1037	1017	992	984	1006	1037	1063	1074	1078	1125	1161	1201	1236	1278	1329	1361	1380	1394	1390	1378	1380	1375	1382	1391	1392	1402	1415	1466	1480	1483	1460	1438	1413	1402	1396	1385	1386	1389	1389	1391	1402	1418	1451	1456	1442	1409	1390	1381	1390	1410	1421	1426	1426	1432	1438	1439	1444	1438	1433	1419	1395	1385	1396	1431	1459	1450	1438	1445	1462	1476	1487	1487	1493	1496	1500	1499	1507	1508	1498	1486	1482	1482	1486	1494	1498	1498	1487	1473	1443	1436	1435	1437	1443	1449	1458	1464	1466	1458	1461	1452	1439	1428	1429	1429	1444	1441	1421	1409	1432	1441	1440	1430	1417	1402	1388	1374	1354	1351	1360	1392	1417	1432	1440	1444	1442	1452	1458	1463	1457	1453	1444	1442	1453	1458	1462	1470	1483	1480	1469	1457	1454	1437	1435	1449	1466	1463	1461	1451	1456	1470	1478	1480	1479	1464	1464	1470	1488	1500	1492	1474	1466	1459	1454	1449	1450	1444	1434	1441	1441	1462	1473	1480	1473	1481	1489	1480	1458	1445	1445	1448	1456	1448	1443	1443	1439	1431	1439	1459	1476	1488	0	0	0	0	0	0	0
0	0	0	0	0	0	0	0	0	0	0	0	0	0	0	0	0	0	0	0	0	0	0	0	0	0	0	0	0	0	0	0	0	0	0	0	0	0	0	0	0	0	0	0	0	0	0	0	0	0	0	0	0	0	0	0	0	0	0	0	0	0	0	0	0	0	0	0	0	0	0	0	0	0	0	0	0	0	0	0	0	0	0	0	0	0	0	0	0	0	0	0	0	1480	1464	1448	1440	1441	1448	1462	1468	1465	1462	1461	1463	1463	1453	1444	1432	1425	1443	1457	1445	1455	1450	1452	1446	1435	1437	1441	1445	1437	1427	1432	1445	1456	1457	1459	1467	1479	1491	1472	1454	1441	1437	1451	1460	1472	1462	1453	1457	1465	1474	1478	1473	1463	1471	1475	1473	1458	1452	1436	1420	1424	1427	1458	1458	1452	1449	1445	1448	1439	1438	1464	1475	1487	1488	1496	1496	1497	1509	1523	1523	1513	1500	1482	1460	1453	1479	1477	1475	1467	1458	1467	1472	1462	1441	1417	1403	1400	1397	1395	1399	1402	1404	1401	1412	1425	1436	1434	1424	1409	1419	1423	1421	1446	1464	1455	1444	1430	1413	1420	1429	1442	1438	1440	1435	1432	1436	1429	1420	1382	1347	1297	1160	1118	1107	1105	1110	1110	1110	1086	1057	1049	1047	1062	1068	1063	1050	1040	1041	1047	1053	1050	1046	1065	1093	1098	1087	1068	1060	1061	1069	1087	1104	1111	1113	0	0	0	1107	1112	1119	1122	1117	1115	1127	1152	1190	1224	1264	1421	1485	1471	1464	1461	1455	1446	1455	1473	1493	1503	1498	1482	1471	1477	1480	1480	1476	1492	1507	1521	1527	1524	1505	1483	1485	1491	1493	1478	1471	1463	1465	1471	1498	1515	1505	1478	1450	1447	1444	1440	1426	1405	1400	1419	1445	1455	1458	1455	1448	1446	1441	1425	1407	1406	1409	1412	1407	1393	1374	1382	1400	1415	1417	1406	1395	1394	1394	1446	1483	1495	1502	1482	1436	1439	1433	1419	1414	1417	1412	1405	1391	1386	1398	1402	1409	1428	1446	1464	1474	1479	1479	1478	1492	1504	1510	1509	1508	1509	1509	1487	1466	1451	1444	1437	1447	1461	1471	1478	1483	1488	1492	1485	1475	1460	1465	1476	1490	1497	1495	1491	1480	1483	1486	1484	1490	1483	1485	1496	1509	1518	1466	0	0	0	0	0	0	0	0	0	0	0	0	0	1068	1063	1060	1035	1019	1008	1014	1020	1019	1012	1006	1010	1019	1025	993	977	981	990	1004	1024	1031	1035	1040	1042	1045	1043	1048	1044	1022	1001	989	1000	1033	1060	1062	1050	1046	1076	1106	1156	1199	1287	1318	1366	1397	1393	1376	1378	1387	1398	1421	1418	1420	1457	1471	1486	1491	1482	1460	1435	1421	1413	1404	1415	1419	1424	1433	1436	1435	1453	1452	1448	1424	1409	1408	1406	1439	1452	1452	1443	1437	1435	1445	1452	1462	1460	1451	1438	1432	1442	1463	1465	1458	1436	1443	1461	1471	1475	1476	1486	1493	1496	1492	1497	1495	1486	1475	1472	1474	1469	1457	1472	1473	1470	1464	1450	1446	1443	1444	1447	1453	1461	1466	1465	1470	1467	1465	1453	1443	1445	1462	1462	1453	1431	1419	1427	1430	1427	1421	1414	1402	1388	1370	1349	1348	1356	1372	1395	1409	1417	1424	1432	1444	1460	1468	1468	1463	1460	1463	1464	1464	1463	1468	1472	1473	1470	1474	1459	1443	1435	1449	1457	1459	1449	1446	1450	1464	1477	1477	1467	1462	1458	1467	1480	1491	1488	1480	1471	1464	1456	1457	1448	1444	1435	1448	1448	1457	1477	1479	1474	1482	1486	1484	1463	1452	1447	1441	1444	1446	1449	1449	1442	1437	1440	1458	1474	1477	0	0	0	0	0	0	0
0	0	0	0	0	0	0	0	0	0	0	0	0	0	0	0	0	0	0	0	0	0	0	0	0	0	0	0	0	0	0	0	0	0	0	0	0	0	0	0	0	0	0	0	0	0	0	0	0	0	0	0	0	0	0	0	0	0	0	0	0	0	0	0	0	0	0	0	0	0	0	0	0	0	0	0	0	0	0	0	0	0	0	0	0	0	0	0	0	0	0	0	0	1470	1452	1444	1438	1441	1452	1459	1468	1469	1473	1477	1478	1472	1455	1441	1432	1430	1460	1438	1432	1431	1443	1446	1444	1429	1439	1449	1449	1436	1423	1426	1448	1461	1460	1441	1440	1450	1486	1486	1460	1446	1439	1445	1473	1478	1466	1448	1448	1460	1467	1470	1467	1460	1457	1481	1472	1475	1468	1448	1435	1431	1441	1458	1469	1468	1468	1467	1469	1468	1467	1475	1488	1484	1486	1490	1501	1501	1508	1518	1516	1508	1504	1497	1498	1496	1473	1467	1458	1446	1433	1435	1465	1471	1450	1434	1428	1433	1429	1426	1417	1422	1415	1412	1415	1423	1433	1444	1439	1433	1434	1445	1467	1490	1502	1495	1478	1466	1460	1478	1487	1477	1461	1450	1440	1429	1422	1428	1414	1351	1226	1171	1096	1085	1082	1088	1084	1085	1077	1061	1043	1038	1042	1052	1056	1052	1042	1031	1029	1035	1037	1036	1034	1047	1051	1048	1071	1053	1041	1038	1047	1062	1080	1085	1091	1082	1068	1058	1047	1052	1079	1087	0	0	0	0	0	1254	1295	1412	1464	1460	1453	1454	1456	1456	1474	1483	1483	1478	1472	1466	1467	1467	1477	1479	1488	1501	1514	1517	1517	1508	1492	1487	1486	1495	1491	1486	1486	1487	1490	1487	1485	1480	1468	1457	1449	1453	1463	1475	1487	1483	1475	1467	1475	1482	1492	1498	1507	1477	1449	1436	1434	1434	1443	1454	1474	1488	1481	1472	1462	1464	1477	1493	1496	1491	1493	1498	1507	1486	1479	1483	1501	1506	1501	1475	1482	1481	1481	1485	1489	1483	1472	1454	1452	1469	1483	1490	1489	1487	1488	1489	1495	1504	1511	1511	1513	1518	1517	1492	1466	1449	1442	1440	1449	1462	1462	1467	1469	1479	1486	1484	1470	1461	1464	1474	1491	1500	1503	1494	1480	1485	1486	1494	1497	1489	1484	1488	1496	1503	1480	0	0	0	0	0	0	0	0	0	0	0	0	1044	0	0	0	0	1004	995	1003	1010	1010	1005	1007	1008	1026	1014	983	959	962	974	990	1011	1020	1026	1033	1033	1036	0	0	0	0	0	0	0	0	0	0	0	1011	1026	1046	1071	1102	1130	1225	1326	1382	1378	1379	1378	1397	1419	1447	1452	1451	1464	1473	1481	1492	1486	1481	1479	1470	1460	1452	1454	1463	1469	1474	1484	1484	1463	1458	1457	1455	1458	1457	1474	1489	1493	1494	1476	1459	1452	1454	1470	1497	1493	1488	1494	1492	1488	1471	1464	1456	1442	1451	1466	1482	1477	1465	1483	1486	1487	1483	1483	1484	1481	1469	1469	1472	1468	1458	1456	1446	1447	1457	1456	1462	1463	1454	1450	1449	1453	1458	1461	1469	1470	1465	1456	1455	1464	1475	1475	1465	1441	1427	1410	1405	1412	1417	1413	1402	1380	1363	1347	1341	1351	1362	1377	1395	1405	1416	1429	1447	1465	1479	1481	1484	1474	1480	1480	1472	1469	1465	1463	1461	1450	1465	1451	1440	1434	1438	1449	1453	1442	1436	1444	1458	1470	1475	1473	1463	1459	1457	1476	1486	1490	1477	1460	1457	1453	1448	1447	1441	1441	1441	1443	1453	1463	1475	1480	1481	1490	1487	1467	1455	1444	1443	1441	1449	1449	1449	1437	1435	1440	1456	1467	1471	0	0	0	0	0	0	0
0	0	0	0	0	0	0	0	0	0	0	0	0	0	0	0	0	0	0	0	0	0	0	0	0	0	0	0	0	0	0	0	0	0	0	0	0	0	0	0	0	0	0	0	0	0	0	0	0	0	0	0	0	0	0	0	0	0	0	0	0	0	0	0	0	0	0	0	0	0	0	0	0	0	0	0	0	0	0	0	0	0	0	0	0	0	0	0	0	0	0	0	0	1477	1449	1444	1444	1456	1460	1472	1481	1490	1488	1487	1484	1476	1462	1453	1443	1445	1451	1441	1436	1437	1447	1447	1447	1430	1445	1458	1453	1441	1429	1427	1454	1463	1460	1440	1444	1457	1480	1490	1474	1461	1455	1472	1474	1472	1462	1447	1442	1453	1464	1466	1454	1451	1437	1426	1437	1479	1479	1466	1454	1450	1456	1465	1477	1483	1486	1482	1483	1487	1492	1499	1487	1470	1477	1483	1495	1500	1502	1504	1502	1493	1487	1475	1476	1469	1455	1455	1452	1437	1432	1437	1445	1464	1455	1451	1446	1440	1442	1439	1433	1431	1431	1429	1420	1421	1425	1436	1425	1420	1428	1445	1466	1477	1486	1498	1487	1477	1479	1485	1493	1488	1468	1451	1442	1408	1358	1293	1222	1178	1148	1126	1078	1068	1076	1079	1072	1064	1056	1055	1041	1035	1037	1036	1037	1031	1024	1020	1026	1035	1038	1037	1036	1037	1025	1018	1015	1017	1034	1031	1030	1041	1052	1060	1074	1070	1057	1046	1040	1040	1052	1065	0	0	0	0	0	0	1313	1420	1465	1462	1455	1455	1456	1459	1486	1486	1472	1455	1448	1446	1454	1465	1472	1477	1486	1505	1514	1513	1506	1500	1488	1476	1479	1485	1487	1487	1497	1502	1500	1492	1481	1474	1465	1461	1462	1465	1473	1482	1483	1475	1470	1466	1476	1480	1488	1496	1506	1518	1487	1462	1455	1452	1462	1479	1482	1481	1479	1471	1461	1468	1483	1494	1497	1488	1483	1489	1503	1485	1477	1476	1490	1499	1499	1474	1490	1489	1483	1486	1484	1481	1479	1469	1468	1483	1493	1489	1482	1483	1486	1487	1495	1496	1498	1497	1504	1514	1519	1502	1481	1456	1447	1451	1459	1473	1476	1463	1453	1456	1477	1487	1480	1466	1465	1473	1487	1495	1501	1491	1494	1505	1519	1519	1511	1498	1483	1487	1488	1496	1489	0	0	0	0	0	0	0	0	0	0	0	0	0	0	0	0	0	0	0	0	1010	1008	1010	0	0	0	0	1006	963	965	975	989	1002	1014	1019	1025	1030	1030	1029	0	0	0	0	0	0	0	0	0	0	0	1012	1015	1028	1041	1051	1095	1128	1199	1318	1351	1367	1392	1415	1439	1452	1451	1469	1471	1497	1490	1489	1492	1494	1489	1480	1474	1473	1473	1475	1480	1487	1481	1451	1452	1465	1471	1475	1475	1485	1490	1497	1500	1485	1462	1452	1454	1464	1473	1467	1490	1497	1499	1486	1473	1466	1461	1464	1470	1482	1486	1480	1476	1482	1493	1486	1478	1476	1480	1475	1469	1478	1482	1473	1464	1443	1443	1447	1453	1472	1481	1481	1476	1470	1459	1454	1461	1469	1482	1477	1465	1459	1460	1466	1476	1478	1470	1450	1434	1397	1390	1397	1411	1411	1394	1375	1360	1348	1351	1350	1355	1365	1382	1397	1407	1424	1449	1469	1486	1495	1493	1491	1490	1482	1476	1471	1467	1460	1452	1448	1443	1434	1438	1437	1437	1439	1436	1438	1436	1442	1458	1471	1479	1484	1473	1468	1464	1481	1490	1490	1478	1461	1452	1450	1439	1436	1438	1439	1439	1439	1446	1455	1467	1486	1491	1488	1475	1464	1458	1448	1449	1449	1453	1458	1458	1454	1449	1452	1461	1462	1464	0	0	0	0	0	0	0
0	0	0	0	0	0	0	0	0	0	0	0	0	0	0	0	0	0	0	0	0	0	0	0	0	0	0	0	0	0	0	0	0	0	0	0	0	0	0	0	0	0	0	0	0	0	0	0	0	0	0	0	0	0	0	0	0	0	0	0	0	0	0	0	0	0	0	0	0	0	0	0	0	0	0	0	0	0	0	0	0	0	0	0	0	0	0	0	0	0	0	0	0	1472	1446	1443	1453	1462	1473	1485	1494	1501	1498	1492	1482	1468	1467	1463	1459	1467	1479	1461	1450	1454	1459	1457	1450	1438	1464	1467	1461	1450	1439	1457	1471	1471	1463	1450	1453	1467	1485	1496	1488	1487	1487	1487	1478	1465	1453	1435	1429	1444	1454	1457	1452	1446	1432	1428	1437	1478	1484	1472	1461	1466	1470	1467	1468	1483	1490	1492	1497	1501	1512	1514	1477	1469	1473	1483	1483	1486	1487	1494	1483	1475	1469	1460	1458	1456	1457	1457	1451	1441	1436	1436	1447	1458	1459	1452	1449	1464	1462	1445	1430	1440	1449	1438	1421	1418	1424	1430	1423	1428	1439	1454	1464	1472	1473	1484	1489	1477	1472	1474	1486	1478	1459	1409	1358	1252	1223	1206	1180	1144	0	0	0	1064	1067	1064	1051	1042	1040	1037	1036	1030	1029	1022	1011	1000	993	999	1015	1028	1032	1030	1034	1034	1008	998	994	1010	1022	1026	1020	1020	1027	1048	1054	1056	1041	1025	1028	1041	1056	0	0	0	0	0	0	1303	1398	1471	1481	1470	1462	1459	1454	1465	1473	1474	1457	1444	1437	1440	1444	1453	1468	1473	1486	1501	1506	1507	1504	1495	1488	1475	1470	1470	1482	1487	1499	1510	1504	1490	1477	1475	1469	1466	1472	1482	1488	1489	1489	1472	1465	1464	1471	1473	1483	1491	1510	1525	1500	1483	1475	1473	1477	1490	1494	1481	1483	1471	1458	1444	1447	1449	1452	1447	1457	1445	1442	1446	1466	1477	1484	1490	1493	1490	1480	1473	1468	1465	1472	1479	1479	1478	1505	1517	1523	1510	1484	1481	1484	1492	1495	1481	1473	1482	1498	1507	1517	1507	1491	1474	1466	1465	1474	1480	1480	1470	1459	1464	1491	1497	1485	1477	1469	1471	1480	1494	1498	1494	1497	1506	1514	1514	1503	1490	1484	1491	1491	1499	1490	1484	0	0	0	0	0	0	0	0	0	0	0	0	0	0	0	0	0	0	0	0	0	0	0	0	0	0	0	0	0	0	0	0	998	1008	1020	1028	0	0	0	0	0	0	0	0	0	0	0	0	0	0	0	0	0	1024	1034	1052	1081	1116	1142	1155	1276	1371	1411	1428	1442	1461	1482	1492	1491	1493	1497	1495	1495	1495	1490	1482	1467	1466	1475	1478	1470	1444	1447	1458	1472	1479	1474	1476	1487	1495	1498	1489	1460	1450	1446	1460	1434	1446	1481	1494	1496	1486	1477	1471	1471	1476	1485	1494	1487	1482	1475	1488	1495	1491	1478	1475	1488	1481	1468	1469	1484	1490	1475	1463	1465	1468	1466	1473	1485	1487	1483	1481	1475	1462	1466	1477	1487	1488	1470	1468	1465	1465	1467	1473	1469	1459	1444	1391	1383	1388	1395	1395	1386	1366	1354	1351	1359	1355	1359	1368	1380	1389	1402	1417	1441	1468	1490	1495	1499	1491	1478	1476	1476	1475	1470	1464	1453	1445	1445	1443	1442	1440	1429	1436	1439	1446	1449	1459	1464	1471	1473	1468	1475	1469	1474	1485	1498	1500	1485	1473	1460	1448	1442	1434	1439	1445	1445	1438	1438	1440	1460	1479	1484	1481	1474	1458	1450	1443	1451	1460	1458	1458	1466	1470	1466	1454	1461	1461	1461	0	0	0	0	0	0	0
0	0	0	0	0	0	0	0	0	0	0	0	0	0	0	0	0	0	0	0	0	0	0	0	0	0	0	0	0	0	0	0	0	0	0	0	0	0	0	0	0	0	0	0	0	0	0	0	0	0	0	0	0	0	0	0	0	0	0	0	0	0	0	0	0	0	0	0	0	0	0	0	0	0	0	0	0	0	0	0	0	0	0	0	0	0	0	0	0	0	0	0	0	1460	1448	1445	1451	1463	1477	1484	1493	1500	1497	1491	1481	1474	1469	1462	1468	1481	1488	1495	1484	1467	1462	1464	1463	1463	1474	1466	1460	1452	1464	1482	1482	1476	1468	1459	1464	1477	1488	1499	1509	1512	1514	1498	1475	1454	1436	1421	1424	1442	1458	1458	1448	1447	1441	1451	1463	1489	1486	1476	1472	1467	1460	1454	1460	1474	1489	1497	1498	1505	1512	1514	1488	1474	1471	1476	1476	1478	1481	1481	1473	1463	1459	1456	1456	1457	1464	1463	1455	1451	1443	1443	1446	1452	1455	1455	1465	1475	1480	1462	1443	1464	1460	1441	1422	1421	1426	1433	1444	1450	1459	1463	1467	1459	1455	1450	1467	1463	1456	1455	1450	1374	1324	1287	1232	1204	1186	1169	1144	0	0	0	0	1058	1049	1043	1031	1030	1025	1028	1027	1028	1025	1010	992	978	977	982	999	1004	1007	1014	1026	1025	996	982	985	0	0	0	0	0	1016	1032	1040	1023	1014	1008	1019	1050	0	0	0	0	0	0	1309	1394	1457	1498	1500	1496	1488	1475	1461	1455	1444	1448	1438	1434	1437	1440	1449	1451	1451	1457	1467	1473	1475	1478	1486	1482	1475	1469	1476	1484	1498	1500	1510	1519	1522	1513	1498	1484	1478	1481	1479	1488	1489	1493	1466	1459	1459	1472	1484	1478	1490	1502	1517	1515	1504	1506	1503	1497	1497	1502	1503	1497	1485	1487	1467	1452	1451	1451	1446	1447	1457	1474	1481	1470	1467	1474	1495	1507	1508	1491	1482	1469	1462	1461	1469	1481	1485	1493	1513	1523	1528	1527	1515	1501	1497	1500	1497	1480	1464	1465	1485	1496	1496	1500	1499	1497	1495	1484	1488	1504	1505	1499	1494	1498	1504	1503	1487	1480	1470	1474	1488	1491	1490	1490	1484	1496	1501	1494	1483	1481	1485	1493	1504	1503	1501	1455	0	0	0	0	0	0	0	0	0	0	0	0	0	0	0	0	0	0	0	0	0	0	0	0	0	0	0	0	0	0	0	0	0	0	0	0	0	0	0	0	0	0	0	0	0	0	0	0	0	0	0	0	0	1017	1025	1042	1052	1066	1082	1092	1077	1151	1294	1385	1413	1454	1461	1467	1480	1488	1491	1494	1497	1501	1502	1486	1454	1457	1470	1484	1459	1451	1453	1450	1460	1475	1477	1478	1480	1487	1493	1484	1467	1457	1445	1438	1433	1440	1477	1489	1486	1483	1479	1474	1480	1484	1493	1493	1484	1474	1475	1482	1490	1490	1480	1475	1483	1480	1474	1467	1471	1480	1491	1492	1491	1486	1476	1480	1484	1483	1478	1476	1476	1467	1468	1472	1487	1487	1476	1473	1460	1451	1452	1460	1470	1465	1452	1421	1402	1389	1384	1384	1378	1363	1356	1365	1366	1365	1372	1376	1380	1385	1390	1407	1435	1460	1483	1494	1486	1477	1467	1465	1461	1468	1468	1464	1459	1457	1457	1455	1460	1454	1440	1439	1438	1446	1462	1466	1473	1474	1476	1465	1462	1457	1468	1479	1500	1505	1500	1484	1476	1466	1455	1452	1451	1450	1450	1442	1436	1440	1449	1467	1477	1477	1470	1449	1438	1443	1452	1459	1464	1464	1472	1466	1465	1455	1448	1455	1444	0	0	0	0	0	0	0
0	0	0	0	0	0	0	0	0	0	0	0	0	0	0	0	0	0	0	0	0	0	0	0	0	0	0	0	0	0	0	0	0	0	0	0	0	0	0	0	0	0	0	0	0	0	0	0	0	0	0	0	0	0	0	0	0	0	0	0	0	0	0	0	0	0	0	0	0	0	0	0	0	0	0	0	0	0	0	0	0	0	0	0	0	0	0	0	0	0	0	0	0	1458	1450	1449	1440	1448	1450	1463	1471	1472	1475	1480	1490	1483	1471	1475	1479	1480	1485	1477	1477	1474	1473	1473	1473	1472	1459	1449	1436	1438	1444	1449	1462	1465	1464	1457	1465	1475	1490	1501	1511	1509	1496	1476	1456	1439	1419	1415	1427	1447	1455	1456	1462	1465	1472	1472	1474	1489	1496	1493	1480	1465	1454	1444	1447	1464	1490	1494	1496	1500	1504	1513	1496	1482	1475	1472	1476	1471	1475	1478	1471	1463	1464	1460	1460	1465	1468	1466	1458	1456	1456	1455	1461	1460	1453	1451	1459	1474	1472	1457	1447	1471	1463	1443	1425	1414	1422	1436	1442	1459	1470	1473	1461	1452	1445	1439	1446	1417	1355	1301	1295	1266	1250	1244	1214	1186	1168	1146	1137	0	0	0	0	0	1035	1029	1023	1015	1019	1016	1021	1025	1016	998	974	962	968	974	986	988	992	996	1015	0	989	986	992	0	0	0	0	0	0	0	0	1007	1006	0	0	0	0	0	0	0	0	1316	1393	1439	1500	1508	1505	1508	1502	1492	1472	1454	1448	1455	1450	1446	1450	1456	1464	1464	1461	1459	1462	1463	1467	1479	1486	1479	1469	1470	1479	1494	1496	1500	1511	1519	1524	1517	1495	1483	1473	1474	1473	1478	1487	1481	1468	1461	1467	1469	1476	1483	1497	1510	1512	1508	1505	1510	1516	1512	1504	1500	1496	1492	1496	1490	1483	1467	1459	1458	1453	1450	1456	1469	1474	1461	1459	1461	1490	1515	1517	1501	1480	1464	1459	1469	1471	1483	1490	1504	1500	1514	1530	1528	1528	1517	1512	1507	1500	1489	1477	1469	1468	1478	1483	1493	1501	1510	1505	1507	1507	1511	1510	1498	1495	1498	1512	1506	1482	1476	1475	1483	1485	1487	1484	1483	1494	1500	1501	1485	1470	1469	1481	1494	1499	1507	1498	1480	1400	0	0	0	0	0	0	0	0	0	0	0	0	0	0	0	975	958	964	966	966	955	942	949	0	0	0	954	950	944	0	0	0	0	0	0	0	0	0	0	0	0	0	0	0	0	0	0	0	0	0	0	0	1002	981	992	1010	1019	1037	1043	1036	1027	1027	1070	1274	1414	1437	1453	1461	1477	1478	1489	1495	1503	1494	1481	1466	1467	1488	1501	1474	1459	1456	1454	1457	1476	1480	1481	1482	1482	1484	1481	1476	1470	1465	1451	1447	1455	1474	1473	1479	1484	1486	1491	1489	1487	1488	1488	1484	1477	1471	1482	1482	1482	1482	1483	1479	1476	1466	1456	1454	1462	1476	1491	1503	1502	1480	1470	1469	1464	1468	1475	1469	1463	1462	1464	1470	1472	1474	1471	1459	1445	1434	1448	1465	1468	1461	1447	1428	1404	1388	1385	1384	1380	1370	1372	1381	1381	1380	1378	1379	1378	1382	1396	1417	1446	1466	1472	1473	1466	1462	1452	1451	1446	1451	1456	1459	1464	1468	1468	1468	1464	1450	1441	1441	1447	1461	1465	1472	1473	1475	1469	1458	1454	1453	1469	1490	1504	1504	1490	1485	1476	1477	1475	1470	1463	1463	1452	1445	1447	1454	1467	1469	1471	1467	1452	1442	1438	1447	1452	1458	1458	1458	1458	1450	1445	1441	1438	1435	0	0	0	0	0	0	0
0	0	0	0	0	0	0	0	0	0	0	0	0	0	0	0	0	0	0	0	0	0	0	0	0	0	0	0	0	0	0	0	0	0	0	0	0	0	0	0	0	0	0	0	0	0	0	0	0	0	0	0	0	0	0	0	0	0	0	0	0	0	0	0	0	0	0	0	0	0	0	0	0	0	0	0	0	0	0	0	0	0	0	0	0	0	0	0	0	0	0	0	0	1444	1450	1430	1421	1426	1445	1460	1464	1461	1467	1472	1479	1477	1465	1459	1466	1475	1478	1476	1480	1481	1475	1472	1471	1464	1457	1443	1436	1429	1425	1430	1440	1455	1462	1457	1458	1470	1479	1489	1495	1486	1469	1458	1446	1432	1420	1439	1454	1470	1473	1476	1481	1477	1482	1480	1476	1472	1486	1497	1491	1481	1459	1446	1437	1461	1482	1491	1483	1486	1494	1500	1498	1479	1469	1464	1469	1466	1470	1477	1469	1466	1475	1478	1473	1468	1470	1470	1468	1469	1468	1468	1466	1460	1449	1447	1450	1465	1470	1470	1457	1461	1455	1438	1415	1412	1415	1433	1438	1446	1459	1460	1457	1451	1440	1435	1320	1226	1201	1194	1198	1211	1222	1218	1204	1175	1148	1136	0	0	0	0	0	0	1026	1015	1020	1011	1012	1007	1012	1011	1006	989	973	964	968	975	976	971	969	982	997	1007	991	984	977	983	996	0	0	0	0	0	0	0	0	0	0	0	0	0	0	0	1315	1399	1437	1489	1500	1503	1502	1501	1493	1475	1466	1460	1457	1463	1462	1458	1459	1466	1469	1471	1468	1467	1465	1466	1480	1483	1484	1473	1464	1465	1481	1493	1500	1500	1511	1521	1523	1520	1503	1486	1475	1465	1466	1475	1480	1479	1470	1462	1462	1466	1466	1475	1482	1500	1497	1495	1497	1506	1510	1501	1484	1483	1480	1483	1492	1497	1494	1482	1474	1467	1459	1452	1462	1471	1473	1467	1458	1457	1490	1520	1526	1507	1489	1476	1474	1478	1477	1482	1491	1490	1495	1502	1514	1523	1524	1523	1522	1514	1506	1478	1469	1462	1461	1468	1482	1490	1495	1499	1500	1502	1496	1501	1493	1477	1475	1486	1507	1505	1490	1467	1468	1474	1477	1476	1477	1476	1499	1503	1508	1494	1464	1464	1481	1485	1491	1493	1498	1496	1466	1393	0	0	0	0	0	0	0	0	0	0	0	0	0	0	950	945	947	950	943	930	922	928	947	971	0	954	946	931	913	898	899	906	925	938	933	936	0	0	0	0	0	0	0	0	979	944	930	924	934	944	956	961	957	955	960	970	979	983	993	1003	1004	1003	1045	1262	1376	1406	1421	1438	1462	1475	1490	1498	1494	1477	1472	1485	1494	1506	1489	1479	1469	1461	1469	1483	1483	1478	1476	1475	1481	1485	1486	1485	1503	1514	1495	1484	1475	1471	1476	1487	1494	1496	1490	1481	1482	1487	1486	1479	1470	1475	1478	1484	1489	1479	1481	1470	1458	1448	1440	1442	1458	1484	1504	1503	1472	1453	1448	1447	1456	1456	1462	1455	1447	1439	1436	1442	1458	1461	1455	1437	1423	1425	1440	1463	1473	1472	1469	1450	1436	1418	1412	1417	1422	1419	1412	1408	1401	1398	1389	1382	1369	1370	1382	1408	1423	1428	1431	1450	1458	1458	1459	1439	1425	1435	1454	1463	1474	1477	1480	1471	1463	1457	1451	1452	1459	1462	1466	1475	1475	1473	1460	1454	1453	1468	1489	1495	1494	1482	1480	1482	1492	1491	1479	1479	1467	1459	1459	1461	1462	1474	1475	1474	1464	1455	1442	1439	1446	1452	1452	1452	1451	1447	1430	1432	1436	1433	0	0	0	0	0	0	0	0
0	0	0	0	0	0	0	0	0	0	0	0	0	0	0	0	0	0	0	0	0	0	0	0	0	0	0	0	0	0	0	0	0	0	0	0	0	0	0	0	0	0	0	0	0	0	0	0	0	0	0	0	0	0	0	0	0	0	0	0	0	0	0	0	0	0	0	0	0	0	0	0	0	0	0	0	0	0	0	0	0	0	0	0	0	0	0	0	0	0	0	0	0	1448	1432	1418	1418	1432	1447	1463	1474	1469	1459	1460	1470	1458	1465	1465	1461	1465	1485	1489	1481	1477	1468	1467	1460	1452	1448	1443	1439	1432	1429	1427	1436	1450	1457	1458	1455	1461	1472	1477	1473	1465	1459	1452	1446	1438	1426	1423	1443	1466	1485	1483	1479	1469	1458	1451	1458	1462	1470	1491	1496	1490	1461	1444	1450	1465	1482	1484	1473	1470	1475	1487	1482	1471	1455	1449	1457	1465	1473	1479	1474	1471	1476	1475	1477	1466	1474	1481	1490	1487	1482	1474	1461	1450	1440	1441	1454	1470	1487	1483	1470	1456	1451	1441	1430	1423	1422	1425	1428	1434	1437	1433	1433	1417	1374	1316	1162	1156	1159	1157	1160	1157	1168	1173	1174	1162	1139	1122	0	0	0	0	0	0	1012	999	998	997	991	996	997	995	988	974	970	970	967	962	953	947	952	971	987	995	985	973	962	963	972	981	0	0	0	0	0	0	0	0	0	0	0	0	0	1315	1389	1429	1475	1481	1488	1485	1483	1477	1476	1472	1474	1471	1475	1478	1471	1466	1463	1472	1473	1473	1461	1474	1490	1510	1496	1492	1481	1472	1468	1470	1483	1493	1500	1506	1507	1518	1519	1518	1511	1500	1465	1423	1445	1464	1471	1487	1487	1463	1451	1450	1452	1452	1470	1459	1457	1467	1477	1489	1496	1485	1473	1469	1470	1480	1486	1496	1496	1491	1482	1474	1460	1459	1455	1465	1474	1475	1476	1486	1512	1526	1523	1510	1494	1495	1497	1493	1497	1495	1496	1489	1492	1495	1506	1510	1510	1509	1520	1509	1487	1472	1458	1456	1458	1469	1481	1482	1476	1471	1477	1482	1486	1496	1482	1470	1462	1482	1499	1498	1482	1460	1457	1462	1458	1459	1464	1478	1494	1505	1516	1497	1459	1468	1474	1484	1491	1489	1502	1510	1505	1470	1461	0	0	0	0	0	0	0	0	0	0	0	0	0	938	932	934	937	930	917	915	912	921	957	0	966	957	932	908	893	885	885	897	913	916	916	924	933	944	949	953	956	953	942	916	903	906	906	914	927	942	945	945	936	937	940	953	966	970	980	979	974	980	1001	1072	1155	1277	1360	1416	1440	1465	1488	1496	1490	1481	1480	1487	1498	1480	1483	1476	1475	1476	1487	1476	1473	1478	1483	1481	1490	1490	1488	1508	1515	1514	1496	1480	1472	1473	1483	1491	1489	1488	1481	1486	1495	1487	1473	1475	1478	1480	1483	1492	1484	1479	1469	1457	1438	1426	1417	1421	1449	1471	1481	1449	1430	1428	1441	1446	1456	1454	1446	1429	1419	1419	1420	1445	1452	1451	1438	1429	1435	1447	1462	1480	1486	1485	1469	1465	1453	1443	1427	1419	1421	1418	1414	1412	1408	1408	1393	1379	1367	1379	1389	1401	1404	1414	1425	1440	1457	1465	1447	1426	1429	1443	1461	1473	1478	1482	1477	1477	1469	1457	1449	1451	1449	1470	1474	1480	1475	1467	1454	1458	1466	1485	1482	1474	1468	1466	1478	1488	1490	1484	1484	1468	1465	1465	1467	1474	1476	1475	1472	1465	1456	1442	1436	1445	1451	1454	1454	1451	1444	1432	1434	1434	1445	0	0	0	0	0	0	0	0
0	0	0	0	0	0	0	0	0	0	0	0	0	0	0	0	0	0	0	0	0	0	0	0	0	0	0	0	0	0	0	0	0	0	0	0	0	0	0	0	0	0	0	0	0	0	0	0	0	0	0	0	0	0	0	0	0	0	0	0	0	0	0	0	0	0	0	0	0	0	0	0	0	0	0	0	0	0	0	0	0	0	0	0	0	0	0	0	0	0	0	0	0	1450	1434	1428	1434	1438	1453	1468	1473	1459	1459	1450	1448	1465	1468	1470	1467	1489	1484	1480	1477	1463	1462	1459	1452	1445	1444	1444	1442	1438	1437	1433	1438	1454	1467	1466	1463	1469	1473	1473	1456	1445	1443	1446	1450	1447	1442	1435	1445	1459	1489	1491	1485	1458	1438	1433	1439	1450	1463	1486	1498	1484	1466	1449	1461	1478	1483	1478	1462	1456	1468	1475	1468	1451	1439	1444	1451	1469	1479	1489	1482	1472	1472	1471	1470	1462	1460	1481	1502	1510	1501	1479	1449	1438	1437	1438	1448	1462	1483	1491	1482	1462	1453	1446	1429	1411	1402	1396	1419	1418	1397	1351	1329	1232	1195	1155	1112	1115	1116	1119	1108	1102	1104	1128	1135	1136	1122	1108	1097	0	0	0	0	1018	994	982	975	971	954	960	973	974	970	969	964	957	949	943	926	919	931	956	977	986	978	951	945	942	966	0	0	0	0	0	0	0	0	0	0	0	0	0	1307	1362	1422	1462	1483	1474	1478	1475	1475	1477	1476	1480	1489	1489	1493	1496	1480	1477	1474	1494	1519	1513	1501	1493	1485	1502	1510	1500	1478	1469	1469	1479	1483	1487	1493	1496	1502	1504	1510	1518	1517	1498	1487	1496	1496	1470	1468	1461	1458	1464	1453	1442	1443	1453	1465	1454	1459	1459	1471	1481	1483	1479	1470	1463	1466	1477	1484	1495	1493	1488	1481	1468	1456	1455	1466	1477	1474	1476	1485	1502	1518	1527	1519	1500	1500	1515	1508	1495	1491	1492	1489	1485	1485	1499	1505	1506	1508	1498	1487	1486	1478	1471	1465	1457	1458	1471	1470	1472	1457	1451	1455	1466	1479	1496	1492	1479	1474	1484	1497	1491	1476	1461	1462	1452	1446	1449	1465	1468	1483	1498	1508	1480	1464	1468	1483	1495	1500	1506	1503	1505	1507	1497	1491	0	0	0	0	0	0	0	0	0	0	0	0	0	932	922	923	922	918	908	899	893	899	934	0	957	963	940	910	888	876	873	890	903	914	914	910	907	918	917	928	930	920	904	892	891	893	901	904	910	923	932	927	920	919	927	942	951	954	956	956	949	963	978	995	1030	1075	1108	1306	1383	1426	1466	1489	1500	1484	1475	1475	1480	1479	1474	1470	1469	1469	1473	1466	1465	1470	1480	1499	1494	1485	1487	1489	1499	1508	1497	1473	1467	1470	1483	1485	1487	1486	1486	1493	1495	1481	1470	1474	1484	1481	1482	1524	1522	1500	1479	1454	1439	1426	1423	1420	1428	1453	1467	1462	1447	1446	1449	1446	1442	1435	1429	1413	1403	1404	1412	1427	1437	1447	1453	1449	1454	1459	1468	1482	1491	1488	1473	1470	1459	1453	1432	1418	1413	1410	1411	1411	1419	1413	1401	1390	1378	1379	1383	1391	1397	1402	1414	1424	1441	1451	1446	1438	1442	1463	1477	1487	1474	1457	1458	1467	1477	1473	1456	1455	1462	1476	1501	1495	1477	1457	1444	1446	1455	1470	1466	1460	1446	1452	1457	1482	1485	1476	1476	1458	1454	1455	1463	1468	1473	1470	1469	1466	1451	1435	1434	1445	1454	1454	1454	1449	1445	1442	1442	1447	1456	0	0	0	0	0	0	0	0
0	0	0	0	0	0	0	0	0	0	0	0	0	0	0	0	0	0	0	0	0	0	0	0	0	0	0	0	0	0	0	0	0	0	0	0	0	0	0	0	0	0	0	0	0	0	0	0	0	0	0	0	0	0	0	0	0	0	0	0	0	0	0	0	0	0	0	0	0	0	0	0	0	0	0	0	0	0	0	0	0	0	0	0	0	0	0	0	0	0	0	0	0	1456	1452	1442	1450	1461	1469	1474	1474	1467	1453	1462	1459	1466	1470	1473	1484	1482	1473	1468	1469	1453	1442	1448	1445	1443	1442	1440	1445	1446	1446	1443	1445	1457	1467	1470	1474	1474	1476	1473	1443	1426	1421	1428	1451	1461	1462	1457	1451	1460	1479	1490	1491	1470	1444	1432	1432	1441	1465	1479	1491	1485	1468	1451	1455	1470	1484	1477	1471	1462	1458	1462	1472	1464	1467	1470	1453	1470	1486	1490	1487	1477	1468	1467	1467	1453	1449	1474	1498	1515	1516	1488	1454	1442	1438	1437	1449	1458	1481	1488	1475	1466	1460	1445	1422	1397	1372	1363	1357	1317	1226	1186	1167	1130	1119	1090	1076	1081	1079	1077	1067	1068	1072	1080	1090	1098	1088	1078	1070	1062	1048	1033	1014	992	972	961	957	953	943	939	941	945	949	952	947	938	924	914	902	902	914	945	962	963	958	934	931	0	0	0	0	0	0	0	0	0	0	0	0	0	1353	1444	1361	1410	1450	1475	1459	1475	1475	1478	1483	1486	1488	1492	1502	1505	1504	1504	1497	1484	1498	1520	1506	1495	1484	1461	1446	1462	1507	1496	1476	1468	1465	1472	1479	1484	1488	1484	1484	1486	1494	1506	1524	1551	1512	1515	1505	1469	1464	1462	1463	1464	1446	1433	1435	1447	1461	1454	1458	1462	1478	1486	1486	1483	1474	1470	1469	1480	1490	1491	1490	1488	1478	1452	1450	1459	1464	1469	1472	1475	1485	1501	1512	1518	1514	1509	1510	1513	1500	1479	1473	1473	1480	1480	1486	1495	1510	1514	1497	1486	1482	1482	1476	1479	1468	1462	1460	1462	1466	1458	1448	1442	1450	1465	1483	1501	1501	1481	1483	1489	1491	1485	1473	1467	1465	1461	1459	1475	1470	1459	1468	1478	1487	1485	1478	1481	1491	1501	1508	1505	1500	1496	1496	1486	1477	1464	0	0	0	0	0	0	0	0	0	0	0	0	0	933	914	909	897	893	881	872	871	895	923	940	947	932	903	877	865	870	875	895	914	913	894	880	875	889	904	907	897	884	873	875	886	890	888	893	904	912	913	909	905	919	933	934	932	935	936	937	943	950	955	968	981	990	1026	1103	1192	1270	1393	1453	1481	1468	1461	1459	1465	1463	1461	1466	1462	1458	1455	1454	1469	1477	1486	1493	1486	1487	1476	1480	1491	1473	1475	1470	1468	1469	1477	1480	1485	1490	1493	1495	1490	1471	1450	1448	1463	1485	1514	1514	1506	1488	1470	1450	1436	1439	1439	1440	1455	1477	1478	1471	1473	1466	1454	1441	1431	1422	1409	1402	1401	1405	1413	1422	1437	1454	1460	1466	1479	1480	1476	1475	1473	1464	1452	1447	1441	1438	1425	1411	1407	1408	1410	1415	1415	1404	1396	1391	1392	1397	1405	1408	1404	1415	1417	1440	1447	1450	1444	1448	1468	1488	1496	1481	1462	1459	1456	1468	1477	1473	1474	1467	1481	1507	1508	1486	1457	1438	1433	1441	1456	1459	1451	1440	1441	1449	1468	1479	1476	1476	1458	1444	1447	1448	1456	1459	1465	1470	1468	1451	1440	1440	1451	1453	1458	1458	1452	1453	1455	1457	1464	1459	0	0	0	0	0	0	0	0
0	0	0	0	0	0	0	0	0	0	0	0	0	0	0	0	0	0	0	0	0	0	0	0	0	0	0	0	0	0	0	0	0	0	0	0	0	0	0	0	0	0	0	0	0	0	0	0	0	0	0	0	0	0	0	0	0	0	0	0	0	0	0	0	0	0	0	0	0	0	0	0	0	0	0	0	0	0	0	0	0	0	0	0	0	0	0	0	0	0	0	0	0	1474	1478	1476	1478	1489	1486	1478	1481	1478	1470	1473	1477	1473	1470	1474	1489	1464	1465	1464	1462	1451	1446	1443	1444	1437	1438	1439	1445	1449	1455	1458	1450	1455	1457	1461	1472	1479	1480	1472	1433	1417	1420	1426	1448	1462	1463	1462	1452	1460	1473	1489	1495	1475	1447	1431	1425	1450	1467	1482	1480	1468	1459	1454	1454	1457	1464	1465	1463	1456	1451	1453	1467	1474	1470	1464	1466	1468	1469	1473	1480	1476	1467	1465	1460	1454	1447	1466	1485	1504	1507	1506	1479	1462	1451	1444	1444	1454	1470	1472	1469	1463	1456	1443	1408	1371	1303	1223	1209	1169	1121	1124	1117	1095	1080	1070	1069	1066	1060	1053	1048	1046	1040	1051	1058	1060	1055	1053	1044	1029	1003	979	962	957	947	945	948	955	949	934	920	919	933	941	933	916	900	893	890	892	905	923	933	939	928	933	0	0	0	0	0	0	0	0	0	0	0	0	0	1382	1477	1488	1477	1469	1484	1481	1442	1473	1483	1487	1487	1484	1491	1494	1503	1507	1508	1503	1496	1492	1517	1513	1511	1490	1475	1458	1455	1446	1489	1495	1477	1468	1467	1468	1475	1482	1480	1477	1476	1480	1487	1502	1514	1528	1545	1511	1502	1505	1461	1453	1454	1466	1442	1432	1434	1445	1459	1460	1452	1464	1487	1488	1493	1490	1486	1487	1487	1478	1479	1489	1490	1491	1477	1457	1463	1470	1470	1468	1473	1474	1478	1488	1500	1511	1509	1505	1504	1504	1491	1476	1463	1471	1469	1476	1476	1487	1504	1506	1499	1494	1496	1498	1490	1479	1472	1462	1458	1459	1459	1458	1448	1446	1454	1466	1489	1506	1494	1479	1486	1486	1493	1489	1484	1478	1478	1481	1479	1483	1470	1461	1462	1466	1475	1492	1498	1500	1503	1510	1507	1501	1494	1493	1485	1473	1473	1467	0	0	0	0	0	0	0	0	0	0	0	0	0	0	913	894	880	871	860	850	854	873	886	901	914	909	896	874	854	851	855	864	883	891	883	863	857	868	881	888	875	868	856	862	870	870	874	878	888	896	898	898	895	899	906	913	916	919	926	936	933	926	921	918	923	934	957	995	1042	1110	1213	1288	1390	1414	1418	1432	1445	1447	1462	1469	1468	1465	1458	1461	1465	1466	1470	1472	1476	1476	1479	1482	1479	1473	1474	1480	1477	1472	1476	1492	1494	1501	1517	1517	1492	1473	1445	1437	1447	1465	1478	1490	1495	1495	1473	1458	1450	1451	1455	1454	1456	1478	1494	1492	1488	1477	1464	1451	1447	1435	1425	1413	1407	1405	1405	1406	1428	1451	1472	1486	1497	1496	1468	1454	1453	1433	1423	1425	1430	1438	1430	1421	1415	1411	1418	1416	1407	1397	1397	1398	1400	1408	1421	1424	1423	1422	1429	1449	1463	1463	1458	1463	1471	1477	1485	1488	1474	1465	1459	1460	1464	1458	1461	1457	1463	1455	1455	1462	1462	1443	1440	1439	1453	1455	1460	1454	1447	1453	1457	1475	1473	1473	1460	1451	1439	1447	1446	1440	1456	1467	1468	1456	1446	1448	1458	1462	1462	1463	1462	1463	1464	1468	1471	1456	0	0	0	0	0	0	0	0
0	0	0	0	0	0	0	0	0	0	0	0	0	0	0	0	0	0	0	0	0	0	0	0	0	0	0	0	0	0	0	0	0	0	0	0	0	0	0	0	0	0	0	0	0	0	0	0	0	0	0	0	0	0	0	0	0	0	0	0	0	0	0	0	0	0	0	0	0	0	0	0	0	0	0	0	0	0	0	0	0	0	0	0	0	0	0	0	0	0	0	0	0	1479	1490	1491	1493	1499	1488	1482	1478	1489	1494	1489	1487	1477	1480	1476	1486	1461	1459	1466	1470	1461	1458	1456	1451	1449	1445	1449	1451	1458	1455	1451	1447	1447	1454	1454	1462	1468	1470	1471	1440	1438	1439	1440	1446	1444	1453	1445	1444	1446	1470	1489	1490	1472	1449	1433	1427	1460	1476	1493	1489	1472	1448	1444	1447	1450	1450	1443	1447	1448	1447	1452	1453	1464	1461	1457	1457	1464	1467	1465	1465	1471	1480	1473	1463	1450	1453	1454	1459	1466	1469	1482	1480	1470	1456	1436	1434	1437	1448	1453	1453	1454	1443	1348	1289	1197	1134	1070	1060	1079	1088	1101	1090	1074	1069	1074	1083	1071	1062	1059	1054	1044	1035	1029	1030	1033	1034	1031	1022	1012	994	968	960	947	942	945	955	0	0	0	0	0	921	933	930	904	890	888	887	897	914	914	917	915	920	930	0	0	0	0	0	0	0	0	0	0	0	0	1359	1484	1508	1500	1495	1480	1488	1491	1431	1471	1483	1484	1478	1478	1481	1490	1495	1497	1497	1494	1487	1484	1523	1533	1522	1514	1503	1496	1509	1445	1470	1485	1481	1482	1473	1471	1474	1472	1475	1475	1476	1481	1487	1500	1508	1519	1527	1528	1519	1510	1495	1448	1456	1461	1443	1442	1446	1455	1462	1458	1455	1467	1484	1492	1495	1498	1502	1492	1485	1482	1477	1488	1493	1493	1478	1467	1470	1479	1482	1477	1478	1479	1489	1488	1487	1494	1502	1505	1499	1500	1497	1490	1487	1489	1483	1476	1469	1481	1493	1496	1495	1493	1493	1497	1495	1485	1473	1466	1461	1454	1462	1458	1450	1449	1454	1466	1483	1497	1491	1475	1471	1468	1473	1486	1489	1495	1490	1496	1494	1490	1474	1474	1471	1473	1473	1500	1510	1517	1518	1508	1498	1495	1493	1493	1486	1477	1480	1477	1486	1457	0	0	0	0	0	0	0	0	0	0	0	0	0	898	873	856	840	827	848	867	872	885	895	902	892	870	839	834	834	840	854	865	875	863	854	859	864	865	856	849	847	849	854	851	849	864	875	877	879	878	885	883	888	896	903	910	922	929	923	909	894	881	881	889	911	937	949	967	1010	1067	1175	1302	1347	1400	1412	1429	1454	1473	1482	1475	1470	1468	1467	1462	1459	1454	1460	1472	1493	1491	1467	1465	1473	1472	1467	1461	1473	1478	1486	1498	1505	1505	1486	1475	1459	1445	1444	1447	1461	1469	1480	1483	1467	1460	1456	1458	1457	1462	1469	1477	1489	1490	1485	1468	1458	1459	1449	1451	1426	1422	1413	1404	1402	1406	1425	1457	1485	1510	1520	1504	1462	1451	1438	1432	1427	1427	1436	1442	1440	1434	1429	1425	1419	1412	1402	1385	1390	1400	1414	1422	1434	1439	1436	1437	1449	1465	1473	1475	1470	1470	1477	1477	1480	1484	1480	1473	1469	1458	1456	1454	1463	1461	1457	1446	1444	1454	1472	1487	1486	1470	1450	1458	1474	1478	1471	1458	1464	1466	1466	1469	1454	1453	1454	1453	1447	1443	1456	1471	1468	1468	1464	1469	1472	1471	1471	1473	1477	1478	1470	1468	1470	1449	0	0	0	0	0	0	0	0
0	0	0	0	0	0	0	0	0	0	0	0	0	0	0	0	0	0	0	0	0	0	0	0	0	0	0	0	0	0	0	0	0	0	0	0	0	0	0	0	0	0	0	0	0	0	0	0	0	0	0	0	0	0	0	0	0	0	0	0	0	0	0	0	0	0	0	0	0	0	0	0	0	0	0	0	0	0	0	0	0	0	0	0	0	0	0	0	0	0	0	0	0	1491	1493	1490	1493	1485	1474	1463	1473	1491	1497	1499	1496	1482	1479	1479	1483	1490	1473	1484	1482	1467	1468	1472	1466	1458	1457	1460	1462	1460	1453	1447	1448	1453	1450	1445	1447	1457	1464	1467	1461	1467	1470	1464	1449	1438	1433	1424	1422	1442	1465	1485	1482	1467	1441	1432	1433	1467	1482	1493	1474	1453	1433	1437	1444	1442	1437	1432	1433	1439	1455	1457	1460	1468	1463	1455	1460	1474	1469	1467	1463	1472	1484	1486	1473	1463	1449	1457	1446	1446	1447	1454	1468	1460	1457	1434	1421	1422	1426	1423	1418	1412	1287	1170	1131	1110	1084	1059	0	0	0	1091	1083	1072	1078	1094	1112	1101	1084	1081	1081	1068	1054	1037	1035	1039	1038	1032	1016	1007	993	980	972	967	0	0	0	0	0	0	0	0	0	0	0	0	0	0	0	0	0	0	0	0	0	0	0	0	0	0	0	0	0	0	0	0	0	1335	1455	1507	1518	1519	1486	1492	1501	1504	1483	1474	1478	1478	1474	1473	1478	1482	1488	1486	1486	1481	1481	1479	1491	1529	1531	1525	1524	1540	1551	1486	1468	1478	1481	1477	1479	1475	1475	1468	1473	1479	1486	1491	1498	1504	1513	1521	1531	1538	1528	1509	1487	1465	1464	1452	1459	1447	1452	1466	1475	1471	1466	1467	1486	1495	1498	1505	1497	1494	1487	1487	1476	1487	1490	1487	1478	1474	1476	1477	1480	1481	1480	1490	1493	1496	1488	1484	1490	1497	1501	1498	1499	1504	1505	1500	1492	1485	1473	1481	1492	1494	1487	1490	1485	1487	1490	1488	1477	1473	1461	1451	1451	1449	1449	1445	1447	1466	1485	1500	1496	1478	1467	1446	1453	1472	1484	1495	1496	1502	1505	1496	1491	1487	1489	1485	1472	1486	1510	1518	1511	1493	1483	1486	1490	1497	1492	1488	1492	1489	1484	1469	1443	0	0	0	0	0	0	0	0	0	0	0	0	0	892	853	827	813	832	854	863	874	883	893	887	866	836	831	832	840	844	859	860	859	859	857	860	849	844	843	850	844	840	836	842	855	869	878	880	876	875	871	871	877	888	899	912	915	906	888	870	854	845	855	871	890	904	910	933	954	976	1015	1119	1317	1369	1397	1439	1469	1480	1479	1475	1472	1467	1461	1461	1448	1448	1457	1473	1470	1465	1465	1473	1470	1459	1453	1455	1464	1468	1471	1473	1462	1456	1458	1458	1454	1444	1454	1459	1464	1471	1475	1459	1447	1452	1458	1464	1468	1475	1484	1489	1483	1471	1456	1449	1449	1448	1449	1431	1424	1423	1414	1412	1410	1425	1453	1486	1508	1516	1507	1468	1449	1448	1443	1444	1449	1450	1452	1446	1447	1443	1437	1425	1407	1390	1374	1384	1404	1424	1437	1442	1438	1435	1448	1456	1475	1481	1474	1473	1478	1478	1476	1480	1478	1474	1474	1474	1462	1455	1455	1469	1468	1464	1456	1450	1459	1481	1486	1483	1474	1462	1467	1480	1484	1484	1470	1457	1455	1455	1450	1442	1445	1460	1454	1452	1456	1471	1475	1473	1470	1471	1485	1481	1466	1466	1472	1472	1476	1465	1454	1463	1448	0	0	0	0	0	0	0	0
0	0	0	0	0	0	0	0	0	0	0	0	0	0	0	0	0	0	0	0	0	0	0	0	0	0	0	0	0	0	0	0	0	0	0	0	0	0	0	0	0	0	0	0	0	0	0	0	0	0	0	0	0	0	0	0	0	0	0	0	0	0	0	0	0	0	0	0	0	0	0	0	0	0	0	0	0	0	0	0	0	0	0	0	0	0	0	0	0	0	0	0	0	1489	1485	1485	1479	1469	1453	1447	1455	1477	1492	1496	1493	1484	1482	1484	1483	1497	1509	1499	1490	1467	1458	1462	1462	1460	1459	1457	1457	1458	1457	1451	1462	1465	1464	1452	1448	1455	1467	1475	1474	1473	1483	1471	1458	1446	1428	1411	1411	1435	1465	1480	1475	1452	1436	1431	1435	1448	1487	1481	1460	1433	1428	1430	1441	1443	1437	1427	1429	1444	1459	1467	1467	1468	1465	1466	1477	1481	1478	1462	1470	1478	1488	1485	1472	1453	1449	1457	1459	1453	1435	1440	1455	1460	1454	1445	1424	1408	1386	1368	1309	1197	1117	1111	1108	0	0	0	0	0	1103	1115	1114	1109	1125	1147	1158	1128	1113	1113	1113	1118	1119	1098	1081	1075	1076	1069	0	0	0	0	0	0	0	0	0	0	0	0	0	0	0	0	0	0	0	0	0	0	0	0	0	0	0	0	0	0	0	0	0	0	0	0	0	0	1346	1423	1456	1479	1523	1523	1493	1502	1515	1514	1476	1473	1472	1472	1474	1473	1475	1477	1480	1481	1480	1476	1479	1484	1478	1481	1511	1520	1529	1560	1560	1518	1468	1472	1472	1476	1477	1476	1474	1472	1477	1485	1498	1504	1509	1515	1517	1516	1526	1537	1532	1508	1489	1495	1483	1499	1470	1462	1465	1483	1495	1493	1488	1487	1491	1489	1493	1498	1495	1501	1498	1500	1491	1486	1477	1479	1477	1473	1480	1478	1487	1487	1490	1500	1498	1502	1495	1489	1490	1498	1499	1500	1501	1512	1515	1510	1496	1480	1473	1484	1490	1494	1492	1491	1485	1483	1487	1490	1490	1486	1472	1459	1447	1446	1439	1436	1441	1459	1489	1508	1510	1493	1458	1429	1439	1470	1483	1486	1498	1513	1515	1507	1501	1501	1500	1478	1468	1471	1482	1497	1495	1487	1477	1481	1489	1503	1495	1492	1483	1474	1477	1475	1484	1469	0	0	0	0	0	0	0	0	0	0	0	0	0	872	827	810	826	841	846	857	867	872	872	859	843	839	842	848	849	851	857	861	863	861	858	849	839	836	841	837	833	833	839	856	862	866	873	868	875	866	855	858	868	877	893	893	885	873	861	842	834	836	851	864	870	869	876	898	904	927	958	1085	1291	1345	1412	1443	1455	1459	1460	1465	1466	1466	1454	1449	1445	1443	1442	1432	1430	1434	1457	1459	1455	1443	1446	1453	1458	1461	1457	1443	1443	1452	1456	1453	1453	1448	1449	1458	1463	1451	1438	1430	1450	1463	1469	1472	1481	1489	1480	1471	1465	1455	1444	1438	1444	1444	1436	1437	1429	1425	1416	1415	1428	1452	1477	1496	1498	1492	1468	1458	1450	1446	1449	1455	1448	1451	1454	1449	1448	1439	1426	1409	1389	1379	1382	1405	1427	1442	1440	1438	1428	1440	1444	1456	1464	1463	1461	1474	1484	1486	1475	1471	1469	1471	1465	1462	1458	1457	1462	1466	1464	1454	1457	1463	1475	1478	1465	1462	1460	1462	1475	1487	1480	1473	1462	1455	1455	1445	1438	1435	1439	1444	1443	1450	1466	1479	1481	1473	1474	1476	1473	1469	1469	1462	1464	1465	1458	1456	1461	1460	0	0	0	0	0	0	0	0
0	0	0	0	0	0	0	0	0	0	0	0	0	0	0	0	0	0	0	0	0	0	0	0	0	0	0	0	0	0	0	0	0	0	0	0	0	0	0	0	0	0	0	0	0	0	0	0	0	0	0	0	0	0	0	0	0	0	0	0	0	0	0	0	0	0	0	0	0	0	0	0	0	0	0	0	0	0	0	0	0	0	0	0	0	0	0	0	0	0	0	0	0	1491	1480	1472	1462	1452	1447	1435	1438	1452	1462	1477	1474	1482	1484	1479	1478	1491	1504	1514	1498	1474	1445	1447	1450	1458	1457	1453	1459	1463	1463	1475	1481	1481	1482	1465	1449	1454	1476	1489	1488	1487	1485	1479	1472	1460	1442	1423	1417	1438	1461	1473	1462	1454	1441	1445	1445	1452	1486	1486	1464	1439	1428	1433	1439	1437	1436	1432	1425	1437	1457	1465	1472	1466	1467	1474	1481	1477	1471	1465	1470	1481	1488	1483	1468	1451	1447	1452	1457	1452	1448	1448	1440	1427	1407	1447	1416	1365	1306	1254	1158	1113	1082	1083	0	0	0	0	1080	0	1134	1160	1169	1171	1173	1182	1185	1149	1142	1143	1150	1163	0	0	0	0	0	0	0	0	0	0	0	0	0	0	0	0	0	0	0	0	0	0	0	0	0	0	0	0	0	0	0	0	0	0	0	0	0	0	0	0	0	0	0	1362	1426	1449	1461	1467	1488	1505	1490	1506	1517	1504	1469	1468	1472	1482	1486	1475	1475	1477	1484	1486	1485	1478	1476	1482	1485	1490	1489	1518	1538	1544	1548	1532	1502	1480	1475	1477	1452	1446	1453	1473	1490	1509	1518	1520	1527	1526	1518	1511	1516	1521	1515	1509	1503	1504	1502	1493	1484	1484	1487	1514	1511	1503	1497	1498	1488	1487	1470	1479	1489	1495	1501	1499	1501	1482	1470	1468	1471	1474	1482	1490	1492	1496	1499	1507	1503	1503	1494	1493	1500	1501	1496	1493	1494	1497	1502	1497	1486	1472	1470	1475	1477	1487	1487	1496	1491	1484	1494	1494	1496	1489	1487	1468	1458	1447	1443	1438	1445	1460	1488	1510	1516	1486	1448	1434	1449	1475	1488	1492	1502	1512	1514	1507	1503	1498	1493	1477	1464	1462	1472	1487	1486	1475	1474	1477	1492	1498	1499	1488	1471	1461	1465	1469	1494	1493	0	0	0	0	0	0	0	0	0	0	0	0	0	0	842	815	826	832	835	837	846	851	853	845	845	850	855	857	856	851	850	857	862	863	861	852	844	835	833	825	822	829	840	852	852	856	857	856	859	849	839	833	844	852	861	867	874	873	860	844	835	836	837	851	855	853	854	860	868	880	891	885	939	996	1118	1363	1384	1398	1349	1377	1407	1425	1433	1435	1445	1441	1426	1410	1414	1431	1459	1463	1447	1435	1439	1454	1462	1460	1450	1449	1438	1452	1457	1447	1439	1440	1445	1450	1449	1439	1422	1405	1433	1448	1459	1459	1472	1488	1479	1467	1459	1454	1439	1426	1436	1445	1455	1450	1438	1435	1421	1423	1438	1453	1472	1481	1479	1468	1448	1448	1438	1446	1446	1447	1448	1447	1459	1458	1461	1442	1426	1409	1402	1388	1389	1407	1416	1431	1433	1430	1423	1430	1433	1444	1452	1457	1459	1467	1480	1478	1467	1460	1463	1468	1466	1461	1451	1448	1449	1454	1452	1450	1446	1453	1460	1460	1453	1448	1452	1457	1467	1474	1475	1473	1473	1472	1459	1452	1449	1431	1425	1433	1428	1434	1450	1466	1476	1470	1471	1465	1471	1461	1461	1450	1453	1458	1463	1466	1482	1478	0	0	0	0	0	0	0	0
0	0	0	0	0	0	0	0	0	0	0	0	0	0	0	0	0	0	0	0	0	0	0	0	0	0	0	0	0	0	0	0	0	0	0	0	0	0	0	0	0	0	0	0	0	0	0	0	0	0	0	0	0	0	0	0	0	0	0	0	0	0	0	0	0	0	0	0	0	0	0	0	0	0	0	0	0	0	0	0	0	0	0	0	0	0	0	0	0	0	0	0	0	1475	1481	1468	1459	1459	1456	1445	1435	1437	1447	1460	1462	1473	1470	1467	1469	1476	1484	1487	1486	1453	1438	1441	1447	1452	1456	1460	1470	1474	1474	1483	1487	1490	1486	1466	1457	1457	1472	1489	1496	1491	1483	1487	1484	1471	1453	1440	1433	1446	1461	1471	1468	1464	1468	1479	1474	1465	1495	1495	1477	1439	1433	1432	1440	1431	1422	1417	1422	1437	1454	1465	1475	1471	1474	1477	1470	1455	1453	1457	1465	1480	1481	1482	1465	1458	1450	1451	1450	1450	1432	1417	1378	1272	1187	1168	0	0	0	1148	1123	0	0	0	0	0	0	0	0	1140	1174	1197	1210	0	0	0	1200	1190	1176	1178	1184	0	0	0	0	0	0	0	0	0	0	0	0	0	0	0	0	0	0	0	0	0	0	0	0	0	0	0	0	0	0	0	0	0	0	0	0	0	0	0	0	0	0	0	1383	1434	1447	1450	1463	1471	1481	1476	1477	1464	1500	1497	1487	1473	1473	1479	1480	1501	1500	1513	1500	1479	1464	1466	1512	1487	1491	1498	1506	1532	1535	1510	1511	1510	1505	1496	1495	1482	1515	1497	1478	1462	1450	1436	1439	1442	1488	1519	1514	1506	1505	1495	1499	1493	1500	1504	1507	1509	1501	1496	1501	1512	1505	1501	1495	1497	1494	1477	1464	1468	1477	1489	1498	1497	1494	1481	1473	1469	1475	1484	1485	1495	1502	1503	1507	1510	1502	1496	1494	1497	1505	1505	1501	1487	1478	1479	1494	1491	1475	1470	1467	1469	1480	1478	1487	1494	1486	1486	1485	1480	1481	1484	1485	1481	1463	1455	1454	1450	1449	1458	1483	1500	1504	1481	1448	1448	1462	1483	1498	1495	1495	1488	1499	1500	1488	1485	1482	1472	1472	1472	1481	1491	1481	1475	1475	1474	1483	1490	1495	1482	1471	1464	1457	1465	1476	1511	0	0	0	0	0	0	0	0	0	0	0	0	0	0	0	829	832	831	827	829	830	834	830	821	827	834	846	851	852	843	842	846	856	860	858	856	847	828	819	812	807	816	826	833	835	837	844	841	841	833	824	815	821	829	831	844	857	869	860	851	839	833	841	847	845	844	841	843	849	850	859	859	878	921	979	908	919	949	1044	1227	1308	1352	1379	1401	1422	1427	1409	1402	1410	1438	1464	1465	1449	1444	1450	1466	1483	1485	1473	1470	1459	1443	1438	1433	1427	1431	1444	1455	1452	1436	1418	1409	1423	1438	1452	1448	1462	1486	1481	1463	1462	1453	1447	1425	1433	1448	1468	1474	1469	1457	1435	1444	1453	1452	1463	1463	1463	1449	1426	1431	1429	1436	1447	1449	1449	1462	1473	1484	1471	1453	1434	1425	1418	1414	1404	1410	1417	1429	1437	1439	1430	1436	1441	1451	1453	1451	1452	1462	1469	1467	1456	1456	1458	1468	1464	1457	1448	1436	1436	1435	1441	1437	1438	1440	1445	1455	1450	1451	1456	1462	1470	1477	1478	1480	1481	1481	1477	1478	1463	1438	1433	1429	1424	1428	1434	1447	1460	1455	1453	1453	1453	1453	1455	1447	1450	1464	1471	1480	1493	1482	0	0	0	0	0	0	0	0
0	0	0	0	0	0	0	0	0	0	0	0	0	0	0	0	0	0	0	0	0	0	0	0	0	0	0	0	0	0	0	0	0	0	0	0	0	0	0	0	0	0	0	0	0	0	0	0	0	0	0	0	0	0	0	0	0	0	0	0	0	0	0	0	0	0	0	0	0	0	0	0	0	0	0	0	0	0	0	0	0	0	0	0	0	0	0	0	0	0	0	0	0	1469	1466	1453	1456	1464	1467	1459	1445	1437	1444	1446	1444	1454	1461	1462	1454	1454	1445	1442	1442	1432	1427	1427	1427	1438	1450	1459	1468	1481	1488	1487	1488	1487	1478	1463	1449	1452	1471	1492	1505	1496	1490	1488	1483	1474	1462	1448	1444	1452	1473	1488	1476	1477	1481	1485	1476	1477	1501	1503	1486	1447	1438	1435	1439	1438	1426	1419	1416	1436	1449	1470	1488	1482	1469	1462	1443	1442	1437	1434	1452	1476	1474	1463	1452	1443	1441	1442	1427	1359	1260	1214	1175	1096	0	0	0	0	0	0	0	0	0	0	0	0	0	0	0	1165	1191	1212	1226	0	0	0	0	1223	1203	1193	0	0	0	0	0	0	0	0	0	0	0	0	0	0	0	0	0	0	0	0	0	0	0	0	0	0	0	0	0	0	0	0	0	0	0	0	0	0	0	0	0	0	0	1391	1449	1449	1449	1455	1501	1506	1483	1466	1471	1458	1493	1489	1490	1471	1468	1470	1486	1494	1495	1488	1475	1475	1466	1465	1471	1507	1492	1495	1513	1541	1526	1477	1477	1494	1495	1503	1503	1520	1521	1507	1484	1466	1447	1440	1443	1450	1494	1488	1500	1500	1486	1470	1477	1482	1495	1497	1513	1519	1511	1503	1504	1509	1502	1497	1501	1496	1494	1485	1474	1475	1473	1475	1478	1483	1488	1483	1477	1479	1476	1477	1478	1486	1496	1503	1502	1508	1502	1487	1487	1484	1487	1489	1488	1487	1482	1481	1485	1488	1482	1467	1465	1462	1465	1477	1485	1489	1491	1483	1474	1467	1464	1464	1470	1469	1473	1475	1481	1480	1474	1468	1462	1468	1465	1460	1456	1460	1474	1490	1500	1495	1490	1477	1474	1469	1469	1467	1473	1474	1484	1494	1503	1498	1484	1471	1458	1459	1472	1480	1487	1486	1480	1464	1462	1468	1481	1498	1527	0	0	0	0	0	0	0	0	0	0	0	0	0	0	859	852	836	825	828	832	824	803	792	802	815	831	839	839	833	824	824	836	848	851	851	844	824	812	805	799	807	814	814	819	822	824	821	818	822	818	817	815	812	806	822	840	855	851	842	836	831	837	841	840	839	836	837	842	842	841	837	816	823	839	857	873	890	930	987	1071	1189	1309	1316	1359	1373	1397	1407	1413	1431	1452	1451	1448	1446	1462	1487	1504	1502	1495	1483	1471	1430	1434	1432	1430	1436	1447	1467	1462	1455	1442	1430	1429	1436	1450	1457	1466	1484	1483	1473	1465	1462	1447	1438	1436	1451	1474	1492	1497	1483	1462	1456	1453	1438	1431	1443	1446	1439	1426	1426	1434	1452	1456	1459	1458	1468	1479	1489	1484	1466	1448	1441	1435	1424	1410	1408	1419	1432	1444	1449	1450	1454	1452	1456	1453	1447	1448	1462	1462	1459	1455	1451	1465	1471	1469	1460	1449	1432	1428	1431	1439	1438	1433	1439	1440	1451	1456	1457	1460	1463	1472	1482	1491	1491	1483	1483	1481	1474	1473	1462	1450	1435	1424	1423	1429	1435	1445	1446	1438	1435	1440	1440	1445	1454	1459	1475	1486	1491	1492	1478	0	0	0	0	0	0	0	0
0	0	0	0	0	0	0	0	0	0	0	0	0	0	0	0	0	0	0	0	0	0	0	0	0	0	0	0	0	0	0	0	0	0	0	0	0	0	0	0	0	0	0	0	0	0	0	0	0	0	0	0	0	0	0	0	0	0	0	0	0	0	0	0	0	0	0	0	0	0	0	0	0	0	0	0	0	0	0	0	0	0	0	0	0	0	0	0	0	0	0	0	0	1470	1448	1450	1446	1455	1467	1463	1452	1444	1449	1446	1443	1446	1451	1450	1446	1446	1437	1427	1415	1416	1415	1423	1427	1442	1443	1451	1466	1483	1493	1499	1501	1495	1481	1463	1453	1447	1466	1494	1503	1500	1492	1488	1474	1470	1465	1451	1446	1451	1479	1485	1479	1463	1475	1480	1465	1473	1498	1499	1482	1456	1447	1446	1442	1438	1432	1420	1423	1437	1454	1479	1493	1484	1462	1449	1439	1432	1422	1419	1437	1455	1457	1445	1426	1419	1425	1408	1232	1177	1137	0	0	0	0	0	0	0	0	0	0	0	0	0	0	0	0	0	0	1179	1189	1189	1216	0	0	0	0	1217	1198	0	0	0	0	0	0	0	0	0	0	0	0	0	0	0	0	0	0	0	0	0	0	0	0	0	0	0	0	0	0	0	0	0	0	0	0	0	0	0	0	0	0	0	0	1397	1448	1454	1456	1473	1494	1477	1495	1485	1485	1508	1503	1501	1492	1459	1457	1464	1478	1496	1494	1484	1485	1491	1486	1466	1505	1480	1483	1489	1510	1535	1511	1447	1440	1473	1480	1494	1500	1506	1543	1526	1509	1486	1474	1475	1495	1506	1497	1481	1481	1468	1462	1455	1464	1485	1475	1483	1501	1516	1507	1499	1500	1495	1506	1500	1495	1494	1492	1495	1490	1496	1484	1476	1468	1469	1482	1483	1481	1480	1476	1476	1477	1491	1497	1488	1493	1500	1501	1492	1488	1487	1493	1475	1462	1475	1490	1493	1490	1492	1487	1469	1460	1464	1470	1477	1479	1491	1491	1481	1471	1459	1459	1461	1467	1480	1486	1495	1497	1496	1490	1476	1465	1474	1468	1463	1463	1472	1479	1488	1490	1490	1475	1465	1463	1458	1453	1454	1473	1483	1493	1505	1511	1510	1492	1469	1459	1463	1476	1486	1492	1503	1499	1486	1474	1477	1484	1497	1505	1504	0	0	0	0	0	0	0	0	0	0	0	0	0	0	0	861	846	828	824	808	788	778	780	796	812	825	822	815	804	808	820	832	839	837	839	828	816	811	809	811	813	813	812	813	806	808	810	820	829	826	819	809	804	813	824	828	824	825	827	827	835	839	839	839	837	834	829	799	797	798	803	810	817	834	839	847	865	888	930	1014	1085	1201	1248	1283	1367	1378	1392	1401	1406	1417	1427	1437	1460	1483	1489	1493	1483	1476	1461	1435	1435	1438	1448	1444	1460	1462	1461	1458	1459	1454	1452	1455	1468	1478	1491	1500	1493	1489	1484	1472	1463	1454	1450	1465	1485	1502	1509	1487	1479	1462	1447	1432	1424	1422	1442	1445	1442	1429	1438	1450	1457	1460	1447	1459	1463	1476	1478	1474	1463	1455	1438	1424	1415	1417	1424	1434	1447	1450	1460	1468	1485	1477	1462	1445	1443	1455	1466	1460	1450	1451	1464	1475	1480	1470	1454	1437	1429	1434	1442	1446	1444	1445	1450	1453	1457	1457	1455	1455	1460	1481	1489	1491	1487	1487	1478	1463	1457	1454	1448	1449	1456	1436	1437	1439	1442	1446	1441	1436	1432	1432	1438	1452	1473	1484	1484	1488	1488	1481	0	0	0	0	0	0	0	0
0	0	0	0	0	0	0	0	0	0	0	0	0	0	0	0	0	0	0	0	0	0	0	0	0	0	0	0	0	0	0	0	0	0	0	0	0	0	0	0	0	0	0	0	0	0	0	0	0	0	0	0	0	0	0	0	0	0	0	0	0	0	0	0	0	0	0	0	0	0	0	0	0	0	0	0	0	0	0	0	0	0	0	0	0	0	0	0	0	0	0	0	0	1474	1438	1442	1442	1451	1452	1456	1450	1448	1450	1450	1454	1453	1453	1457	1443	1442	1435	1430	1429	1427	1419	1424	1428	1439	1447	1450	1463	1480	1503	1510	1508	1503	1493	1477	1457	1455	1463	1498	1509	1501	1505	1485	1472	1468	1465	1456	1444	1456	1479	1479	1457	1436	1436	1445	1457	1470	1494	1494	1487	1471	1459	1444	1446	1445	1441	1430	1429	1431	1451	1470	1490	1474	1445	1438	1435	1430	1420	1414	1412	1422	1418	1403	1403	1344	1170	1155	0	0	0	0	0	0	0	0	0	0	0	0	0	0	0	0	0	0	0	0	0	1183	1181	1172	1183	0	0	1193	1185	1173	1177	0	0	0	0	0	0	0	0	0	0	0	0	0	0	0	0	0	0	0	0	0	0	0	0	0	0	0	0	0	0	0	0	0	0	0	0	0	0	0	0	0	0	0	1278	1397	1448	1462	1466	1472	1459	1490	1503	1523	1518	1507	1501	1503	1464	1455	1451	1451	1463	1476	1481	1486	1493	1495	1489	1484	1482	1483	1482	1485	1489	1513	1486	1423	1416	1443	1454	1482	1492	1500	1506	1499	1495	1495	1501	1509	1519	1513	1500	1483	1479	1463	1465	1467	1464	1475	1467	1467	1476	1505	1515	1504	1493	1494	1496	1502	1498	1486	1486	1496	1503	1507	1502	1489	1473	1468	1466	1477	1499	1511	1515	1511	1504	1500	1476	1490	1513	1505	1502	1487	1491	1492	1497	1466	1457	1483	1484	1494	1498	1497	1487	1466	1458	1453	1462	1471	1480	1487	1486	1484	1477	1470	1461	1461	1475	1478	1487	1495	1501	1505	1496	1479	1482	1478	1472	1466	1458	1477	1481	1478	1475	1477	1468	1462	1456	1456	1454	1468	1482	1492	1494	1494	1497	1505	1495	1482	1470	1475	1482	1493	1503	1511	1515	1504	1492	1491	1497	1499	1497	1486	1450	0	0	0	0	0	0	0	0	0	0	0	0	0	0	0	0	854	818	793	774	763	771	785	798	809	805	794	784	789	796	806	813	820	830	830	826	824	823	824	821	818	816	811	800	798	811	823	833	834	825	813	803	804	804	803	800	803	812	820	829	839	843	844	831	815	792	778	778	787	796	805	820	827	825	820	827	836	853	885	920	992	1051	1207	1263	1327	1345	1357	1361	1369	1387	1419	1442	1462	1475	1474	1471	1456	1441	1432	1445	1473	1480	1476	1469	1460	1450	1452	1462	1473	1463	1465	1473	1494	1498	1504	1497	1494	1485	1483	1478	1473	1469	1471	1473	1486	1486	1471	1464	1459	1451	1444	1433	1440	1453	1455	1436	1436	1439	1452	1455	1450	1440	1440	1449	1460	1468	1475	1463	1458	1445	1433	1429	1430	1430	1439	1439	1446	1456	1476	1493	1491	1477	1454	1448	1456	1465	1472	1457	1448	1449	1462	1472	1474	1458	1441	1431	1440	1454	1460	1459	1455	1456	1458	1455	1450	1445	1448	1456	1469	1485	1494	1494	1490	1466	1451	1429	1436	1444	1451	1459	1466	1458	1455	1450	1456	1454	1440	1440	1440	1442	1457	1475	1485	1478	1471	1478	1477	1492	0	0	0	0	0	0	0
0	0	0	0	0	0	0	0	0	0	0	0	0	0	0	0	0	0	0	0	0	0	0	0	0	0	0	0	0	0	0	0	0	0	0	0	0	0	0	0	0	0	0	0	0	0	0	0	0	0	0	0	0	0	0	0	0	0	0	0	0	0	0	0	0	0	0	0	0	0	0	0	0	0	0	0	0	0	0	0	0	0	0	0	0	0	0	0	0	0	0	0	0	1457	1436	1448	1452	1453	1458	1458	1454	1454	1454	1472	1478	1479	1481	1470	1453	1446	1445	1441	1440	1433	1425	1426	1427	1442	1454	1458	1467	1468	1477	1489	1500	1500	1495	1489	1474	1459	1456	1489	1511	1506	1500	1478	1464	1463	1466	1458	1461	1468	1469	1468	1452	1428	1421	1425	1439	1454	1470	1478	1482	1480	1458	1436	1438	1447	1451	1444	1435	1434	1441	1458	1476	1477	1445	1439	1435	1425	1409	1390	1375	1364	1349	1318	1279	1082	0	0	0	0	0	0	0	0	0	0	0	0	0	0	0	0	0	0	0	0	0	0	0	0	1183	1178	1175	1179	1181	1180	1166	1154	1151	0	0	0	0	0	0	0	0	0	0	0	0	0	0	0	0	0	0	0	0	0	0	0	0	0	0	0	0	0	0	0	0	0	0	0	0	0	0	0	0	0	0	0	1406	1425	1449	1468	1474	1467	1471	1473	1503	1511	1509	1507	1506	1461	1468	1463	1451	1447	1453	1457	1469	1490	1495	1496	1490	1491	1487	1486	1483	1486	1486	1504	1477	1433	1429	1440	1451	1476	1485	1499	1499	1488	1492	1493	1498	1497	1506	1499	1492	1480	1468	1461	1464	1473	1466	1474	1482	1486	1475	1494	1513	1508	1490	1490	1493	1498	1498	1490	1488	1496	1507	1510	1507	1501	1484	1465	1460	1473	1497	1513	1520	1513	1511	1506	1485	1474	1514	1506	1501	1488	1494	1503	1491	1461	1445	1476	1482	1488	1495	1497	1491	1474	1457	1454	1461	1470	1484	1490	1494	1490	1487	1484	1473	1471	1471	1482	1486	1494	1504	1504	1495	1477	1474	1468	1464	1466	1468	1477	1483	1476	1472	1468	1467	1463	1462	1464	1464	1471	1481	1474	1481	1484	1488	1496	1496	1497	1490	1492	1498	1497	1503	1511	1515	1514	1506	1504	1510	1508	1500	1487	1444	1417	0	0	0	0	0	0	0	0	0	0	0	0	0	0	0	0	847	794	774	764	772	782	792	794	790	780	767	763	775	786	798	803	821	826	829	835	833	825	820	816	817	810	800	799	806	820	831	830	815	804	799	798	792	784	784	792	799	811	824	823	829	825	816	800	783	772	770	777	788	803	806	808	806	801	803	807	819	837	860	883	912	1001	1067	1129	1198	1283	1322	1335	1352	1384	1416	1441	1457	1460	1468	1451	1434	1432	1452	1477	1493	1491	1472	1441	1427	1439	1445	1460	1458	1454	1471	1488	1496	1489	1481	1483	1480	1483	1479	1477	1471	1464	1463	1458	1453	1447	1446	1450	1454	1449	1446	1454	1460	1464	1455	1448	1451	1458	1454	1450	1450	1451	1447	1460	1471	1473	1467	1460	1454	1454	1458	1460	1451	1440	1432	1441	1464	1482	1501	1500	1483	1461	1449	1449	1461	1468	1453	1442	1438	1447	1461	1469	1456	1438	1441	1444	1450	1465	1468	1466	1464	1462	1459	1445	1439	1443	1455	1467	1485	1493	1493	1482	1461	1435	1424	1431	1438	1440	1451	1458	1468	1470	1464	1464	1464	1456	1452	1452	1456	1472	1478	1478	1461	1457	1451	1465	1461	0	0	0	0	0	0	0
0	0	0	0	0	0	0	0	0	0	0	0	0	0	0	0	0	0	0	0	0	0	0	0	0	0	0	0	0	0	0	0	0	0	0	0	0	0	0	0	0	0	0	0	0	0	0	0	0	0	0	0	0	0	0	0	0	0	0	0	0	0	0	0	0	0	0	0	0	0	0	0	0	0	0	0	0	0	0	0	0	0	0	0	0	0	0	0	0	0	0	0	0	1457	1435	1451	1456	1457	1463	1465	1459	1458	1465	1496	1509	1524	1512	1492	1465	1455	1448	1450	1444	1433	1437	1428	1432	1445	1460	1467	1465	1462	1456	1470	1482	1489	1491	1486	1482	1467	1457	1473	1501	1497	1495	1473	1460	1445	1453	1448	1459	1456	1462	1459	1454	1440	1416	1419	1432	1448	1455	1453	1460	1465	1460	1436	1431	1444	1460	1461	1437	1432	1434	1452	1466	1464	1452	1446	1442	1425	1395	1373	1335	1289	1172	1016	0	0	0	0	0	0	0	0	0	0	0	0	0	0	0	0	0	0	0	1028	1035	1050	0	0	0	0	0	0	1121	1152	1161	1162	1154	1143	1140	0	0	0	0	0	0	0	0	0	0	0	0	0	0	0	0	0	0	0	0	0	0	0	0	0	0	0	0	0	0	0	907	903	0	0	0	0	0	0	0	1307	1407	1422	1424	1454	1474	1478	1479	1470	1468	1488	1506	1494	1468	1435	1452	1486	1492	1471	1455	1454	1460	1467	1476	1488	1489	1488	1486	1486	1492	1482	1474	1473	1476	1494	1496	1461	1446	1468	1468	1481	1489	1492	1496	1497	1498	1492	1490	1489	1490	1485	1481	1471	1456	1468	1459	1467	1470	1479	1484	1487	1483	1494	1507	1497	1491	1490	1483	1483	1485	1500	1507	1507	1506	1511	1507	1501	1485	1462	1458	1469	1491	1506	1504	1500	1482	1467	1485	1489	1483	1487	1521	1532	1512	1501	1499	1489	1478	1466	1466	1475	1488	1499	1500	1491	1479	1477	1476	1485	1499	1506	1510	1513	1503	1490	1480	1472	1470	1460	1469	1476	1493	1498	1488	1471	1457	1452	1456	1469	1477	1476	1474	1470	1467	1468	1464	1472	1476	1477	1475	1475	1472	1472	1474	1474	1477	1481	1492	1498	1502	1503	1499	1502	1505	1507	1512	1510	1510	1512	1512	1509	1497	1486	1455	1425	0	0	0	0	0	0	0	0	0	0	0	0	0	0	0	0	0	830	784	779	778	783	783	781	779	770	761	752	752	764	780	790	809	821	824	832	827	816	807	803	802	799	798	799	804	813	817	809	799	787	786	785	778	771	769	778	772	786	793	800	802	803	794	782	776	767	766	769	783	789	792	786	781	780	780	788	799	806	821	831	842	882	921	982	1041	1109	1199	1273	1303	1350	1380	1408	1439	1461	1467	1456	1443	1444	1456	1474	1487	1487	1469	1438	1410	1415	1428	1438	1443	1444	1450	1467	1461	1458	1459	1470	1465	1469	1468	1467	1455	1449	1447	1441	1434	1436	1438	1449	1459	1460	1458	1461	1461	1467	1474	1474	1467	1471	1462	1459	1469	1483	1481	1477	1471	1462	1464	1463	1463	1476	1480	1479	1455	1445	1437	1441	1471	1491	1499	1501	1489	1466	1453	1450	1457	1457	1446	1438	1436	1459	1463	1462	1449	1441	1443	1452	1455	1477	1474	1473	1474	1463	1458	1446	1440	1440	1454	1467	1484	1493	1493	1483	1468	1449	1443	1445	1442	1444	1446	1454	1468	1478	1481	1481	1474	1474	1474	1468	1468	1475	1476	1472	1459	1449	1447	1445	1444	0	0	0	0	0	0	0
0	0	0	0	0	0	0	0	0	0	0	0	0	0	0	0	0	0	0	0	0	0	0	0	0	0	0	0	0	0	0	0	0	0	0	0	0	0	0	0	0	0	0	0	0	0	0	0	0	0	0	0	0	0	0	0	0	0	0	0	0	0	0	0	0	0	0	0	0	0	0	0	0	0	0	0	0	0	0	0	0	0	0	0	0	0	0	0	0	0	0	0	0	1465	1446	1450	1457	1455	1463	1472	1475	1475	1485	1512	1531	1538	1530	1503	1479	1464	1454	1451	1444	1430	1440	1430	1428	1444	1458	1475	1471	1461	1450	1464	1475	1483	1485	1480	1480	1473	1463	1461	1488	1482	1473	1460	1448	1445	1445	1442	1446	1446	1456	1461	1466	1459	1428	1428	1443	1455	1460	1451	1457	1460	1455	1439	1426	1440	1451	1459	1443	1444	1442	1452	1451	1448	1439	1440	1413	1377	1325	1139	1046	992	0	0	0	0	0	0	0	0	0	0	0	0	0	0	0	0	0	0	0	0	0	1007	1014	1041	0	0	0	0	0	0	1097	1106	1118	1156	1150	1138	1124	0	0	0	0	0	0	0	0	0	0	0	0	0	0	0	0	0	0	0	0	0	0	0	0	0	0	0	0	0	0	0	896	885	0	0	0	0	0	0	0	1450	1471	1464	1462	1471	1481	1484	1484	1466	1462	1471	1498	1495	1494	1486	1496	1498	1500	1487	1476	1477	1466	1472	1476	1486	1483	1481	1476	1488	1496	1491	1474	1470	1476	1490	1519	1498	1492	1488	1493	1492	1493	1498	1499	1501	1503	1496	1483	1480	1481	1478	1478	1469	1465	1465	1475	1482	1485	1489	1495	1490	1485	1487	1485	1489	1484	1478	1474	1469	1471	1501	1517	1518	1517	1512	1507	1500	1484	1467	1458	1465	1481	1491	1498	1500	1504	1493	1498	1494	1494	1503	1511	1502	1492	1491	1484	1481	1469	1466	1462	1469	1493	1508	1503	1494	1491	1487	1491	1490	1505	1511	1511	1502	1492	1484	1473	1466	1461	1460	1456	1464	1483	1496	1489	1469	1452	1448	1462	1479	1483	1480	1473	1472	1476	1475	1483	1483	1488	1476	1471	1476	1478	1476	1476	1465	1465	1470	1481	1488	1499	1498	1502	1503	1504	1504	1502	1505	1506	1509	1509	1506	1499	1491	1479	1457	0	0	0	0	0	0	0	0	0	0	0	0	0	0	0	0	0	0	823	798	789	783	776	772	770	768	761	752	746	750	761	777	807	805	805	800	801	795	788	786	785	784	792	794	797	800	795	790	780	776	769	773	766	757	740	744	753	763	768	768	771	774	777	770	766	762	756	763	771	782	779	772	770	771	775	776	779	783	788	792	801	817	842	860	881	900	998	1044	1203	1270	1318	1351	1382	1424	1443	1436	1447	1456	1470	1480	1480	1485	1464	1440	1414	1418	1418	1415	1426	1437	1441	1447	1444	1436	1444	1442	1453	1455	1453	1445	1446	1442	1446	1447	1440	1434	1439	1454	1462	1470	1475	1475	1471	1465	1481	1480	1477	1481	1474	1473	1479	1500	1501	1488	1471	1450	1452	1462	1469	1486	1487	1481	1472	1452	1445	1448	1461	1482	1496	1482	1469	1457	1452	1454	1455	1454	1440	1433	1448	1471	1479	1472	1455	1445	1447	1454	1463	1468	1466	1471	1470	1470	1464	1457	1447	1445	1456	1462	1477	1488	1488	1488	1480	1473	1466	1459	1457	1453	1455	1462	1474	1483	1490	1487	1475	1474	1474	1470	1465	1465	1460	1464	1470	1458	1447	1444	1446	1446	0	0	0	0	0	0
0	0	0	0	0	0	0	0	0	0	0	0	0	0	0	0	0	0	0	0	0	0	0	0	0	0	0	0	0	0	0	0	0	0	0	0	0	0	0	0	0	0	0	0	0	0	0	0	0	0	0	0	0	0	0	0	0	0	0	0	0	0	0	0	0	0	0	0	0	0	0	0	0	0	0	0	0	0	0	0	0	0	0	0	0	0	0	0	0	0	0	0	0	0	1481	1453	1456	1457	1469	1481	1485	1494	1508	1524	1532	1537	1522	1497	1477	1461	1476	1470	1440	1439	1439	1441	1427	1436	1455	1467	1464	1458	1460	1465	1467	1469	1467	1470	1467	1464	1456	1454	1461	1464	1461	1457	1455	1451	1450	1446	1448	1453	1462	1478	1481	1475	1443	1443	1463	1481	1487	1479	1473	1476	1466	1444	1424	1437	1437	1443	1440	1437	1450	1451	1438	1416	1363	1305	1186	1112	0	0	0	0	0	0	0	0	0	0	0	0	0	0	0	0	0	0	0	0	0	0	0	0	0	1004	1022	0	0	0	0	0	0	0	0	1086	1101	1103	1086	1059	1084	0	0	0	0	0	0	0	0	0	0	0	0	0	0	0	0	0	0	0	0	0	0	0	0	0	0	0	0	0	0	0	880	871	877	0	0	0	0	0	1286	1472	1471	1468	1468	1476	1488	1488	1484	1470	1466	1474	1493	1499	1496	1492	1503	1511	1503	1492	1482	1474	1475	1475	1476	1479	1474	1471	1477	1487	1498	1499	1487	1471	1476	1505	1522	1517	1511	1497	1491	1492	1492	1492	1500	1515	1517	1503	1482	1474	1472	1470	1471	1471	1468	1481	1489	1495	1499	1499	1494	1489	1483	1481	1473	1474	1482	1474	1467	1459	1460	1479	1507	1517	1519	1515	1507	1503	1494	1477	1473	1472	1481	1494	1506	1511	1517	1517	1514	1514	1510	1511	1507	1496	1493	1481	1477	1469	1462	1455	1457	1468	1487	1499	1504	1496	1498	1500	1501	1504	1507	1499	1499	1485	1473	1464	1461	1460	1460	1456	1458	1458	1475	1494	1492	1475	1459	1457	1476	1488	1494	1485	1485	1489	1489	1494	1502	1497	1490	1468	1480	1490	1494	1492	1480	1472	1468	1474	1475	1486	1480	1486	1494	1499	1497	1494	1489	1491	1499	1509	1506	1503	1495	1493	1488	1481	1459	0	0	0	0	0	0	0	0	0	0	0	0	0	0	0	0	0	0	823	801	784	771	762	763	762	759	744	738	740	745	777	783	785	776	768	760	758	760	765	768	771	782	792	798	789	773	758	754	750	752	732	732	736	736	737	740	743	742	737	739	748	759	762	756	744	744	747	759	765	767	760	767	774	774	767	759	759	757	760	762	776	784	794	799	810	827	887	939	1038	1130	1248	1296	1334	1367	1393	1439	1461	1474	1485	1486	1484	1464	1443	1428	1423	1427	1427	1435	1441	1451	1455	1456	1441	1446	1444	1449	1450	1442	1440	1429	1437	1442	1448	1446	1443	1443	1454	1469	1473	1475	1477	1471	1466	1470	1468	1468	1484	1481	1480	1479	1490	1496	1489	1469	1446	1446	1456	1469	1478	1479	1472	1468	1462	1461	1454	1457	1462	1465	1463	1456	1454	1446	1455	1458	1449	1442	1440	1453	1481	1499	1493	1463	1447	1450	1460	1472	1471	1464	1464	1461	1464	1469	1472	1471	1463	1457	1461	1470	1470	1472	1480	1484	1486	1489	1480	1467	1465	1458	1469	1478	1482	1482	1476	1467	1465	1470	1462	1454	1448	1450	1452	1466	1479	1475	1448	1436	1436	0	0	0	0	0	0
0	0	0	0	0	0	0	0	0	0	0	0	0	0	0	0	0	0	0	0	0	0	0	0	0	0	0	0	0	0	0	0	0	0	0	0	0	0	0	0	0	0	0	0	0	0	0	0	0	0	0	0	0	0	0	0	0	0	0	0	0	0	0	0	0	0	0	0	0	0	0	0	0	0	0	0	0	0	0	0	0	0	0	0	0	0	0	0	0	0	0	0	0	0	1493	1454	1450	1456	1465	1478	1488	1501	1518	1518	1514	1513	1494	1475	1465	1474	1464	1462	1482	1453	1444	1439	1430	1434	1446	1457	1454	1460	1461	1469	1468	1466	1459	1454	1450	1449	1438	1432	1439	1449	1449	1455	1457	1463	1461	1461	1456	1456	1467	1479	1478	1458	1440	1443	1470	1493	1511	1487	1483	1488	1471	1451	1437	1438	1437	1424	1420	1425	1436	1427	1404	1371	1161	0	0	0	0	0	0	0	0	0	0	0	0	0	0	0	0	0	0	0	0	0	0	0	0	0	0	0	0	0	0	0	0	0	0	0	0	0	0	0	1088	1079	1051	1023	1012	0	0	0	0	0	0	0	0	0	0	0	0	0	0	0	0	0	0	0	0	0	0	0	0	0	0	0	0	0	0	0	872	862	875	0	0	0	0	1248	1396	1465	1474	1489	1504	1517	1510	1496	1487	1487	1487	1483	1477	1482	1477	1486	1493	1495	1491	1476	1461	1454	1460	1466	1490	1494	1468	1451	1444	1458	1479	1493	1493	1486	1486	1495	1513	1498	1482	1473	1459	1474	1469	1485	1497	1515	1525	1508	1485	1474	1476	1481	1478	1475	1472	1491	1498	1499	1500	1498	1491	1478	1484	1476	1471	1465	1477	1477	1465	1458	1452	1464	1493	1508	1511	1513	1507	1499	1490	1483	1478	1479	1485	1498	1508	1511	1522	1520	1514	1508	1502	1507	1504	1496	1488	1480	1475	1462	1451	1449	1455	1467	1477	1483	1492	1499	1507	1510	1514	1512	1503	1491	1485	1469	1454	1451	1457	1467	1469	1472	1464	1464	1466	1484	1491	1481	1469	1474	1485	1495	1490	1492	1494	1500	1506	1503	1500	1494	1485	1471	1489	1506	1518	1518	1502	1498	1493	1485	1485	1478	1474	1475	1481	1483	1483	1478	1479	1483	1500	1505	1507	1488	1491	1489	1488	1489	1490	1451	0	0	0	0	0	0	0	0	0	0	0	0	0	0	0	0	0	0	823	796	772	753	749	749	743	736	732	723	723	744	749	748	749	741	727	725	735	750	755	758	765	779	780	771	758	748	743	724	718	719	728	732	734	730	728	724	722	717	718	730	740	749	745	733	726	729	736	746	748	756	765	766	764	749	739	734	735	729	730	739	746	752	754	757	755	761	798	866	930	1017	1159	1251	1303	1330	1401	1433	1462	1486	1496	1493	1471	1450	1439	1443	1441	1439	1443	1453	1460	1474	1479	1457	1448	1452	1451	1456	1451	1438	1430	1423	1438	1451	1445	1434	1431	1449	1466	1470	1464	1464	1459	1454	1453	1452	1455	1477	1490	1483	1479	1484	1490	1480	1463	1448	1450	1463	1479	1476	1471	1469	1464	1465	1465	1465	1459	1453	1450	1450	1454	1450	1450	1459	1456	1451	1441	1439	1451	1486	1494	1496	1476	1453	1449	1451	1463	1469	1471	1459	1456	1459	1461	1467	1469	1472	1460	1452	1452	1452	1465	1472	1481	1485	1495	1486	1471	1451	1459	1455	1460	1448	1446	1447	1448	1443	1443	1450	1449	1445	1447	1449	1465	1470	1474	1466	1442	1442	0	0	0	0	0	0
0	0	0	0	0	0	0	0	0	0	0	0	0	0	0	0	0	0	0	0	0	0	0	0	0	0	0	0	0	0	0	0	0	0	0	0	0	0	0	0	0	0	0	0	0	0	0	0	0	0	0	0	0	0	0	0	0	0	0	0	0	0	0	0	0	0	0	0	0	0	0	0	0	0	0	0	0	0	0	0	0	0	0	0	0	0	0	0	0	0	0	0	0	0	1495	1479	1456	1470	1463	1470	1483	1498	1511	1507	1506	1497	1484	1468	1453	1454	1455	1466	1488	1487	1440	1421	1429	1442	1451	1453	1456	1457	1460	1464	1466	1463	1456	1449	1439	1435	1429	1428	1427	1435	1441	1450	1465	1466	1474	1469	1463	1456	1456	1464	1460	1444	1417	1424	1456	1478	1495	1488	1481	1483	1468	1441	1444	1447	1436	1418	1395	1394	1392	1331	1202	0	0	0	0	0	0	0	0	0	0	0	0	0	0	0	0	0	0	0	0	0	0	0	0	0	0	0	0	0	0	0	0	0	0	0	0	0	0	0	0	0	1085	1070	1047	1023	0	0	0	0	0	0	0	0	0	0	0	0	0	0	0	0	0	0	0	0	0	0	0	0	0	0	0	0	0	0	0	0	874	871	890	0	0	0	1251	1405	1431	1447	1472	1491	1507	1515	1511	1499	1492	1491	1488	1474	1473	1475	1480	1485	1490	1489	1489	1480	1470	1461	1457	1462	1483	1488	1474	1451	1446	1460	1476	1481	1482	1481	1485	1490	1508	1508	1482	1482	1470	1461	1453	1453	1460	1471	1480	1498	1499	1492	1474	1459	1446	1445	1451	1468	1486	1494	1488	1455	1439	1434	1462	1483	1487	1477	1473	1471	1467	1461	1456	1461	1482	1499	1511	1508	1504	1492	1484	1482	1479	1482	1485	1500	1502	1503	1510	1508	1505	1500	1502	1502	1499	1490	1481	1476	1465	1455	1453	1460	1463	1464	1466	1472	1490	1498	1505	1513	1523	1513	1499	1486	1471	1457	1446	1448	1458	1469	1480	1484	1480	1463	1461	1473	1476	1474	1479	1481	1487	1488	1490	1490	1496	1492	1492	1492	1491	1485	1479	1486	1508	1532	1542	1548	1548	1544	1526	1497	1485	1476	1470	1472	1468	1469	1466	1463	1472	1486	1501	1515	1513	1487	1484	1490	1480	1494	1489	1480	1429	0	0	0	0	0	0	0	0	0	0	0	0	0	0	0	0	0	0	0	784	750	731	733	728	722	712	709	706	713	721	722	718	716	711	708	711	732	736	739	741	750	749	747	719	719	723	716	713	715	719	724	725	724	719	714	708	704	708	711	723	729	732	726	714	708	711	723	737	747	751	749	736	723	711	710	715	707	696	701	715	726	730	730	717	713	720	749	784	814	849	981	1082	1195	1281	1325	1365	1424	1480	1497	1467	1461	1464	1464	1461	1458	1457	1461	1466	1470	1481	1470	1456	1444	1441	1454	1457	1444	1429	1425	1438	1439	1438	1425	1423	1436	1453	1457	1456	1455	1454	1444	1439	1435	1452	1503	1531	1530	1516	1498	1489	1482	1476	1466	1473	1494	1513	1513	1499	1468	1455	1446	1456	1460	1457	1454	1459	1467	1463	1463	1462	1456	1450	1446	1452	1446	1439	1441	1452	1458	1459	1452	1444	1451	1459	1459	1457	1456	1451	1443	1441	1445	1456	1459	1459	1451	1445	1445	1443	1441	1450	1474	1494	1485	1472	1444	1445	1446	1438	1427	1433	1444	1456	1456	1477	1489	1497	1475	1459	1450	1449	1462	1464	1468	1464	1464	0	0	0	0	0	0
0	0	0	0	0	0	0	0	0	0	0	0	0	0	0	0	0	0	0	0	0	0	0	0	0	0	0	0	0	0	0	0	0	0	0	0	0	0	0	0	0	0	0	0	0	0	0	0	0	0	0	0	0	0	0	0	0	0	0	0	0	0	0	0	0	0	0	0	0	0	0	0	0	0	0	0	0	0	0	0	0	0	0	0	0	0	0	0	0	0	0	0	0	0	1512	1506	1477	1481	1473	1469	1481	1506	1504	1502	1500	1500	1487	1469	1459	1450	1449	1466	1489	1476	1431	1425	1440	1450	1458	1464	1461	1460	1458	1457	1460	1458	1460	1454	1435	1428	1435	1431	1428	1424	1432	1445	1461	1463	1479	1473	1459	1448	1441	1450	1449	1433	1418	1413	1430	1463	1467	1481	1471	1459	1448	1450	1451	1453	1427	1403	1365	1319	0	0	0	0	0	0	0	0	0	0	0	0	0	0	0	0	0	0	0	0	0	0	0	0	0	0	0	0	0	0	0	0	0	0	0	0	0	0	0	0	0	0	0	0	0	1078	1063	1057	0	0	0	0	0	0	0	0	0	0	0	0	0	0	0	0	0	0	0	0	0	0	0	0	0	0	0	0	0	0	0	0	873	888	922	981	0	1217	1448	1453	1452	1448	1477	1491	1509	1517	1509	1501	1496	1499	1489	1477	1471	1476	1477	1483	1482	1483	1486	1486	1490	1474	1462	1460	1479	1488	1480	1455	1450	1455	1466	1470	1470	1472	1481	1488	1499	1506	1496	1489	1485	1476	1460	1456	1454	1460	1479	1494	1499	1492	1474	1459	1440	1434	1441	1453	1471	1481	1478	1456	1436	1440	1458	1476	1491	1480	1471	1470	1477	1475	1471	1483	1494	1502	1506	1504	1504	1491	1486	1472	1474	1477	1485	1493	1500	1501	1499	1494	1488	1490	1494	1500	1496	1480	1473	1469	1459	1448	1463	1460	1470	1471	1470	1483	1490	1494	1506	1524	1524	1513	1495	1471	1458	1445	1441	1453	1464	1473	1476	1490	1495	1479	1454	1466	1473	1467	1473	1477	1482	1484	1486	1479	1480	1472	1464	1464	1464	1475	1509	1514	1516	1526	1540	1548	1551	1547	1540	1509	1484	1487	1498	1499	1488	1468	1459	1456	1474	1491	1501	1507	1506	1502	1479	1487	1488	1496	1488	1473	1433	0	0	0	0	0	0	0	0	0	0	0	0	0	0	0	0	0	0	0	0	0	730	724	722	711	701	694	698	697	703	705	710	710	703	702	702	712	715	712	714	717	705	704	704	711	713	711	706	705	711	713	713	711	710	703	691	684	680	690	701	713	719	719	709	695	693	707	726	734	734	725	713	702	695	698	701	693	671	679	693	710	717	713	702	688	689	706	723	734	770	798	851	921	1051	1130	1222	1321	1403	1453	1465	1465	1463	1464	1458	1458	1466	1455	1454	1465	1473	1467	1451	1444	1438	1450	1462	1464	1471	1480	1474	1454	1440	1427	1430	1436	1450	1448	1453	1459	1463	1454	1459	1447	1454	1483	1510	1519	1508	1509	1526	1516	1502	1488	1488	1497	1512	1518	1502	1469	1452	1445	1452	1448	1445	1443	1456	1464	1462	1464	1458	1454	1448	1454	1453	1441	1434	1430	1434	1448	1453	1459	1445	1449	1457	1458	1447	1443	1442	1436	1425	1420	1438	1455	1448	1445	1445	1444	1443	1444	1455	1477	1494	1490	1471	1443	1438	1439	1441	1422	1427	1443	1465	1465	1484	1499	1497	1491	1474	1459	1447	1446	1458	1464	1473	1473	0	0	0	0	0	0
0	0	0	0	0	0	0	0	0	0	0	0	0	0	0	0	0	0	0	0	0	0	0	0	0	0	0	0	0	0	0	0	0	0	0	0	0	0	0	0	0	0	0	0	0	0	0	0	0	0	0	0	0	0	0	0	0	0	0	0	0	0	0	0	0	0	0	0	0	0	0	0	0	0	0	0	0	0	0	0	0	0	0	0	0	0	0	0	0	0	0	0	0	0	1514	1516	1510	1496	1480	1477	1482	1502	1502	1508	1508	1499	1483	1470	1456	1449	1453	1455	1465	1436	1422	1429	1441	1457	1463	1471	1468	1458	1447	1442	1449	1449	1449	1438	1437	1443	1456	1446	1437	1426	1430	1445	1462	1471	1477	1470	1458	1440	1433	1434	1436	1434	1422	1418	1435	1437	1446	1448	1446	1441	1439	1445	1441	1401	1269	1190	0	0	0	0	0	0	0	0	0	0	0	0	0	0	0	0	0	0	0	0	0	0	0	0	0	0	0	0	0	0	0	0	0	0	0	0	0	0	0	0	0	0	0	0	0	0	0	0	0	0	0	0	0	0	0	0	0	0	0	0	0	0	0	0	0	0	0	0	0	0	0	0	0	0	0	0	0	0	0	0	0	871	884	907	959	1019	1176	1458	1460	1474	1473	1473	1488	1496	1506	1505	1502	1507	1515	1522	1511	1510	1508	1513	1502	1482	1468	1463	1471	1487	1505	1505	1510	1513	1517	1511	1500	1495	1489	1487	1488	1501	1519	1527	1511	1489	1482	1483	1478	1488	1504	1509	1526	1532	1523	1499	1490	1492	1499	1493	1472	1456	1440	1427	1430	1439	1458	1471	1469	1454	1445	1447	1458	1470	1480	1484	1485	1487	1488	1499	1505	1507	1511	1519	1514	1518	1524	1525	1501	1485	1476	1468	1469	1481	1489	1484	1476	1479	1482	1486	1494	1503	1501	1486	1472	1464	1444	1443	1458	1473	1479	1488	1488	1496	1500	1517	1535	1550	1519	1489	1469	1449	1442	1449	1447	1453	1453	1451	1461	1479	1489	1479	1473	1461	1457	1458	1456	1461	1481	1487	1482	1475	1475	1471	1460	1454	1458	1490	1508	1505	1500	1503	1517	1525	1532	1539	1532	1527	1539	1531	1525	1521	1518	1504	1491	1479	1475	1492	1495	1501	1496	1485	1470	1481	1487	1493	1483	1471	1440	0	0	0	0	0	0	0	0	0	0	0	0	0	0	0	0	0	0	0	0	0	0	728	729	714	698	693	695	691	695	701	704	706	703	697	698	699	694	689	691	704	707	704	705	705	708	708	705	701	701	704	700	700	691	687	675	671	665	662	661	673	692	708	702	693	687	698	711	723	715	702	694	686	687	693	693	681	663	674	692	702	703	698	681	675	673	678	689	700	719	728	754	773	889	970	1060	1182	1301	1378	1409	1419	1429	1437	1436	1450	1453	1441	1451	1463	1476	1482	1477	1456	1448	1449	1461	1469	1479	1491	1485	1465	1448	1440	1455	1468	1469	1463	1461	1460	1458	1464	1474	1457	1454	1465	1489	1497	1500	1508	1522	1511	1501	1495	1490	1497	1509	1523	1506	1469	1454	1451	1449	1450	1447	1452	1455	1463	1463	1465	1456	1451	1443	1443	1439	1442	1439	1435	1445	1451	1468	1471	1458	1448	1439	1438	1437	1428	1435	1429	1415	1406	1421	1435	1442	1445	1445	1452	1466	1468	1468	1490	1504	1497	1473	1458	1451	1444	1436	1438	1443	1469	1471	1471	1479	1483	1484	1476	1480	1476	1460	1452	1457	1463	1463	1469	0	0	0	0	0	0
0	0	0	0	0	0	0	0	0	0	0	0	0	0	0	0	0	0	0	0	0	0	0	0	0	0	0	0	0	0	0	0	0	0	0	0	0	0	0	0	0	0	0	0	0	0	0	0	0	0	0	0	0	0	0	0	0	0	0	0	0	0	0	0	0	0	0	0	0	0	0	0	0	0	0	0	0	0	0	0	0	0	0	0	0	0	0	0	0	0	0	0	0	0	1501	1506	1502	1490	1486	1483	1495	1493	1493	1504	1503	1494	1477	1462	1454	1447	1450	1445	1439	1434	1427	1439	1447	1460	1464	1466	1463	1462	1448	1435	1434	1434	1431	1430	1444	1456	1474	1467	1458	1427	1431	1451	1472	1476	1481	1480	1471	1456	1440	1430	1433	1436	1468	1473	1449	1423	1419	1431	1427	1410	1387	1355	1263	1193	0	0	0	0	0	0	0	0	0	0	0	0	0	0	0	0	0	0	0	0	0	0	0	0	0	0	0	0	0	0	0	0	0	0	0	0	0	0	0	0	0	0	0	0	0	0	0	0	0	0	0	0	0	0	0	0	0	0	0	0	0	0	0	0	0	0	0	0	0	0	0	0	0	0	0	0	0	0	0	0	0	0	0	878	897	934	991	1127	1437	1468	1477	1479	1490	1500	1507	1504	1519	1520	1508	1506	1504	1514	1515	1514	1526	1529	1515	1489	1467	1464	1471	1488	1497	1505	1509	1516	1519	1517	1510	1499	1494	1484	1486	1498	1527	1526	1508	1489	1474	1477	1475	1488	1494	1504	1521	1528	1522	1500	1493	1494	1489	1493	1490	1501	1485	1461	1438	1427	1428	1433	1432	1439	1455	1468	1469	1473	1484	1502	1512	1506	1499	1497	1504	1520	1527	1537	1535	1537	1530	1531	1538	1538	1493	1484	1501	1493	1475	1468	1467	1475	1485	1489	1496	1506	1499	1494	1473	1470	1456	1452	1465	1476	1481	1477	1478	1476	1488	1512	1530	1535	1512	1475	1451	1444	1448	1449	1458	1466	1461	1453	1455	1478	1485	1484	1492	1474	1463	1458	1454	1465	1483	1491	1492	1481	1471	1463	1461	1460	1464	1494	1500	1499	1483	1458	1470	1489	1518	1527	1521	1527	1545	1545	1537	1531	1535	1522	1509	1497	1486	1487	1493	1494	1489	1476	1478	1477	1491	1502	1492	1477	1473	1449	0	0	0	0	0	0	0	0	0	0	0	0	0	0	0	0	0	0	0	0	0	0	740	724	701	694	690	683	683	692	696	699	697	695	695	690	673	676	695	708	710	704	699	700	701	703	701	701	699	700	700	697	688	680	670	664	662	656	652	656	684	690	694	691	688	691	705	711	699	687	679	676	680	683	677	669	667	678	693	693	694	688	677	665	665	667	674	680	685	690	702	722	782	824	875	897	971	1064	1191	1287	1317	1335	1364	1383	1423	1438	1463	1486	1499	1503	1480	1467	1458	1457	1463	1477	1485	1469	1445	1438	1439	1456	1476	1494	1494	1475	1453	1435	1435	1450	1494	1482	1467	1472	1485	1483	1487	1482	1477	1465	1465	1480	1475	1485	1496	1498	1468	1463	1466	1471	1481	1490	1493	1488	1483	1479	1474	1469	1462	1454	1449	1439	1434	1437	1442	1453	1463	1470	1478	1480	1474	1454	1438	1418	1417	1422	1429	1425	1416	1405	1412	1429	1435	1438	1438	1454	1483	1494	1503	1490	1489	1486	1477	1460	1449	1440	1440	1450	1465	1471	1475	1475	1472	1477	1474	1466	1471	1485	1481	1471	1465	1460	1460	1457	0	0	0	0	0	0
0	0	0	0	0	0	0	0	0	0	0	0	0	0	0	0	0	0	0	0	0	0	0	0	0	0	0	0	0	0	0	0	0	0	0	0	0	0	0	0	0	0	0	0	0	0	0	0	0	0	0	0	0	0	0	0	0	0	0	0	0	0	0	0	0	0	0	0	0	0	0	0	0	0	0	0	0	0	0	0	0	0	0	0	0	0	0	0	0	0	0	0	0	0	1473	1467	1477	1486	1477	1488	1482	1479	1482	1495	1497	1484	1472	1462	1454	1454	1452	1445	1443	1440	1437	1436	1445	1447	1456	1457	1455	1456	1447	1451	1437	1428	1433	1445	1454	1464	1473	1471	1469	1439	1448	1471	1481	1491	1490	1488	1479	1472	1460	1462	1462	1465	1479	1485	1461	1418	1388	1369	1356	0	0	0	0	0	0	0	0	0	0	0	0	0	0	0	0	0	0	0	0	0	0	0	0	0	0	0	0	0	0	0	0	0	0	0	0	0	0	0	0	0	0	0	0	0	0	0	0	0	0	0	0	0	0	0	0	0	0	0	0	0	0	0	0	0	0	0	0	0	0	0	0	0	0	0	0	0	0	0	0	0	0	0	0	0	0	0	0	901	930	1000	1104	1394	1455	1480	1483	1480	1482	1498	1503	1501	1510	1520	1515	1507	1506	1503	1507	1508	1525	1531	1517	1492	1476	1467	1470	1488	1500	1502	1505	1511	1517	1519	1513	1501	1491	1482	1485	1497	1515	1516	1500	1484	1472	1482	1495	1501	1499	1499	1509	1519	1511	1505	1492	1486	1481	1471	1471	1472	1474	1462	1445	1441	1437	1446	1443	1448	1463	1469	1474	1473	1482	1499	1507	1504	1493	1493	1501	1514	1527	1542	1548	1542	1522	1523	1533	1531	1501	1493	1504	1493	1482	1473	1476	1488	1501	1511	1511	1522	1508	1484	1478	1490	1491	1477	1484	1492	1490	1475	1463	1460	1464	1493	1516	1517	1508	1476	1457	1454	1458	1464	1471	1477	1473	1464	1467	1485	1492	1494	1470	1473	1468	1466	1451	1457	1481	1489	1490	1488	1488	1484	1485	1484	1493	1488	1482	1475	1464	1463	1471	1488	1505	1495	1494	1484	1503	1524	1541	1550	1545	1529	1502	1472	1459	1450	1462	1482	1488	1480	1474	1489	1499	1504	1491	1480	1491	1491	1461	0	0	0	0	0	0	0	0	0	0	0	0	0	0	0	0	0	0	0	0	0	0	754	714	693	675	678	675	682	687	689	698	690	685	675	666	670	687	702	701	692	691	693	694	692	695	696	698	700	697	695	688	678	670	665	660	654	650	651	666	671	676	680	679	686	698	701	688	675	670	673	675	673	664	657	664	678	690	688	687	683	677	664	664	664	662	667	668	672	676	695	706	720	743	780	839	905	979	1074	1148	1216	1278	1329	1378	1420	1461	1494	1509	1507	1494	1464	1445	1446	1462	1475	1473	1454	1427	1426	1433	1438	1445	1485	1497	1485	1459	1437	1436	1450	1500	1504	1492	1476	1481	1483	1485	1480	1467	1454	1459	1463	1463	1461	1466	1467	1465	1470	1469	1480	1494	1500	1509	1503	1491	1478	1479	1469	1463	1458	1452	1446	1438	1436	1437	1451	1460	1475	1481	1488	1477	1466	1446	1426	1422	1423	1426	1428	1426	1418	1426	1437	1433	1433	1437	1458	1479	1508	1493	1480	1476	1480	1476	1461	1442	1439	1444	1462	1472	1476	1476	1475	1473	1471	1467	1465	1467	1484	1488	1473	1460	1454	1454	1453	0	0	0	0	0	0
0	0	0	0	0	0	0	0	0	0	0	0	0	0	0	0	0	0	0	0	0	0	0	0	0	0	0	0	0	0	0	0	0	0	0	0	0	0	0	0	0	0	0	0	0	0	0	0	0	0	0	0	0	0	0	0	0	0	0	0	0	0	0	0	0	0	0	0	0	0	0	0	0	0	0	0	0	0	0	0	0	0	0	0	0	0	0	0	0	0	0	0	0	0	1474	1479	1476	1478	1482	1490	1478	1473	1472	1483	1493	1488	1478	1464	1456	1468	1469	1468	1466	1463	1456	1459	1459	1456	1452	1455	1466	1477	1482	1463	1468	1463	1460	1451	1456	1463	1463	1461	1463	1488	1479	1467	1472	1484	1478	1486	1488	1477	1482	1484	1477	1461	1465	1457	1435	1391	1355	0	0	0	0	0	0	0	0	0	0	0	0	0	0	0	0	0	0	0	0	0	0	0	0	0	0	0	0	0	0	0	0	0	0	0	0	0	0	0	0	0	0	0	0	0	0	0	0	0	0	0	0	0	0	0	0	0	0	0	0	0	0	0	0	0	0	0	0	0	0	0	0	0	0	0	0	0	0	0	0	0	0	0	0	0	0	0	0	0	0	931	985	1190	1438	1461	1490	1501	1491	1483	1472	1457	1456	1480	1487	1500	1509	1511	1511	1504	1499	1492	1485	1482	1475	1470	1477	1488	1496	1499	1502	1499	1493	1475	1469	1460	1448	1435	1436	1453	1471	1490	1499	1493	1482	1483	1488	1499	1511	1519	1526	1519	1508	1495	1491	1484	1479	1472	1474	1476	1479	1484	1476	1463	1462	1465	1473	1472	1488	1503	1517	1514	1506	1505	1500	1502	1499	1500	1499	1483	1465	1454	1460	1484	1487	1476	1465	1475	1481	1490	1492	1497	1501	1498	1500	1504	1512	1515	1512	1516	1525	1523	1499	1489	1471	1500	1522	1523	1509	1491	1490	1493	1488	1473	1470	1473	1493	1501	1499	1504	1503	1502	1479	1476	1483	1483	1479	1480	1477	1490	1487	1487	1479	1470	1466	1459	1454	1454	1461	1473	1484	1493	1494	1491	1490	1486	1474	1463	1468	1464	1467	1473	1476	1491	1501	1490	1490	1474	1479	1504	1523	1534	1531	1522	1503	1481	1454	1446	1453	1456	1456	1451	1462	1485	1497	1494	1473	1456	1472	1500	1508	1447	0	0	0	0	0	0	0	0	0	0	0	0	0	0	0	0	0	0	0	0	0	0	774	681	669	662	662	657	667	664	672	680	680	666	654	653	670	688	693	689	681	683	682	684	687	696	693	693	691	690	684	671	666	663	656	650	647	650	657	655	661	663	672	684	688	688	674	663	664	672	670	668	659	651	652	668	676	679	675	671	662	662	656	660	658	663	664	666	668	666	666	667	682	698	733	814	873	952	1029	1097	1180	1254	1323	1393	1449	1487	1508	1504	1482	1453	1435	1436	1458	1476	1476	1455	1436	1423	1427	1424	1437	1487	1488	1487	1474	1455	1443	1455	1477	1497	1486	1469	1470	1476	1479	1473	1464	1456	1460	1466	1459	1455	1458	1459	1466	1470	1479	1485	1499	1508	1513	1515	1493	1475	1476	1468	1464	1462	1462	1456	1440	1434	1430	1438	1456	1475	1491	1494	1486	1473	1463	1449	1436	1428	1419	1425	1436	1450	1455	1448	1434	1434	1434	1451	1490	1505	1499	1493	1487	1498	1490	1458	1434	1423	1425	1424	1434	1425	1425	1431	1459	1491	1490	1459	1450	0	0	1467	1454	1445	1445	1452	0	0	0	0	0	0
0	0	0	0	0	0	0	0	0	0	0	0	0	0	0	0	0	0	0	0	0	0	0	0	0	0	0	0	0	0	0	0	0	0	0	0	0	0	0	0	0	0	0	0	0	0	0	0	0	0	0	0	0	0	0	0	0	0	0	0	0	0	0	0	0	0	0	0	0	0	0	0	0	0	0	0	0	0	0	0	0	0	0	0	0	0	0	0	0	0	0	0	0	0	1515	1496	1478	1477	1483	1482	1476	1478	1476	1485	1485	1487	1478	1470	1461	1466	1472	1474	1464	1449	1458	1474	1475	1475	1466	1468	1477	1484	1482	1474	1474	1473	1464	1449	1446	1450	1464	1461	1458	1463	1464	1464	1473	1481	1478	1466	1464	1465	1474	1483	1467	1445	1395	1295	0	1318	0	0	0	0	0	0	0	0	0	0	0	0	0	0	0	0	0	0	0	0	0	0	0	0	0	0	0	0	0	0	0	0	0	0	0	0	0	0	0	0	0	0	0	0	0	0	0	0	0	0	0	0	0	0	0	0	0	0	0	0	0	0	0	0	0	0	0	0	0	0	0	0	0	0	0	0	0	0	0	0	0	0	0	0	0	0	0	0	0	0	981	1015	1196	1427	1472	1487	1492	1491	1488	1484	1475	1457	1449	1456	1480	1484	1493	1502	1507	1512	1503	1494	1482	1473	1460	1462	1471	1483	1497	1503	1502	1497	1489	1475	1462	1452	1437	1429	1432	1450	1473	1490	1495	1486	1481	1478	1493	1504	1519	1529	1532	1516	1503	1498	1490	1483	1473	1468	1477	1482	1492	1494	1482	1465	1465	1484	1496	1500	1491	1494	1498	1512	1511	1510	1505	1499	1499	1500	1494	1479	1465	1453	1457	1467	1472	1460	1454	1450	1465	1487	1490	1496	1488	1483	1475	1489	1507	1509	1507	1514	1521	1515	1516	1497	1496	1499	1501	1516	1488	1487	1489	1495	1498	1495	1488	1477	1480	1493	1507	1513	1518	1508	1493	1475	1469	1457	1469	1488	1489	1489	1483	1478	1473	1471	1461	1454	1456	1451	1455	1465	1477	1491	1495	1493	1492	1489	1475	1453	1451	1456	1456	1470	1485	1492	1493	1489	1481	1466	1468	1490	1515	1526	1523	1519	1509	1486	1477	1464	1452	1446	1440	1437	1453	1478	1495	1483	1450	1435	1475	1489	1471	1434	0	0	0	0	0	0	0	0	0	0	0	0	0	0	0	0	0	0	0	0	0	0	0	695	666	663	659	664	666	664	661	663	665	653	643	635	648	672	681	683	681	673	670	671	674	679	687	687	686	680	672	660	650	647	643	642	640	646	658	658	657	657	659	668	668	667	657	653	660	670	674	669	657	636	640	652	667	670	663	654	649	641	641	642	642	645	656	662	662	647	645	642	641	645	665	704	750	797	851	904	976	1086	1200	1241	1307	1392	1473	1488	1464	1436	1421	1431	1456	1475	1487	1477	1471	1473	1472	1471	1463	1455	1463	1469	1503	1513	1499	1463	1471	1471	1457	1454	1451	1455	1455	1462	1485	1523	1529	1499	1464	1448	1464	1473	1466	1454	1461	1470	1473	1473	1464	1467	1476	1480	1476	1473	1485	1500	1500	1492	1463	1434	1425	0	0	0	0	0	0	0	0	0	0	0	0	0	0	0	0	0	0	0	0	0	0	0	0	0	0	0	0	0	0	0	0	0	0	0	0	0	0	0	0	0	0	0	0	0	0	0	0	0	0	0	0	0	0	0
0	0	0	0	0	0	0	0	0	0	0	0	0	0	0	0	0	0	0	0	0	0	0	0	0	0	0	0	0	0	0	0	0	0	0	0	0	0	0	0	0	0	0	0	0	0	0	0	0	0	0	0	0	0	0	0	0	0	0	0	0	0	0	0	0	0	0	0	0	0	0	0	0	0	0	0	0	0	0	0	0	0	0	0	0	0	0	0	0	0	0	0	0	1542	1525	1493	1472	1471	1474	1475	1478	1488	1485	1482	1475	1471	1471	1463	1458	1462	1474	1472	1461	1455	1464	1486	1493	1477	1468	1462	1470	1481	1477	1478	1481	1480	1469	1447	1443	1460	1471	1467	1455	1449	1455	1471	1478	1478	1467	1456	1456	1456	1457	1442	1325	0	0	0	0	0	0	0	0	0	0	0	0	0	0	0	0	0	0	0	0	0	0	0	0	0	0	0	0	0	0	0	0	0	0	0	0	0	0	0	0	0	0	0	0	0	0	0	0	0	0	0	0	0	0	0	0	0	0	0	0	0	0	0	0	0	0	0	0	0	0	0	0	0	0	0	0	0	0	0	0	0	0	0	0	0	0	0	0	0	0	0	0	0	0	0	1065	1217	1390	1430	1473	1486	1494	1494	1488	1482	1475	1458	1443	1452	1477	1483	1483	1492	1505	1528	1534	1520	1488	1475	1463	1460	1468	1488	1503	1504	1502	1498	1489	1481	1469	1445	1432	1426	1434	1456	1477	1490	1491	1476	1476	1476	1486	1504	1521	1529	1527	1513	1509	1505	1499	1486	1472	1465	1469	1482	1496	1491	1487	1482	1505	1505	1509	1509	1501	1486	1474	1466	1467	1472	1455	1499	1488	1488	1491	1471	1461	1454	1461	1468	1471	1461	1447	1450	1464	1485	1490	1488	1481	1480	1478	1481	1496	1508	1503	1504	1517	1518	1486	1497	1478	1511	1497	1519	1495	1483	1488	1496	1501	1504	1497	1485	1482	1490	1506	1530	1522	1471	1467	1456	1439	1416	1403	1382	1384	1391	1432	1467	1492	1493	1471	1444	1436	1443	1457	1484	1511	1526	1505	1476	1462	1461	1461	1449	1444	1426	1439	1454	1470	1465	1476	1499	1523	1531	1526	1535	1548	1545	1492	1432	1409	1422	1457	1491	1505	1496	1476	1469	1467	1461	1444	1429	1415	1411	1410	1417	1422	1421	0	0	0	0	0	0	0	0	0	0	0	0	0	0	0	0	0	0	0	0	0	0	0	797	690	696	679	669	661	652	644	642	648	642	634	632	641	661	675	679	679	671	667	664	664	670	679	679	677	670	661	651	639	633	632	630	630	637	658	659	657	654	652	652	649	644	636	641	654	665	668	662	650	629	630	641	653	657	647	636	625	618	614	612	615	622	629	641	640	638	639	637	630	630	639	661	685	703	719	752	799	852	883	908	946	993	0	0	0	0	0	0	0	0	0	0	0	0	0	0	0	0	0	0	0	0	0	0	0	0	0	0	0	0	0	0	0	0	0	0	0	0	0	0	0	0	0	0	0	0	0	0	0	0	0	0	0	0	0	0	0	0	0	0	0	0	0	0	0	0	0	0	0	0	0	0	0	0	0	0	0	0	0	0	0	0	0	0	0	0	0	0	0	0	0	0	0	0	0	0	0	0	0	0	0	0	0	0	0	0	0	0	0	0	0	0	0	0
0	0	0	0	0	0	0	0	0	0	0	0	0	0	0	0	0	0	0	0	0	0	0	0	0	0	0	0	0	0	0	0	0	0	0	0	0	0	0	0	0	0	0	0	0	0	0	0	0	0	0	0	0	0	0	0	0	0	0	0	0	0	0	0	0	0	0	0	0	0	0	0	0	0	0	0	0	0	0	0	0	0	0	0	0	0	0	0	0	0	0	0	0	1545	1503	1489	1472	1463	1463	1476	1486	1489	1495	1482	1470	1462	1455	1448	1446	1451	1471	1482	1470	1472	1478	1486	1484	1477	1459	1461	1463	1464	1468	1484	1500	1502	1484	1451	1448	1490	1499	1484	1444	1423	1440	1468	1472	1467	1440	1431	1388	1314	1251	0	0	0	0	0	0	0	0	0	0	0	0	0	0	0	0	0	0	0	0	0	0	0	0	0	0	0	0	0	0	0	0	0	0	0	0	0	0	0	0	0	0	0	0	0	0	0	0	0	0	0	0	0	0	0	0	0	0	0	0	0	0	0	0	0	0	0	0	0	0	0	0	0	0	0	0	0	0	0	0	0	0	0	0	0	0	0	0	0	0	0	0	0	0	0	0	0	0	1168	1315	1429	1448	1482	1504	1506	1487	1476	1464	1457	1455	1458	1466	1448	1443	1448	1484	1512	1535	1548	1540	1506	1477	1459	1454	1462	1473	1468	1456	1435	1441	1525	1533	1503	1468	1463	1480	1506	1525	1551	1557	1544	1507	1465	1429	1417	1431	1456	1471	1459	1470	1487	1515	1486	1436	1420	1409	1392	1388	1397	1407	1430	1446	1438	1409	1391	1401	1419	1424	1398	1382	1384	0	0	0	0	0	1468	1484	1521	1544	1518	1497	1465	1435	1430	1454	1463	1476	1482	1494	1511	1509	1484	1463	1463	1474	1488	1501	1508	1521	1492	1492	1499	1474	1471	1498	1521	1500	1489	1491	1487	1476	1463	0	0	0	0	0	0	0	0	0	0	0	0	0	0	0	0	0	0	0	0	0	0	0	0	0	0	0	0	0	0	0	0	0	0	0	0	0	0	0	0	0	0	0	0	0	0	0	0	0	0	0	0	0	0	0	0	0	0	0	0	0	0	0	0	0	0	0	0	0	0	0	0	0	0	0	0	0	0	0	0	0	0	0	0	0	0	0	0	0	0	0	0	709	679	658	642	628	625	635	645	645	640	648	659	668	675	677	674	665	656	653	655	667	672	673	667	657	644	639	630	626	628	628	641	649	653	650	645	637	634	626	623	620	633	644	654	655	645	635	619	626	637	647	648	641	632	619	610	603	605	607	611	612	619	630	639	648	639	628	621	625	633	643	643	644	656	678	629	637	643	644	650	0	0	0	0	0	0	0	0	0	0	0	0	0	0	0	0	0	0	0	0	0	0	0	0	0	0	0	0	0	0	0	0	0	0	0	0	0	0	0	0	0	0	0	0	0	0	0	0	0	0	0	0	0	0	0	0	0	0	0	0	0	0	0	0	0	0	0	0	0	0	0	0	0	0	0	0	0	0	0	0	0	0	0	0	0	0	0	0	0	0	0	0	0	0	0	0	0	0	0	0	0	0	0	0	0	0	0	0	0	0	0	0
0	0	0	0	0	0	0	0	0	0	0	0	0	0	0	0	0	0	0	0	0	0	0	0	0	0	0	0	0	0	0	0	0	0	0	0	0	0	0	0	0	0	0	0	0	0	0	0	0	0	0	0	0	0	0	0	0	0	0	0	0	0	0	0	0	0	0	0	0	0	0	0	0	0	0	0	0	0	0	0	0	0	0	0	0	0	0	0	0	0	0	0	0	1523	1491	1481	1464	1452	1461	1483	1492	1495	1491	1481	1468	1458	1446	1437	1435	1451	1468	1479	1482	1476	1475	1480	1476	1468	1457	1460	1463	1458	1453	1473	1476	1488	1495	1494	1485	0	0	0	0	0	0	0	0	0	0	0	0	0	0	0	0	0	0	0	0	0	0	0	0	0	0	0	0	0	0	0	0	0	0	0	0	0	0	0	0	0	0	0	0	0	0	0	0	0	0	0	0	0	0	0	0	0	0	0	0	0	0	0	0	0	0	0	0	0	0	0	0	0	0	0	0	0	0	0	0	0	0	0	0	0	0	0	0	0	0	0	0	0	0	0	0	0	0	0	0	0	0	0	0	0	0	0	0	0	0	0	0	0	0	0	0	0	0	0	0	0	0	0	0	0	0	0	0	0	0	0	0	0	0	0	0	0	0	0	0	0	0	0	0	0	0	0	0	0	0	0	0	0	0	0	0	0	0	0	0	0	0	0	0	0	0	0	0	0	0	0	0	0	0	0	0	0	0	0	0	0	0	0	0	0	0	0	0	0	0	0	0	0	0	0	0	0	0	0	0	0	0	0	0	0	0	0	0	0	0	0	0	0	0	0	0	0	0	0	0	0	0	0	0	0	0	0	0	0	0	0	0	0	0	0	0	0	0	0	0	0	0	0	0	0	0	0	0	0	0	0	0	0	0	0	0	0	0	0	0	0	0	0	0	0	0	0	0	0	0	0	0	0	0	0	0	0	0	0	0	0	0	0	0	0	0	0	0	0	0	0	0	0	0	0	0	0	0	0	0	0	0	0	0	0	0	0	0	0	0	0	0	0	0	0	0	0	0	0	0	703	668	650	625	620	635	649	655	655	660	665	668	671	682	678	664	656	645	646	650	657	668	665	656	649	642	639	637	632	631	636	644	644	643	632	624	618	612	613	614	623	635	639	634	626	626	616	623	635	646	645	644	638	628	616	612	613	615	612	611	610	623	651	653	642	629	615	608	588	602	604	603	601	600	609	610	609	608	612	608	614	0	0	0	0	0	0	0	0	0	0	0	0	0	0	0	0	0	0	0	0	0	0	0	0	0	0	0	0	0	0	0	0	0	0	0	0	0	0	0	0	0	0	0	0	0	0	0	0	0	0	0	0	0	0	0	0	0	0	0	0	0	0	0	0	0	0	0	0	0	0	0	0	0	0	0	0	0	0	0	0	0	0	0	0	0	0	0	0	0	0	0	0	0	0	0	0	0	0	0	0	0	0	0	0	0	0	0	0	0	0
