0	0	0	0	0	0	0	0	0	0	0	0	0	0	0	0	0	0	0	0	0	0	0	0	0	0	0	0	0	0	0	0	0	0	0	0	0	0	0	0	0	0	0	0	0	0	0	0	0	0	0	0	0	0	0	0	0	0	0	0	0	0	0	0	0	0	0	0	0	0	0	0	0	0	0	0	0	0	0	0	0	0	0	0	0	0	0	0	0	0	0	0	0	1459	1465	1479	1481	1470	1464	1466	1473	1481	1481	1469	1459	1453	1460	1473	1480	1482	1470	1465	1477	1476	1468	1464	1469	1472	1471	1466	1452	1460	1494	1543	1534	1489	1436	1430	1436	1438	1435	1447	1453	1477	1488	1488	1483	1473	1469	1475	1500	1501	1478	1459	1453	1447	1449	1463	1462	1477	1480	1462	1453	1458	1466	1469	1462	1457	1460	1461	1464	1455	1445	1431	1436	1450	1465	1482	1485	1477	1460	1448	1447	1463	1485	1478	1475	1448	1448	1450	1449	1446	1450	1456	1441	1413	1390	1382	1386	1386	1388	1401	1458	1480	1479	1469	1448	1421	1412	1404	1397	1398	1393	1389	1394	1407	1430	1439	1434	1426	1419	1415	1427	1423	1418	1421	1435	1449	1456	1459	1444	1432	1414	1393	1379	1363	1325	1243	1194	1161	1133	0	0	0	1101	1099	1101	1094	1095	1098	1099	0	0	0	0	1091	1092	1095	1086	1079	1072	1081	1090	1103	1109	1095	0	0	0	1103	1100	1101	1093	1090	1076	1089	1111	1136	1175	1223	1278	1402	1448	1465	1480	1485	1500	1498	1487	1501	1507	1499	1498	1500	1507	1512	1498	1503	1506	1511	1502	1506	1512	1511	1490	1483	1474	1469	1470	1488	1502	1503	1503	1509	1525	1534	1539	1537	1526	1499	1454	1425	1421	1424	1426	1425	1421	1424	1428	1428	1428	1424	1418	1400	1387	1370	1382	1379	1383	1395	1403	1389	1389	1396	1393	1385	1373	1370	1378	1388	1397	1398	1380	1384	1383	1389	1399	1414	1418	1405	1393	1392	1396	1416	1414	1405	1407	1434	1427	1407	1399	1400	1412	1434	1464	1465	1466	1461	1465	1476	1489	1506	1523	1526	1519	1496	1486	1491	1485	1476	1457	1439	1443	1438	1447	1446	1454	1471	1481	1487	1488	1490	1484	1486	1483	1486	1487	1486	1481	1451	1447	1447	1419	0	0	0	0	1107	1084	0	0	0	0	0	0	0	0	1048	1054	1071	1086	1073	1044	1028	1031	1041	1057	1058	1054	1044	1037	1030	1017	1008	1007	1006	1023	1047	1059	1056	1058	1072	1080	1080	1068	1056	1055	1058	1067	1075	1073	1080	1103	1211	1246	1275	1306	1342	1346	1357	1382	1413	1424	1400	1381	1376	1379	1389	1390	1380	1356	1364	1376	1405	1413	1392	1362	1373	1404	1426	1427	1411	1416	1419	1428	1407	1390	1404	1418	1407	1376	1375	1390	1390	1381	1376	1372	1370	1362	1353	1386	1391	1360	1342	1344	1376	1412	1432	1435	1445	1456	1469	1484	1486	1483	1471	1473	1475	1468	1461	1459	1462	1465	1471	1469	1470	1464	1467	1464	1479	1483	1473	1461	1454	1449	1448	1462	1464	1463	1457	1447	1441	1439	1431	1431	1433	1444	1458	1460	1465	1468	1479	1481	1469	1453	1438	1436	1439	1453	1467	1481	1483	1479	1480	1484	1479	1474	1462	1454	1457	1458	1452	1448	1437	1433	1446	1452	1445	1450	1460	1469	1480	1494	1499	1480	1468	1463	1472	1477	1478	1476	1477	1481	1473	1467	1459	1450	1436	1437	1442	1449	1453	1456	1453	1449	1457	1463	1461	1456	1449	1452	1452	1465	1484	1490	1483	1473	1470	1459	1457	1432	1412	1429	1442	1457	1460	1460	1465	1462	1464	1474	1470	1449	0	0	0	0	0	0	0
0	0	0	0	0	0	0	0	0	0	0	0	0	0	0	0	0	0	0	0	0	0	0	0	0	0	0	0	0	0	0	0	0	0	0	0	0	0	0	0	0	0	0	0	0	0	0	0	0	0	0	0	0	0	0	0	0	0	0	0	0	0	0	0	0	0	0	0	0	0	0	0	0	0	0	0	0	0	0	0	0	0	0	0	0	0	0	0	0	0	0	0	0	1460	1470	1472	1473	1456	1440	1442	1456	1462	1468	1463	1461	1454	1458	1470	1478	1460	1452	1451	1472	1473	1454	1448	1449	1459	1463	1460	1446	1428	1460	1493	1491	1459	1446	1438	1440	1439	1443	1465	1474	1491	1491	1480	1473	1481	1490	1491	1498	1502	1497	1485	1467	1445	1432	1423	1449	1468	1473	1466	1456	1469	1481	1478	1467	1458	1459	1464	1454	1444	1431	1430	1434	1455	1471	1482	1482	1468	1457	1453	1453	1465	1467	1466	1477	1466	1449	1453	1460	1462	1461	1458	1438	1413	1390	1388	1394	1400	1410	1422	1469	1484	1483	1473	1455	1439	1424	1420	1411	1415	1416	1409	1409	1412	1430	1454	1450	1438	1430	1426	1430	1435	1434	1435	1442	1456	1455	1442	1429	1399	1339	1319	1280	1174	1153	1147	1140	1129	1104	1074	1064	1070	1084	1083	1085	1085	1093	1100	1095	1074	1061	1062	1081	1073	1082	1078	1069	1052	1051	1060	1062	1064	1068	1061	1064	0	0	0	1101	1103	1094	1081	1072	1080	1105	1140	1178	1224	1283	1405	1453	1469	1477	1487	1494	1491	1492	1498	1504	1507	1503	1494	1492	1493	1497	1514	1526	1526	1517	1496	1491	1491	1489	1491	1479	1468	1464	1479	1492	1495	1492	1499	1527	1530	1537	1531	1521	1506	1475	1435	1437	1439	1446	1444	1447	1444	1448	1438	1422	1410	1428	1435	1426	1417	1409	1403	1402	1407	1416	1426	1429	1437	1436	1424	1404	1384	1397	1406	1437	1442	1427	1392	1399	1406	1420	1439	1446	1449	1439	1449	1468	1475	1476	1476	1464	1458	1445	1423	1414	1403	1412	1455	1472	1472	1471	1469	1469	1483	1498	1499	1500	1482	1488	1501	1511	1505	1501	1486	1461	1451	1448	1445	1448	1444	1447	1456	1484	1494	1491	1485	1472	1472	1478	1480	1479	1471	1461	1442	1437	1437	1446	0	0	0	0	0	0	0	0	0	0	0	0	0	1025	1017	1023	1035	1048	1042	1023	1009	1018	1030	1040	1042	1035	1025	1019	1016	1010	1002	998	1000	1010	1033	1042	1046	1055	1064	1071	1075	1065	1049	1042	1044	1045	1046	1042	1034	1053	1089	1132	1205	1246	1284	1311	1351	1387	1415	1423	1423	1411	1407	1409	1414	1409	1403	1393	1398	1429	1457	1453	1431	1403	1412	1425	1438	1431	1425	1436	1449	1459	1445	1441	1436	1440	1439	1429	1425	1422	1421	1408	1396	1394	1390	1391	1395	1423	1417	1377	1352	1349	1387	1421	1448	1458	1456	1459	1472	1476	1480	1475	1467	1470	1474	1471	1466	1463	1464	1465	1472	1478	1481	1487	1486	1485	1483	1482	1476	1467	1454	1445	1441	1453	1462	1461	1447	1440	1447	1451	1445	1444	1450	1457	1457	1448	1450	1460	1477	1470	1465	1462	1456	1454	1455	1474	1485	1495	1491	1491	1492	1490	1481	1469	1458	1450	1445	1453	1457	1455	1440	1430	1445	1445	1445	1446	1464	1474	1474	1479	1489	1467	1447	1445	1455	1460	1458	1457	1470	1481	1486	1479	1475	1463	1448	1448	1450	1452	1456	1453	1445	1447	1461	1475	1474	1467	1449	1449	1449	1464	1481	1481	1469	1465	1472	1472	1454	1434	1424	1437	1451	1458	1458	1458	1456	1454	1459	1462	1456	1444	0	0	0	0	0	0	0
0	0	0	0	0	0	0	0	0	0	0	0	0	0	0	0	0	0	0	0	0	0	0	0	0	0	0	0	0	0	0	0	0	0	0	0	0	0	0	0	0	0	0	0	0	0	0	0	0	0	0	0	0	0	0	0	0	0	0	0	0	0	0	0	0	0	0	0	0	0	0	0	0	0	0	0	0	0	0	0	0	0	0	0	0	0	0	0	0	0	0	0	0	1470	1468	1468	1465	1449	1439	1438	1442	1447	1455	1460	1460	1463	1468	1470	1469	1446	1429	1455	1482	1486	1452	1442	1443	1449	1460	1457	1444	1430	1428	1466	1468	1462	1456	1446	1444	1444	1452	1471	1473	1461	1453	1444	1457	1481	1504	1508	1503	1501	1497	1486	1470	1452	1437	1431	1441	1464	1462	1457	1457	1468	1476	1487	1471	1454	1456	1458	1453	1441	1427	1430	1443	1458	1472	1478	1471	1459	1452	1455	1463	1472	1472	1461	1453	1443	1435	1444	1455	1465	1462	1454	1438	1416	1399	1400	1405	1421	1429	1442	1465	1472	1480	1472	1468	1458	1447	1442	1446	1451	1457	1458	1448	1448	1442	1464	1465	1460	1454	1441	1439	1441	1437	1441	1447	1448	1438	1415	1389	1374	1309	1276	1122	1120	1111	1109	1106	1104	1090	1065	1060	1060	1066	1062	1060	1059	1065	1069	1071	1053	1034	1036	1050	1042	1063	1061	1052	1035	1033	1041	1037	1033	1028	1029	1035	1044	0	0	1099	1100	1093	1087	0	0	0	0	0	0	1300	1427	1459	1477	1485	1493	1493	1490	1494	1501	1506	1506	1498	1491	1475	1481	1497	1522	1540	1544	1525	1510	1496	1490	1491	1498	1500	1488	1484	1480	1486	1484	1477	1479	1507	1522	1522	1525	1521	1517	1503	1487	1474	1467	1463	1468	1466	1465	1457	1442	1428	1419	1435	1444	1441	1433	1425	1421	1420	1420	1426	1433	1438	1438	1437	1420	1405	1408	1445	1467	1487	1488	1487	1496	1488	1460	1437	1472	1469	1462	1448	1468	1483	1490	1493	1492	1479	1478	1477	1480	1482	1478	1472	1471	1485	1488	1480	1475	1477	1488	1502	1498	1485	1481	1481	1493	1507	1516	1509	1492	1476	1475	1476	1470	1464	1451	1450	1458	1480	1502	1506	1492	1472	1474	1479	1477	1481	1472	1455	1445	1438	1432	1457	0	0	0	0	0	0	0	0	0	0	0	0	1052	1039	1019	0	0	1024	1017	1008	995	1001	1014	1032	1036	1035	1021	1008	1009	1013	1009	999	995	1006	1014	1030	1037	0	0	1051	1045	0	0	0	0	0	1036	1033	1013	1012	1018	1030	1064	1101	1162	1249	1308	1364	1396	1404	1425	1420	1418	1427	1436	1445	1446	1426	1430	1455	1479	1478	1462	1449	1453	1455	1461	1456	1451	1462	1482	1486	1469	1462	1453	1445	1442	1442	1441	1443	1445	1444	1432	1421	1417	1421	1422	1465	1463	1454	1449	1435	1438	1453	1464	1468	1457	1460	1471	1471	1467	1461	1462	1465	1471	1466	1466	1469	1465	1465	1473	1481	1483	1487	1499	1492	1487	1480	1468	1464	1452	1441	1441	1446	1452	1452	1441	1449	1457	1461	1460	1461	1463	1473	1451	1434	1432	1448	1470	1467	1457	1456	1461	1461	1472	1485	1500	1498	1494	1490	1490	1482	1470	1461	1449	1445	1447	1459	1460	1457	1453	1441	1439	1435	1438	1455	1470	1479	1475	1475	1466	1456	1446	1451	1456	1453	1448	1451	1458	1470	1480	1480	1478	1475	1465	1461	1455	1456	1453	1446	1442	1449	1466	1475	1477	1476	1459	1465	1465	1475	1489	1478	1465	1455	1463	1467	1455	1455	1445	1450	1454	1455	1453	1453	1450	1449	1452	1452	1454	1442	0	0	0	0	0	0	0
0	0	0	0	0	0	0	0	0	0	0	0	0	0	0	0	0	0	0	0	0	0	0	0	0	0	0	0	0	0	0	0	0	0	0	0	0	0	0	0	0	0	0	0	0	0	0	0	0	0	0	0	0	0	0	0	0	0	0	0	0	0	0	0	0	0	0	0	0	0	0	0	0	0	0	0	0	0	0	0	0	0	0	0	0	0	0	0	0	0	0	0	0	1476	1467	1461	1456	1440	1431	1434	1438	1438	1446	1452	1461	1468	1475	1472	1474	1459	1452	1510	1512	1493	1456	1449	1440	1446	1455	1456	1451	1439	1438	1461	1474	1473	1465	1450	1459	1459	1472	1481	1470	1458	1444	1426	1429	1467	1500	1508	1494	1496	1490	1479	1457	1447	1445	1453	1454	1458	1451	1450	1449	1459	1479	1478	1460	1449	1455	1453	1460	1458	1444	1436	1453	1467	1477	1472	1462	1453	1457	1467	1472	1476	1474	1477	1468	1453	1431	1434	1439	1445	1450	1448	1435	1430	1437	1444	1445	1446	1451	1450	1453	1460	1467	1467	1464	1459	1451	1451	1436	1448	1454	1453	1456	1457	1451	1453	1474	1480	1468	1456	1449	1440	1441	1437	1446	1439	1418	1382	1333	1203	1128	1115	1115	1108	1097	1089	1084	1081	1072	1052	1051	1050	1047	1038	1028	1027	1032	1038	1035	1028	1020	1027	1040	1029	1016	1019	1035	1028	1029	1032	1022	1013	1016	1016	1018	1025	1044	1066	1078	1090	1098	0	0	0	0	0	0	0	1333	1447	1477	1489	1493	1500	1503	1497	1492	1491	1490	1488	1484	1486	1484	1494	1506	1519	1530	1521	1520	1512	1501	1492	1486	1498	1501	1500	1487	1482	1483	1485	1477	1473	1474	1491	1500	1500	1498	1492	1488	1486	1497	1495	1496	1491	1501	1513	1521	1511	1511	1497	1479	1463	1457	1452	1449	1457	1468	1483	1480	1471	1469	1460	1455	1445	1441	1456	1466	1500	1504	1485	1488	1486	1482	1459	1445	1476	1478	1470	1469	1480	1484	1486	1482	1470	1461	1461	1466	1480	1483	1479	1476	1473	1487	1497	1496	1487	1491	1502	1508	1498	1485	1485	1485	1491	1500	1506	1498	1484	1479	1485	1487	1483	1476	1467	1467	1472	1486	1507	1510	1503	1484	1478	1478	1481	1487	1478	1471	1460	1453	1443	1453	0	0	0	0	0	0	0	0	0	0	0	0	0	1052	0	0	0	1002	1008	999	983	990	999	1019	1024	1019	1019	1007	1014	1031	1025	1013	1007	1002	1010	1018	1033	0	0	0	0	0	0	0	0	0	0	0	0	0	1016	1006	1012	1025	1034	1040	1147	1321	1378	1407	1412	1410	1405	1420	1440	1471	1481	1454	1449	1466	1478	1472	1469	1475	1484	1486	1486	1485	1492	1489	1499	1504	1484	1474	1462	1454	1455	1454	1455	1461	1462	1461	1459	1452	1445	1450	1471	1500	1494	1490	1477	1469	1467	1464	1469	1468	1460	1462	1465	1471	1468	1455	1457	1457	1458	1458	1459	1465	1462	1466	1472	1478	1479	1484	1487	1482	1475	1475	1461	1456	1448	1436	1431	1430	1432	1439	1448	1458	1458	1462	1459	1471	1475	1478	1456	1428	1422	1431	1459	1456	1446	1451	1459	1462	1474	1482	1496	1491	1482	1482	1485	1478	1467	1453	1453	1461	1464	1469	1472	1469	1461	1457	1455	1445	1447	1462	1479	1485	1470	1475	1462	1450	1451	1454	1468	1459	1453	1452	1457	1461	1462	1470	1473	1470	1471	1465	1460	1462	1452	1445	1441	1451	1461	1466	1468	1471	1474	1474	1481	1485	1483	1473	1458	1451	1453	1457	1459	1464	1467	1466	1460	1457	1449	1449	1435	1434	1444	1459	1462	1460	0	0	0	0	0	0	0
0	0	0	0	0	0	0	0	0	0	0	0	0	0	0	0	0	0	0	0	0	0	0	0	0	0	0	0	0	0	0	0	0	0	0	0	0	0	0	0	0	0	0	0	0	0	0	0	0	0	0	0	0	0	0	0	0	0	0	0	0	0	0	0	0	0	0	0	0	0	0	0	0	0	0	0	0	0	0	0	0	0	0	0	0	0	0	0	0	0	0	0	0	1489	1475	1467	1450	1442	1439	1441	1449	1446	1450	1452	1454	1461	1470	1478	1490	1494	1485	1549	1501	1477	1450	1444	1440	1438	1444	1452	1455	1455	1461	1472	1476	1483	1480	1468	1478	1482	1490	1492	1484	1472	1449	1433	1424	1438	1457	1469	1478	1474	1474	1468	1455	1453	1454	1460	1462	1447	1442	1441	1442	1453	1469	1471	1457	1449	1447	1460	1464	1470	1457	1457	1464	1467	1469	1466	1460	1453	1458	1467	1480	1478	1478	1476	1474	1458	1440	1446	1444	1439	1440	1439	1429	1428	1438	1449	1453	1444	1451	1451	1462	1468	1477	1478	1472	1465	1455	1449	1436	1446	1458	1461	1461	1451	1438	1449	1473	1480	1479	1459	1452	1445	1434	1435	1435	1362	1293	1233	1175	1135	1125	1135	0	1116	1093	1082	1076	1070	1056	1038	1019	1000	994	995	999	1004	1011	1012	1007	1013	1014	1016	1020	1014	1006	1007	1011	1015	1028	1021	1019	1015	1012	1002	1007	1013	1026	1049	1072	1082	0	0	0	0	0	0	0	0	1389	1455	1478	1492	1494	1503	1502	1493	1489	1486	1479	1473	1476	1483	1495	1503	1515	1520	1520	1515	1513	1514	1502	1491	1480	1487	1501	1498	1487	1483	1489	1492	1486	1477	1475	1487	1491	1491	1482	1468	1464	1481	1494	1500	1507	1508	1512	1515	1513	1506	1513	1512	1496	1479	1462	1448	1444	1445	1456	1466	1477	1466	1466	1466	1462	1456	1457	1470	1462	1480	1483	1479	1477	1478	1461	1468	1470	1478	1480	1470	1468	1476	1476	1473	1478	1466	1457	1458	1464	1478	1485	1488	1484	1480	1489	1506	1515	1510	1505	1504	1505	1496	1499	1497	1497	1497	1502	1507	1503	1478	1467	1471	1480	1486	1483	1481	1486	1484	1490	1496	1503	1503	1499	1500	1504	1506	1499	1488	1491	1482	1472	1459	1461	1508	0	0	0	0	0	0	0	0	0	0	0	0	0	0	0	0	0	0	998	0	991	999	0	0	0	0	0	0	0	1044	1023	1014	1011	1019	1016	1027	1038	0	1029	1025	0	0	0	0	0	0	0	0	0	0	1007	988	985	981	985	1001	1038	1107	1202	1291	1349	1388	1405	1427	1460	1477	1457	1463	1463	1469	1471	1472	1484	1496	1495	1489	1490	1493	1494	1498	1506	1489	1478	1467	1462	1465	1461	1464	1460	1459	1463	1459	1462	1456	1465	1477	1504	1486	1489	1487	1489	1475	1469	1465	1461	1466	1466	1474	1477	1467	1459	1461	1460	1456	1448	1449	1451	1446	1451	1464	1472	1476	1479	1468	1465	1468	1465	1457	1457	1440	1427	1420	1414	1417	1434	1446	1457	1460	1456	1456	1463	1471	1479	1468	1434	1416	1425	1443	1447	1446	1449	1458	1461	1465	1471	1476	1481	1469	1467	1471	1474	1463	1463	1470	1481	1487	1487	1486	1481	1476	1473	1454	1445	1447	1462	1479	1488	1477	1467	1452	1450	1445	1463	1474	1472	1469	1462	1465	1461	1454	1447	1452	1457	1461	1466	1472	1466	1459	1449	1448	1451	1452	1450	1452	1456	1466	1466	1470	1478	1470	1464	1458	1449	1451	1453	1458	1471	1476	1472	1462	1453	1443	1443	1430	1429	1443	1458	1461	1464	0	0	0	0	0	0	0
0	0	0	0	0	0	0	0	0	0	0	0	0	0	0	0	0	0	0	0	0	0	0	0	0	0	0	0	0	0	0	0	0	0	0	0	0	0	0	0	0	0	0	0	0	0	0	0	0	0	0	0	0	0	0	0	0	0	0	0	0	0	0	0	0	0	0	0	0	0	0	0	0	0	0	0	0	0	0	0	0	0	0	0	0	0	0	0	0	0	0	0	0	1497	1480	1472	1456	1450	1457	1478	1483	1473	1462	1450	1449	1451	1465	1480	1493	1498	1494	1487	1474	1446	1446	1443	1445	1433	1437	1447	1452	1472	1481	1480	1478	1477	1480	1486	1495	1504	1501	1502	1498	1494	1471	1446	1431	1437	1451	1455	1450	1459	1458	1462	1459	1454	1455	1458	1461	1447	1439	1427	1432	1454	1470	1473	1467	1456	1458	1459	1470	1475	1480	1484	1474	1464	1462	1466	1458	1456	1457	1468	1474	1472	1470	1470	1476	1466	1462	1457	1451	1448	1449	1446	1441	1440	1445	1448	1451	1460	1450	1454	1468	1482	1494	1500	1503	1485	1469	1453	1448	1455	1478	1491	1476	1456	1437	1443	1474	1493	1487	1466	1447	1419	1372	1332	1314	1259	1201	1170	1148	1138	0	0	0	0	0	1069	1058	1052	1037	1017	997	985	983	987	986	994	998	998	995	994	994	997	1002	1001	999	997	994	999	1004	1010	1015	1013	1007	1005	1000	1006	1017	1038	1060	0	0	0	0	0	0	0	0	1390	1453	1474	1486	1488	1495	1499	1494	1493	1491	1477	1469	1471	1478	1488	1500	1509	1518	1521	1514	1508	1509	1511	1508	1489	1478	1482	1495	1492	1487	1486	1494	1498	1495	1485	1479	1483	1486	1479	1465	1457	1459	1473	1506	1512	1518	1521	1514	1506	1501	1504	1508	1513	1505	1503	1487	1465	1448	1444	1454	1451	1457	1457	1460	1461	1464	1462	1465	1461	1461	1475	1484	1473	1468	1455	1466	1486	1500	1497	1490	1473	1461	1455	1461	1470	1471	1468	1467	1464	1478	1494	1507	1513	1509	1504	1501	1501	1499	1510	1516	1507	1498	1496	1498	1502	1513	1529	1535	1524	1506	1482	1466	1466	1479	1487	1494	1504	1499	1496	1489	1495	1488	1497	1500	1503	1508	1506	1494	1497	1503	1502	1491	1483	1480	1513	0	0	0	0	0	0	0	0	0	0	0	0	0	0	0	0	0	0	0	0	0	0	0	0	0	0	0	0	0	0	0	0	0	0	1028	1031	0	0	0	0	0	0	0	0	0	0	0	0	0	0	0	1001	971	966	970	991	1016	1038	1035	1049	1121	1297	1364	1405	1438	1449	1448	1452	1458	1469	1473	1474	1483	1491	1492	1491	1487	1483	1485	1491	1492	1487	1479	1478	1472	1479	1473	1469	1457	1456	1455	1453	1450	1448	1460	1492	1489	1483	1481	1487	1493	1479	1455	1453	1458	1462	1473	1487	1483	1472	1463	1471	1474	1470	1453	1445	1441	1428	1433	1448	1475	1481	1476	1471	1464	1465	1468	1453	1458	1451	1433	1416	1406	1413	1428	1446	1458	1452	1447	1452	1465	1476	1476	1465	1442	1428	1426	1435	1447	1455	1457	1461	1458	1458	1456	1461	1466	1462	1459	1465	1467	1467	1472	1484	1489	1491	1491	1482	1487	1478	1465	1451	1444	1451	1463	1480	1482	1469	1457	1447	1439	1441	1450	1474	1478	1478	1481	1479	1469	1459	1444	1432	1437	1445	1468	1485	1484	1472	1457	1452	1449	1445	1438	1437	1435	1438	1438	1453	1462	1457	1455	1457	1452	1456	1457	1458	1468	1464	1462	1453	1447	1447	1445	1443	1432	1439	1453	1458	1460	0	0	0	0	0	0	0
0	0	0	0	0	0	0	0	0	0	0	0	0	0	0	0	0	0	0	0	0	0	0	0	0	0	0	0	0	0	0	0	0	0	0	0	0	0	0	0	0	0	0	0	0	0	0	0	0	0	0	0	0	0	0	0	0	0	0	0	0	0	0	0	0	0	0	0	0	0	0	0	0	0	0	0	0	0	0	0	0	0	0	0	0	0	0	0	0	0	0	0	0	1480	1482	1458	1453	1468	1495	1506	1503	1497	1476	1457	1449	1449	1461	1467	1474	1477	1462	1454	1453	1457	1457	1460	1460	1451	1444	1451	1467	1475	1474	1470	1460	1461	1474	1485	1498	1506	1500	1500	1500	1500	1478	1452	1440	1446	1456	1453	1448	1449	1458	1456	1470	1479	1464	1459	1461	1458	1446	1432	1438	1454	1474	1482	1476	1470	1467	1469	1471	1479	1490	1494	1487	1469	1458	1459	1457	1457	1455	1465	1471	1466	1469	1467	1472	1473	1472	1463	1463	1464	1467	1465	1457	1455	1451	1456	1465	1472	1468	1465	1477	1489	1502	1510	1516	1500	1486	1473	1471	1479	1494	1496	1482	1451	1432	1422	1465	1485	1481	1437	1378	1311	1285	1271	1250	1222	1195	1165	1147	0	0	0	0	0	0	1050	1031	1025	1006	997	997	1007	1014	998	987	993	999	997	985	969	963	971	985	0	0	0	994	991	987	0	1007	1019	1013	1010	1011	1009	1027	0	0	0	0	0	0	0	0	0	1390	1469	1489	1481	1472	1469	1473	1474	1468	1470	1464	1474	1478	1486	1486	1487	1487	1490	1499	1510	1508	1495	1494	1487	1481	1482	1495	1507	1517	1501	1503	1522	1530	1520	1500	1484	1470	1465	1463	1465	1452	1458	1465	1488	1494	1516	1528	1521	1505	1490	1487	1493	1503	1510	1517	1517	1504	1484	1464	1461	1469	1471	1461	1463	1465	1466	1467	1463	1465	1463	1466	1471	1476	1483	1490	1505	1516	1517	1519	1509	1500	1478	1456	1448	1458	1474	1478	1473	1472	1480	1493	1512	1519	1525	1515	1511	1504	1491	1487	1488	1505	1502	1489	1489	1500	1515	1525	1535	1544	1539	1508	1489	1480	1482	1483	1489	1497	1515	1508	1503	1505	1497	1487	1497	1491	1496	1500	1485	1477	1498	1518	1526	1523	1514	1516	1517	0	0	0	0	0	0	0	0	0	0	0	0	0	0	0	0	0	0	0	0	0	0	0	957	0	0	0	0	0	0	0	0	0	0	0	0	0	0	0	0	0	0	0	0	0	0	0	0	0	0	0	0	981	967	969	991	1019	1018	1009	1004	1010	1055	1097	1234	1394	1437	1425	1429	1452	1475	1479	1476	1477	1480	1483	1487	1474	1472	1471	1483	1495	1487	1483	1475	1485	1493	1490	1476	1462	1451	1448	1446	1442	1443	1447	1467	1478	1482	1487	1493	1483	1468	1446	1442	1448	1459	1471	1481	1476	1476	1478	1485	1493	1493	1474	1441	1433	1420	1433	1461	1489	1498	1497	1487	1471	1468	1462	1465	1478	1478	1459	1433	1423	1423	1426	1443	1446	1442	1438	1446	1459	1464	1462	1456	1448	1445	1434	1437	1456	1469	1474	1464	1456	1449	1448	1460	1462	1461	1460	1465	1473	1472	1477	1482	1476	1472	1473	1475	1477	1469	1456	1444	1444	1456	1468	1476	1474	1458	1442	1433	1432	1438	1451	1471	1479	1481	1485	1482	1476	1466	1457	1446	1444	1456	1467	1491	1492	1472	1457	1452	1450	1447	1439	1435	1426	1433	1433	1439	1452	1464	1462	1468	1464	1458	1454	1448	1455	1453	1440	1435	1438	1438	1452	1454	1447	1448	1444	1458	1479	0	0	0	0	0	0	0
0	0	0	0	0	0	0	0	0	0	0	0	0	0	0	0	0	0	0	0	0	0	0	0	0	0	0	0	0	0	0	0	0	0	0	0	0	0	0	0	0	0	0	0	0	0	0	0	0	0	0	0	0	0	0	0	0	0	0	0	0	0	0	0	0	0	0	0	0	0	0	0	0	0	0	0	0	0	0	0	0	0	0	0	0	0	0	0	0	0	0	0	0	1463	1472	1465	1459	1477	1494	1501	1494	1472	1451	1442	1456	1464	1459	1454	1453	1447	1444	1440	1450	1467	1478	1484	1485	1472	1467	1467	1468	1468	1465	1456	1454	1446	1451	1459	1471	1480	1480	1479	1478	1472	1466	1458	1459	1469	1477	1473	1456	1443	1444	1457	1479	1482	1472	1465	1467	1473	1464	1454	1452	1465	1478	1480	1475	1478	1479	1478	1469	1473	1476	1494	1477	1464	1460	1459	1465	1461	1464	1461	1468	1474	1471	1472	1476	1477	1466	1461	1462	1468	1477	1481	1481	1473	1460	1457	1464	1479	1480	1479	1478	1496	1501	1505	1514	1495	1489	1486	1479	1485	1494	1496	1473	1448	1422	1413	1435	1372	1266	1269	1269	1271	1255	1250	1231	1210	1194	1162	1140	0	0	0	0	0	0	0	1015	992	978	980	993	1019	1031	1020	1005	991	984	977	969	963	954	954	967	0	0	0	996	986	988	0	0	0	0	0	0	0	0	0	0	0	0	0	0	0	0	1357	1469	1501	1496	1490	1477	1479	1479	1473	1462	1453	1450	1464	1477	1487	1490	1480	1481	1487	1499	1506	1505	1496	1483	1476	1471	1479	1499	1514	1525	1517	1513	1525	1521	1510	1498	1486	1477	1469	1462	1459	1454	1459	1482	1497	1509	1519	1520	1506	1499	1484	1481	1490	1488	1498	1504	1503	1496	1482	1474	1470	1482	1483	1478	1475	1476	1482	1478	1474	1475	1472	1471	1470	1477	1483	1493	1503	1521	1523	1522	1517	1503	1475	1454	1451	1459	1476	1490	1492	1474	1479	1495	1498	1508	1510	1508	1499	1489	1485	1486	1487	1491	1492	1491	1491	1515	1523	1524	1541	1539	1533	1515	1498	1493	1494	1495	1494	1494	1506	1515	1518	1507	1503	1496	1491	1498	1498	1482	1467	1454	1496	1518	1532	1531	1535	1531	1523	1515	0	0	0	0	0	0	0	0	0	0	0	0	0	0	0	987	979	0	0	0	964	938	927	919	929	0	0	0	965	964	970	986	0	0	0	0	0	0	0	0	0	0	0	0	0	0	0	0	0	1006	1000	980	968	963	984	1003	1003	994	991	991	1010	1029	1054	1136	1359	1411	1429	1457	1477	1477	1472	1465	1470	1474	1478	1477	1468	1468	1481	1488	1481	1476	1477	1491	1508	1498	1491	1469	1452	1447	1437	1436	1436	1441	1458	1462	1476	1483	1486	1480	1463	1450	1448	1451	1456	1461	1467	1472	1470	1486	1501	1511	1512	1489	1460	1427	1424	1438	1466	1492	1505	1499	1494	1488	1486	1463	1468	1491	1498	1493	1477	1456	1447	1446	1443	1441	1432	1424	1430	1444	1454	1446	1450	1453	1460	1455	1452	1467	1481	1478	1471	1453	1448	1444	1448	1458	1462	1461	1465	1469	1478	1476	1469	1457	1447	1449	1457	1456	1451	1447	1434	1446	1456	1476	1476	1470	1450	1438	1433	1434	1438	1449	1467	1480	1479	1475	1476	1476	1475	1471	1459	1455	1468	1472	1482	1481	1454	1444	1442	1447	1449	1444	1439	1431	1435	1435	1444	1456	1466	1473	1480	1467	1455	1448	1443	1447	1439	1427	1421	1431	1431	1448	1466	1469	1459	1464	1468	1477	0	0	0	0	0	0	0
0	0	0	0	0	0	0	0	0	0	0	0	0	0	0	0	0	0	0	0	0	0	0	0	0	0	0	0	0	0	0	0	0	0	0	0	0	0	0	0	0	0	0	0	0	0	0	0	0	0	0	0	0	0	0	0	0	0	0	0	0	0	0	0	0	0	0	0	0	0	0	0	0	0	0	0	0	0	0	0	0	0	0	0	0	0	0	0	0	0	0	0	0	1456	1470	1461	1453	1456	1476	1481	1471	1452	1446	1452	1468	1477	1462	1451	1453	1454	1451	1446	1445	1456	1473	1488	1486	1480	1472	1474	1475	1468	1459	1455	1451	1444	1441	1445	1454	1464	1470	1472	1473	1475	1468	1463	1456	1460	1468	1479	1472	1459	1462	1466	1462	1462	1471	1489	1502	1487	1486	1474	1469	1470	1475	1475	1465	1470	1483	1488	1464	1452	1454	1453	1462	1461	1463	1459	1463	1463	1466	1474	1479	1482	1482	1481	1480	1471	1458	1455	1463	1470	1474	1489	1492	1485	1466	1464	1465	1472	1485	1495	1495	1496	1499	1495	1481	1482	1478	1485	1480	1477	1484	1482	1473	1418	1374	1363	1253	1209	1196	1200	1196	1222	1220	1201	0	0	0	0	0	0	0	0	0	0	0	0	1005	974	957	964	982	1010	1030	1021	998	977	968	964	958	955	953	952	948	942	960	980	986	982	980	996	1013	0	0	0	0	0	0	0	0	0	0	0	0	0	1372	1460	1495	1497	1502	1499	1490	1482	1477	1468	1464	1454	1447	1466	1480	1481	1482	1480	1479	1481	1503	1565	1575	1506	1488	1471	1468	1477	1495	1512	1528	1532	1532	1527	1513	1504	1497	1490	1486	1481	1473	1460	1497	1524	1541	1536	1517	1517	1508	1500	1492	1487	1477	1486	1482	1481	1487	1488	1484	1480	1466	1473	1481	1489	1482	1482	1492	1501	1497	1487	1484	1483	1484	1477	1475	1481	1491	1505	1515	1523	1526	1518	1504	1483	1461	1458	1457	1475	1494	1490	1479	1475	1479	1476	1486	1493	1492	1492	1482	1466	1473	1476	1481	1488	1496	1514	1520	1530	1538	1536	1521	1511	1502	1495	1497	1500	1500	1488	1485	1492	1505	1510	1505	1502	1498	1493	1495	1485	1478	1459	1451	1478	1502	1519	1527	1527	1522	1521	1514	1495	0	0	0	0	0	0	0	0	0	0	0	0	0	0	979	970	965	0	965	949	924	906	902	909	0	0	941	942	941	939	928	929	939	955	949	952	959	978	984	977	970	971	965	0	0	916	930	941	955	957	957	948	950	962	973	979	975	972	981	996	1009	1029	1045	1115	1253	1300	1385	1435	1454	1460	1461	1465	1472	1475	1469	1474	1469	1476	1472	1468	1468	1476	1496	1511	1504	1492	1483	1462	1454	1447	1438	1425	1442	1452	1452	1463	1468	1474	1473	1470	1464	1456	1453	1446	1456	1462	1467	1469	1481	1502	1520	1524	1518	1482	1456	1445	1445	1475	1497	1504	1506	1503	1504	1499	1469	1470	1494	1513	1509	1492	1484	1482	1479	1469	1442	1426	1424	1429	1442	1456	1458	1459	1460	1462	1450	1433	1459	1493	1504	1487	1453	1435	1440	1447	1452	1456	1464	1468	1470	1475	1473	1465	1450	1449	1452	1451	1445	1444	1443	1444	1452	1474	1478	1479	1475	1462	1452	1446	1446	1451	1465	1481	1486	1474	1462	1467	1476	1476	1469	1463	1464	1471	1475	1465	1455	1443	1440	1442	1445	1449	1449	1451	1449	1449	1443	1438	1450	1460	1470	1490	1485	1459	1442	1435	1438	1431	1422	1417	1426	1426	1456	1478	1473	1479	1469	1456	0	0	0	0	0	0	0	0
0	0	0	0	0	0	0	0	0	0	0	0	0	0	0	0	0	0	0	0	0	0	0	0	0	0	0	0	0	0	0	0	0	0	0	0	0	0	0	0	0	0	0	0	0	0	0	0	0	0	0	0	0	0	0	0	0	0	0	0	0	0	0	0	0	0	0	0	0	0	0	0	0	0	0	0	0	0	0	0	0	0	0	0	0	0	0	0	0	0	0	0	0	1459	1459	1451	1437	1446	1456	1466	1462	1462	1456	1467	1484	1486	1469	1464	1463	1467	1454	1440	1439	1449	1461	1477	1481	1479	1473	1473	1476	1470	1471	1463	1451	1442	1438	1438	1443	1454	1463	1474	1474	1481	1480	1472	1456	1449	1455	1473	1482	1487	1483	1478	1469	1465	1468	1487	1509	1504	1492	1488	1484	1475	1466	1463	1466	1472	1487	1486	1458	1432	1413	1416	1452	1462	1464	1462	1462	1463	1471	1475	1478	1482	1477	1478	1475	1465	1450	1455	1461	1467	1474	1498	1501	1493	1474	1467	1468	1477	1480	1491	1491	1493	1497	1497	1488	1481	1469	1465	1462	1466	1466	1446	1325	1236	1204	1190	1125	1133	1131	1134	1130	1127	1140	1145	0	0	0	0	0	0	0	0	0	0	0	1003	987	964	946	955	972	994	1003	998	980	959	953	948	950	954	953	952	948	936	949	974	984	976	980	998	1030	0	0	0	0	0	0	0	0	0	0	0	0	0	1415	1461	1487	1481	1487	1485	1487	1480	1477	1475	1473	1469	1483	1489	1482	1480	1474	1475	1477	1482	1481	1556	1569	1559	1489	1473	1471	1477	1488	1507	1523	1531	1530	1516	1504	1496	1494	1502	1501	1496	1472	1482	1482	1493	1497	1500	1476	1459	1483	1476	1477	1481	1490	1476	1469	1474	1480	1481	1485	1478	1467	1475	1484	1490	1482	1490	1506	1512	1505	1501	1495	1497	1485	1471	1473	1480	1496	1509	1523	1524	1514	1504	1492	1485	1479	1471	1479	1491	1505	1496	1486	1478	1473	1472	1465	1471	1487	1482	1470	1466	1475	1475	1474	1476	1493	1507	1520	1524	1525	1517	1510	1503	1490	1493	1493	1502	1490	1475	1470	1475	1482	1492	1494	1491	1493	1491	1489	1477	1474	1458	1461	1480	1486	1493	1497	1503	1510	1511	1507	1495	1487	0	0	0	0	0	0	0	0	0	0	0	0	0	0	958	956	956	950	930	910	900	899	911	924	928	923	919	914	913	897	894	916	933	939	939	945	953	960	962	955	946	951	940	934	898	898	910	926	939	942	935	934	939	945	937	933	943	953	963	979	996	1013	1031	1047	1081	1142	1322	1397	1422	1445	1464	1476	1480	1484	1479	1480	1481	1454	1455	1461	1475	1496	1512	1507	1489	1482	1472	1455	1445	1426	1427	1446	1445	1441	1435	1447	1457	1463	1468	1475	1471	1468	1458	1464	1466	1476	1476	1479	1488	1504	1518	1518	1502	1486	1469	1477	1481	1496	1538	1529	1520	1519	1517	1485	1482	1488	1501	1493	1483	1483	1489	1482	1468	1449	1428	1436	1446	1460	1468	1467	1462	1458	1451	1435	1414	1446	1478	1501	1487	1460	1436	1435	1449	1446	1448	1459	1479	1486	1476	1477	1474	1471	1466	1467	1461	1454	1441	1434	1443	1463	1492	1487	1477	1465	1461	1463	1462	1464	1466	1475	1484	1487	1476	1470	1457	1472	1469	1468	1462	1468	1472	1471	1455	1439	1438	1442	1443	1439	1444	1452	1460	1459	1459	1452	1452	1447	1448	1469	1489	1497	1468	1448	1433	1426	1425	1427	1424	1437	1437	1455	1476	1481	1475	1471	1449	0	0	0	0	0	0	0	0
0	0	0	0	0	0	0	0	0	0	0	0	0	0	0	0	0	0	0	0	0	0	0	0	0	0	0	0	0	0	0	0	0	0	0	0	0	0	0	0	0	0	0	0	0	0	0	0	0	0	0	0	0	0	0	0	0	0	0	0	0	0	0	0	0	0	0	0	0	0	0	0	0	0	0	0	0	0	0	0	0	0	0	0	0	0	0	0	0	0	0	0	0	1452	1449	1445	1442	1437	1451	1461	1470	1467	1480	1482	1489	1503	1498	1492	1492	1489	1458	1447	1439	1440	1445	1455	1458	1464	1462	1464	1475	1482	1482	1474	1451	1447	1441	1443	1446	1450	1455	1467	1481	1485	1485	1478	1462	1446	1451	1475	1496	1497	1499	1486	1476	1473	1474	1489	1513	1512	1500	1489	1484	1474	1466	1463	1469	1478	1485	1473	1441	1418	1398	1407	1458	1463	1465	1461	1459	1466	1464	1462	1457	1460	1460	1469	1468	1462	1457	1460	1470	1472	1498	1523	1508	1485	1470	1464	1465	1466	1472	1478	1486	1488	1492	1493	1483	1464	1451	1442	1435	1414	1328	1221	1151	1123	1095	1082	1088	1085	1071	1074	1077	1082	1092	1105	1111	1110	0	0	0	0	0	0	0	980	976	985	984	972	961	960	966	978	985	980	967	949	937	934	934	945	953	960	951	936	926	963	972	978	0	0	0	0	0	0	0	0	0	0	0	0	0	0	0	1415	1448	1476	1488	1477	1477	1477	1475	1473	1471	1479	1490	1493	1497	1500	1483	1477	1471	1492	1525	1549	1517	1522	1562	1547	1501	1477	1475	1475	1486	1498	1512	1522	1520	1510	1498	1489	1490	1510	1507	1487	1472	1469	1479	1494	1504	1497	1478	1454	1424	1469	1473	1488	1500	1489	1492	1490	1485	1489	1487	1485	1486	1481	1487	1492	1491	1500	1506	1511	1508	1497	1489	1491	1491	1486	1478	1484	1497	1513	1518	1517	1501	1478	1475	1489	1490	1493	1495	1506	1513	1505	1496	1486	1480	1473	1467	1464	1467	1472	1475	1480	1494	1492	1476	1469	1474	1497	1511	1520	1506	1500	1499	1497	1497	1496	1499	1499	1488	1475	1461	1463	1475	1476	1485	1485	1488	1486	1482	1485	1483	1475	1481	1480	1480	1477	1482	1488	1493	1498	1496	1486	1482	1521	0	0	0	0	0	0	0	0	0	0	0	0	0	0	949	942	927	915	899	893	896	912	913	910	907	906	902	891	882	879	902	924	934	933	930	939	938	928	924	919	925	928	923	886	877	888	904	917	920	917	918	920	918	907	903	914	925	940	950	961	969	977	986	993	1016	1067	1118	1189	1300	1405	1461	1495	1498	1498	1492	1483	1468	1461	1461	1476	1484	1498	1496	1493	1480	1463	1457	1448	1437	1436	1447	1451	1438	1428	1438	1445	1455	1463	1472	1486	1485	1483	1493	1497	1495	1486	1462	1467	1481	1495	1472	1483	1491	1493	1492	1500	1520	1532	1532	1518	1517	1500	1472	1463	1470	1471	1473	1477	1482	1481	1479	1464	1452	1447	1452	1454	1467	1469	1468	1461	1459	1452	1434	1409	1425	1455	1477	1478	1468	1451	1457	1457	1456	1449	1465	1489	1491	1476	1474	1485	1488	1478	1474	1474	1455	1440	1438	1447	1466	1490	1494	1488	1475	1470	1475	1487	1494	1488	1473	1462	1472	1474	1474	1471	1474	1471	1469	1470	1477	1479	1473	1457	1447	1439	1439	1439	1446	1445	1463	1473	1465	1465	1461	1452	1448	1448	1456	1471	1486	1470	1453	1433	1425	1424	1437	1440	1441	1441	1453	1463	1466	1466	1467	1439	0	0	0	0	0	0	0	0
0	0	0	0	0	0	0	0	0	0	0	0	0	0	0	0	0	0	0	0	0	0	0	0	0	0	0	0	0	0	0	0	0	0	0	0	0	0	0	0	0	0	0	0	0	0	0	0	0	0	0	0	0	0	0	0	0	0	0	0	0	0	0	0	0	0	0	0	0	0	0	0	0	0	0	0	0	0	0	0	0	0	0	0	0	0	0	0	0	0	0	0	0	1418	1435	1446	1446	1453	1467	1474	1483	1481	1483	1493	1494	1506	1518	1526	1529	1501	1456	1444	1439	1432	1432	1441	1451	1458	1462	1471	1482	1488	1485	1475	1465	1459	1462	1458	1457	1459	1459	1462	1476	1479	1483	1477	1469	1455	1460	1477	1495	1500	1498	1494	1483	1481	1482	1492	1507	1508	1500	1492	1480	1475	1458	1451	1457	1469	1475	1468	1450	1430	1422	1438	1485	1483	1469	1462	1462	1460	1457	1451	1449	1444	1443	1454	1466	1467	1469	1468	1472	1477	1511	1522	1515	1488	1466	1458	1463	1466	1472	1472	1473	1469	1476	1482	1476	1448	1417	1317	1248	1205	1112	1052	1040	1054	1060	1074	1063	1047	1040	1036	1043	1054	1054	1055	1062	1053	1050	1057	1059	1035	999	959	924	924	954	973	985	986	979	966	960	966	976	973	960	945	927	917	923	936	953	968	964	944	925	0	0	0	0	0	0	0	0	0	0	0	0	0	0	0	1350	1431	1414	1457	1477	1486	1472	1496	1487	1478	1478	1473	1474	1484	1496	1499	1500	1499	1492	1478	1484	1526	1546	1535	1505	1494	1492	1520	1493	1478	1473	1479	1489	1499	1508	1511	1508	1499	1493	1488	1485	1490	1505	1490	1487	1470	1477	1535	1549	1537	1491	1466	1430	1460	1467	1479	1500	1490	1497	1492	1497	1500	1500	1500	1489	1486	1489	1499	1506	1506	1502	1504	1498	1477	1473	1477	1482	1481	1484	1486	1494	1505	1503	1494	1480	1467	1472	1488	1502	1502	1505	1510	1517	1514	1509	1498	1484	1475	1463	1468	1478	1482	1481	1495	1497	1496	1485	1468	1475	1487	1503	1497	1484	1485	1491	1493	1491	1480	1483	1482	1484	1481	1475	1464	1470	1476	1483	1483	1478	1483	1488	1490	1497	1509	1507	1489	1478	1471	1483	1486	1482	1484	1485	1480	1473	1507	0	0	0	0	0	0	0	0	0	0	0	0	0	0	941	921	907	886	874	881	890	909	909	907	900	898	895	884	872	877	891	907	913	919	919	919	912	906	899	896	898	899	895	866	866	874	880	891	898	901	908	913	901	886	875	883	902	921	931	926	923	922	927	930	942	965	996	1034	1085	1145	1209	1419	1441	1465	1478	1475	1468	1469	1468	1476	1479	1491	1495	1489	1484	1476	1470	1472	1468	1469	1470	1466	1463	1445	1448	1445	1451	1457	1476	1492	1498	1505	1511	1521	1519	1496	1458	1437	1444	1450	1461	1475	1487	1487	1481	1484	1489	1518	1516	1514	1507	1493	1454	1446	1453	1452	1470	1483	1488	1480	1473	1467	1458	1454	1457	1459	1461	1458	1450	1449	1459	1458	1442	1410	1417	1439	1464	1477	1472	1481	1488	1487	1475	1474	1479	1487	1484	1477	1480	1491	1497	1488	1478	1468	1444	1444	1441	1456	1462	1481	1490	1489	1488	1486	1484	1487	1493	1485	1476	1465	1465	1468	1483	1487	1493	1477	1477	1482	1496	1500	1489	1472	1462	1450	1442	1445	1459	1465	1483	1487	1481	1481	1477	1461	1453	1445	1450	1461	1465	1460	1446	1427	1425	1436	1448	1444	1441	1441	1452	1453	1460	1461	1456	1428	0	0	0	0	0	0	0	0
0	0	0	0	0	0	0	0	0	0	0	0	0	0	0	0	0	0	0	0	0	0	0	0	0	0	0	0	0	0	0	0	0	0	0	0	0	0	0	0	0	0	0	0	0	0	0	0	0	0	0	0	0	0	0	0	0	0	0	0	0	0	0	0	0	0	0	0	0	0	0	0	0	0	0	0	0	0	0	0	0	0	0	0	0	0	0	0	0	0	0	0	0	1386	1432	1443	1456	1476	1491	1497	1502	1493	1493	1491	1489	1495	1514	1522	1527	1493	1454	1444	1439	1429	1425	1436	1456	1468	1475	1478	1482	1483	1478	1482	1470	1476	1473	1472	1469	1469	1467	1472	1473	1475	1476	1482	1483	1478	1478	1485	1488	1490	1492	1487	1482	1484	1477	1484	1492	1505	1495	1493	1478	1461	1450	1440	1446	1461	1468	1462	1447	1435	1434	1451	1481	1469	1449	1438	1444	1453	1469	1479	1449	1441	1439	1450	1465	1477	1478	1473	1475	1485	1511	1522	1515	1492	1471	1468	1472	1469	1463	1459	1456	1442	1442	1418	1389	1326	1257	1156	1094	1061	1037	1027	1043	1062	1081	1087	1080	1044	1036	1027	1034	1038	1043	1033	1027	1019	1021	1035	1038	1022	983	942	914	911	947	972	989	995	993	985	964	961	975	980	963	939	918	908	912	925	957	972	0	0	0	0	0	0	0	0	0	0	0	0	0	0	0	0	0	1356	1429	1444	1460	1478	1510	1506	1497	1520	1514	1498	1481	1478	1479	1488	1494	1497	1494	1495	1494	1487	1490	1521	1519	1528	1509	1486	1482	1504	1482	1472	1480	1482	1493	1506	1510	1504	1497	1492	1488	1485	1482	1481	1482	1501	1498	1495	1528	1530	1536	1549	1501	1486	1442	1459	1463	1472	1487	1488	1485	1493	1500	1501	1507	1503	1495	1483	1478	1475	1479	1493	1493	1491	1484	1468	1473	1475	1475	1483	1487	1488	1491	1495	1492	1478	1458	1447	1458	1483	1501	1501	1498	1513	1514	1521	1513	1494	1481	1473	1474	1492	1507	1504	1495	1489	1493	1492	1479	1472	1472	1487	1488	1486	1478	1485	1489	1489	1479	1464	1469	1475	1478	1485	1496	1500	1498	1493	1480	1473	1475	1482	1499	1503	1504	1510	1510	1494	1479	1482	1489	1484	1482	1482	1480	1477	1473	1468	1512	0	0	0	0	0	0	0	0	0	0	0	0	0	942	910	893	871	860	852	860	894	894	895	897	894	892	883	879	884	885	886	886	893	903	897	889	881	878	878	875	873	862	851	853	856	862	863	870	888	904	904	890	867	857	867	889	908	919	916	890	883	888	891	903	917	932	960	991	1030	1064	1149	1283	1387	1429	1438	1457	1460	1474	1480	1480	1492	1495	1497	1496	1489	1484	1481	1475	1468	1476	1480	1473	1466	1458	1453	1448	1464	1483	1507	1519	1517	1522	1522	1504	1497	1452	1435	1433	1452	1463	1480	1485	1490	1474	1470	1477	1493	1507	1509	1501	1488	1444	1441	1448	1457	1472	1486	1484	1459	1445	1450	1452	1454	1454	1453	1457	1448	1445	1451	1452	1454	1428	1420	1426	1435	1455	1473	1479	1488	1502	1507	1493	1487	1489	1490	1484	1486	1494	1493	1487	1478	1469	1460	1454	1448	1456	1464	1472	1477	1485	1490	1493	1488	1475	1468	1467	1474	1473	1474	1480	1487	1495	1494	1488	1475	1470	1482	1493	1518	1518	1495	1481	1461	1455	1458	1471	1482	1486	1492	1496	1496	1490	1478	1454	1455	1449	1453	1455	1453	1441	1433	1437	1454	1456	1443	1443	1445	1450	1450	1456	1456	1455	1429	0	0	0	0	0	0	0	0
0	0	0	0	0	0	0	0	0	0	0	0	0	0	0	0	0	0	0	0	0	0	0	0	0	0	0	0	0	0	0	0	0	0	0	0	0	0	0	0	0	0	0	0	0	0	0	0	0	0	0	0	0	0	0	0	0	0	0	0	0	0	0	0	0	0	0	0	0	0	0	0	0	0	0	0	0	0	0	0	0	0	0	0	0	0	0	0	0	0	0	0	0	1375	1420	1445	1459	1475	1497	1512	1512	1494	1491	1484	1479	1480	1495	1507	1520	1496	1454	1433	1424	1415	1432	1441	1464	1480	1488	1489	1483	1471	1472	1475	1478	1480	1485	1480	1482	1483	1476	1482	1474	1476	1477	1492	1498	1501	1497	1490	1491	1497	1496	1488	1483	1479	1472	1465	1465	1484	1494	1500	1496	1481	1455	1443	1447	1462	1464	1453	1444	1440	1443	1474	1495	1448	1427	1427	1439	1457	1483	1494	1493	1473	1454	1447	1466	1478	1479	1474	1473	1476	1478	1494	1485	1483	1481	1482	1471	1462	1450	1438	1425	1392	1349	1265	1217	1161	1108	1080	1063	1050	1037	1043	1058	1081	1110	1116	1107	1067	1054	1044	1050	1055	1059	1049	1027	1016	1018	1024	1041	0	0	951	935	935	0	0	0	0	0	0	0	0	0	0	0	0	0	0	909	925	0	0	0	0	0	0	0	0	0	0	0	0	0	0	0	0	0	0	1389	1435	1440	1451	1484	1501	1514	1519	1514	1530	1519	1505	1485	1483	1484	1491	1494	1496	1497	1498	1502	1498	1499	1493	1524	1493	1501	1483	1480	1492	1476	1475	1481	1491	1496	1504	1509	1500	1496	1488	1486	1480	1475	1474	1481	1508	1530	1536	1533	1520	1524	1524	1508	1501	1452	1473	1475	1476	1473	1471	1481	1494	1499	1503	1505	1509	1495	1465	1444	1438	1451	1477	1483	1482	1480	1475	1477	1481	1481	1483	1486	1481	1481	1478	1479	1469	1456	1449	1459	1479	1487	1498	1506	1517	1521	1524	1497	1482	1472	1476	1484	1501	1513	1500	1485	1476	1481	1474	1467	1460	1471	1479	1475	1477	1483	1491	1494	1483	1464	1449	1445	1456	1469	1490	1514	1531	1529	1515	1491	1471	1467	1489	1510	1517	1499	1500	1499	1492	1482	1496	1502	1502	1499	1499	1493	1488	1488	1475	1478	1463	0	0	0	0	0	0	0	0	0	0	0	0	0	919	889	865	847	834	855	873	874	883	887	890	891	885	885	878	869	860	857	859	872	872	869	862	858	856	853	850	848	846	848	848	846	846	854	872	887	889	879	863	856	859	877	900	918	914	876	864	869	875	884	883	893	909	935	964	985	1007	1035	1195	1320	1406	1432	1454	1474	1489	1500	1504	1501	1504	1497	1490	1481	1470	1462	1467	1482	1476	1464	1460	1435	1434	1440	1458	1474	1498	1507	1506	1505	1502	1493	1485	1460	1441	1438	1439	1470	1486	1492	1484	1474	1472	1474	1485	1489	1500	1499	1481	1442	1443	1449	1457	1474	1485	1472	1461	1443	1445	1442	1449	1449	1457	1456	1455	1459	1456	1457	1453	1421	1420	1431	1450	1470	1482	1487	1497	1505	1511	1504	1492	1493	1493	1496	1488	1494	1489	1477	1463	1456	1463	1463	1462	1468	1472	1483	1492	1493	1496	1495	1485	1466	1450	1448	1465	1478	1479	1484	1492	1501	1491	1480	1470	1464	1467	1485	1506	1513	1509	1501	1479	1467	1469	1484	1489	1490	1495	1495	1503	1505	1490	1469	1461	1454	1456	1455	1448	1442	1444	1454	1463	1458	1448	1448	1449	1451	1454	1458	1460	1462	1438	0	0	0	0	0	0	0	0
0	0	0	0	0	0	0	0	0	0	0	0	0	0	0	0	0	0	0	0	0	0	0	0	0	0	0	0	0	0	0	0	0	0	0	0	0	0	0	0	0	0	0	0	0	0	0	0	0	0	0	0	0	0	0	0	0	0	0	0	0	0	0	0	0	0	0	0	0	0	0	0	0	0	0	0	0	0	0	0	0	0	0	0	0	0	0	0	0	0	0	0	0	1380	1431	1439	1447	1456	1477	1501	1505	1483	1483	1482	1478	1479	1482	1491	1504	1503	1455	1431	1413	1413	1423	1449	1470	1486	1494	1491	1481	1467	1460	1476	1480	1484	1481	1485	1486	1491	1488	1490	1489	1478	1479	1492	1506	1507	1501	1494	1502	1508	1504	1497	1488	1475	1460	1452	1450	1477	1492	1512	1509	1495	1466	1461	1461	1465	1464	1451	1443	1446	1457	1482	1509	1450	1429	1430	1445	1465	1485	1504	1497	1482	1461	1453	1459	1473	1480	1485	1470	1470	1472	1460	1461	1458	1481	1477	1466	1451	1432	1400	1358	1327	1170	1126	1114	1105	1094	1085	1075	1060	1053	1065	1085	1112	1129	1139	1144	1105	1095	1081	1084	1094	1101	1096	1076	1050	1040	1054	0	0	0	0	0	0	0	0	0	0	0	0	0	0	0	0	0	0	0	0	0	0	0	0	0	0	0	0	0	0	0	0	0	0	0	0	0	0	0	1415	1460	1465	1462	1477	1471	1465	1477	1491	1518	1521	1506	1504	1491	1488	1493	1495	1499	1494	1496	1497	1508	1508	1516	1516	1488	1506	1463	1472	1468	1490	1488	1480	1482	1480	1495	1503	1507	1496	1491	1482	1480	1475	1472	1473	1492	1510	1532	1536	1534	1505	1513	1510	1511	1525	1490	1483	1481	1473	1465	1471	1483	1510	1518	1519	1510	1500	1476	1456	1442	1439	1445	1471	1484	1488	1490	1491	1487	1484	1484	1488	1484	1476	1466	1469	1471	1465	1461	1464	1477	1487	1493	1495	1506	1519	1521	1513	1484	1480	1479	1482	1485	1499	1496	1475	1470	1478	1482	1481	1467	1456	1462	1469	1467	1469	1488	1500	1502	1492	1467	1446	1446	1445	1463	1487	1515	1542	1544	1532	1498	1473	1468	1491	1513	1521	1482	1487	1487	1481	1493	1501	1511	1515	1515	1509	1502	1495	1489	1487	1481	1477	1471	0	0	0	0	0	0	0	0	0	0	0	0	0	887	860	836	825	834	853	853	858	869	883	889	888	885	876	855	836	826	835	843	850	850	844	838	834	832	841	857	861	859	849	846	840	847	866	883	876	869	866	859	856	868	890	909	899	877	861	867	871	873	867	866	876	894	910	921	932	942	956	981	1331	1384	1434	1468	1491	1506	1509	1500	1491	1484	1481	1472	1454	1456	1463	1480	1458	1446	1426	1428	1432	1446	1463	1472	1482	1485	1484	1474	1472	1473	1457	1453	1448	1436	1455	1482	1497	1487	1480	1469	1470	1472	1470	1472	1481	1489	1484	1449	1447	1452	1467	1478	1486	1479	1467	1452	1447	1448	1455	1455	1450	1456	1463	1467	1473	1466	1451	1427	1426	1442	1469	1490	1501	1489	1493	1501	1508	1496	1493	1493	1497	1503	1497	1490	1480	1461	1452	1452	1458	1463	1466	1468	1481	1495	1512	1506	1501	1493	1479	1456	1442	1446	1458	1469	1470	1478	1489	1489	1476	1465	1468	1462	1459	1476	1492	1496	1496	1490	1472	1460	1469	1487	1485	1479	1477	1477	1497	1500	1494	1485	1463	1458	1459	1460	1450	1450	1452	1464	1472	1458	1438	1438	1447	1452	1459	1466	1464	1466	1447	0	0	0	0	0	0	0	0
0	0	0	0	0	0	0	0	0	0	0	0	0	0	0	0	0	0	0	0	0	0	0	0	0	0	0	0	0	0	0	0	0	0	0	0	0	0	0	0	0	0	0	0	0	0	0	0	0	0	0	0	0	0	0	0	0	0	0	0	0	0	0	0	0	0	0	0	0	0	0	0	0	0	0	0	0	0	0	0	0	0	0	0	0	0	0	0	0	0	0	0	0	1401	1441	1443	1444	1449	1463	1485	1486	1479	1480	1482	1480	1483	1488	1494	1494	1497	1473	1435	1421	1421	1431	1454	1473	1484	1491	1488	1474	1456	1449	1466	1475	1481	1485	1484	1484	1482	1479	1486	1492	1488	1481	1482	1493	1501	1501	1499	1511	1521	1518	1506	1490	1473	1460	1449	1448	1457	1492	1504	1504	1498	1485	1478	1473	1475	1468	1454	1452	1461	1475	1489	1505	1474	1441	1434	1451	1460	1477	1487	1497	1488	1472	1456	1458	1467	1479	1474	1475	1470	1460	1457	1441	1451	1466	1466	1452	1428	1381	1291	1205	1139	1081	0	0	1082	1089	1088	1078	1078	1085	1099	1119	1137	1152	1167	1180	1155	1146	1137	1136	1147	1153	1149	1138	0	0	0	0	0	0	0	0	0	0	0	0	0	0	0	0	0	0	0	0	0	0	0	0	0	0	0	0	0	0	0	0	0	0	0	0	0	0	0	0	1324	1414	1498	1503	1494	1484	1485	1467	1448	1447	1476	1520	1514	1500	1503	1504	1497	1499	1497	1496	1493	1496	1496	1508	1517	1517	1520	1522	1482	1456	1453	1453	1481	1492	1488	1480	1483	1492	1500	1502	1496	1486	1474	1471	1465	1466	1483	1504	1521	1534	1538	1514	1496	1489	1495	1507	1473	1488	1491	1485	1479	1472	1482	1498	1535	1539	1530	1510	1493	1480	1470	1464	1467	1471	1484	1491	1499	1496	1493	1491	1485	1493	1492	1481	1475	1458	1465	1469	1472	1470	1477	1489	1502	1498	1501	1506	1520	1523	1517	1487	1492	1486	1484	1484	1488	1479	1462	1473	1482	1494	1496	1476	1467	1461	1462	1458	1471	1489	1507	1518	1510	1482	1456	1444	1445	1462	1491	1514	1530	1539	1532	1509	1489	1488	1509	1517	1479	1472	1467	1468	1480	1492	1501	1514	1515	1520	1511	1497	1478	1481	1479	1476	1478	1493	1522	0	0	0	0	0	0	0	0	0	0	0	0	906	869	835	818	814	822	827	831	849	866	877	883	879	868	843	823	813	818	830	841	846	835	822	814	815	835	874	878	871	856	847	847	851	854	865	857	866	862	857	848	851	869	887	888	868	857	861	871	871	862	851	853	865	869	875	886	893	902	920	1004	1161	1288	1416	1469	1492	1495	1486	1478	1475	1473	1446	1445	1448	1476	1491	1485	1462	1438	1436	1451	1463	1470	1483	1484	1471	1462	1459	1451	1457	1443	1447	1442	1451	1467	1487	1496	1483	1465	1465	1460	1466	1467	1459	1467	1471	1472	1466	1468	1472	1478	1489	1489	1485	1471	1463	1455	1460	1467	1462	1454	1461	1467	1480	1484	1475	1466	1438	1436	1453	1479	1503	1503	1491	1480	1489	1491	1481	1479	1490	1503	1510	1504	1487	1471	1458	1449	1446	1453	1449	1457	1450	1464	1477	1503	1509	1497	1484	1469	1458	1447	1453	1459	1458	1463	1468	1485	1484	1475	1465	1461	1457	1463	1470	1489	1496	1496	1489	1481	1474	1479	1477	1471	1472	1469	1469	1485	1492	1492	1480	1465	1458	1462	1462	1457	1459	1462	1472	1473	1461	1437	1437	1441	1449	1454	1463	1474	1477	1478	0	0	0	0	0	0	0	0
0	0	0	0	0	0	0	0	0	0	0	0	0	0	0	0	0	0	0	0	0	0	0	0	0	0	0	0	0	0	0	0	0	0	0	0	0	0	0	0	0	0	0	0	0	0	0	0	0	0	0	0	0	0	0	0	0	0	0	0	0	0	0	0	0	0	0	0	0	0	0	0	0	0	0	0	0	0	0	0	0	0	0	0	0	0	0	0	0	0	0	0	0	1439	1457	1456	1452	1449	1459	1468	1463	1465	1473	1483	1476	1486	1493	1492	1486	1482	1470	1452	1441	1440	1453	1461	1469	1478	1479	1469	1451	1434	1443	1456	1470	1472	1478	1474	1473	1469	1462	1473	1490	1493	1472	1467	1479	1492	1494	1501	1512	1523	1521	1507	1491	1482	1476	1467	1467	1466	1486	1494	1494	1502	1498	1487	1478	1479	1480	1467	1463	1471	1483	1495	1509	1477	1455	1444	1444	1452	1463	1473	1478	1479	1469	1455	1455	1451	1463	1457	1458	1458	1463	1454	1438	1414	1371	1445	1428	1347	1208	1165	1150	0	0	0	0	0	1083	1085	1090	1097	1120	1144	1154	1167	1178	1190	1206	1197	1191	1192	1196	1198	1204	1191	0	0	0	0	0	0	0	0	0	0	0	0	0	0	0	0	0	0	0	0	0	0	0	0	0	0	0	0	0	0	0	0	0	0	0	0	0	0	0	0	1318	1395	1496	1515	1524	1509	1505	1494	1486	1447	1439	1434	1482	1508	1504	1497	1500	1510	1498	1487	1470	1467	1472	1477	1481	1502	1512	1519	1514	1495	1465	1463	1467	1470	1498	1499	1495	1493	1511	1492	1472	1465	1452	1448	1452	1461	1478	1491	1512	1528	1537	1523	1498	1483	1482	1481	1478	1489	1490	1490	1489	1484	1485	1491	1504	1540	1539	1535	1511	1490	1484	1481	1489	1489	1488	1487	1485	1495	1491	1487	1489	1498	1502	1502	1484	1468	1449	1456	1462	1472	1481	1482	1497	1505	1505	1496	1497	1508	1516	1506	1496	1492	1490	1482	1475	1480	1476	1470	1486	1496	1503	1501	1489	1476	1471	1460	1468	1486	1500	1513	1517	1508	1492	1466	1449	1451	1472	1486	1498	1517	1530	1530	1514	1507	1507	1511	1513	1467	1467	1467	1478	1485	1497	1497	1504	1514	1517	1499	1486	1480	1480	1479	1477	1474	1497	1509	1524	0	0	0	0	0	0	0	0	0	0	0	0	0	844	820	798	800	802	810	831	846	860	867	864	852	830	819	819	828	839	846	845	828	813	801	808	854	877	881	870	851	843	849	852	851	847	842	849	847	840	828	831	852	866	861	850	843	846	858	866	859	837	843	849	859	865	868	868	873	879	912	954	1012	1092	1191	1271	1415	1183	1264	1405	1408	1413	1426	1443	1477	1501	1495	1476	1455	1461	1467	1470	1468	1475	1472	1463	1444	1435	1447	1447	1444	1448	1448	1463	1488	1499	1491	1471	1454	1448	1456	1465	1467	1466	1456	1449	1464	1485	1479	1482	1490	1492	1486	1478	1475	1466	1468	1468	1475	1466	1458	1457	1477	1489	1497	1487	1473	1449	1450	1459	1482	1495	1503	1494	1489	1490	1486	1476	1476	1487	1505	1516	1512	1500	1484	1466	1459	1452	1450	1448	1451	1451	1460	1462	1471	1484	1474	1465	1454	1454	1460	1466	1480	1476	1478	1476	1492	1494	1482	1465	1451	1447	1454	1467	1486	1498	1505	1497	1495	1487	1481	1472	1466	1459	1462	1467	1478	1490	1483	1473	1465	1458	1458	1462	1463	1468	1477	1486	1483	1480	1456	1456	1445	1454	1454	1460	1469	1479	1475	0	0	0	0	0	0	0	0
0	0	0	0	0	0	0	0	0	0	0	0	0	0	0	0	0	0	0	0	0	0	0	0	0	0	0	0	0	0	0	0	0	0	0	0	0	0	0	0	0	0	0	0	0	0	0	0	0	0	0	0	0	0	0	0	0	0	0	0	0	0	0	0	0	0	0	0	0	0	0	0	0	0	0	0	0	0	0	0	0	0	0	0	0	0	0	0	0	0	0	0	0	0	1475	1475	1468	1460	1458	1450	1450	1453	1468	1480	1467	1473	1480	1481	1478	1466	1458	1451	1463	1464	1471	1465	1461	1464	1469	1464	1444	1439	1437	1457	1461	1463	1463	1466	1471	1472	1466	1466	1480	1474	1457	1453	1461	1475	1486	1494	1500	1513	1508	1499	1489	1489	1492	1490	1482	1475	1491	1494	1505	1508	1509	1499	1490	1475	1478	1478	1483	1496	1501	1501	1507	1475	1456	1446	1450	1453	1454	1463	1472	1469	1457	1453	1449	1449	1448	1447	1440	1446	1436	1399	1293	1252	1209	0	0	0	0	0	0	0	0	0	0	0	0	1105	1115	1140	0	0	0	0	0	1202	1220	1226	1223	1224	1227	1231	0	0	0	0	0	0	0	0	0	0	0	0	0	0	0	0	0	0	0	0	0	0	0	0	0	0	0	0	0	0	0	0	0	0	0	0	0	0	0	0	0	1336	1408	1475	1492	1508	1523	1519	1504	1495	1483	1463	1430	1426	1445	1480	1484	1488	1486	1493	1521	1522	1497	1478	1486	1497	1477	1470	1501	1510	1507	1496	1486	1486	1479	1468	1490	1506	1503	1492	1499	1522	1509	1500	1489	1481	1483	1483	1471	1489	1508	1522	1528	1504	1466	1470	1478	1506	1498	1490	1488	1487	1486	1481	1484	1491	1499	1536	1531	1514	1492	1489	1490	1501	1507	1507	1500	1481	1483	1482	1485	1485	1498	1511	1518	1511	1472	1435	1432	1438	1452	1459	1480	1492	1502	1506	1499	1496	1497	1503	1508	1507	1495	1496	1488	1476	1469	1474	1479	1490	1500	1502	1508	1505	1490	1469	1453	1454	1482	1502	1514	1515	1501	1490	1489	1484	1472	1481	1489	1493	1499	1500	1514	1514	1520	1518	1513	1506	1495	1465	1469	1470	1481	1487	1486	1488	1498	1493	1502	1499	1496	1489	1493	1486	1482	1482	1496	1509	1514	0	0	0	0	0	0	0	0	0	0	0	0	0	0	812	795	791	792	802	817	834	842	839	839	827	820	815	823	827	835	837	839	825	806	799	803	837	851	860	849	831	826	836	847	846	838	829	825	821	813	808	821	843	850	841	821	815	812	830	843	843	836	834	839	844	853	858	857	854	854	862	884	924	989	916	957	986	1027	1072	1150	1314	1356	1374	1419	1452	1484	1476	1475	1468	1474	1473	1465	1458	1455	1458	1455	1442	1435	1445	1452	1456	1455	1471	1482	1492	1496	1479	1460	1437	1444	1455	1471	1478	1477	1457	1450	1462	1477	1473	1468	1475	1489	1486	1494	1484	1485	1480	1477	1477	1452	1460	1463	1480	1494	1494	1487	1477	1463	1456	1453	1462	1486	1492	1493	1500	1513	1493	1474	1469	1483	1505	1514	1518	1507	1500	1492	1485	1471	1468	1466	1471	1472	1468	1460	1452	1450	1462	1458	1455	1458	1466	1479	1500	1498	1492	1491	1492	1487	1473	1459	1448	1452	1455	1465	1488	1506	1514	1506	1499	1482	1472	1464	1456	1451	1451	1449	1458	1469	1471	1468	1465	1460	1458	1457	1463	1473	1477	1478	1487	1491	1491	1491	1481	1468	1464	1456	1461	1461	1441	0	0	0	0	0	0	0	0
0	0	0	0	0	0	0	0	0	0	0	0	0	0	0	0	0	0	0	0	0	0	0	0	0	0	0	0	0	0	0	0	0	0	0	0	0	0	0	0	0	0	0	0	0	0	0	0	0	0	0	0	0	0	0	0	0	0	0	0	0	0	0	0	0	0	0	0	0	0	0	0	0	0	0	0	0	0	0	0	0	0	0	0	0	0	0	0	0	0	0	0	0	0	1488	1483	1482	1473	1468	1462	1456	1458	1464	1467	1450	1453	1460	1466	1460	1453	1449	1456	1479	1490	1485	1465	1440	1442	1458	1466	1459	1460	1463	1464	1460	1453	1456	1466	1477	1486	1482	1478	1474	1465	1446	1443	1446	1459	1476	1484	1499	1504	1500	1504	1490	1490	1493	1482	1476	1480	1503	1515	1527	1526	1519	1508	1500	1491	1481	1484	1489	1499	1498	1499	1507	1471	1464	1457	1457	1463	1463	1460	1463	1461	1445	1439	1444	1441	1442	1436	1384	1293	1178	0	0	0	0	0	0	0	0	0	0	0	0	0	0	0	0	0	0	0	0	0	0	0	0	1203	1218	1229	1220	1224	1227	0	0	0	0	0	0	0	0	0	0	0	0	0	0	0	0	0	0	0	0	0	0	0	0	0	0	0	0	0	0	0	0	0	0	0	0	0	0	0	0	0	0	1434	1468	1476	1483	1498	1500	1489	1484	1484	1469	1464	1434	1425	1419	1461	1471	1481	1479	1476	1481	1482	1480	1485	1485	1498	1478	1473	1496	1501	1506	1493	1498	1500	1499	1474	1488	1501	1495	1489	1500	1510	1502	1501	1490	1485	1489	1486	1481	1490	1501	1511	1512	1464	1456	1462	1496	1503	1502	1489	1482	1477	1476	1475	1485	1497	1509	1523	1513	1492	1476	1483	1487	1502	1512	1510	1491	1476	1467	1455	1455	1469	1483	1507	1502	1479	1461	1456	1465	1476	1472	1480	1485	1495	1492	1502	1505	1506	1501	1492	1488	1486	1483	1472	1466	1469	1468	1476	1500	1511	1511	1506	1500	1486	1475	1462	1461	1461	1463	1479	1496	1489	1484	1482	1483	1490	1500	1507	1510	1507	1509	1500	1507	1505	1514	1519	1517	1499	1474	1472	1480	1484	1490	1491	1483	1480	1476	1484	1500	1507	1501	1498	1490	1483	1483	1491	1510	1515	1522	1509	0	0	0	0	0	0	0	0	0	0	0	0	0	0	826	795	791	797	810	818	817	815	810	807	809	810	811	814	814	816	821	810	803	797	803	816	825	830	819	808	807	818	829	834	824	811	801	795	791	791	808	832	842	823	801	791	787	800	815	819	822	826	826	831	839	841	841	842	837	827	798	797	805	831	858	890	922	945	966	1028	1252	1307	1329	1367	1422	1443	1462	1476	1481	1474	1464	1457	1455	1456	1463	1458	1453	1455	1465	1466	1482	1492	1496	1491	1479	1467	1446	1438	1450	1478	1490	1490	1487	1475	1464	1467	1457	1452	1450	1462	1479	1498	1502	1497	1495	1484	1479	1465	1442	1452	1469	1479	1485	1481	1466	1457	1471	1456	1439	1453	1459	1478	1496	1508	1518	1496	1475	1469	1480	1501	1507	1504	1501	1495	1500	1490	1487	1490	1490	1491	1480	1469	1455	1443	1443	1451	1458	1453	1455	1463	1489	1506	1508	1498	1487	1476	1467	1456	1456	1454	1457	1465	1471	1494	1507	1514	1501	1478	1460	1458	1458	1449	1444	1444	1446	1460	1470	1481	1486	1470	1460	1457	1456	1464	1471	1471	1467	1475	1492	1492	1509	1507	1490	1471	1457	1457	1450	1417	0	0	0	0	0	0	0	0
0	0	0	0	0	0	0	0	0	0	0	0	0	0	0	0	0	0	0	0	0	0	0	0	0	0	0	0	0	0	0	0	0	0	0	0	0	0	0	0	0	0	0	0	0	0	0	0	0	0	0	0	0	0	0	0	0	0	0	0	0	0	0	0	0	0	0	0	0	0	0	0	0	0	0	0	0	0	0	0	0	0	0	0	0	0	0	0	0	0	0	0	0	0	1499	1491	1484	1484	1480	1478	1473	1464	1460	1466	1451	1451	1451	1452	1448	1447	1446	1451	1470	1492	1488	1466	1434	1441	1450	1466	1472	1472	1473	1470	1462	1455	1454	1471	1487	1494	1499	1491	1469	1459	1451	1446	1447	1454	1466	1479	1487	1493	1499	1499	1503	1499	1490	1487	1474	1482	1517	1535	1539	1541	1524	1518	1504	1490	1480	1473	1476	1485	1492	1496	1493	1477	1480	1482	1479	1478	1479	1475	1465	1449	1429	1425	1419	1426	1395	1305	1135	0	0	0	0	0	0	0	0	0	0	0	0	0	0	0	0	0	0	0	0	0	0	0	0	0	0	1206	1209	1216	1208	1203	1199	0	0	0	0	0	0	0	0	0	0	0	0	0	0	0	0	0	0	0	0	0	0	0	0	0	0	0	0	0	0	0	0	0	0	0	0	0	0	0	0	0	0	1458	1468	1476	1483	1484	1486	1466	1459	1469	1474	1468	1446	1434	1406	1459	1479	1487	1499	1506	1511	1498	1498	1499	1500	1484	1482	1481	1487	1495	1501	1491	1493	1506	1506	1490	1485	1489	1484	1487	1480	1484	1498	1503	1499	1493	1495	1499	1495	1491	1497	1520	1492	1472	1446	1472	1483	1500	1502	1507	1479	1465	1468	1470	1491	1504	1514	1520	1497	1474	1464	1483	1486	1493	1489	1485	1481	1465	1458	1459	1476	1489	1495	1485	1466	1461	1467	1486	1488	1474	1478	1467	1501	1492	1487	1504	1508	1507	1502	1503	1500	1488	1483	1480	1463	1455	1459	1484	1501	1508	1506	1486	1479	1469	1469	1474	1477	1473	1462	1457	1469	1480	1482	1486	1491	1508	1521	1528	1532	1525	1519	1521	1505	1509	1514	1519	1511	1496	1482	1482	1485	1490	1493	1501	1492	1478	1478	1491	1508	1517	1503	1497	1487	1483	1483	1492	1507	1511	1508	1512	0	0	0	0	0	0	0	0	0	0	0	0	0	0	0	0	819	804	804	800	797	793	798	798	796	800	801	807	803	798	799	791	789	786	796	806	806	811	805	794	788	800	812	816	812	804	789	785	779	781	795	816	827	814	796	782	779	790	801	809	815	815	820	826	830	830	826	810	792	786	781	775	775	802	822	841	855	864	875	907	954	1037	1129	1237	1330	1365	1413	1445	1469	1472	1468	1463	1460	1461	1464	1469	1457	1461	1470	1482	1495	1496	1497	1485	1471	1455	1446	1445	1459	1484	1499	1506	1506	1487	1488	1480	1449	1439	1442	1458	1477	1501	1503	1503	1500	1493	1472	1446	1448	1457	1467	1471	1474	1461	1454	1451	1464	1448	1443	1440	1439	1463	1478	1504	1505	1497	1476	1469	1478	1496	1497	1484	1477	1478	1484	1483	1492	1497	1503	1503	1491	1470	1457	1445	1444	1461	1464	1455	1455	1470	1493	1507	1501	1483	1477	1471	1457	1448	1452	1461	1466	1479	1484	1489	1500	1500	1483	1464	1447	1452	1450	1449	1454	1454	1458	1470	1479	1486	1490	1484	1474	1458	1454	1464	1468	1464	1461	1467	1484	1484	1502	1511	1506	1486	1459	1454	1448	1416	1430	0	0	0	0	0	0	0
0	0	0	0	0	0	0	0	0	0	0	0	0	0	0	0	0	0	0	0	0	0	0	0	0	0	0	0	0	0	0	0	0	0	0	0	0	0	0	0	0	0	0	0	0	0	0	0	0	0	0	0	0	0	0	0	0	0	0	0	0	0	0	0	0	0	0	0	0	0	0	0	0	0	0	0	0	0	0	0	0	0	0	0	0	0	0	0	0	0	0	0	0	0	1501	1486	1485	1483	1494	1495	1479	1459	1461	1465	1462	1456	1456	1453	1450	1446	1445	1449	1467	1486	1484	1462	1436	1435	1443	1464	1473	1482	1477	1475	1462	1462	1468	1477	1484	1496	1502	1509	1475	1465	1469	1465	1460	1458	1465	1469	1475	1481	1486	1496	1500	1494	1487	1486	1485	1487	1519	1536	1545	1546	1526	1514	1503	1483	1469	1459	1457	1470	1476	1483	1476	1472	1475	1480	1482	1484	1489	1483	1463	1429	1404	1364	1217	1220	1139	0	0	0	0	0	0	0	0	0	0	0	0	0	0	0	0	0	0	0	0	0	0	0	0	0	0	0	0	1208	1212	1207	1181	1175	0	0	0	0	0	0	0	0	0	0	0	0	0	0	0	0	0	0	0	0	0	0	0	0	0	0	0	0	0	0	0	0	0	0	0	0	0	0	0	0	0	0	1452	1469	1471	1486	1494	1498	1482	1463	1453	1462	1474	1469	1460	1442	1470	1472	1469	1477	1500	1511	1511	1500	1497	1497	1498	1492	1486	1486	1487	1490	1490	1489	1486	1495	1503	1497	1489	1474	1476	1482	1491	1491	1476	1472	1471	1465	1465	1476	1484	1494	1504	1517	1510	1501	1483	1447	1488	1510	1530	1535	1495	1472	1469	1473	1485	1507	1513	1507	1481	1466	1470	1478	1478	1466	1463	1458	1452	1455	1461	1464	1474	1486	1475	1453	1457	1467	1483	1501	1502	1489	1477	1473	1497	1507	1505	1518	1516	1510	1502	1500	1495	1485	1490	1483	1473	1460	1462	1485	1498	1503	1493	1480	1469	1463	1468	1473	1483	1476	1465	1453	1459	1472	1484	1489	1492	1504	1513	1536	1536	1533	1525	1511	1501	1507	1508	1510	1498	1479	1482	1485	1486	1488	1488	1491	1488	1480	1484	1496	1512	1515	1505	1488	1484	1482	1482	1485	1494	1493	1486	1484	1511	0	0	0	0	0	0	0	0	0	0	0	0	0	0	0	0	0	806	790	779	778	781	785	785	789	792	801	801	797	783	770	768	778	798	801	803	803	800	787	784	792	801	808	804	795	789	785	780	779	784	802	813	800	788	780	780	787	793	803	802	810	820	829	822	818	807	801	784	775	775	772	776	788	805	819	828	821	817	828	851	877	912	1160	1209	1251	1296	1356	1403	1429	1443	1450	1455	1463	1467	1468	1460	1458	1459	1479	1486	1492	1490	1482	1470	1458	1446	1440	1449	1473	1488	1505	1504	1502	1491	1471	1446	1434	1434	1452	1471	1494	1497	1493	1490	1492	1465	1442	1445	1454	1459	1459	1454	1456	1458	1463	1453	1452	1439	1433	1440	1458	1474	1493	1500	1492	1481	1472	1470	1482	1480	1462	1453	1448	1462	1470	1486	1499	1502	1501	1489	1477	1462	1455	1464	1466	1467	1460	1458	1477	1494	1498	1487	1477	1469	1463	1456	1449	1449	1463	1473	1479	1486	1485	1483	1473	1466	1458	1450	1451	1457	1463	1463	1467	1472	1480	1482	1486	1493	1489	1479	1477	1465	1471	1470	1463	1454	1456	1470	1470	1485	1500	1497	1482	1462	1460	1459	1464	1440	0	0	0	0	0	0	0
0	0	0	0	0	0	0	0	0	0	0	0	0	0	0	0	0	0	0	0	0	0	0	0	0	0	0	0	0	0	0	0	0	0	0	0	0	0	0	0	0	0	0	0	0	0	0	0	0	0	0	0	0	0	0	0	0	0	0	0	0	0	0	0	0	0	0	0	0	0	0	0	0	0	0	0	0	0	0	0	0	0	0	0	0	0	0	0	0	0	0	0	0	0	1499	1485	1475	1478	1490	1489	1475	1458	1460	1479	1472	1468	1467	1463	1462	1454	1459	1457	1463	1463	1463	1450	1440	1433	1437	1450	1469	1481	1478	1469	1463	1471	1471	1475	1475	1491	1496	1515	1486	1469	1476	1487	1479	1466	1462	1462	1465	1455	1471	1488	1499	1496	1489	1490	1492	1495	1514	1522	1537	1546	1532	1509	1489	1461	1444	1446	1454	1470	1469	1468	1463	1462	1461	1461	1473	1481	1478	1463	1433	1379	1336	1123	0	0	0	0	0	0	0	0	0	0	0	0	0	0	0	0	0	0	0	0	0	0	0	0	0	0	0	0	0	0	1204	1201	1207	1203	1154	0	0	0	0	0	0	0	0	0	0	0	0	0	0	0	0	0	0	0	0	0	0	0	0	0	0	0	0	0	0	0	885	897	919	0	0	0	0	0	0	0	1302	1413	1446	1474	1479	1490	1504	1503	1506	1474	1463	1473	1473	1481	1474	1493	1480	1459	1453	1461	1490	1497	1509	1512	1499	1500	1499	1497	1488	1483	1486	1488	1489	1488	1472	1481	1490	1502	1500	1471	1471	1475	1479	1474	1472	1472	1474	1464	1461	1467	1480	1487	1507	1516	1511	1519	1441	1481	1496	1509	1523	1521	1513	1479	1472	1479	1490	1503	1506	1489	1474	1467	1477	1479	1473	1470	1455	1449	1447	1455	1463	1466	1472	1470	1463	1455	1458	1445	1484	1501	1500	1472	1471	1503	1519	1507	1513	1513	1505	1501	1492	1492	1491	1489	1488	1487	1482	1477	1496	1493	1494	1496	1491	1481	1478	1472	1473	1477	1480	1477	1475	1472	1474	1483	1484	1482	1483	1496	1507	1531	1534	1530	1521	1506	1505	1510	1504	1498	1489	1464	1466	1460	1475	1482	1489	1489	1480	1480	1489	1503	1516	1513	1502	1490	1485	1480	1482	1483	1484	1481	1476	1484	1515	1545	0	0	0	0	0	0	0	0	0	0	0	0	0	0	0	0	0	797	779	764	766	770	769	770	785	793	799	786	774	765	769	776	793	792	791	796	794	785	788	791	803	807	803	794	797	791	785	780	778	787	794	783	768	768	776	789	792	792	786	774	789	807	811	807	800	797	782	775	775	770	772	780	794	807	814	807	797	795	806	824	835	858	1027	1062	1114	1199	1271	1308	1337	1370	1406	1434	1448	1450	1453	1453	1457	1464	1469	1481	1488	1487	1483	1455	1437	1433	1438	1449	1470	1496	1502	1498	1490	1474	1457	1436	1437	1450	1471	1481	1479	1475	1483	1491	1483	1460	1461	1458	1448	1442	1436	1453	1471	1483	1473	1460	1450	1449	1449	1462	1471	1485	1493	1487	1481	1470	1467	1474	1460	1445	1430	1434	1445	1460	1476	1494	1507	1508	1495	1482	1474	1481	1476	1470	1468	1464	1467	1479	1489	1488	1484	1476	1467	1463	1459	1446	1439	1464	1482	1488	1487	1475	1469	1457	1457	1460	1463	1470	1477	1479	1479	1487	1489	1483	1478	1483	1483	1485	1476	1473	1473	1470	1467	1457	1447	1448	1460	1460	1478	1479	1476	1464	1454	1457	1469	1481	1482	0	0	0	0	0	0	0
0	0	0	0	0	0	0	0	0	0	0	0	0	0	0	0	0	0	0	0	0	0	0	0	0	0	0	0	0	0	0	0	0	0	0	0	0	0	0	0	0	0	0	0	0	0	0	0	0	0	0	0	0	0	0	0	0	0	0	0	0	0	0	0	0	0	0	0	0	0	0	0	0	0	0	0	0	0	0	0	0	0	0	0	0	0	0	0	0	0	0	0	0	0	1489	1479	1471	1471	1477	1484	1470	1448	1456	1477	1472	1468	1467	1469	1471	1468	1468	1470	1449	1442	1449	1444	1448	1434	1435	1452	1471	1488	1486	1474	1470	1474	1475	1470	1470	1473	1486	1503	1478	1467	1491	1498	1484	1467	1460	1453	1455	1449	1459	1485	1490	1492	1491	1495	1498	1497	1499	1495	1503	1510	1519	1501	1477	1458	1441	1447	1462	1476	1467	1454	1453	1449	1442	1444	1454	1442	1440	1374	1187	1077	984	0	0	0	0	0	0	0	0	0	0	0	0	0	0	0	0	0	0	0	0	0	0	0	0	0	0	0	0	1120	1148	1190	1184	1183	1187	1184	1164	0	0	0	0	0	0	0	0	0	0	0	0	0	0	0	0	0	0	0	0	0	0	0	0	0	0	0	0	0	0	0	888	891	910	0	0	0	0	0	1184	1305	1451	1484	1485	1495	1477	1465	1473	1477	1495	1505	1539	1537	1523	1497	1500	1492	1479	1457	1440	1447	1469	1496	1510	1508	1500	1502	1502	1497	1491	1483	1484	1488	1494	1493	1485	1470	1483	1511	1509	1491	1471	1468	1470	1474	1478	1474	1477	1471	1473	1471	1481	1492	1502	1517	1520	1525	1518	1507	1509	1512	1518	1514	1498	1476	1470	1481	1496	1497	1492	1479	1462	1459	1470	1472	1471	1468	1481	1503	1517	1511	1496	1479	1456	1453	1452	1447	1459	1489	1501	1494	1489	1498	1505	1503	1502	1499	1502	1503	1497	1491	1493	1491	1497	1494	1489	1488	1483	1478	1482	1475	1480	1489	1492	1488	1484	1481	1475	1473	1480	1487	1486	1489	1484	1482	1481	1475	1473	1487	1502	1503	1509	1512	1516	1517	1509	1520	1512	1510	1481	1465	1462	1460	1464	1478	1487	1490	1481	1482	1494	1516	1517	1517	1506	1500	1492	1487	1485	1479	1484	1480	1479	1489	1527	1563	1504	0	0	0	0	0	0	0	0	0	0	0	0	0	0	0	0	855	797	770	758	753	752	751	760	776	786	778	769	766	767	772	776	779	776	776	781	788	793	800	806	805	798	790	791	794	790	781	777	779	777	765	753	754	765	780	761	750	747	758	773	792	789	785	788	787	779	774	771	768	767	771	780	794	802	800	796	787	790	794	796	784	797	857	940	1024	1085	1150	1219	1288	1335	1377	1404	1421	1434	1454	1464	1461	1461	1467	1481	1492	1487	1468	1441	1429	1426	1432	1457	1477	1486	1486	1472	1472	1467	1458	1444	1453	1466	1467	1463	1461	1475	1502	1504	1499	1491	1481	1466	1454	1444	1461	1479	1498	1494	1483	1476	1474	1464	1465	1465	1472	1489	1492	1486	1473	1469	1470	1451	1437	1432	1434	1437	1456	1468	1482	1502	1504	1495	1486	1491	1490	1484	1468	1460	1457	1463	1469	1473	1479	1481	1476	1475	1470	1461	1443	1430	1456	1494	1493	1487	1467	1462	1457	1457	1468	1474	1477	1481	1483	1483	1491	1493	1483	1480	1480	1486	1490	1487	1480	1475	1475	1469	1463	1448	1444	1444	1452	1459	1466	1464	1448	1443	1455	1473	1486	1482	0	0	0	0	0	0	0
0	0	0	0	0	0	0	0	0	0	0	0	0	0	0	0	0	0	0	0	0	0	0	0	0	0	0	0	0	0	0	0	0	0	0	0	0	0	0	0	0	0	0	0	0	0	0	0	0	0	0	0	0	0	0	0	0	0	0	0	0	0	0	0	0	0	0	0	0	0	0	0	0	0	0	0	0	0	0	0	0	0	0	0	0	0	0	0	0	0	0	0	0	0	1484	1478	1465	1464	1473	1479	1461	1442	1453	1467	1463	1462	1466	1468	1470	1472	1474	1461	1450	1434	1443	1449	1450	1452	1451	1463	1488	1502	1501	1494	1483	1490	1481	1464	1463	1466	1476	1486	1467	1470	1487	1501	1487	1475	1465	1455	1455	1452	1461	1469	1480	1484	1491	1495	1503	1505	1491	1476	1473	1479	1484	1478	1467	1461	1457	1459	1464	1462	1451	1445	1443	1443	1410	1397	1351	1301	1214	0	0	0	0	0	0	0	0	0	0	0	0	0	0	0	0	0	0	0	0	0	0	0	0	0	0	0	0	0	0	0	1051	1069	1097	1112	1120	1152	1149	1145	1128	0	0	0	0	0	0	0	0	0	0	0	0	0	0	0	0	0	0	0	0	0	0	0	0	0	0	0	0	0	0	0	889	891	920	0	0	0	0	0	1216	1431	1469	1496	1508	1510	1492	1471	1473	1475	1477	1485	1488	1478	1489	1492	1493	1488	1482	1460	1447	1439	1448	1482	1503	1508	1500	1499	1502	1510	1502	1493	1487	1493	1497	1506	1501	1499	1504	1511	1513	1500	1485	1476	1474	1475	1478	1477	1478	1481	1478	1475	1480	1492	1506	1517	1530	1534	1539	1539	1529	1514	1502	1497	1490	1484	1475	1478	1502	1497	1484	1467	1452	1451	1456	1461	1457	1464	1480	1516	1518	1514	1499	1478	1470	1471	1469	1457	1474	1495	1503	1504	1501	1498	1498	1499	1495	1502	1500	1499	1487	1480	1490	1501	1505	1496	1484	1481	1468	1462	1461	1462	1471	1482	1493	1496	1490	1475	1468	1470	1477	1489	1494	1492	1487	1483	1476	1473	1467	1480	1492	1494	1494	1503	1516	1517	1520	1521	1518	1512	1491	1475	1468	1463	1470	1478	1490	1495	1482	1484	1504	1514	1528	1517	1508	1501	1490	1491	1488	1487	1489	1496	1497	1497	1522	1565	1549	1457	0	0	0	0	0	0	0	0	0	0	0	0	0	0	0	0	0	802	760	746	736	736	740	749	761	761	761	754	755	760	767	761	760	762	770	779	790	794	797	787	779	774	779	791	793	780	775	773	770	760	751	746	742	735	730	729	731	745	764	774	776	775	776	780	767	764	763	762	765	767	764	771	781	788	789	783	775	772	771	741	738	759	795	847	892	944	1009	1109	1204	1264	1327	1365	1411	1444	1465	1457	1455	1459	1465	1487	1491	1484	1460	1451	1430	1425	1442	1459	1464	1461	1457	1457	1460	1455	1455	1463	1469	1464	1466	1462	1479	1504	1513	1509	1510	1502	1491	1474	1460	1468	1488	1507	1516	1508	1500	1494	1473	1459	1460	1472	1493	1500	1495	1477	1476	1475	1468	1462	1447	1443	1456	1462	1467	1477	1490	1495	1486	1487	1493	1496	1488	1480	1469	1467	1457	1455	1456	1472	1482	1482	1478	1474	1457	1431	1429	1443	1473	1487	1480	1473	1468	1463	1463	1472	1474	1474	1472	1476	1476	1481	1485	1482	1479	1476	1494	1496	1499	1486	1482	1479	1489	1490	1467	1448	1448	1443	1449	1462	1456	1444	1435	1448	1468	1477	1470	1470	0	0	0	0	0	0
0	0	0	0	0	0	0	0	0	0	0	0	0	0	0	0	0	0	0	0	0	0	0	0	0	0	0	0	0	0	0	0	0	0	0	0	0	0	0	0	0	0	0	0	0	0	0	0	0	0	0	0	0	0	0	0	0	0	0	0	0	0	0	0	0	0	0	0	0	0	0	0	0	0	0	0	0	0	0	0	0	0	0	0	0	0	0	0	0	0	0	0	0	0	1494	1475	1468	1472	1483	1482	1449	1445	1458	1471	1464	1461	1456	1459	1456	1457	1468	1460	1436	1435	1443	1460	1458	1464	1472	1479	1497	1505	1509	1505	1499	1496	1486	1472	1463	1463	1470	1472	1460	1469	1481	1490	1488	1481	1471	1467	1460	1464	1468	1475	1472	1479	1479	1497	1503	1507	1486	1473	1468	1469	1469	1469	1477	1476	1464	1454	1450	1436	1434	1434	1431	1406	1283	1200	0	0	0	0	0	0	0	0	0	0	0	0	0	0	0	0	0	0	0	0	0	0	0	0	0	0	0	0	0	0	0	0	0	0	1011	1014	1036	1063	1084	1092	1093	1084	1087	0	0	0	0	0	0	0	0	0	0	0	0	0	0	0	0	0	0	0	0	0	0	0	0	0	0	0	0	0	0	0	877	889	0	0	0	0	0	1250	1360	1448	1465	1489	1508	1520	1526	1516	1497	1478	1474	1477	1483	1482	1487	1496	1497	1486	1471	1466	1465	1450	1461	1478	1486	1493	1486	1485	1486	1494	1495	1487	1477	1476	1476	1481	1478	1483	1490	1504	1507	1505	1499	1489	1480	1482	1481	1483	1483	1490	1480	1470	1472	1483	1498	1519	1531	1541	1542	1538	1525	1509	1499	1496	1484	1476	1479	1489	1497	1496	1481	1462	1450	1445	1447	1445	1444	1449	1466	1499	1512	1508	1490	1474	1471	1477	1475	1473	1476	1493	1502	1507	1494	1484	1487	1492	1499	1505	1504	1489	1478	1472	1486	1499	1509	1499	1495	1474	1453	1446	1442	1445	1461	1473	1481	1486	1473	1466	1458	1455	1463	1487	1498	1498	1495	1488	1480	1467	1463	1476	1495	1496	1498	1506	1514	1518	1514	1506	1517	1509	1494	1492	1484	1480	1478	1482	1494	1492	1486	1484	1491	1521	1531	1520	1499	1488	1486	1484	1487	1488	1495	1499	1493	1490	1505	1518	1542	1481	0	0	0	0	0	0	0	0	0	0	0	0	0	0	0	0	0	0	824	794	761	728	727	719	725	741	745	739	741	752	755	754	748	752	755	758	761	768	772	766	761	759	767	775	779	770	765	761	758	734	732	727	722	710	705	709	718	729	740	753	755	756	763	764	757	747	750	757	764	759	754	760	766	771	771	763	749	750	746	722	708	715	728	747	785	801	831	909	971	1085	1178	1243	1332	1392	1437	1445	1448	1447	1451	1472	1487	1493	1493	1470	1440	1432	1436	1440	1439	1439	1430	1443	1458	1457	1456	1467	1467	1474	1463	1476	1494	1504	1502	1494	1510	1510	1498	1480	1465	1482	1501	1519	1525	1524	1513	1498	1479	1458	1451	1473	1493	1506	1505	1490	1479	1484	1480	1474	1458	1454	1464	1487	1478	1470	1476	1470	1469	1480	1493	1499	1499	1501	1490	1476	1463	1449	1455	1467	1481	1490	1486	1470	1452	1437	1434	1448	1463	1469	1471	1472	1472	1474	1472	1470	1464	1453	1451	1451	1453	1457	1467	1476	1485	1488	1500	1508	1503	1499	1491	1492	1500	1504	1492	1467	1452	1441	1448	1454	1458	1446	1435	1438	1443	1451	1450	1450	0	0	0	0	0	0
0	0	0	0	0	0	0	0	0	0	0	0	0	0	0	0	0	0	0	0	0	0	0	0	0	0	0	0	0	0	0	0	0	0	0	0	0	0	0	0	0	0	0	0	0	0	0	0	0	0	0	0	0	0	0	0	0	0	0	0	0	0	0	0	0	0	0	0	0	0	0	0	0	0	0	0	0	0	0	0	0	0	0	0	0	0	0	0	0	0	0	0	0	0	1492	1485	1477	1479	1480	1455	1436	1438	1472	1474	1469	1465	1460	1456	1449	1455	1442	1432	1442	1451	1462	1460	1467	1469	1477	1483	1495	1504	1504	1505	1505	1501	1489	1477	1465	1469	1468	1463	1457	1464	1473	1474	1480	1475	1471	1468	1464	1471	1479	1485	1477	1472	1474	1489	1501	1505	1500	1467	1468	1473	1473	1480	1491	1486	1464	1447	1431	1425	1427	1398	1303	1246	0	0	0	0	0	0	0	0	0	0	0	0	0	0	0	0	0	0	0	0	0	0	0	0	0	0	0	0	0	0	0	0	0	0	0	0	0	985	1001	1038	1066	1079	1081	1070	1057	0	0	0	0	0	0	0	0	0	0	0	0	0	0	0	0	0	0	0	0	0	0	0	0	0	0	0	0	0	0	0	869	881	0	0	0	0	1232	1372	1460	1472	1485	1503	1503	1500	1489	1478	1470	1478	1487	1507	1510	1502	1489	1487	1478	1466	1463	1469	1476	1477	1474	1475	1485	1483	1474	1469	1472	1480	1489	1487	1482	1481	1486	1491	1487	1478	1482	1486	1484	1490	1497	1506	1499	1496	1504	1505	1512	1508	1503	1485	1471	1471	1479	1497	1500	1490	1479	1483	1495	1497	1505	1497	1490	1481	1490	1492	1489	1488	1479	1466	1464	1460	1443	1436	1433	1435	1449	1475	1497	1494	1479	1463	1460	1473	1475	1469	1471	1481	1491	1493	1486	1475	1476	1492	1505	1504	1495	1480	1467	1470	1479	1489	1500	1500	1495	1485	1455	1444	1439	1446	1460	1466	1462	1460	1455	1459	1450	1447	1463	1487	1494	1501	1504	1501	1488	1475	1471	1482	1500	1508	1511	1513	1514	1491	1491	1508	1521	1504	1497	1486	1491	1491	1491	1496	1497	1486	1481	1480	1497	1527	1534	1518	1487	1474	1472	1472	1479	1489	1496	1482	1484	1474	1478	1502	1518	1510	0	0	0	0	0	0	0	0	0	0	0	0	0	0	0	0	0	0	0	0	0	777	736	716	724	737	739	730	727	739	741	744	746	747	743	737	733	735	739	739	741	744	748	756	757	748	743	717	712	707	703	704	700	697	695	700	703	713	720	727	732	740	740	750	746	741	741	747	751	756	753	752	753	752	746	734	723	717	722	712	699	694	701	716	727	738	766	818	860	911	988	1109	1210	1284	1360	1394	1411	1424	1439	1467	1480	1489	1487	1468	1450	1436	1436	1435	1429	1423	1413	1428	1450	1459	1456	1458	1471	1481	1486	1480	1494	1495	1487	1483	1498	1501	1491	1475	1464	1493	1518	1529	1529	1526	1507	1490	1478	1462	1456	1472	1486	1498	1502	1491	1480	1480	1476	1471	1456	1455	1473	1522	1535	1517	1476	1456	1453	1467	1487	1497	1502	1510	1508	1493	1466	1459	1460	1479	1480	1490	1480	1457	1444	1434	1441	1452	1462	1456	1456	1463	1479	1484	1475	1457	1441	1417	1418	1418	1427	1445	1463	1472	1497	1503	1505	1497	1505	1502	1493	1486	1480	1488	1487	1482	1482	1446	1457	1468	1459	1450	1441	1436	1436	1439	1442	1442	0	0	0	0	0	0
0	0	0	0	0	0	0	0	0	0	0	0	0	0	0	0	0	0	0	0	0	0	0	0	0	0	0	0	0	0	0	0	0	0	0	0	0	0	0	0	0	0	0	0	0	0	0	0	0	0	0	0	0	0	0	0	0	0	0	0	0	0	0	0	0	0	0	0	0	0	0	0	0	0	0	0	0	0	0	0	0	0	0	0	0	0	0	0	0	0	0	0	0	0	1492	1482	1480	1478	1474	1450	1430	1442	1469	1473	1472	1474	1467	1464	1458	1464	1438	1429	1446	1452	1457	1451	1466	1468	1471	1472	1484	1489	1494	1495	1491	1488	1480	1474	1466	1474	1472	1472	1459	1460	1462	1463	1457	1463	1464	1462	1465	1471	1491	1493	1487	1474	1472	1478	1488	1490	1492	1472	1474	1471	1467	1467	1481	1478	1458	1433	1410	1402	1369	1204	0	0	0	0	0	0	0	0	0	0	0	0	0	0	0	0	0	0	0	0	0	0	0	0	0	0	0	0	0	0	0	0	0	0	0	0	0	0	0	0	1013	1044	1075	1081	1084	1076	1069	0	0	0	0	0	0	0	0	0	0	0	0	0	0	0	0	0	0	0	0	0	0	0	0	0	0	0	0	0	0	873	877	892	0	0	0	1189	1359	1498	1513	1492	1495	1499	1499	1489	1476	1466	1463	1469	1485	1490	1502	1499	1481	1478	1472	1463	1455	1470	1488	1490	1486	1486	1491	1491	1481	1470	1470	1477	1480	1481	1479	1489	1503	1505	1499	1487	1476	1480	1479	1482	1492	1499	1496	1495	1499	1507	1509	1506	1502	1496	1488	1485	1493	1499	1500	1487	1476	1478	1493	1493	1499	1494	1495	1496	1496	1491	1495	1492	1488	1486	1478	1474	1460	1445	1433	1436	1449	1472	1489	1485	1466	1455	1458	1469	1469	1462	1461	1470	1489	1494	1483	1470	1477	1488	1499	1500	1489	1473	1461	1457	1463	1475	1488	1495	1495	1489	1473	1452	1449	1453	1460	1457	1453	1450	1451	1450	1449	1453	1462	1477	1488	1500	1501	1503	1498	1482	1477	1486	1499	1512	1501	1483	1490	1496	1505	1521	1505	1486	1481	1482	1480	1485	1491	1497	1493	1479	1466	1480	1513	1528	1525	1512	1487	1464	1460	1466	1471	1486	1497	1485	1462	1461	1469	1496	1500	1496	1463	0	0	0	0	0	0	0	0	0	0	0	0	0	0	0	0	0	0	0	0	812	763	738	735	738	732	721	712	720	731	736	741	740	730	720	711	709	713	718	724	732	736	735	712	699	698	696	695	686	682	686	688	688	685	684	689	696	703	704	713	715	718	733	734	734	731	733	740	746	748	745	735	729	720	710	705	705	710	702	692	684	686	695	704	712	723	757	785	812	850	904	959	1053	1243	1289	1332	1341	1377	1429	1446	1476	1478	1470	1451	1444	1438	1436	1437	1428	1414	1432	1459	1466	1450	1443	1458	1479	1495	1495	1491	1493	1485	1484	1486	1479	1480	1473	1503	1539	1543	1528	1510	1503	1488	1485	1488	1498	1500	1482	1489	1490	1499	1489	1474	1467	1459	1449	1453	1463	1488	1513	1527	1516	1486	1462	1462	1483	1494	1490	1489	1502	1492	1488	1478	1477	1481	1479	1484	1480	1471	1450	1432	1428	1440	1459	1467	1463	1455	1467	1474	1478	1465	1457	1432	1418	1430	1430	1455	1465	1473	1490	1496	1495	1503	1491	1493	1494	1485	1471	1475	1474	1480	1480	1483	1475	1468	1461	1454	1454	1449	1454	1450	1455	1460	1460	0	0	0	0	0	0
0	0	0	0	0	0	0	0	0	0	0	0	0	0	0	0	0	0	0	0	0	0	0	0	0	0	0	0	0	0	0	0	0	0	0	0	0	0	0	0	0	0	0	0	0	0	0	0	0	0	0	0	0	0	0	0	0	0	0	0	0	0	0	0	0	0	0	0	0	0	0	0	0	0	0	0	0	0	0	0	0	0	0	0	0	0	0	0	0	0	0	0	0	0	1478	1481	1472	1475	1473	1473	1459	1462	1467	1472	1473	1483	1484	1478	1474	1474	1455	1453	1446	1449	1452	1458	1466	1463	1461	1462	1465	1469	1470	1482	1478	1474	1473	1468	1458	1462	1473	1470	1463	1462	1462	1452	1448	1437	1453	1459	1460	1475	1487	1490	1484	1471	1472	1473	1479	1484	1482	1477	1468	1466	1452	1454	1460	1464	1427	1347	1276	1195	0	0	0	0	0	0	0	0	0	0	0	0	0	0	0	0	0	0	0	0	0	0	0	0	0	0	0	0	0	0	0	0	0	0	0	0	0	0	0	0	0	0	0	0	0	0	1105	0	0	0	0	0	0	0	0	0	0	0	0	0	0	0	0	0	0	0	0	0	0	0	0	0	0	0	0	0	0	0	0	891	897	917	952	0	1155	1333	1495	1514	1522	1506	1499	1496	1496	1484	1468	1455	1454	1461	1478	1487	1494	1488	1473	1467	1463	1460	1463	1477	1498	1506	1503	1498	1500	1501	1492	1485	1474	1471	1466	1467	1476	1495	1522	1525	1514	1498	1482	1496	1505	1499	1488	1493	1492	1486	1499	1504	1506	1506	1498	1496	1498	1504	1507	1509	1496	1484	1478	1483	1493	1495	1498	1499	1496	1500	1496	1499	1501	1504	1505	1502	1490	1472	1461	1448	1457	1455	1471	1488	1504	1501	1478	1460	1462	1472	1472	1468	1462	1473	1489	1492	1490	1477	1478	1485	1484	1469	1464	1442	1435	1438	1443	1454	1468	1483	1497	1496	1477	1462	1453	1452	1454	1451	1449	1453	1451	1452	1449	1453	1464	1469	1475	1485	1497	1499	1493	1482	1472	1479	1464	1472	1484	1469	1446	1450	1465	1483	1484	1498	1512	1516	1499	1487	1488	1486	1473	1472	1483	1506	1526	1519	1519	1516	1513	1508	1507	1506	1493	1493	1494	1494	1496	1509	1524	1513	1500	1490	1464	0	0	0	0	0	0	0	0	0	0	0	0	0	0	0	0	0	0	0	0	0	793	755	742	738	723	705	698	700	709	715	725	729	721	708	699	698	701	710	718	726	723	718	705	695	693	691	691	687	684	686	684	680	674	674	681	687	687	689	698	700	704	715	718	720	719	724	727	737	736	731	717	706	703	702	705	703	704	700	692	680	677	682	698	705	711	714	713	720	733	752	780	830	988	1048	1111	1188	1254	1320	1377	1445	1472	1489	1484	1464	1442	1438	1440	1457	1468	1495	1499	1485	1453	1445	1456	1477	1493	1496	1491	1493	1486	1483	1474	1473	1486	1486	1493	1523	1526	1511	1489	1480	1471	1476	1495	1505	1502	1490	1495	1490	1490	1487	1468	1455	1461	1467	1472	1476	1489	1507	1517	1504	1493	1476	1476	1489	1485	1475	1475	1479	1485	1484	1489	1493	1498	1491	1484	1480	1474	1451	1434	1429	1442	1470	1478	1468	1467	1472	1474	1475	1462	1449	1439	1430	1430	1447	1474	1490	1497	1500	1508	1499	1486	1480	1481	1484	1489	1472	1466	1472	1481	1481	1492	1501	1497	1484	1460	1464	1469	1467	1464	1468	1469	1469	0	0	0	0	0	0
0	0	0	0	0	0	0	0	0	0	0	0	0	0	0	0	0	0	0	0	0	0	0	0	0	0	0	0	0	0	0	0	0	0	0	0	0	0	0	0	0	0	0	0	0	0	0	0	0	0	0	0	0	0	0	0	0	0	0	0	0	0	0	0	0	0	0	0	0	0	0	0	0	0	0	0	0	0	0	0	0	0	0	0	0	0	0	0	0	0	0	0	0	0	1474	1479	1486	1485	1481	1492	1488	1472	1473	1481	1484	1491	1495	1489	1480	1473	1477	1473	1468	1460	1453	1457	1457	1457	1460	1461	1458	1457	1459	1469	1468	1463	1464	1453	1451	1454	1468	1471	1470	1471	1465	1452	1437	1432	1437	1452	1453	1457	1461	1464	1474	1468	1465	1463	1462	1464	1470	1462	1456	1445	1433	1424	1433	1317	0	0	0	0	0	0	0	0	0	0	0	0	0	0	0	0	0	0	0	0	0	0	0	0	0	0	0	0	0	0	0	0	0	0	0	0	0	0	0	0	0	0	0	0	0	0	0	0	0	0	0	0	0	0	0	0	0	0	0	0	0	0	0	0	0	0	0	0	0	0	0	0	0	0	0	0	0	0	0	0	0	0	0	904	919	943	983	1097	1305	1434	1485	1512	1507	1492	1448	1452	1468	1473	1476	1479	1486	1492	1493	1492	1482	1476	1469	1464	1470	1494	1508	1520	1517	1504	1509	1525	1554	1558	1548	1530	1496	1475	1465	1464	1460	1476	1493	1491	1484	1488	1479	1487	1506	1520	1531	1530	1508	1473	1467	1473	1491	1493	1487	1486	1486	1487	1490	1492	1495	1491	1486	1481	1480	1475	1472	1490	1493	1480	1465	1473	1492	1495	1483	1476	1470	1451	1452	1453	1459	1478	1503	1523	1536	1535	1523	1520	1524	1512	1510	1492	1477	1481	1490	1495	1491	1482	1481	1483	1478	1488	1501	1499	1468	1435	1426	1429	1434	1446	1454	1466	1459	1463	1473	1477	1475	1485	1497	1503	1478	1461	1456	1451	1450	1462	1479	1480	1477	1487	1486	1479	1464	1454	1456	1470	1482	1472	1446	1450	1460	1482	1485	1503	1523	1530	1512	1506	1498	1491	1477	1473	1489	1515	1520	1520	1520	1515	1505	1497	1496	1501	1498	1499	1495	1504	1502	1521	1525	1507	1496	1489	1470	1482	0	0	0	0	0	0	0	0	0	0	0	0	0	0	0	0	0	0	0	0	0	774	751	732	712	690	674	679	693	701	710	714	710	702	698	697	698	706	712	716	713	712	705	700	695	692	696	696	694	693	686	678	670	670	679	686	685	684	681	689	690	692	696	704	710	713	717	716	712	703	696	689	690	700	707	709	694	690	692	688	683	687	694	703	703	700	703	702	707	708	713	733	830	894	959	1030	1116	1196	1289	1371	1439	1479	1485	1470	1450	1435	1448	1460	1477	1496	1512	1489	1456	1444	1457	1474	1490	1496	1496	1498	1489	1479	1477	1483	1486	1488	1486	1490	1492	1481	1460	1457	1452	1465	1471	1477	1482	1486	1484	1480	1482	1468	1450	1452	1465	1487	1500	1499	1499	1508	1507	1501	1498	1489	1487	1482	1467	1459	1453	1449	1462	1460	1465	1479	1493	1491	1478	1469	1458	1447	1437	1441	1461	1488	1500	1491	1482	1481	1483	1481	1471	1448	1444	1440	1440	1445	1474	1494	1507	1507	1501	1488	1474	1471	1477	1473	1467	1465	1462	1466	1474	1474	1494	1509	1506	1497	1483	1481	1484	1489	1487	1480	1480	1483	0	0	0	0	0	0
0	0	0	0	0	0	0	0	0	0	0	0	0	0	0	0	0	0	0	0	0	0	0	0	0	0	0	0	0	0	0	0	0	0	0	0	0	0	0	0	0	0	0	0	0	0	0	0	0	0	0	0	0	0	0	0	0	0	0	0	0	0	0	0	0	0	0	0	0	0	0	0	0	0	0	0	0	0	0	0	0	0	0	0	0	0	0	0	0	0	0	0	0	0	1464	1469	1469	1481	1491	1495	1477	1466	1470	1485	1487	1491	1489	1478	1465	1465	1472	1475	1469	1465	1460	1462	1461	1454	1455	1463	1466	1460	1460	1455	1458	1454	1457	1447	1450	1452	1472	1476	1480	1482	1480	1465	1440	1425	1436	1448	1447	1440	1431	1444	1454	1459	1449	1436	1435	1446	1447	1443	1424	1375	1300	1259	0	0	0	0	0	0	0	0	0	0	0	0	0	0	0	0	0	0	0	0	0	0	0	0	0	0	0	0	0	0	0	0	0	0	0	0	0	0	0	0	0	0	0	0	0	0	0	0	0	0	0	0	0	0	0	0	0	0	0	0	0	0	0	0	0	0	0	0	0	0	0	0	0	0	0	0	0	0	0	0	0	0	0	0	0	908	940	969	1063	1262	1419	1467	1501	1501	1503	1481	1453	1444	1463	1479	1492	1491	1492	1493	1494	1491	1484	1479	1475	1471	1469	1490	1502	1508	1506	1501	1512	1537	1572	1576	1558	1540	1505	1477	1464	1465	1479	1485	1491	1490	1483	1486	1480	1486	1499	1515	1532	1526	1507	1469	1463	1469	1483	1487	1483	1483	1486	1486	1489	1495	1493	1491	1486	1481	1470	1454	1453	1469	1484	1490	1481	1482	1492	1491	1486	1487	1475	1455	1448	1453	1459	1468	1492	1518	1534	1534	1524	1520	1520	1518	1515	1504	1493	1484	1487	1488	1481	1475	1473	1481	1487	1488	1504	1503	1480	1440	1426	1421	1428	1441	1458	1460	1459	1462	1473	1473	1476	1476	1493	1507	1488	1476	1462	1454	1451	1466	1491	1486	1485	1499	1494	1490	1475	1464	1471	1474	1488	1497	1492	1462	1464	1480	1484	1503	1524	1526	1527	1521	1518	1510	1491	1480	1491	1517	1526	1524	1519	1505	1492	1482	1475	1469	1474	1486	1496	1509	1526	1534	1526	1509	1498	1500	1496	1495	0	0	0	0	0	0	0	0	0	0	0	0	0	0	0	0	0	0	0	0	0	0	0	728	704	685	656	654	663	687	702	707	702	702	701	700	706	712	715	710	708	702	703	704	694	694	700	704	703	696	685	674	665	667	674	680	678	677	677	680	675	672	683	687	693	688	692	690	685	678	671	669	674	692	700	699	681	673	683	685	687	693	697	696	693	689	690	689	689	685	681	689	738	779	832	876	933	1002	1037	1103	1190	1292	1408	1454	1447	1443	1449	1456	1448	1465	1460	1459	1457	1459	1463	1462	1467	1475	1489	1491	1489	1482	1482	1485	1484	1478	1475	1476	1474	1471	1463	1469	1468	1464	1462	1450	1458	1461	1456	1454	1456	1448	1449	1449	1468	1494	1508	1518	1510	1506	1493	1477	1466	1453	1449	1462	1458	1448	1449	1446	1447	1451	1458	1466	1469	1472	1470	1456	1445	1433	1431	1439	1460	1490	1501	1495	1477	1469	1478	1483	1471	1457	1437	1428	1428	1427	1441	1458	1498	1490	1486	1479	1469	1471	1473	1472	1461	1459	1462	1466	1474	1474	1487	1503	1508	1502	1491	1480	1486	1485	1490	1493	1493	1489	0	0	0	0	0	0
0	0	0	0	0	0	0	0	0	0	0	0	0	0	0	0	0	0	0	0	0	0	0	0	0	0	0	0	0	0	0	0	0	0	0	0	0	0	0	0	0	0	0	0	0	0	0	0	0	0	0	0	0	0	0	0	0	0	0	0	0	0	0	0	0	0	0	0	0	0	0	0	0	0	0	0	0	0	0	0	0	0	0	0	0	0	0	0	0	0	0	0	0	0	1470	1460	1477	1483	1475	1474	1459	1457	1463	1476	1477	1473	1467	1460	1448	1441	1457	1464	1466	1466	1467	1464	1460	1446	1461	1471	1475	1468	1462	1454	1449	1444	1443	1451	1451	1455	1473	1476	1488	1499	1489	1469	1438	1425	1432	1446	1445	1435	1435	1444	1458	1461	1443	1424	1415	1406	1401	0	0	0	0	0	0	0	0	0	0	0	0	0	0	0	0	0	0	0	0	0	0	0	0	0	0	0	0	0	0	0	0	0	0	0	0	0	0	0	0	0	0	0	0	0	0	0	0	0	0	0	0	0	0	0	0	0	0	0	0	0	0	0	0	0	0	0	0	0	0	0	0	0	0	0	0	0	0	0	0	0	0	0	0	0	0	0	0	0	0	917	975	1079	1264	1471	1503	1513	1503	1492	1486	1472	1450	1444	1462	1482	1500	1508	1506	1495	1489	1494	1496	1496	1493	1486	1482	1477	1477	1475	1469	1467	1481	1520	1553	1562	1553	1525	1510	1504	1505	1509	1508	1500	1491	1481	1488	1498	1503	1506	1495	1486	1474	1473	1468	1470	1453	1451	1465	1476	1482	1486	1490	1498	1488	1497	1498	1487	1485	1482	1464	1445	1442	1456	1483	1492	1496	1498	1505	1510	1514	1506	1499	1475	1460	1451	1464	1482	1496	1501	1498	1489	1491	1494	1507	1516	1521	1510	1494	1483	1475	1467	1458	1457	1454	1454	1461	1470	1474	1485	1485	1479	1464	1450	1450	1463	1481	1486	1496	1496	1492	1485	1473	1475	1490	1498	1498	1484	1481	1468	1458	1469	1465	1479	1481	1498	1496	1488	1475	1468	1468	1476	1497	1508	1506	1498	1473	1469	1485	1513	1533	1540	1532	1526	1523	1502	1460	1464	1496	1522	1523	1527	1521	1510	1499	1486	1476	1462	1463	1490	1506	1516	1533	1540	1525	1510	1506	1519	1530	1521	1516	0	0	0	0	0	0	0	0	0	0	0	0	0	0	0	0	0	0	0	0	0	0	0	697	676	645	649	648	668	700	709	713	710	702	699	705	710	710	707	696	684	695	696	691	690	697	703	698	688	675	668	663	665	667	670	668	666	670	670	666	663	667	674	674	670	666	661	659	657	652	651	662	674	681	678	656	653	658	673	683	689	689	679	678	673	671	663	659	653	651	671	688	713	737	762	792	819	884	1013	1085	1169	1248	1310	1367	1414	1431	1434	1422	1451	1462	1467	1462	1470	1468	1456	1445	1460	1470	1477	1489	1484	1483	1486	1487	1480	1473	1470	1474	1471	1470	1479	1479	1469	1463	1459	1462	1460	1456	1452	1453	1443	1448	1453	1473	1490	1505	1511	1510	1498	1486	1469	1459	1445	1434	1444	1454	1448	1447	1447	1452	1451	1459	1468	1464	1466	1462	1459	1443	1431	1429	1439	1456	1485	1491	1484	1469	1464	1469	1477	1472	1452	1427	1427	1415	1408	1418	1448	1475	1480	1473	1461	1467	1471	1470	1463	1450	1454	1457	1459	1459	1469	1487	1506	1521	1512	1514	1513	1484	1484	1487	1496	1496	1494	0	0	0	0	0	0
0	0	0	0	0	0	0	0	0	0	0	0	0	0	0	0	0	0	0	0	0	0	0	0	0	0	0	0	0	0	0	0	0	0	0	0	0	0	0	0	0	0	0	0	0	0	0	0	0	0	0	0	0	0	0	0	0	0	0	0	0	0	0	0	0	0	0	0	0	0	0	0	0	0	0	0	0	0	0	0	0	0	0	0	0	0	0	0	0	0	0	0	0	0	1475	1478	1483	1480	1474	1453	1444	1444	1460	1474	1481	1474	1464	1453	1442	1443	1452	1459	1478	1482	1471	1468	1466	1466	1479	1498	1504	1506	1499	1480	1475	1468	1464	1459	1466	1476	1473	1470	1471	1496	1490	1464	1442	1442	1446	1459	1457	1447	1445	1452	1460	1452	1438	1407	1393	1381	1353	0	0	0	0	0	0	0	0	0	0	0	0	0	0	0	0	0	0	0	0	0	0	0	0	0	0	0	0	0	0	0	0	0	0	0	0	0	0	0	0	0	0	0	0	0	0	0	0	0	0	0	0	0	0	0	0	0	0	0	0	0	0	0	0	0	0	0	0	0	0	0	0	0	0	0	0	0	0	0	0	0	0	0	0	0	0	0	0	0	0	992	1082	1251	1455	1486	1493	1501	1497	1490	1478	1462	1461	1460	1470	1484	1500	1512	1512	1505	1496	1483	1494	1513	1511	1499	1477	1467	1468	1472	1473	1468	1472	1498	1520	1539	1533	1518	1511	1510	1512	1512	1516	1504	1495	1489	1496	1503	1512	1511	1500	1483	1471	1472	1478	1477	1466	1457	1464	1472	1481	1484	1491	1500	1511	1514	1513	1500	1494	1489	1485	1480	1478	1486	1500	1507	1504	1507	1514	1513	1507	1498	1497	1483	1463	1456	1465	1480	1490	1491	1491	1487	1483	1490	1504	1520	1519	1505	1489	1478	1469	1466	1458	1463	1464	1454	1454	1467	1481	1494	1497	1493	1490	1476	1464	1466	1472	1483	1492	1498	1500	1492	1483	1479	1482	1473	1463	1465	1464	1462	1457	1464	1468	1470	1479	1492	1493	1488	1474	1466	1459	1469	1489	1510	1517	1506	1472	1463	1489	1516	1540	1541	1530	1531	1524	1500	1464	1467	1497	1526	1533	1533	1525	1515	1504	1495	1484	1461	1460	1487	1501	1508	1516	1522	1510	1499	1511	1530	1521	1520	1511	1492	0	0	0	0	0	0	0	0	0	0	0	0	0	0	0	0	0	0	0	0	0	0	0	671	645	640	655	664	679	671	679	699	700	696	693	702	697	692	685	677	679	681	678	686	697	700	688	677	669	663	663	661	658	658	654	652	654	662	660	659	660	660	658	654	645	643	643	640	639	641	648	658	664	660	646	641	641	654	665	674	667	662	656	652	642	637	630	626	633	661	672	677	687	692	701	718	760	821	924	1028	1116	1193	1280	1350	1400	1415	1426	1445	1463	1470	1472	1476	1466	1451	1437	1444	1460	1468	1481	1493	1498	1506	1491	1485	1476	1465	1463	1457	1460	1485	1486	1473	1463	1460	1458	1469	1460	1454	1443	1439	1444	1455	1469	1490	1502	1508	1501	1492	1481	1465	1456	1446	1444	1443	1450	1447	1449	1449	1462	1475	1487	1489	1467	1456	1454	1460	1458	1458	1446	1445	1451	1453	1453	1442	1428	1437	1473	1506	1514	1488	1484	1484	0	0	0	0	0	0	0	0	0	0	0	0	0	0	0	0	0	0	0	0	0	0	0	0	0	1461	1453	1457	1457	1464	0	0	0	0	0	0
0	0	0	0	0	0	0	0	0	0	0	0	0	0	0	0	0	0	0	0	0	0	0	0	0	0	0	0	0	0	0	0	0	0	0	0	0	0	0	0	0	0	0	0	0	0	0	0	0	0	0	0	0	0	0	0	0	0	0	0	0	0	0	0	0	0	0	0	0	0	0	0	0	0	0	0	0	0	0	0	0	0	0	0	0	0	0	0	0	0	0	0	0	0	1465	1487	1493	1474	1459	1440	1434	1446	1456	1469	1478	1482	1477	1474	1473	1472	1466	1464	1479	1469	1464	1458	1453	1459	1478	1499	1512	1520	1521	1502	1481	1466	1466	1462	1468	1471	1470	1463	1461	1483	1477	1461	1446	1443	1455	1459	1460	1456	1449	1445	1424	1409	1318	0	0	0	0	0	0	0	0	0	0	0	0	0	0	0	0	0	0	0	0	0	0	0	0	0	0	0	0	0	0	0	0	0	0	0	0	0	0	0	0	0	0	0	0	0	0	0	0	0	0	0	0	0	0	0	0	0	0	0	0	0	0	0	0	0	0	0	0	0	0	0	0	0	0	0	0	0	0	0	0	0	0	0	0	0	0	0	0	0	0	0	0	0	1058	1131	1323	1424	1464	1478	1488	1501	1499	1488	1477	1468	1466	1469	1472	1472	1487	1503	1513	1510	1503	1486	1500	1515	1507	1488	1471	1464	1466	1474	1478	1474	1474	1488	1509	1521	1526	1515	1504	1504	1509	1518	1520	1506	1498	1488	1506	1515	1523	1517	1521	1490	1472	1468	1477	1492	1494	1481	1472	1472	1480	1487	1488	1496	1504	1517	1514	1512	1505	1508	1502	1491	1492	1500	1511	1509	1507	1502	1507	1504	1500	1488	1488	1476	1460	1453	1458	1463	1474	1487	1489	1489	1489	1489	1482	1503	1506	1499	1484	1474	1472	1475	1490	1495	1503	1519	1498	1470	1480	1497	1505	1503	1499	1483	1465	1453	1459	1478	1490	1495	1494	1490	1482	1472	1464	1420	1425	1442	1465	1473	1483	1481	1460	1453	1459	1528	1538	1497	1480	1475	1477	1472	1451	1468	1490	1498	1479	1453	1451	1470	1482	1508	1526	1539	1543	1532	1519	1505	1503	1521	1530	1520	1501	1493	1502	1511	1512	1501	1500	1521	1507	1474	1465	1492	1492	1491	1516	1520	1517	1497	1492	1511	0	0	0	0	0	0	0	0	0	0	0	0	0	0	0	0	0	0	0	0	0	0	0	691	666	652	653	666	661	659	656	665	677	690	686	683	682	675	671	667	668	663	661	671	677	680	678	670	667	662	662	660	652	645	638	644	651	654	655	655	653	646	640	643	642	646	642	635	633	638	645	649	647	645	643	636	633	641	652	657	653	634	625	619	611	605	606	613	624	657	665	665	660	658	660	664	679	696	733	790	920	1007	1030	1032	1046	1129	1281	0	0	0	0	1495	1443	1404	1380	1390	0	0	0	0	0	0	0	0	0	0	0	0	0	0	0	0	0	0	0	0	0	0	0	0	0	0	0	0	0	0	0	0	0	0	0	0	0	0	0	0	0	0	0	0	0	0	0	0	0	0	0	0	0	0	0	0	0	0	0	0	0	0	0	0	0	0	0	0	0	0	0	0	0	0	0	0	0	0	0	0	0	0	0	0	0	0	0	0	0	0	0	0	0	0	0	0	0	0	0	0	0	0
0	0	0	0	0	0	0	0	0	0	0	0	0	0	0	0	0	0	0	0	0	0	0	0	0	0	0	0	0	0	0	0	0	0	0	0	0	0	0	0	0	0	0	0	0	0	0	0	0	0	0	0	0	0	0	0	0	0	0	0	0	0	0	0	0	0	0	0	0	0	0	0	0	0	0	0	0	0	0	0	0	0	0	0	0	0	0	0	0	0	0	0	0	1456	1482	1492	1496	1477	1462	1447	1436	1444	1452	1465	1476	1478	1475	1478	1480	1479	1469	1457	1469	1470	1463	1457	1448	1447	1461	1471	1489	1513	1514	1496	1468	1458	1451	1457	1467	1466	1457	1457	1462	1481	1476	1465	1452	1449	1460	1457	1450	1435	1349	1228	1173	0	0	0	0	0	0	0	0	0	0	0	0	0	0	0	0	0	0	0	0	0	0	0	0	0	0	0	0	0	0	0	0	0	0	0	0	0	0	0	0	0	0	0	0	0	0	0	0	0	0	0	0	0	0	0	0	0	0	0	0	0	0	0	0	0	0	0	0	0	0	0	0	0	0	0	0	0	0	0	0	0	0	0	0	0	0	0	0	0	0	0	0	0	0	0	1136	1291	1339	1416	1454	1469	1485	1496	1502	1494	1479	1471	1472	1481	1484	1480	1476	1492	1511	1514	1517	1518	1513	1514	1498	1474	1465	1479	1498	1501	1493	1475	1471	1478	1491	1503	1505	1495	1476	1474	1496	1534	1550	1534	1502	1486	1479	1505	1519	1522	1505	1462	1461	1497	1529	1542	1534	1503	1472	1461	1464	1457	1443	1435	1450	1464	1516	1546	1547	1515	1451	1437	1443	1484	1516	1517	1512	1506	1496	1490	1481	1479	1477	1465	1452	1462	1460	1470	1468	1484	1490	1499	1495	1491	1482	1492	1499	1493	1480	1475	1478	1478	1498	1496	1505	1520	1501	1470	1479	1495	1492	1500	1504	1489	1467	1453	1453	1447	1439	1444	1452	0	0	0	0	0	0	0	0	0	0	0	0	0	0	0	0	0	0	0	0	0	0	0	0	0	0	0	0	0	0	0	0	0	0	0	0	0	0	0	0	0	0	0	0	0	0	0	0	0	0	0	0	0	0	0	0	0	0	0	0	0	0	0	0	0	0	0	0	0	0	0	0	0	0	0	0	0	0	0	0	0	0	0	0	0	712	735	710	669	650	642	647	653	660	676	682	676	669	659	659	661	663	656	651	644	648	659	668	666	663	660	657	653	646	637	631	633	646	650	656	654	647	637	635	641	652	651	644	636	632	635	642	641	638	637	637	634	631	633	642	642	634	620	612	601	598	595	595	597	606	648	657	657	650	641	638	641	650	659	671	692	722	755	785	821	886	941	0	0	0	0	0	0	0	0	0	0	0	0	0	0	0	0	0	0	0	0	0	0	0	0	0	0	0	0	0	0	0	0	0	0	0	0	0	0	0	0	0	0	0	0	0	0	0	0	0	0	0	0	0	0	0	0	0	0	0	0	0	0	0	0	0	0	0	0	0	0	0	0	0	0	0	0	0	0	0	0	0	0	0	0	0	0	0	0	0	0	0	0	0	0	0	0	0	0	0	0	0	0	0	0	0	0	0	0	0	0	0	0
0	0	0	0	0	0	0	0	0	0	0	0	0	0	0	0	0	0	0	0	0	0	0	0	0	0	0	0	0	0	0	0	0	0	0	0	0	0	0	0	0	0	0	0	0	0	0	0	0	0	0	0	0	0	0	0	0	0	0	0	0	0	0	0	0	0	0	0	0	0	0	0	0	0	0	0	0	0	0	0	0	0	0	0	0	0	0	0	0	0	0	0	0	1453	1498	1508	1508	1492	1472	1452	1443	1449	1467	1471	1477	1475	1470	1470	1477	1470	1457	1451	1456	1480	1480	1470	1457	1451	1447	1446	1451	1475	1480	1476	1470	1464	1471	1469	1475	1494	1489	1474	1460	1457	1480	1497	1500	1482	1457	1421	1336	0	0	0	0	0	0	0	0	0	0	0	0	0	0	0	0	0	0	0	0	0	0	0	0	0	0	0	0	0	0	0	0	0	0	0	0	0	0	0	0	0	0	0	0	0	0	0	0	0	0	0	0	0	0	0	0	0	0	0	0	0	0	0	0	0	0	0	0	0	0	0	0	0	0	0	0	0	0	0	0	0	0	0	0	0	0	0	0	0	0	0	0	0	0	0	0	0	0	0	0	1304	1395	1431	1453	1474	1498	1497	1486	1473	1464	1468	1475	1489	1480	1427	1404	1399	1405	1415	1441	1469	1465	1411	1367	1352	1389	1477	0	0	0	0	0	0	0	0	0	0	0	0	0	0	0	0	0	0	0	0	0	0	0	0	0	0	0	0	0	0	0	0	0	0	0	0	0	0	0	0	0	0	0	0	0	0	0	0	0	0	0	1466	1463	1477	1480	1478	1504	1535	1519	1491	1477	1478	1511	1543	1561	1568	1569	1542	1514	1501	1485	1478	1458	1440	1448	1475	1493	1506	1508	1493	1470	1441	1401	1391	1404	1424	1426	0	0	0	0	0	0	0	0	0	0	0	0	0	0	0	0	0	0	0	0	0	0	0	0	0	0	0	0	0	0	0	0	0	0	0	0	0	0	0	0	0	0	0	0	0	0	0	0	0	0	0	0	0	0	0	0	0	0	0	0	0	0	0	0	0	0	0	0	0	0	0	0	0	0	0	0	0	0	0	0	0	0	0	0	0	0	0	0	0	0	0	0	0	750	698	648	635	633	643	658	672	674	668	658	655	653	661	664	651	641	633	635	646	660	665	659	651	648	644	640	630	624	627	633	650	652	650	639	630	628	639	651	651	642	635	629	635	637	635	628	632	631	631	632	633	637	636	628	617	607	602	595	596	590	586	585	623	642	643	635	631	630	633	640	644	642	648	658	617	616	617	615	618	644	670	0	0	0	0	0	0	0	0	0	0	0	0	0	0	0	0	0	0	0	0	0	0	0	0	0	0	0	0	0	0	0	0	0	0	0	0	0	0	0	0	0	0	0	0	0	0	0	0	0	0	0	0	0	0	0	0	0	0	0	0	0	0	0	0	0	0	0	0	0	0	0	0	0	0	0	0	0	0	0	0	0	0	0	0	0	0	0	0	0	0	0	0	0	0	0	0	0	0	0	0	0	0	0	0	0	0	0	0	0	0
0	0	0	0	0	0	0	0	0	0	0	0	0	0	0	0	0	0	0	0	0	0	0	0	0	0	0	0	0	0	0	0	0	0	0	0	0	0	0	0	0	0	0	0	0	0	0	0	0	0	0	0	0	0	0	0	0	0	0	0	0	0	0	0	0	0	0	0	0	0	0	0	0	0	0	0	0	0	0	0	0	0	0	0	0	0	0	0	0	0	0	0	0	1447	1491	1502	1505	1495	1473	1462	1454	1464	1473	1481	1483	1476	1470	1464	1461	1462	1452	1446	1453	1484	1489	1488	1478	1465	1451	1446	1442	1460	1450	1437	1442	1462	0	0	0	0	0	0	0	0	0	0	0	0	0	0	0	0	0	0	0	0	0	0	0	0	0	0	0	0	0	0	0	0	0	0	0	0	0	0	0	0	0	0	0	0	0	0	0	0	0	0	0	0	0	0	0	0	0	0	0	0	0	0	0	0	0	0	0	0	0	0	0	0	0	0	0	0	0	0	0	0	0	0	0	0	0	0	0	0	0	0	0	0	0	0	0	0	0	0	0	0	0	0	0	0	0	0	0	0	0	0	0	0	0	0	0	0	0	0	0	0	0	0	0	0	0	0	0	0	0	0	0	0	0	0	0	0	0	0	0	0	0	0	0	0	0	0	0	0	0	0	0	0	0	0	0	0	0	0	0	0	0	0	0	0	0	0	0	0	0	0	0	0	0	0	0	0	0	0	0	0	0	0	0	0	0	0	0	0	0	0	0	0	0	0	0	0	0	0	0	0	0	0	0	0	0	0	0	0	0	0	0	0	0	0	0	0	0	0	0	0	0	0	0	0	0	0	0	0	0	0	0	0	0	0	0	0	0	0	0	0	0	0	0	0	0	0	0	0	0	0	0	0	0	0	0	0	0	0	0	0	0	0	0	0	0	0	0	0	0	0	0	0	0	0	0	0	0	0	0	0	0	0	0	0	0	0	0	0	0	0	0	0	0	0	0	0	0	0	0	0	0	0	0	0	0	0	0	0	0	0	0	0	0	0	0	0	0	0	0	0	0	0	0	720	673	640	631	641	654	663	662	657	650	650	654	665	665	649	639	639	641	653	660	665	656	641	635	634	632	626	621	625	636	645	645	639	629	619	619	628	638	639	635	630	629	636	634	626	626	626	628	628	630	632	631	628	620	611	611	605	605	602	597	589	585	613	630	633	627	624	624	610	610	613	617	619	613	605	604	603	606	613	622	628	630	658	0	0	0	0	0	0	0	0	0	0	0	0	0	0	0	0	0	0	0	0	0	0	0	0	0	0	0	0	0	0	0	0	0	0	0	0	0	0	0	0	0	0	0	0	0	0	0	0	0	0	0	0	0	0	0	0	0	0	0	0	0	0	0	0	0	0	0	0	0	0	0	0	0	0	0	0	0	0	0	0	0	0	0	0	0	0	0	0	0	0	0	0	0	0	0	0	0	0	0	0	0	0	0	0	0	0	0	0
0	0	0	0	0	0	0	0	0	0	0	0	0	0	0	0	0	0	0	0	0	0	0	0	0	0	0	0	0	0	0	0	0	0	0	0	0	0	0	0	0	0	0	0	0	0	0	0	0	0	0	0	0	0	0	0	0	0	0	0	0	0	0	0	0	0	0	0	0	0	0	0	0	0	0	0	0	0	0	0	0	0	0	0	0	0	0	0	0	0	0	0	0	1439	1478	1493	1493	1482	1465	1459	1474	1467	1474	1480	1479	1477	1465	1459	1453	1454	1449	1449	1451	1474	1485	1489	1483	1481	1466	1465	1467	1460	1447	1445	1447	0	0	0	0	0	0	0	0	0	0	0	0	0	0	0	0	0	0	0	0	0	0	0	0	0	0	0	0	0	0	0	0	0	0	0	0	0	0	0	0	0	0	0	0	0	0	0	0	0	0	0	0	0	0	0	0	0	0	0	0	0	0	0	0	0	0	0	0	0	0	0	0	0	0	0	0	0	0	0	0	0	0	0	0	0	0	0	0	0	0	0	0	0	0	0	0	0	0	0	0	0	0	0	0	0	0	0	0	0	0	0	0	0	0	0	0	0	0	0	0	0	0	0	0	0	0	0	0	0	0	0	0	0	0	0	0	0	0	0	0	0	0	0	0	0	0	0	0	0	0	0	0	0	0	0	0	0	0	0	0	0	0	0	0	0	0	0	0	0	0	0	0	0	0	0	0	0	0	0	0	0	0	0	0	0	0	0	0	0	0	0	0	0	0	0	0	0	0	0	0	0	0	0	0	0	0	0	0	0	0	0	0	0	0	0	0	0	0	0	0	0	0	0	0	0	0	0	0	0	0	0	0	0	0	0	0	0	0	0	0	0	0	0	0	0	0	0	0	0	0	0	0	0	0	0	0	0	0	0	0	0	0	0	0	0	0	0	0	0	0	0	0	0	0	0	0	0	0	0	0	0	0	0	0	0	0	0	0	0	0	0	0	0	0	0	0	0	0	0	0	0	0	0	0	0	0	0	0	0	0	0	0	0	0	0	0	0	0	0	0	0	0	0	0	0	0	665	648	649	654	652	649	642	638	638	647	657	655	651	648	644	650	653	666	666	650	634	626	623	622	619	618	626	633	638	635	629	623	616	615	619	630	632	630	629	629	635	630	620	615	622	624	627	626	628	625	618	611	605	606	609	609	611	610	602	595	610	618	616	609	602	598	597	598	602	610	616	611	601	597	597	602	607	615	611	612	618	623	627	0	0	0	0	0	0	0	0	0	0	0	0	0	0	0	0	0	0	0	0	0	0	0	0	0	0	0	0	0	0	0	0	0	0	0	0	0	0	0	0	0	0	0	0	0	0	0	0	0	0	0	0	0	0	0	0	0	0	0	0	0	0	0	0	0	0	0	0	0	0	0	0	0	0	0	0	0	0	0	0	0	0	0	0	0	0	0	0	0	0	0	0	0	0	0	0	0	0	0	0	0	0	0	0	0	0
0	0	0	0	0	0	0	0	0	0	0	0	0	0	0	0	0	0	0	0	0	0	0	0	0	0	0	0	0	0	0	0	0	0	0	0	0	0	0	0	0	0	0	0	0	0	0	0	0	0	0	0	0	0	0	0	0	0	0	0	0	0	0	0	0	0	0	0	0	0	0	0	0	0	0	0	0	0	0	0	0	0	0	0	0	0	0	0	0	0	0	0	0	1453	1486	1493	1480	1472	1459	1462	1467	1477	1471	1474	1473	1473	1466	1453	1443	1439	1438	1435	1449	1470	1482	1475	1475	1475	1463	1465	1449	1441	1448	0	0	0	0	0	0	0	0	0	0	0	0	0	0	0	0	0	0	0	0	0	0	0	0	0	0	0	0	0	0	0	0	0	0	0	0	0	0	0	0	0	0	0	0	0	0	0	0	0	0	0	0	0	0	0	0	0	0	0	0	0	0	0	0	0	0	0	0	0	0	0	0	0	0	0	0	0	0	0	0	0	0	0	0	0	0	0	0	0	0	0	0	0	0	0	0	0	0	0	0	0	0	0	0	0	0	0	0	0	0	0	0	0	0	0	0	0	0	0	0	0	0	0	0	0	0	0	0	0	0	0	0	0	0	0	0	0	0	0	0	0	0	0	0	0	0	0	0	0	0	0	0	0	0	0	0	0	0	0	0	0	0	0	0	0	0	0	0	0	0	0	0	0	0	0	0	0	0	0	0	0	0	0	0	0	0	0	0	0	0	0	0	0	0	0	0	0	0	0	0	0	0	0	0	0	0	0	0	0	0	0	0	0	0	0	0	0	0	0	0	0	0	0	0	0	0	0	0	0	0	0	0	0	0	0	0	0	0	0	0	0	0	0	0	0	0	0	0	0	0	0	0	0	0	0	0	0	0	0	0	0	0	0	0	0	0	0	0	0	0	0	0	0	0	0	0	0	0	0	0	0	0	0	0	0	0	0	0	0	0	0	0	0	0	0	0	0	0	0	0	0	0	0	0	0	0	0	0	0	0	0	0	0	0	0	0	0	0	0	0	0	0	0	0	0	0	0	0	0	667	663	659	651	637	625	621	625	637	641	650	646	647	641	642	649	648	646	640	628	616	612	612	612	612	618	620	622	622	624	623	619	615	621	625	624	621	622	628	628	618	607	606	611	617	622	626	624	620	612	608	602	603	605	608	616	620	622	605	607	613	610	602	593	592	592	592	596	601	602	601	590	583	587	591	597	597	594	586	595	601	602	602	603	0	0	0	0	0	0	0	0	0	0	0	0	0	0	0	0	0	0	0	0	0	0	0	0	0	0	0	0	0	0	0	0	0	0	0	0	0	0	0	0	0	0	0	0	0	0	0	0	0	0	0	0	0	0	0	0	0	0	0	0	0	0	0	0	0	0	0	0	0	0	0	0	0	0	0	0	0	0	0	0	0	0	0	0	0	0	0	0	0	0	0	0	0	0	0	0	0	0	0	0	0	0	0	0
