0	0	0	0	0	0	0	0	0	0	0	0	0	0	0	0	0	0	0	0	0	0	0	0	0	0	0	0	0	0	0	0	0	0	0	0	0	0	0	0	0	0	0	0	0	0	0	0	0	0	0	0	0	0	0	0	0	0	0	0	0	0	0	0	0	0	0	0	0	0	0	0	0	0	0	0	0	0	0	0	0	0	0	0	0	0	0	0	0	0	0	0	1401	1422	1440	1450	1447	1453	1455	1462	1472	1467	1461	1451	1451	1444	1435	1453	1457	1450	1446	1452	1466	1465	1459	1448	1452	1459	1451	1439	1438	1447	1469	1495	1523	1544	1564	1555	1540	0	0	0	0	0	0	0	0	0	0	0	0	0	0	0	0	0	0	0	0	0	0	0	0	0	0	0	0	0	0	0	0	0	0	0	0	0	0	0	0	0	0	0	0	0	0	0	1377	1385	1385	1371	1377	1395	1403	1401	1391	1380	1375	1373	1379	1385	1420	1418	1398	1370	1357	1360	1374	1380	1372	1364	1362	1371	1395	1422	1438	1436	1428	1427	1430	1427	1402	1402	1420	1426	1424	1419	1425	1427	1422	1399	1379	1403	1419	1436	1460	1480	0	0	0	0	0	0	0	0	0	1627	1653	1664	1684	1703	1719	1723	1718	1727	1745	1748	1755	1733	1734	1731	1736	1751	1750	1756	1754	1744	1704	0	0	0	0	0	0	0	0	0	0	0	0	0	0	0	0	0	0	0	0	0	0	0	0	0	0	0	0	0	0	0	0	0	0	0	0	0	0	0	0	0	0	0	0	0	0	0	0	0	0	0	0	0	1432	1396	1379	1381	1373	1357	1350	1361	1374	1374	1369	1367	1367	1368	1377	1374	1373	1355	1341	1338	1322	1348	1370	1386	1380	1369	1361	1350	1343	1366	1380	1379	1383	1377	1368	1360	1364	1378	1375	1376	1381	1381	1362	1349	1339	1361	1387	1384	1372	1373	1380	1408	1454	1490	1531	1646	0	0	0	0	0	0	0	0	0	0	0	0	0	0	0	0	0	0	0	0	0	0	0	0	0	0	0	0	0	0	0	0	0	0	0	0	0	0	0	0	0	0	0	0	0	0	0	0	0	0	0	0	0	0	0	0	0	0	0	0	0	0	0	0	0	0	0	0	0	0	0	1639	1662	1683	1688	1706	1710	1716	1714	1707	1698	1695	0	0	0	0	0	0	0	0	1446	1450	1395	1352	1346	1354	1361	1353	1341	1340	1339	1337	1325	1328	1343	1359	1347	1339	1338	1344	1354	1352	1349	1342	1346	1346	1350	1351	1348	1344	1347	1374	1384	1379	1368	1370	1368	1371	1371	1373	1377	1373	1361	1347	1335	1327	1327	1343	1377	1378	1385	0	0	0	0	0	0	0	0	0	0	0	0	0	0	0	0	0	0	0	0	0	0	0	0	0	0	0	0	0	0	0	0	0	0	0	0	0	0	0	0	0	0	0	0	0	0	0	0	0	0	0	0	0	0	0	0	0	0	0	0	0	0	0	0	0	0	0	0	0	0	0	0	0	0	0	0	0	0	0	0	0	0	0	0	0	0	0	0	0	0	0	0	0	0	0	0	0	0	0	0	0	0	0	0	0	0	0	0	0	0	0	0	0	0	0	0	0	0	0	0	0	0	0	0	0	0	0	0	0	0	0	0	0
0	0	0	0	0	0	0	0	0	0	0	0	0	0	0	0	0	0	0	0	0	0	0	0	0	0	0	0	0	0	0	0	0	0	0	0	0	0	0	0	0	0	0	0	0	0	0	0	0	0	0	0	0	0	0	0	0	0	0	0	0	0	0	0	0	0	0	0	0	0	0	0	0	0	0	0	0	0	0	0	0	0	0	0	0	0	0	0	0	0	0	0	1400	1422	1438	1441	1460	1462	1467	1465	1466	1468	1470	1463	1466	1462	1475	1488	1481	1481	1485	1481	1482	1485	1475	1452	1450	1453	1453	1437	1433	1440	1449	1467	0	0	0	0	0	0	0	0	0	0	0	0	0	0	0	0	0	0	0	0	0	0	0	0	0	0	0	0	0	0	0	0	0	0	0	0	0	0	0	0	0	0	0	0	0	0	0	0	0	0	0	0	1381	1388	1395	1385	1389	1396	1403	1411	1408	1403	1387	1386	1394	1404	1425	1415	1395	1372	1369	1374	1387	1390	1383	1377	1371	1378	1398	1413	1428	1432	1426	1416	1425	1420	1397	1404	1416	1424	1428	1410	1404	1399	1403	1397	1380	1399	1436	1435	1442	1472	0	0	0	0	0	0	0	0	0	0	1668	1678	1688	1715	1727	1731	1719	1729	1754	1772	1770	1733	1727	1740	1744	1760	1756	1764	1762	1740	1712	0	0	0	0	0	0	0	0	0	0	0	0	0	0	0	0	0	0	0	0	0	0	0	0	0	0	0	0	0	0	0	0	0	0	0	0	0	0	0	0	0	0	0	0	0	0	0	0	0	0	0	0	0	1443	1408	1390	1384	1370	1345	1345	1350	1366	1365	1368	1370	1372	1368	1372	1375	1375	1354	1345	1348	1355	1367	1368	1376	1373	1364	1355	1352	1350	1366	1368	1375	1375	1381	1371	1367	1368	1377	1380	1381	1380	1376	1362	1354	1346	1357	1388	1389	1383	1375	1378	1402	1443	1485	1568	1663	0	0	0	0	0	0	0	0	0	0	0	0	0	0	0	0	0	0	0	0	0	0	0	0	0	0	0	0	0	0	0	0	0	0	0	0	0	0	0	0	0	0	0	0	0	0	0	0	0	0	0	0	0	0	0	0	0	0	0	0	0	0	0	0	0	0	0	0	0	0	0	1658	1677	1694	1699	1703	1704	1703	1705	1706	1706	1705	0	0	0	0	0	0	0	0	1450	1419	1394	1361	1350	1359	1372	1372	1348	1338	1337	1329	1328	1339	1348	1366	1362	1355	1346	1344	1347	1355	1361	1363	1367	1359	1356	1352	1348	1350	1357	1383	1391	1382	1371	1365	1367	1364	1362	1368	1370	1368	1362	1353	1344	1329	1324	1338	1377	1378	1385	0	0	0	0	0	0	0	0	0	0	0	0	0	0	0	0	0	0	0	0	0	0	0	0	0	0	0	0	0	0	0	0	0	0	0	0	0	0	0	0	0	0	0	0	0	0	0	0	0	0	0	0	0	0	0	0	0	0	0	0	0	0	0	0	0	0	0	0	0	0	0	0	0	0	0	0	0	0	0	0	0	0	0	0	0	0	0	0	0	0	0	0	0	0	0	0	0	0	0	0	0	0	0	0	0	0	0	0	0	0	0	0	0	0	0	0	0	0	0	0	0	0	0	0	0	0	0	0	0	0	0	0	0
0	0	0	0	0	0	0	0	0	0	0	0	0	0	0	0	0	0	0	0	0	0	0	0	0	0	0	0	0	0	0	0	0	0	0	0	0	0	0	0	0	0	0	0	0	0	0	0	0	0	0	0	0	0	0	0	0	0	0	0	0	0	0	0	0	0	0	0	0	0	0	0	0	0	0	0	0	0	0	0	0	0	0	0	0	0	0	0	0	0	0	0	1415	1429	1440	1439	1454	1466	1468	1468	1459	1459	1468	1479	1480	1473	1503	1511	1489	1497	1514	1509	1504	1492	1477	1451	1449	1440	1445	1437	1432	1450	1452	1460	0	0	0	0	0	0	0	0	0	0	0	0	0	0	0	0	0	0	0	0	0	0	0	0	0	0	0	0	0	0	0	0	0	0	0	0	0	0	0	0	0	0	0	0	0	0	0	0	0	0	0	0	1432	1413	1404	1397	1395	1401	1409	1417	1424	1420	1416	1406	1409	1423	1429	1412	1388	1379	1378	1382	1386	1391	1389	1382	1391	1393	1397	1402	1406	1414	1421	1412	1413	1399	1395	1398	1410	1416	1429	1400	1391	1385	1389	1398	1388	1396	1419	1422	1418	1437	0	0	0	0	0	0	0	0	0	0	1682	1681	1703	1720	1738	1736	1713	1729	1755	1771	1758	1726	1720	1740	1758	1755	1753	1742	1747	1736	1742	0	0	0	0	0	0	0	0	0	0	0	0	0	0	0	0	0	0	0	0	0	0	0	0	0	0	0	0	0	0	0	0	0	0	0	0	0	0	0	0	0	0	0	0	0	0	0	0	0	0	0	0	0	0	1418	1396	1387	1380	1372	1359	1360	1358	1358	1363	1368	1371	1369	1372	1383	1379	1376	1354	1356	1359	1378	1370	1365	1364	1363	1357	1357	1353	1367	1361	1363	1363	1376	1375	1369	1375	1377	1376	1374	1379	1360	1355	1355	1352	1356	1386	1400	1398	1386	1377	1388	1418	1482	1556	1654	0	0	0	0	0	0	0	0	0	0	0	0	0	0	0	0	0	0	0	0	0	0	0	0	0	0	0	0	0	0	0	0	0	0	0	0	0	0	0	0	0	0	0	0	0	0	0	0	0	0	0	0	0	0	0	0	0	0	0	0	0	0	0	0	0	0	0	0	0	0	0	1672	1688	1705	1716	1713	1700	1699	1700	1709	1717	1699	0	0	0	0	0	0	0	0	1453	1436	1416	1379	1360	1370	1383	1389	1364	1353	1342	1345	1340	1353	1366	1380	1381	1374	1362	1352	1352	1360	1370	1380	1378	1371	1366	1357	1353	1357	1366	1384	1384	1379	1369	1362	1357	1352	1354	1361	1362	1365	1365	1363	1355	1336	1329	1341	1377	1369	1361	0	0	0	0	0	0	0	0	0	0	0	0	0	0	0	0	0	0	0	0	0	0	0	0	0	0	0	0	0	0	0	0	0	0	0	0	0	0	0	0	0	0	0	0	0	0	0	0	0	0	0	0	0	0	0	0	0	0	0	0	0	0	0	0	0	0	0	0	0	0	0	0	0	0	0	0	0	0	0	0	0	0	0	0	0	0	0	0	0	0	0	0	0	0	0	0	0	0	0	0	0	0	0	0	0	0	0	0	0	0	0	0	0	0	0	0	0	0	0	0	0	0	0	0	0	0	0	0	0	0	0	0	0
0	0	0	0	0	0	0	0	0	0	0	0	0	0	0	0	0	0	0	0	0	0	0	0	0	0	0	0	0	0	0	0	0	0	0	0	0	0	0	0	0	0	0	0	0	0	0	0	0	0	0	0	0	0	0	0	0	0	0	0	0	0	0	0	0	0	0	0	0	0	0	0	0	0	0	0	0	0	0	0	0	0	0	0	0	0	0	0	0	0	0	0	1442	1446	1453	1454	1455	1462	1467	1459	1443	1445	1463	1478	1485	1480	1497	1492	1480	1497	1506	1523	1517	1490	1469	1445	1435	1428	1421	1437	1469	1479	1479	1473	0	0	0	0	0	0	0	0	0	0	0	0	0	0	0	0	0	0	0	0	0	0	0	0	0	0	0	0	0	0	0	0	0	0	0	0	0	0	0	0	0	0	0	0	0	0	0	0	0	0	0	0	1448	1432	1407	1398	1396	1398	1396	1409	1421	1423	1420	1420	1413	1432	1433	1409	1393	1386	1380	1381	1387	1395	1385	1387	1398	1411	1413	1404	1393	1405	1411	1408	1398	1389	1393	1401	1400	1410	1417	1403	1390	1387	1390	1403	1393	1380	1411	1416	1408	1405	0	0	0	0	0	0	0	0	0	0	1681	1699	1705	1709	1721	1721	1709	1728	1748	1763	1747	1724	1727	1739	1748	1736	1720	1709	1712	1718	1733	0	0	0	0	0	0	0	0	0	0	0	0	0	0	0	0	0	0	0	0	0	0	0	0	0	0	0	0	0	0	0	0	0	0	0	0	0	0	0	0	0	0	0	0	0	0	0	0	0	0	0	0	0	0	1416	1396	1394	1385	1381	1380	1374	1361	1353	1359	1370	1374	1374	1374	1386	1376	1364	1351	1372	1380	1377	1374	1366	1362	1361	1360	1357	1360	1362	1359	1360	1365	1376	1373	1371	1370	1371	1370	1366	1358	1352	1356	1358	1354	1357	1388	1407	1406	1394	1378	1379	1407	1486	1556	1645	0	0	0	0	0	0	0	0	0	0	0	0	0	0	0	0	0	0	0	0	0	0	0	0	0	0	0	0	0	0	0	0	0	0	0	0	0	0	0	0	0	0	0	0	0	0	0	0	0	0	0	0	0	0	0	0	0	0	0	0	0	0	0	0	0	0	0	0	0	0	0	1674	1692	1706	1724	1724	1708	1693	1691	1698	1707	1693	0	0	0	0	0	0	0	0	1465	1440	1437	1428	1385	1377	1389	1399	1382	1371	1365	1367	1361	1366	1372	1375	1388	1383	1376	1366	1362	1360	1370	1380	1376	1370	1368	1358	1357	1361	1367	1376	1377	1372	1365	1360	1354	1348	1350	1351	1357	1364	1363	1362	1361	1344	1339	1346	1374	1358	1353	0	0	0	0	0	0	0	0	0	0	0	0	0	0	0	0	0	0	0	0	0	0	0	0	0	0	0	0	0	0	0	0	0	0	0	0	0	0	0	0	0	0	0	0	0	0	0	0	0	0	0	0	0	0	0	0	0	0	0	0	0	0	0	0	0	0	0	0	0	0	0	0	0	0	0	0	0	0	0	0	0	0	0	0	0	0	0	0	0	0	0	0	0	0	0	0	0	0	0	0	0	0	0	0	0	0	0	0	0	0	0	0	0	0	0	0	0	0	0	0	0	0	0	0	0	0	0	0	0	0	0	0	0
0	0	0	0	0	0	0	0	0	0	0	0	0	0	0	0	0	0	0	0	0	0	0	0	0	0	0	0	0	0	0	0	0	0	0	0	0	0	0	0	0	0	0	0	0	0	0	0	0	0	0	0	0	0	0	0	0	0	0	0	0	0	0	0	0	0	0	0	0	0	0	0	0	0	0	0	0	0	0	0	0	0	0	0	0	0	0	0	0	0	0	0	1462	1459	1462	1464	1466	1466	1463	1455	1440	1436	1454	1474	1485	1487	1491	1473	1463	1449	1442	1428	1478	1481	1456	1446	1436	1428	1422	1425	1491	1502	1506	1491	0	0	0	0	0	0	0	0	0	0	0	0	0	0	0	0	0	0	0	0	0	0	0	0	0	0	0	0	0	0	0	0	0	0	0	0	0	0	0	0	0	0	0	0	0	0	0	0	0	0	0	0	1428	1412	1396	1399	1398	1390	1376	1388	1400	1411	1410	1415	1431	1439	1430	1407	1396	1388	1384	1384	1390	1394	1390	1388	1402	1416	1421	1406	1391	1405	1411	1407	1395	1390	1392	1402	1397	1399	1407	1408	1398	1404	1406	1396	1390	1396	1434	1425	1414	1411	0	0	0	0	0	0	0	0	0	0	1679	1689	1695	1694	1689	1685	1695	1712	1737	1755	1746	1724	1722	1734	1734	1720	1697	1689	1700	1707	1699	0	0	0	0	0	0	0	0	0	0	0	0	0	0	0	0	0	0	0	0	0	0	0	0	0	0	0	0	0	0	0	0	0	0	0	0	0	0	0	0	0	0	0	0	0	0	0	0	0	0	0	0	0	0	1410	1390	1385	1377	1381	1385	1394	1365	1351	1359	1368	1380	1382	1381	1381	1375	1363	1344	1349	1360	1365	1364	1358	1358	1366	1370	1369	1367	1366	1365	1370	1381	1377	1369	1370	1371	1374	1373	1367	1357	1351	1353	1358	1356	1356	1387	1405	1403	1394	1378	1370	1404	1508	1559	1614	0	0	0	0	0	0	0	0	0	0	0	0	0	0	0	0	0	0	0	0	0	0	0	0	0	0	0	0	0	0	0	0	0	0	0	0	0	0	0	0	0	0	0	0	0	0	0	0	0	0	0	0	0	0	0	0	0	0	0	0	0	0	0	0	0	0	0	0	0	0	0	1684	1689	1700	1719	1725	1708	1693	1689	1688	1690	1694	0	0	0	0	0	0	0	0	1446	1432	1419	1426	1391	1376	1378	1397	1394	1387	1386	1386	1375	1376	1371	1369	1380	1377	1375	1363	1355	1364	1375	1376	1370	1365	1360	1359	1361	1368	1370	1372	1372	1369	1366	1361	1357	1352	1353	1354	1364	1362	1364	1368	1365	1349	1342	1350	1369	1357	1348	0	0	0	0	0	0	0	0	0	0	0	0	0	0	0	0	0	0	0	0	0	0	0	0	0	0	0	0	0	0	0	0	0	0	0	0	0	0	0	0	0	0	0	0	0	0	0	0	0	0	0	0	0	0	0	0	0	0	0	0	0	0	0	0	0	0	0	0	0	0	0	0	0	0	0	0	0	0	0	0	0	0	0	0	0	0	0	0	0	0	0	0	0	0	0	0	0	0	0	0	0	0	0	0	0	0	0	0	0	0	0	0	0	0	0	0	0	0	0	0	0	0	0	0	0	0	0	0	0	0	0	0	0
0	0	0	0	0	0	0	0	0	0	0	0	0	0	0	0	0	0	0	0	0	0	0	0	0	0	0	0	0	0	0	0	0	0	0	0	0	0	0	0	0	0	0	0	0	0	0	0	0	0	0	0	0	0	0	0	0	0	0	0	0	0	0	0	0	0	0	0	0	0	0	0	0	0	0	0	0	0	0	0	0	0	0	0	0	0	0	0	0	0	0	0	1469	1459	1462	1464	1464	1471	1475	1467	1443	1440	1452	1472	1490	1495	1496	1465	1444	1414	0	0	0	1476	1463	1456	1456	1445	1428	1427	1490	1504	1509	1499	0	0	0	0	0	0	0	0	0	0	0	0	0	0	0	0	0	0	0	0	0	0	0	0	0	0	0	0	0	0	0	0	0	0	0	0	0	0	0	0	0	0	0	0	0	0	0	0	0	0	0	0	1411	1395	1390	1400	1405	1389	1377	1382	1395	1404	1410	1417	1424	1437	1423	1400	1390	1388	1396	1395	1400	1394	1388	1388	1395	1414	1410	1406	1400	1408	1411	1407	1401	1390	1392	1396	1399	1398	1405	1408	1404	1405	1398	1391	1390	1403	1460	1460	1452	1450	0	0	0	0	0	0	0	0	0	0	1668	1669	1677	1673	1662	1651	1676	1702	1722	1729	1721	1710	1702	1722	1725	1694	1696	1689	1700	1690	1680	0	0	0	0	0	0	0	0	0	0	0	0	0	0	0	0	0	0	0	0	0	0	0	0	0	0	0	0	0	0	0	0	0	0	0	0	0	0	0	0	0	0	0	0	0	0	0	0	0	0	0	0	0	0	1406	1397	1377	1368	1373	1385	1395	1377	1357	1361	1369	1379	1387	1388	1380	1371	1356	1349	1339	1336	1343	1353	1354	1362	1369	1378	1386	1380	1378	1376	1387	1389	1383	1378	1376	1379	1382	1381	1380	1374	1370	1369	1364	1361	1358	1386	1396	1397	1397	1384	1368	1404	1532	1576	1615	0	0	0	0	0	0	0	0	0	0	0	0	0	0	0	0	0	0	0	0	0	0	0	0	0	0	0	0	0	0	0	0	0	0	0	0	0	0	0	0	0	0	0	0	0	0	0	0	0	0	0	0	0	0	0	0	0	0	0	0	0	0	0	0	0	0	0	0	0	0	0	1677	1689	1693	1708	1692	1692	1688	1676	1667	1671	0	0	0	0	0	0	0	0	0	1441	1393	1394	1405	1387	1375	1367	1386	1396	1395	1395	1388	1378	1375	1375	1371	1369	1370	1366	1353	1359	1363	1370	1372	1368	1362	1361	1367	1373	1369	1374	1375	1369	1372	1368	1369	1371	1361	1352	1360	1362	1372	1368	1366	1363	1346	1344	1349	1362	1349	1357	0	0	0	0	0	0	0	0	0	0	0	0	0	0	0	0	0	0	0	0	0	0	0	0	0	0	0	0	0	0	0	0	0	0	0	0	0	0	0	0	0	0	0	0	0	0	0	0	0	0	0	0	0	0	0	0	0	0	0	0	0	0	0	0	0	0	0	0	0	0	0	0	0	0	0	0	0	0	0	0	0	0	0	0	0	0	0	0	0	0	0	0	0	0	0	0	0	0	0	0	0	0	0	0	0	0	0	0	0	0	0	0	0	0	0	0	0	0	0	0	0	0	0	0	0	0	0	0	0	0	0	0	0
0	0	0	0	0	0	0	0	0	0	0	0	0	0	0	0	0	0	0	0	0	0	0	0	0	0	0	0	0	0	0	0	0	0	0	0	0	0	0	0	0	0	0	0	0	0	0	0	0	0	0	0	0	0	0	0	0	0	0	0	0	0	0	0	0	0	0	0	0	0	0	0	0	0	0	0	0	0	0	0	0	0	0	0	0	0	0	0	0	0	0	0	1460	1450	1447	1452	1457	1462	1476	1469	1462	1458	1463	1478	1489	1491	1492	1471	1456	1417	1404	0	1469	1483	1477	1477	1481	1474	1448	1442	1482	1495	1508	1492	0	0	0	0	0	0	0	0	0	0	0	0	0	0	0	0	0	0	0	0	0	0	0	0	0	0	0	0	0	0	0	0	0	0	0	0	0	0	0	0	0	0	0	0	0	0	0	0	0	0	0	0	1398	1390	1388	1400	1403	1391	1385	1389	1400	1409	1410	1413	1421	1430	1411	1391	1388	1393	1405	1405	1398	1393	1386	1387	1396	1406	1405	1407	1406	1404	1403	1405	1411	1397	1393	1393	1394	1401	1416	1417	1403	1401	1384	1397	1393	1408	1477	1489	1488	0	0	0	0	0	0	0	0	0	0	0	0	1675	1666	1672	1638	1632	1657	1680	1695	1695	1687	1671	1677	1688	1715	1735	1719	1716	1706	1682	1661	0	0	0	0	0	0	0	0	0	0	0	0	0	0	0	0	0	0	0	0	0	0	0	0	0	0	0	0	0	0	0	0	0	0	0	0	0	0	0	0	0	0	0	0	0	0	0	0	0	0	0	0	0	1386	1397	1390	1374	1371	1377	1392	1398	1381	1372	1359	1368	1377	1385	1386	1378	1372	1356	1352	1354	1360	1357	1349	1354	1367	1375	1388	1394	1393	1390	1390	1394	1394	1396	1390	1393	1392	1385	1385	1388	1391	1384	1381	1376	1373	1384	1390	1396	1402	1401	1387	1373	1422	1537	1599	1622	0	0	0	0	0	0	0	0	0	0	0	0	0	0	0	0	0	0	0	0	0	0	0	0	0	0	0	0	0	0	0	0	0	0	0	0	0	0	0	0	0	0	0	0	0	0	0	0	0	0	0	0	0	0	0	0	0	0	0	0	0	0	0	0	0	0	0	0	0	0	0	1655	1677	1681	1675	1677	1687	1676	0	0	0	0	0	0	0	0	0	0	0	0	1430	1379	1388	1394	1376	1366	1360	1381	1387	1388	1382	1379	1379	1379	1379	1372	1365	1364	1362	1356	1356	1364	1368	1373	1371	1367	1370	1369	1382	1384	1380	1371	1368	1371	1377	1381	1380	1370	1357	1355	1362	1371	1373	1358	1351	1332	1340	1352	1367	1350	1370	0	0	0	0	0	0	0	0	0	0	0	0	0	0	0	0	0	0	0	0	0	0	0	0	0	0	0	0	0	0	0	0	0	0	0	0	0	0	0	0	0	0	0	0	0	0	0	0	0	0	0	0	0	0	0	0	0	0	0	0	0	0	0	0	0	0	0	0	0	0	0	0	0	0	0	0	0	0	0	0	0	0	0	0	0	0	0	0	0	0	0	0	0	0	0	0	0	0	0	0	0	0	0	0	0	0	0	0	0	0	0	0	0	0	0	0	0	0	0	0	0	0	0	0	0	0	0	0	0	0	0	0	0
0	0	0	0	0	0	0	0	0	0	0	0	0	0	0	0	0	0	0	0	0	0	0	0	0	0	0	0	0	0	0	0	0	0	0	0	0	0	0	0	0	0	0	0	0	0	0	0	0	0	0	0	0	0	0	0	0	0	0	0	0	0	0	0	0	0	0	0	0	0	0	0	0	0	0	0	0	0	0	0	0	0	0	0	0	0	0	0	0	0	0	0	1457	1431	1434	1431	1438	1417	1429	1451	1469	1494	1495	1484	1475	1474	1466	1462	1470	1471	1470	1484	1498	1500	1496	1492	1500	1494	1481	1445	1449	1473	1494	1494	0	0	0	0	0	0	0	0	0	0	0	0	0	0	0	0	0	0	0	0	0	0	0	0	0	0	0	0	0	0	0	0	0	0	0	0	0	0	0	0	0	0	0	0	0	0	0	0	0	0	0	0	1396	1380	1380	1392	1401	1399	1397	1398	1400	1406	1412	1413	1413	1417	1392	1380	1382	1393	1397	1398	1385	1386	1385	1390	1397	1406	1408	1401	1399	1388	1386	1393	1412	1420	1401	1397	1395	1396	1410	1408	1394	1380	1385	1400	1407	1415	1484	1497	1503	0	0	0	0	0	0	0	0	0	0	0	0	0	0	0	0	0	0	0	0	0	0	0	0	0	0	1741	1751	1733	1711	1684	0	0	0	0	0	0	0	0	0	0	0	0	0	0	0	0	0	0	0	0	0	0	0	0	0	0	0	0	0	0	0	0	0	0	0	0	0	0	0	0	0	0	0	0	0	0	0	0	0	0	0	0	0	0	1395	1396	1379	1370	1361	1381	1398	1395	1386	1381	1372	1373	1380	1386	1386	1382	1375	1360	1346	1350	1361	1365	1358	1365	1375	1379	1395	1398	1399	1397	1403	1402	1401	1404	1404	1401	1394	1382	1377	1383	1390	1393	1390	1381	1379	1389	1390	1397	1406	1399	1383	1380	1436	1549	1593	1610	0	0	0	0	0	0	0	0	0	0	0	0	0	0	0	0	0	0	0	0	0	0	0	0	0	0	0	0	0	0	0	0	0	0	0	0	0	0	0	0	0	0	0	0	0	0	0	0	0	0	0	0	0	0	0	0	0	0	0	0	0	0	0	0	0	0	0	0	0	0	0	1631	1643	1653	1662	1668	0	0	0	0	0	0	0	0	0	0	0	0	0	0	1445	1386	1392	1398	1383	1371	1363	1365	1381	1378	1372	1370	1371	1371	1376	1372	1364	1362	1358	1358	1361	1368	1373	1372	1376	1373	1379	1385	1389	1388	1385	1364	1364	1377	1387	1390	1390	1375	1361	1352	1355	1367	1368	1358	1344	1334	1344	1359	1373	1366	1374	0	0	0	0	0	0	0	0	0	0	0	0	0	0	0	0	0	0	0	0	0	0	0	0	0	0	0	0	0	0	0	0	0	0	0	0	0	0	0	0	0	0	0	0	0	0	0	0	0	0	0	0	0	0	0	0	0	0	0	0	0	0	0	0	0	0	0	0	0	0	0	0	0	0	0	0	0	0	0	0	0	0	0	0	0	0	0	0	0	0	0	0	0	0	0	0	0	0	0	0	0	0	0	0	0	0	0	0	0	0	0	0	0	0	0	0	0	0	0	0	0	0	0	0	0	0	0	0	0	0	0	0	0
0	0	0	0	0	0	0	0	0	0	0	0	0	0	0	0	0	0	0	0	0	0	0	0	0	0	0	0	0	0	0	0	0	0	0	0	0	0	0	0	0	0	0	0	0	0	0	0	0	0	0	0	0	0	0	0	0	0	0	0	0	0	0	0	0	0	0	0	0	0	0	0	0	0	0	0	0	0	0	0	0	0	0	0	0	0	0	0	0	0	0	0	1463	1431	1416	1406	1410	1415	1424	1446	1467	1489	1486	1475	1462	1458	1454	1463	1471	1476	1480	1481	1492	1494	1500	1490	1485	1478	1465	1433	1434	1448	1459	1465	0	0	0	0	0	0	0	0	0	0	0	0	0	0	0	0	0	0	0	0	0	0	0	0	0	0	0	0	0	0	0	0	0	0	0	0	0	0	0	0	0	0	0	0	0	0	0	0	0	0	0	0	1389	1376	1374	1387	1390	1398	1394	1398	1405	1410	1411	1412	1413	1410	1380	1377	1384	1394	1389	1389	1386	1384	1385	1389	1410	1403	1400	1393	1394	1382	1381	1385	1404	1417	1429	1414	1397	1394	1395	1404	1402	1380	1383	1419	1431	1449	1491	1495	1500	0	0	0	0	0	0	0	0	0	0	0	0	0	0	0	0	0	0	0	0	0	0	0	0	0	0	0	0	0	1715	0	0	0	0	0	0	0	0	0	0	0	0	0	0	0	0	0	0	0	0	0	0	0	0	0	0	0	0	0	0	0	0	0	0	0	0	0	0	0	0	0	0	0	0	0	0	0	0	0	0	0	0	0	0	0	1422	1398	1373	1365	1357	1380	1393	1393	1388	1385	1382	1383	1386	1384	1386	1384	1380	1363	1351	1354	1361	1372	1371	1374	1386	1394	1397	1397	1403	1400	1401	1407	1407	1409	1405	1401	1388	1375	1371	1374	1385	1390	1386	1385	1382	1383	1388	1398	1396	1384	1377	1390	1435	1521	1570	0	0	0	0	0	0	0	0	0	0	0	0	0	0	0	0	0	0	0	0	0	0	0	0	0	0	0	0	0	0	0	0	0	0	0	0	0	0	0	0	0	0	0	0	0	0	0	0	0	0	0	0	0	0	0	0	0	0	0	0	0	0	0	0	0	0	0	0	0	0	0	0	0	1651	1661	0	0	0	0	0	0	0	0	0	0	0	0	0	0	0	0	1450	1405	1417	1406	1394	1383	1373	1371	1375	1367	1360	1355	1358	1357	1363	1365	1362	1361	1359	1371	1374	1377	1379	1381	1378	1381	1388	1387	1385	1382	1371	1357	1362	1379	1391	1394	1390	1377	1358	1347	1348	1366	1361	1350	1341	1341	1357	1367	1385	1389	1391	0	0	0	0	0	0	0	0	0	0	0	0	0	0	0	0	0	0	0	0	0	0	0	0	0	0	0	0	0	0	0	0	0	0	0	0	0	0	0	0	0	0	0	0	0	0	0	0	0	0	0	0	0	0	0	0	0	0	0	0	0	0	0	0	0	0	0	0	0	0	0	0	0	0	0	0	0	0	0	0	0	0	0	0	0	0	0	0	0	0	0	0	0	0	0	0	0	0	0	0	0	0	0	0	0	0	0	0	0	0	0	0	0	0	0	0	0	0	0	0	0	0	0	0	0	0	0	0	0	0	0	0	0
0	0	0	0	0	0	0	0	0	0	0	0	0	0	0	0	0	0	0	0	0	0	0	0	0	0	0	0	0	0	0	0	0	0	0	0	0	0	0	0	0	0	0	0	0	0	0	0	0	0	0	0	0	0	0	0	0	0	0	0	0	0	0	0	0	0	0	0	0	0	0	0	0	0	0	0	0	0	0	0	0	0	0	0	0	0	0	0	0	0	0	0	1472	1446	1423	1413	1412	1419	1434	1439	1463	1478	1476	1461	1454	1448	1446	1474	1489	1486	1479	1479	1479	1494	1501	1484	1471	1456	1440	1413	1418	1433	1438	1453	0	0	0	0	0	0	0	0	0	0	0	0	0	0	0	0	0	0	0	0	0	0	0	0	0	0	0	0	0	0	0	0	0	0	0	0	0	0	0	0	0	0	0	0	0	0	0	0	0	0	0	0	1378	1373	1378	1383	1383	1380	1385	1394	1407	1407	1405	1403	1407	1403	1392	1389	1395	1395	1387	1382	1381	1380	1387	1396	1402	1398	1395	1391	1392	1387	1373	1385	1399	1409	1426	1427	1404	1396	1394	1399	1400	1399	1410	1446	1458	1473	1491	1493	1488	1488	0	0	0	0	0	0	0	0	0	0	0	0	0	0	0	0	0	0	0	0	0	0	0	0	0	0	0	0	0	0	0	0	0	0	0	0	0	0	0	0	0	0	0	0	0	0	0	0	0	0	0	0	0	0	0	0	0	0	0	0	0	0	0	0	0	0	0	0	0	0	0	0	0	0	0	0	0	0	0	0	0	0	0	0	0	1409	1362	1361	1360	1381	1390	1392	1394	1395	1389	1387	1382	1381	1384	1385	1383	1376	1362	1361	1369	1379	1384	1384	1394	1397	1392	1390	1392	1404	1396	1388	1388	1382	1386	1388	1386	1373	1369	1372	1382	1386	1384	1380	1381	1379	1383	1397	1376	1364	1367	1388	1429	1492	1565	0	0	0	0	0	0	0	0	0	0	0	0	0	0	0	0	0	0	0	0	0	0	0	0	0	0	0	0	0	0	0	0	0	0	0	0	0	0	0	0	0	0	0	0	0	0	0	0	0	0	0	0	0	0	0	0	0	0	0	0	0	0	0	0	0	0	0	0	0	0	0	0	0	0	0	0	0	0	0	0	0	0	0	0	0	0	0	0	0	0	0	1470	1413	1425	1410	1399	1395	1387	1367	1361	1357	1345	1337	1337	1334	1343	1354	1361	1359	1359	1365	1370	1371	1368	1373	1381	1383	1384	1381	1375	1373	1354	1348	1355	1372	1385	1390	1383	1372	1362	1361	1362	1358	1357	1348	1339	1349	1373	1382	1397	1405	1404	0	0	0	0	0	0	0	0	0	0	0	0	0	0	0	0	0	0	0	0	0	0	0	0	0	0	0	0	0	0	0	0	0	0	0	0	0	0	0	0	0	0	0	0	0	0	0	0	0	0	0	0	0	0	0	0	0	0	0	0	0	0	0	0	0	0	0	0	0	0	0	0	0	0	0	0	0	0	0	0	0	0	0	0	0	0	0	0	0	0	0	0	0	0	0	0	0	0	0	0	0	0	0	0	0	0	0	0	0	0	0	0	0	0	0	0	0	0	0	0	0	0	0	0	0	0	0	0	0	0	0	0	0
0	0	0	0	0	0	0	0	0	0	0	0	0	0	0	0	0	0	0	0	0	0	0	0	0	0	0	0	0	0	0	0	0	0	0	0	0	0	0	0	0	0	0	0	0	0	0	0	0	0	0	0	0	0	0	0	0	0	0	0	0	0	0	0	0	0	0	0	0	0	0	0	0	0	0	0	0	0	0	0	0	0	0	0	0	0	0	0	0	0	0	0	1499	1468	1439	1419	1426	1436	1445	1445	1453	1464	1463	1454	1446	1448	1451	1492	1503	1499	1481	1477	1481	1487	1490	1486	1468	1450	1439	1406	1413	1420	1430	1434	0	0	0	0	0	0	0	0	0	0	0	0	0	0	0	0	0	0	0	0	0	0	0	0	0	0	0	0	0	0	0	0	0	0	0	0	0	0	0	0	0	0	0	0	0	0	0	0	0	0	0	0	1381	1375	1387	1394	1391	1387	1377	1387	1393	1398	1400	1397	1395	1401	1405	1405	1407	1403	1392	1384	1380	1385	1391	1394	1393	1393	1393	1395	1396	1387	1385	1388	1398	1406	1421	1426	1403	1398	1389	1395	1401	1411	1447	1467	1477	1474	1466	1471	1463	0	0	0	0	0	0	0	0	0	0	0	0	0	0	0	0	0	0	0	0	0	0	0	0	0	0	0	0	0	0	0	0	0	0	0	0	0	0	0	0	0	0	0	0	0	0	0	0	0	0	0	0	0	0	0	0	0	0	0	0	0	0	0	0	0	0	0	0	0	0	0	0	0	0	0	0	0	0	0	0	0	0	0	0	0	0	1415	1381	1376	1376	1377	1385	1392	1396	1399	1386	1381	1378	1379	1383	1389	1387	1380	1374	1375	1382	1398	1394	1392	1391	1389	1384	1379	1380	1386	1387	1386	1388	1383	1383	1385	1388	1377	1371	1377	1381	1383	1378	1376	1377	1374	1380	1391	1370	1359	1359	1395	1426	1483	1585	0	0	0	0	0	0	0	0	0	0	0	0	0	0	0	0	0	0	0	0	0	0	0	0	0	0	0	0	0	0	0	0	0	0	0	0	0	0	0	0	0	0	0	0	0	0	0	0	0	0	0	0	0	0	0	0	0	0	0	0	0	0	0	0	0	0	0	0	0	0	0	0	0	0	0	0	0	0	0	0	0	0	0	0	0	0	0	0	0	0	0	1473	1431	1422	1403	1389	1392	1387	1362	1353	1349	1340	1332	1326	1319	1325	1348	1354	1356	1357	1355	1359	1361	1362	1369	1379	1384	1382	1376	1364	1367	1354	1345	1352	1364	1375	1379	1378	1373	1366	1370	1369	1356	1350	1339	1337	1363	1383	1381	1381	1393	1419	0	0	0	0	0	0	0	0	0	0	0	0	0	0	0	0	0	0	0	0	0	0	0	0	0	0	0	0	0	0	0	0	0	0	0	0	0	0	0	0	0	0	0	0	0	0	0	0	0	0	0	0	0	0	0	0	0	0	0	0	0	0	0	0	0	0	0	0	0	0	0	0	0	0	0	0	0	0	0	0	0	0	0	0	0	0	0	0	0	0	0	0	0	0	0	0	0	0	0	0	0	0	0	0	0	0	0	0	0	0	0	0	0	0	0	0	0	0	0	0	0	0	0	0	0	0	0	0	0	0	0	0	0
0	0	0	0	0	0	0	0	0	0	0	0	0	0	0	0	0	0	0	0	0	0	0	0	0	0	0	0	0	0	0	0	0	0	0	0	0	0	0	0	0	0	0	0	0	0	0	0	0	0	0	0	0	0	0	0	0	0	0	0	0	0	0	0	0	0	0	0	0	0	0	0	0	0	0	0	0	0	0	0	0	0	0	0	0	0	0	0	0	0	0	0	1501	1458	1424	1421	1438	1442	1455	1458	1457	1453	1454	1455	1452	1462	1465	1496	1515	1498	1483	1473	1474	1477	1490	1488	1471	1456	1442	1416	1414	1417	1420	1428	1448	0	0	0	0	0	0	0	0	0	0	0	0	0	0	0	0	0	0	0	0	0	0	0	0	0	0	0	0	0	0	0	0	0	0	0	0	0	0	0	0	0	0	0	0	0	0	0	0	0	0	0	1366	1358	1369	1374	1382	1389	1392	1390	1393	1387	1394	1392	1395	1406	1415	1415	1410	1408	1397	1385	1386	1389	1394	1400	1398	1397	1397	1398	1399	1397	1394	1390	1396	1406	1416	1410	1405	1400	1392	1393	1402	1416	1453	1470	1470	1454	1433	1421	1442	0	0	0	0	0	0	0	0	0	0	0	0	0	0	0	0	0	0	0	0	0	0	0	0	0	0	0	0	0	0	0	0	0	0	0	0	0	0	0	0	0	0	0	0	0	0	0	0	0	0	0	0	0	0	0	0	0	0	0	0	0	0	0	0	0	0	0	0	0	0	0	0	0	0	0	0	0	0	0	0	0	0	0	0	0	0	1411	1383	1381	1365	1372	1382	1394	1401	1389	1372	1372	1368	1371	1380	1386	1389	1388	1390	1393	1397	1396	1393	1383	1382	1383	1376	1370	1368	1375	1384	1385	1377	1376	1385	1384	1383	1381	1380	1377	1390	1386	1380	1374	1371	1367	1376	1378	1364	1358	1367	1399	1434	1503	0	0	0	0	0	0	0	0	0	0	0	0	0	0	0	0	0	0	0	0	0	0	0	0	0	0	0	0	0	0	0	0	0	0	0	0	0	0	0	0	0	0	0	0	0	0	0	0	0	0	0	0	0	0	0	0	0	0	0	0	0	0	0	0	0	0	0	0	0	0	0	0	0	0	0	0	0	0	0	0	0	0	0	0	0	0	0	0	0	0	0	0	1466	1423	1416	1388	1372	1377	1370	1366	1355	1353	1347	1341	1331	1320	1318	1342	1347	1352	1352	1362	1361	1359	1358	1368	1382	1384	1373	1367	1360	1368	1354	1346	1346	1349	1367	1370	1362	1362	1364	1362	1358	1348	1339	1335	1343	1370	1377	1366	1356	1380	1422	0	0	0	0	0	0	0	0	0	0	0	0	0	0	0	0	0	0	0	0	0	0	0	0	0	0	0	0	0	0	0	0	0	0	0	0	0	0	0	0	0	0	0	0	0	0	0	0	0	0	0	0	0	0	0	0	0	0	0	0	0	0	0	0	0	0	0	0	0	0	0	0	0	0	0	0	0	0	0	0	0	0	0	0	0	0	0	0	0	0	0	0	0	0	0	0	0	0	0	0	0	0	0	0	0	0	0	0	0	0	0	0	0	0	0	0	0	0	0	0	0	0	0	0	0	0	0	0	0	0	0	0	0
0	0	0	0	0	0	0	0	0	0	0	0	0	0	0	0	0	0	0	0	0	0	0	0	0	0	0	0	0	0	0	0	0	0	0	0	0	0	0	0	0	0	0	0	0	0	0	0	0	0	0	0	0	0	0	0	0	0	0	0	0	0	0	0	0	0	0	0	0	0	0	0	0	0	0	0	0	0	0	0	0	0	0	0	0	0	0	0	0	0	0	0	0	1472	1449	1436	1439	1450	1457	1460	1456	1452	1458	1460	1470	1480	1481	1504	1517	1508	1483	1469	1463	1457	1481	1489	1483	1478	1466	1445	1431	1415	1416	1415	1442	0	0	0	0	0	0	0	0	0	0	0	0	0	0	0	0	0	0	0	0	0	0	0	0	0	0	0	0	0	0	0	0	0	0	0	0	0	0	0	0	0	0	0	0	0	0	0	0	0	0	0	1359	1359	1371	1374	1387	1391	1387	1381	1382	1387	1402	1407	1407	1407	1408	1406	1408	1404	1402	1389	1385	1390	1405	1413	1408	1401	1399	1402	1401	1399	1392	1390	1398	1407	1414	1400	1406	1403	1399	1393	1386	1394	1431	1459	1449	1412	1392	1412	0	0	0	0	0	0	0	0	0	0	0	0	0	0	0	0	0	0	0	0	0	0	0	0	0	0	0	0	0	0	0	0	0	0	0	0	0	0	0	0	0	0	0	0	0	0	0	0	0	0	0	0	0	0	0	0	0	0	0	0	0	0	0	0	0	0	0	0	0	0	0	0	0	0	0	0	0	0	0	0	0	0	0	0	0	0	0	1409	1383	1374	1361	1369	1379	1397	1392	1371	1364	1365	1364	1368	1372	1376	1383	1390	1391	1394	1396	1391	1382	1372	1368	1372	1371	1365	1360	1365	1372	1381	1381	1383	1379	1375	1370	1372	1373	1381	1385	1391	1383	1378	1369	1368	1372	1374	1364	1361	1379	1404	1429	1537	0	0	0	0	0	0	0	0	0	0	0	0	0	0	0	0	0	0	0	0	0	0	0	0	0	0	0	0	0	0	0	0	0	0	0	0	0	0	0	0	0	0	0	0	0	0	0	0	0	0	0	0	0	0	0	0	0	0	0	0	0	0	0	0	0	0	0	0	0	0	0	0	0	0	0	0	0	0	0	0	0	0	0	0	0	0	0	0	0	0	0	0	0	1417	1402	1366	1350	1362	1359	1354	1350	1352	1357	1354	1337	1326	1325	1342	1341	1340	1348	1362	1362	1363	1362	1369	1381	1377	1370	1363	1361	1364	1350	1352	1347	1346	1347	1349	1352	1353	1355	1352	1348	1341	1338	1344	1353	1372	1367	1349	1340	1360	1414	1480	0	0	0	0	0	0	0	0	0	0	0	0	0	0	0	0	0	0	0	0	0	0	0	0	0	0	0	0	0	0	0	0	0	0	0	0	0	0	0	0	0	0	0	0	0	0	0	0	0	0	0	0	0	0	0	0	0	0	0	0	0	0	0	0	0	0	0	0	0	0	0	0	0	0	0	0	0	0	0	0	0	0	0	0	0	0	0	0	0	0	0	0	0	0	0	0	0	0	0	0	0	0	0	0	0	0	0	0	0	0	0	0	0	0	0	0	0	0	0	0	0	0	0	0	0	0	0	0	0	0	0	0
0	0	0	0	0	0	0	0	0	0	0	0	0	0	0	0	0	0	0	0	0	0	0	0	0	0	0	0	0	0	0	0	0	0	0	0	0	0	0	0	0	0	0	0	0	0	0	0	0	0	0	0	0	0	0	0	0	0	0	0	0	0	0	0	0	0	0	0	0	0	0	0	0	0	0	0	0	0	0	0	0	0	0	0	0	0	0	0	0	0	0	0	0	1473	1456	1461	1450	1450	1457	1459	1453	1452	1462	1474	1484	1490	1496	1497	1511	1501	1484	1472	1466	1461	1474	1493	1496	1497	1490	1487	1461	1424	1421	1436	1457	1473	0	0	0	0	0	0	0	0	0	0	0	0	0	0	0	0	0	0	0	0	0	0	0	0	0	0	0	0	0	0	0	0	0	0	0	0	0	0	0	0	0	0	0	0	0	0	0	0	0	0	1357	1374	1388	1391	1397	1403	1387	1380	1382	1395	1401	1404	1400	1392	1393	1397	1395	1386	1378	1383	1388	1414	1438	1434	1422	1406	1396	1389	1392	1389	1388	1388	1394	1405	1408	1398	1408	1412	1410	1396	1381	1381	1408	1441	1423	1394	1386	0	0	0	0	0	0	0	0	0	0	0	0	0	0	0	0	0	0	0	0	0	0	0	0	0	0	0	0	0	0	0	0	0	0	0	0	0	0	0	0	0	0	0	0	0	0	0	0	0	0	0	0	0	0	0	0	0	0	0	0	0	0	0	0	0	0	0	0	0	0	0	0	0	0	0	0	0	0	0	0	0	0	0	0	0	0	0	0	1404	1379	1379	1371	1377	1377	1387	1369	1368	1372	1366	1368	1367	1375	1381	1382	1379	1381	1382	1382	1382	1381	1375	1370	1372	1361	1361	1355	1355	1362	1371	1368	1365	1365	1360	1357	1360	1364	1378	1386	1390	1385	1380	1375	1368	1375	1372	1361	1359	1388	1397	1406	1536	0	0	0	0	0	0	0	0	0	0	0	0	0	0	0	0	0	0	0	0	0	0	0	0	0	0	0	0	0	0	0	0	0	0	0	0	0	0	0	0	0	0	0	0	0	0	0	0	0	0	0	0	0	0	0	0	0	0	0	0	0	0	0	0	0	0	0	0	0	0	0	0	0	0	0	0	0	0	0	0	0	0	0	0	0	0	0	0	0	0	0	0	0	1417	1379	1363	1355	1358	1355	1347	1355	1360	1355	1361	1349	1338	1334	1344	1341	1344	1356	1365	1365	1365	1372	1374	1376	1374	1368	1364	1360	1355	1353	1358	1357	1353	1349	1345	1348	1345	1344	1348	1343	1339	1345	1360	1364	1358	1346	1335	1334	1358	1415	1472	0	0	0	0	0	0	0	0	0	0	0	0	0	0	0	0	0	0	0	0	0	0	0	0	0	0	0	0	0	0	0	0	0	0	0	0	0	0	0	0	0	0	0	0	0	0	0	0	0	0	0	0	0	0	0	0	0	0	0	0	0	0	0	0	0	0	0	0	0	0	0	0	0	0	0	0	0	0	0	0	0	0	0	0	0	0	0	0	0	0	0	0	0	0	0	0	0	0	0	0	0	0	0	0	0	0	0	0	0	0	0	0	0	0	0	0	0	0	0	0	0	0	0	0	0	0	0	0	0	0	0	0
0	0	0	0	0	0	0	0	0	0	0	0	0	0	0	0	0	0	0	0	0	0	0	0	0	0	0	0	0	0	0	0	0	0	0	0	0	0	0	0	0	0	0	0	0	0	0	0	0	0	0	0	0	0	0	0	0	0	0	0	0	0	0	0	0	0	0	0	0	0	0	0	0	0	0	0	0	0	0	0	0	0	0	0	0	0	0	0	0	0	0	0	0	1472	1470	1472	1469	1457	1451	1457	1452	1457	1477	1485	1495	1499	1494	1483	1487	1479	1473	1471	1469	1470	1477	1493	1504	1506	1502	1503	1488	1439	1439	1453	1474	1489	0	0	0	0	0	0	0	0	0	0	0	0	0	0	0	0	0	0	0	0	0	0	0	0	0	0	0	0	0	0	0	0	0	0	0	0	0	0	0	0	0	0	0	0	0	0	0	0	0	0	1386	1392	1411	1412	1421	1409	1389	1380	1375	1379	1387	1385	1379	1375	1379	1395	1398	1385	1377	1378	1388	1415	1437	1442	1428	1415	1403	1404	1396	1397	1394	1389	1391	1393	1393	1398	1415	1424	1424	1399	1386	1382	1408	1429	1412	1400	1403	1435	0	0	0	0	0	0	0	0	0	0	0	0	0	0	0	0	0	0	0	0	0	0	0	0	0	0	0	0	0	0	0	0	0	0	0	0	0	0	0	0	0	0	0	0	0	0	0	0	0	0	0	0	0	0	0	0	0	0	0	0	0	0	0	0	0	0	0	0	0	0	0	0	0	0	0	0	0	0	0	0	0	0	0	0	0	0	0	1395	1390	1395	1395	1388	1384	1368	1359	1367	1371	1371	1371	1377	1370	1373	1374	1368	1369	1371	1378	1383	1388	1388	1379	1377	1362	1356	1349	1359	1359	1367	1366	1360	1356	1348	1349	1351	1361	1380	1386	1388	1388	1385	1376	1368	1380	1377	1372	1358	1376	1400	1403	1489	0	0	0	0	0	0	0	0	0	0	0	0	0	0	0	0	0	0	0	0	0	0	0	0	0	0	0	0	0	0	0	0	0	0	0	0	0	0	0	0	0	0	0	0	0	0	0	0	0	0	0	0	0	0	0	0	0	0	0	0	0	0	0	0	0	0	0	0	0	0	0	0	0	0	0	0	0	0	0	0	0	0	0	0	0	0	0	0	0	0	0	0	0	1410	1366	1369	1372	1364	1365	1362	1359	1364	1361	1364	1364	1353	1346	1357	1355	1371	1372	1379	1381	1377	1371	1365	1364	1362	1361	1353	1351	1347	1354	1361	1366	1361	1355	1348	1348	1343	1344	1339	1348	1362	1369	1366	1363	1336	1331	1332	1351	1371	1420	0	0	0	0	0	0	0	0	0	0	0	0	0	0	0	0	0	0	0	0	0	0	0	0	0	0	0	0	0	0	0	0	0	0	0	0	0	0	0	0	0	0	0	0	0	0	0	0	0	0	0	0	0	0	0	0	0	0	0	0	0	0	0	0	0	0	0	0	0	0	0	0	0	0	0	0	0	0	0	0	0	0	0	0	0	0	0	0	0	0	0	0	0	0	0	0	0	0	0	0	0	0	0	0	0	0	0	0	0	0	0	0	0	0	0	0	0	0	0	0	0	0	0	0	0	0	0	0	0	0	0	0	0
0	0	0	0	0	0	0	0	0	0	0	0	0	0	0	0	0	0	0	0	0	0	0	0	0	0	0	0	0	0	0	0	0	0	0	0	0	0	0	0	0	0	0	0	0	0	0	0	0	0	0	0	0	0	0	0	0	0	0	0	0	0	0	0	0	0	0	0	0	0	0	0	0	0	0	0	0	0	0	0	0	0	0	0	0	0	0	0	0	0	0	0	1489	1472	1477	1479	1475	1464	1456	1458	1456	1469	1483	1495	1496	1491	1484	1467	1451	1455	1459	1463	1470	1472	1485	1495	1506	1509	1510	1512	1495	1455	1448	1466	1491	1510	0	0	0	0	0	0	0	0	0	0	0	0	0	0	0	0	0	0	0	0	0	0	0	0	0	0	0	0	0	0	0	0	0	0	0	0	0	0	0	0	0	0	0	0	0	0	0	0	0	0	1429	1415	1421	1422	1427	1427	1398	1385	1369	1375	1372	1370	1362	1362	1366	1396	1400	1395	1389	1376	1384	1411	1426	1426	1421	1409	1411	1420	1420	1421	1400	1389	1378	1385	1390	1402	1420	1428	1424	1405	1394	1408	1413	1421	1421	1424	1434	1458	0	0	0	0	0	0	0	0	0	0	0	0	0	0	0	0	0	0	0	0	0	0	0	0	0	0	0	0	0	0	0	0	0	0	0	0	0	0	0	0	0	0	0	0	0	0	0	0	0	0	0	0	0	0	0	0	0	0	0	0	0	0	0	0	0	0	0	0	0	0	0	0	0	0	0	0	0	0	0	0	0	0	0	0	0	0	0	1377	1405	1406	1408	1402	1378	1358	1357	1365	1372	1373	1374	1372	1374	1376	1367	1363	1363	1368	1384	1385	1394	1393	1383	1380	1378	1363	1356	1364	1375	1386	1394	1393	1377	1375	1379	1386	1390	1378	1384	1388	1389	1388	1381	1374	1388	1388	1371	1363	1377	1402	1415	1493	1629	0	0	0	0	0	0	0	0	0	0	0	0	0	0	0	0	0	0	0	0	0	0	0	0	0	0	0	0	0	0	0	0	0	0	0	0	0	0	0	0	0	0	0	0	0	0	0	0	0	0	0	0	0	0	0	0	0	0	0	0	0	0	0	0	0	0	0	0	0	0	0	0	0	0	0	0	0	0	0	0	0	0	0	0	0	0	0	0	0	0	0	0	1448	1377	1382	1386	1373	1378	1384	1380	1376	1377	1365	1365	1358	1347	1361	1368	1373	1377	1380	1380	1374	1366	1359	1358	1355	1355	1349	1343	1342	1350	1360	1364	1353	1347	1346	1348	1348	1349	1355	1362	1362	1369	1362	1349	1325	1323	1332	1346	1363	1412	0	0	0	0	0	0	0	0	0	0	0	0	0	0	0	0	0	0	0	0	0	0	0	0	0	0	0	0	0	0	0	0	0	0	0	0	0	0	0	0	0	0	0	0	0	0	0	0	0	0	0	0	0	0	0	0	0	0	0	0	0	0	0	0	0	0	0	0	0	0	0	0	0	0	0	0	0	0	0	0	0	0	0	0	0	0	0	0	0	0	0	0	0	0	0	0	0	0	0	0	0	0	0	0	0	0	0	0	0	0	0	0	0	0	0	0	0	0	0	0	0	0	0	0	0	0	0	0	0	0	0	0	0
0	0	0	0	0	0	0	0	0	0	0	0	0	0	0	0	0	0	0	0	0	0	0	0	0	0	0	0	0	0	0	0	0	0	0	0	0	0	0	0	0	0	0	0	0	0	0	0	0	0	0	0	0	0	0	0	0	0	0	0	0	0	0	0	0	0	0	0	0	0	0	0	0	0	0	0	0	0	0	0	0	0	0	0	0	0	0	0	0	0	0	0	1497	1478	1479	1483	1482	1477	1465	1458	1457	1473	1488	1491	1489	1478	1470	1461	1437	1433	1442	1455	1463	1469	1477	1489	1502	1505	1500	1495	1478	1455	1462	1492	1516	1518	0	0	0	0	0	0	0	0	0	0	0	0	0	0	0	0	0	0	0	0	0	0	0	0	0	0	0	0	0	0	0	0	0	0	0	0	0	0	0	0	0	0	0	0	0	0	0	0	0	0	1439	1461	1433	1429	1427	1429	1415	1395	1376	1372	1370	1364	1359	1362	1370	1395	1404	1406	1402	1392	1393	1405	1415	1417	1414	1416	1419	1417	1418	1413	1394	1382	1375	1377	1383	1389	1402	1421	1417	1407	1415	1428	1427	1421	1409	1429	1447	1458	0	0	0	0	0	0	0	0	0	0	0	0	0	0	0	0	0	0	0	0	0	0	0	0	0	0	0	0	0	0	0	0	0	0	0	0	0	0	0	0	0	0	0	0	0	0	0	0	0	0	0	0	0	0	0	0	0	0	0	0	0	0	0	0	0	0	0	0	0	0	0	0	0	0	0	0	0	0	0	0	0	0	0	0	0	0	0	1384	1406	1419	1426	1414	1375	1353	1360	1368	1375	1377	1371	1371	1371	1376	1373	1369	1365	1372	1385	1391	1396	1392	1381	1370	1378	1380	1374	1370	1385	1395	1403	1393	1398	1400	1398	1391	1389	1380	1388	1392	1392	1393	1390	1387	1399	1397	1378	1368	1373	1396	1430	1510	1605	0	0	0	0	0	0	0	0	0	0	0	0	0	0	0	0	0	0	0	0	0	0	0	0	0	0	0	0	0	0	0	0	0	0	0	0	0	0	0	0	0	0	0	0	0	0	0	0	0	0	0	0	0	0	0	0	0	0	0	0	0	0	0	0	0	0	0	0	0	0	0	0	0	0	0	0	0	0	0	0	0	0	0	0	0	0	0	0	0	0	0	0	1464	1406	1395	1390	1385	1392	1408	1410	1401	1387	1377	1367	1362	1352	1364	1363	1366	1371	1378	1377	1363	1350	1353	1357	1361	1358	1346	1343	1343	1356	1362	1358	1343	1336	1346	1355	1357	1354	1364	1372	1370	1358	1342	1330	1313	1314	1320	1338	1354	1416	0	0	0	0	0	0	0	0	0	0	0	0	0	0	0	0	0	0	0	0	0	0	0	0	0	0	0	0	0	0	0	0	0	0	0	0	0	0	0	0	0	0	0	0	0	0	0	0	0	0	0	0	0	0	0	0	0	0	0	0	0	0	0	0	0	0	0	0	0	0	0	0	0	0	0	0	0	0	0	0	0	0	0	0	0	0	0	0	0	0	0	0	0	0	0	0	0	0	0	0	0	0	0	0	0	0	0	0	0	0	0	0	0	0	0	0	0	0	0	0	0	0	0	0	0	0	0	0	0	0	0	0	0
0	0	0	0	0	0	0	0	0	0	0	0	0	0	0	0	0	0	0	0	0	0	0	0	0	0	0	0	0	0	0	0	0	0	0	0	0	0	0	0	0	0	0	0	0	0	0	0	0	0	0	0	0	0	0	0	0	0	0	0	0	0	0	0	0	0	0	0	0	0	0	0	0	0	0	0	0	0	0	0	0	0	0	0	0	0	0	0	0	0	0	0	0	1479	1476	1481	1488	1483	1466	1441	1458	1475	1486	1496	1491	1474	1472	1467	1452	1434	1429	1439	1458	1463	1466	1479	1494	1496	1483	1473	1461	1466	1487	1502	1511	1518	0	0	0	0	0	0	0	0	0	0	0	0	0	0	0	0	0	0	0	0	0	0	0	0	0	0	0	0	0	0	0	0	0	0	0	0	0	0	0	0	0	0	0	0	0	0	0	0	0	0	1437	1482	1439	1424	1420	1421	1409	1391	1385	1385	1388	1393	1398	1394	1388	1406	1410	1413	1416	1400	1393	1399	1402	1408	1422	1425	1421	1413	1409	1412	1384	1377	1371	1375	1379	1383	1385	1388	1395	1412	1435	1443	1435	1414	1397	1404	1442	1473	0	0	0	0	0	0	0	0	0	0	0	0	0	0	0	0	0	0	0	0	0	0	0	0	0	0	0	0	0	0	0	0	0	0	0	0	0	0	0	0	0	0	0	0	0	0	0	0	0	0	0	0	0	0	0	0	0	0	0	0	0	0	0	0	0	0	0	0	0	0	0	0	0	0	0	0	0	0	0	0	0	0	0	0	0	0	0	1391	1401	1416	1420	1420	1390	1358	1366	1374	1383	1381	1380	1375	1375	1379	1386	1393	1384	1373	1381	1392	1392	1389	1372	1367	1375	1380	1378	1372	1367	1395	1396	1394	1399	1405	1405	1394	1382	1383	1388	1395	1397	1399	1398	1399	1410	1400	1381	1366	1362	1376	1421	1522	1580	1642	0	0	0	0	0	0	0	0	0	0	0	0	0	0	0	0	0	0	0	0	0	0	0	0	0	0	0	0	0	0	0	0	0	0	0	0	0	0	0	0	0	0	0	0	0	0	0	0	0	0	0	0	0	0	0	0	0	0	0	0	0	0	0	0	0	0	0	0	0	0	0	0	0	0	0	0	0	0	0	0	0	0	0	0	0	0	0	0	0	0	0	1474	1419	1398	1395	1385	1391	1403	1404	1389	1384	1375	1372	1367	1366	1365	1364	1368	1370	1374	1373	1350	1339	1352	1364	1371	1368	1365	1351	1354	1353	1353	1345	1327	1328	1334	1356	1361	1362	1369	1371	1362	1352	1336	1317	1304	1310	1317	1327	1344	1419	0	0	0	0	0	0	0	0	0	0	0	0	0	0	0	0	0	0	0	0	0	0	0	0	0	0	0	0	0	0	0	0	0	0	0	0	0	0	0	0	0	0	0	0	0	0	0	0	0	0	0	0	0	0	0	0	0	0	0	0	0	0	0	0	0	0	0	0	0	0	0	0	0	0	0	0	0	0	0	0	0	0	0	0	0	0	0	0	0	0	0	0	0	0	0	0	0	0	0	0	0	0	0	0	0	0	0	0	0	0	0	0	0	0	0	0	0	0	0	0	0	0	0	0	0	0	0	0	0	0	0	0	0
0	0	0	0	0	0	0	0	0	0	0	0	0	0	0	0	0	0	0	0	0	0	0	0	0	0	0	0	0	0	0	0	0	0	0	0	0	0	0	0	0	0	0	0	0	0	0	0	0	0	0	0	0	0	0	0	0	0	0	0	0	0	0	0	0	0	0	0	0	0	0	0	0	0	0	0	0	0	0	0	0	0	0	0	0	0	0	0	0	0	0	0	0	1465	1470	1483	1490	1478	1453	1442	1456	1483	1493	1502	1496	1481	1479	1474	1455	1435	1434	1447	1455	1456	1464	1472	1481	1481	1470	1455	1452	1495	1509	1519	1513	1503	1490	0	0	0	0	0	0	0	0	0	0	0	0	0	0	0	0	0	0	0	0	0	0	0	0	0	0	0	0	0	0	0	0	0	0	0	0	0	0	0	0	0	0	0	0	0	0	0	0	0	1425	1484	1434	1412	1410	1409	1399	1389	1383	1379	1380	1391	1400	1403	1417	1419	1419	1424	1423	1408	1394	1385	1387	1406	1426	1435	1420	1404	1397	1405	1375	1370	1366	1374	1378	1377	1379	1378	1384	1405	1431	1435	1425	1402	1392	1397	1453	1484	0	0	0	0	0	0	0	0	0	0	0	0	0	0	0	0	0	0	0	0	0	0	0	0	0	0	0	0	0	0	0	0	0	0	0	0	0	0	0	0	0	0	0	0	0	0	0	0	0	0	0	0	0	0	0	0	0	0	0	0	0	0	0	0	0	0	0	0	0	0	0	0	0	0	0	0	0	0	0	0	0	0	0	0	0	0	0	1398	1398	1406	1409	1410	1390	1367	1368	1374	1386	1390	1394	1384	1376	1375	1386	1390	1391	1374	1373	1374	1378	1371	1360	1363	1371	1386	1386	1379	1371	1388	1391	1392	1399	1410	1400	1385	1383	1383	1379	1391	1398	1402	1407	1408	1411	1399	1376	1364	1359	1385	1420	1509	1566	1631	0	0	0	0	0	0	0	0	0	0	0	0	0	0	0	0	0	0	0	0	0	0	0	0	0	0	0	0	0	0	0	0	0	0	0	0	0	0	0	0	0	0	0	0	0	0	0	0	0	0	0	0	0	0	0	0	0	0	0	0	0	0	0	0	0	0	0	0	0	0	0	0	0	0	0	0	0	0	0	0	0	0	0	0	0	0	0	0	0	0	0	1448	1390	1381	1384	1385	1385	1385	1381	1378	1374	1370	1372	1371	1366	1365	1366	1370	1372	1374	1375	1360	1341	1357	1372	1380	1379	1373	1370	1369	1357	1351	1346	1328	1326	1341	1352	1360	1363	1360	1362	1354	1342	1343	1330	1319	1322	1311	1308	1341	1405	0	0	0	0	0	0	0	0	0	0	0	0	0	0	0	0	0	0	0	0	0	0	0	0	0	0	0	0	0	0	0	0	0	0	0	0	0	0	0	0	0	0	0	0	0	0	0	0	0	0	0	0	0	0	0	0	0	0	0	0	0	0	0	0	0	0	0	0	0	0	0	0	0	0	0	0	0	0	0	0	0	0	0	0	0	0	0	0	0	0	0	0	0	0	0	0	0	0	0	0	0	0	0	0	0	0	0	0	0	0	0	0	0	0	0	0	0	0	0	0	0	0	0	0	0	0	0	0	0	0	0	0	0
0	0	0	0	0	0	0	0	0	0	0	0	0	0	0	0	0	0	0	0	0	0	0	0	0	0	0	0	0	0	0	0	0	0	0	0	0	0	0	0	0	0	0	0	0	0	0	0	0	0	0	0	0	0	0	0	0	0	0	0	0	0	0	0	0	0	0	0	0	0	0	0	0	0	0	0	0	0	0	0	0	0	0	0	0	0	0	0	0	0	0	0	0	1449	1451	1464	1477	1475	1463	1450	1464	1488	1507	1518	1515	1503	1489	1471	1455	1446	1447	1457	1465	1468	1473	1473	1475	1475	1462	1452	1454	1504	1520	1519	1510	1493	1493	0	0	0	0	0	0	0	0	0	0	0	0	0	0	0	0	0	0	0	0	0	0	0	0	0	0	0	0	0	0	0	0	0	0	0	0	0	0	0	0	0	0	0	0	0	0	0	0	0	1410	1458	1412	1394	1394	1398	1395	1384	1380	1377	1373	1376	1379	1403	1411	1419	1427	1434	1430	1414	1393	1384	1391	1403	1424	1428	1412	1403	1403	1409	1368	1367	1375	1374	1380	1375	1371	1376	1383	1403	1420	1424	1414	1398	1408	1437	1456	1454	0	0	0	0	0	0	0	0	0	0	0	0	0	0	0	0	0	0	0	0	0	0	0	0	0	0	0	0	0	0	0	0	0	0	0	0	0	0	0	0	0	0	0	0	0	0	0	0	0	0	0	0	0	0	0	0	0	0	0	0	0	0	0	0	0	0	0	0	0	0	0	0	0	0	0	0	0	0	0	0	0	0	0	0	0	0	0	1414	1406	1402	1403	1397	1379	1372	1372	1374	1383	1394	1400	1389	1376	1366	1369	1386	1378	1372	1375	1379	1382	1377	1359	1366	1376	1393	1396	1389	1392	1385	1385	1390	1398	1407	1392	1383	1376	1377	1374	1380	1392	1401	1404	1404	1400	1393	1369	1360	1371	1392	1415	1503	1557	1621	0	0	0	0	0	0	0	0	0	0	0	0	0	0	0	0	0	0	0	0	0	0	0	0	0	0	0	0	0	0	0	0	0	0	0	0	0	0	0	0	0	0	0	0	0	0	0	0	0	0	0	0	0	0	0	0	0	0	0	0	0	0	0	0	0	0	0	0	0	0	0	0	0	0	0	0	0	0	0	0	0	0	0	0	0	0	0	0	0	0	0	1411	1375	1357	1362	1373	1379	1381	1372	1364	1367	1367	1366	1367	1361	1362	1369	1366	1367	1373	1381	1379	1372	1372	1376	1377	1378	1381	1382	1379	1360	1346	1340	1327	1324	1329	1332	1343	1346	1350	1349	1345	1346	1350	1344	1340	1331	1312	1307	1346	1404	1442	0	0	0	0	0	0	0	0	0	0	0	0	0	0	0	0	0	0	0	0	0	0	0	0	0	0	0	0	0	0	0	0	0	0	0	0	0	0	0	0	0	0	0	0	0	0	0	0	0	0	0	0	0	0	0	0	0	0	0	0	0	0	0	0	0	0	0	0	0	0	0	0	0	0	0	0	0	0	0	0	0	0	0	0	0	0	0	0	0	0	0	0	0	0	0	0	0	0	0	0	0	0	0	0	0	0	0	0	0	0	0	0	0	0	0	0	0	0	0	0	0	0	0	0	0	0	0	0	0	0	0	0
0	0	0	0	0	0	0	0	0	0	0	0	0	0	0	0	0	0	0	0	0	0	0	0	0	0	0	0	0	0	0	0	0	0	0	0	0	0	0	0	0	0	0	0	0	0	0	0	0	0	0	0	0	0	0	0	0	0	0	0	0	0	0	0	0	0	0	0	0	0	0	0	0	0	0	0	0	0	0	0	0	0	0	0	0	0	0	0	0	0	0	0	0	1440	1442	1454	1473	1480	1476	1461	1466	1486	1511	1520	1512	1498	1483	1464	1455	1448	1455	1462	1475	1484	1484	1476	1473	1470	1466	1456	1465	1501	1523	1522	1504	1503	1500	0	0	0	0	0	0	0	0	0	0	0	0	0	0	0	0	0	0	0	0	0	0	0	0	0	0	0	0	0	0	0	0	0	0	0	0	0	0	0	0	0	0	0	0	0	0	0	0	0	1414	1422	1392	1378	1386	1394	1396	1396	1391	1381	1371	1365	1377	1393	1407	1421	1432	1439	1431	1421	1403	1394	1402	1407	1413	1419	1411	1406	1422	1417	1368	1364	1377	1386	1382	1370	1367	1374	1382	1412	1415	1404	1396	1397	1404	1429	1431	1414	1399	0	0	0	0	0	0	0	0	0	0	0	0	0	0	0	0	0	0	0	0	0	0	0	0	0	0	0	0	0	0	0	0	0	0	0	0	0	0	0	0	0	0	0	0	0	0	0	0	0	0	0	0	0	0	0	0	0	0	0	0	0	0	0	0	0	0	0	0	0	0	0	0	0	0	0	0	0	0	0	0	0	0	0	0	0	0	1441	1424	1406	1401	1380	1371	1372	1371	1377	1381	1382	1389	1382	1367	1359	1361	1370	1375	1379	1380	1378	1374	1370	1369	1372	1380	1394	1407	1400	1393	1387	1385	1392	1393	1403	1391	1383	1375	1379	1376	1378	1382	1390	1394	1398	1394	1383	1368	1366	1380	1404	1410	1460	1539	0	0	0	0	0	0	0	0	0	0	0	0	0	0	0	0	0	0	0	0	0	0	0	0	0	0	0	0	0	0	0	0	0	0	0	0	0	0	0	0	0	0	0	0	0	0	0	0	0	0	0	0	0	0	0	0	0	0	0	0	0	0	0	0	0	0	0	0	0	0	0	0	0	0	0	0	0	0	0	0	0	0	0	0	0	0	0	0	0	0	0	0	1386	1369	1340	1344	1352	1361	1373	1367	1359	1359	1360	1369	1372	1365	1367	1363	1358	1357	1372	1385	1384	1381	1377	1372	1369	1371	1374	1376	1372	1353	1345	1334	1320	1315	1318	1316	1331	1337	1342	1340	1341	1339	1355	1356	1357	1342	1332	1350	1372	1411	1437	1450	0	0	0	0	0	0	0	0	0	0	0	0	0	0	0	0	0	0	0	0	0	0	0	0	0	0	0	0	0	0	0	0	0	0	0	0	0	0	0	0	0	0	0	0	0	0	0	0	0	0	0	0	0	0	0	0	0	0	0	0	0	0	0	0	0	0	0	0	0	0	0	0	0	0	0	0	0	0	0	0	0	0	0	0	0	0	1439	1421	1406	1400	0	0	0	0	0	0	0	0	1477	0	0	0	1505	1505	1506	1511	1511	1518	1554	0	0	1495	1434	1427	1452	1473	1487	1462	1462	1453	1453	1450	1438	1430	0	0	0	0	0	0	0
0	0	0	0	0	0	0	0	0	0	0	0	0	0	0	0	0	0	0	0	0	0	0	0	0	0	0	0	0	0	0	0	0	0	0	0	0	0	0	0	0	0	0	0	0	0	0	0	0	0	0	0	0	0	0	0	0	0	0	0	0	0	0	0	0	0	0	0	0	0	0	0	0	0	0	0	0	0	0	0	0	0	0	0	0	0	0	0	0	0	0	0	0	1448	1441	1455	1475	1490	1486	1462	1459	1470	1491	1503	1493	1482	1468	1449	1445	1452	1454	1465	1473	1489	1487	1480	1472	1474	1470	1471	1469	1486	1513	1517	1506	1499	1492	0	0	0	0	0	0	0	0	0	0	0	0	0	0	0	0	0	0	0	0	0	0	0	0	0	0	0	0	0	0	0	0	0	0	0	0	0	0	0	0	0	0	0	0	0	0	0	0	0	0	1402	1384	1379	1379	1394	1410	1412	1409	1395	1383	1374	1381	1397	1414	1431	1436	1436	1427	1420	1414	1411	1414	1408	1403	1401	1405	1431	1437	1424	1367	1368	1383	1399	1397	1374	1366	1376	1382	1415	1411	1390	1385	1383	1394	1418	1430	1393	1379	1375	0	0	0	0	0	0	0	0	0	0	0	0	0	0	0	0	0	0	0	0	0	0	0	0	0	0	0	0	0	0	0	0	0	0	0	0	0	0	0	0	0	0	0	0	0	0	0	0	0	0	0	0	0	0	0	0	0	0	0	0	0	0	0	0	0	0	0	0	0	0	0	0	0	0	0	0	0	0	0	0	0	0	0	0	0	1465	1425	1417	1400	1387	1382	1376	1380	1381	1383	1382	1378	1374	1365	1364	1382	1382	1392	1388	1383	1379	1372	1364	1371	1381	1393	1404	1406	1404	1402	1391	1400	1403	1401	1397	1391	1386	1389	1385	1387	1385	1376	1391	1396	1395	1395	1392	1377	1377	1396	1412	1407	1409	1468	1568	0	0	0	0	0	0	0	0	0	0	0	0	0	0	0	0	0	0	0	0	0	0	0	0	0	0	0	0	0	0	0	0	0	0	0	0	0	0	0	0	0	0	0	0	0	0	0	0	0	0	0	0	0	0	0	0	0	0	0	0	0	0	0	0	0	0	0	0	0	0	0	0	0	0	0	0	0	0	0	0	1258	1311	1357	1403	1425	1460	0	0	0	0	0	1383	1379	1332	1327	1340	1351	1359	1360	1362	1358	1364	1374	1379	1371	1371	1363	1348	1349	1361	1377	1378	1373	1373	1374	1369	1366	1367	1371	1363	1353	1345	1327	1317	1312	1317	1322	1327	1332	1339	1338	1342	1348	1357	1356	1355	1348	1360	1366	1380	1411	1444	1445	1461	1498	1532	1542	1516	1463	1439	1468	1490	1499	1477	1457	1449	1463	1466	1457	1441	1438	1455	1493	1539	1557	0	1479	1440	1420	1435	1466	0	0	0	1486	1473	1462	1442	1422	1430	1447	1481	1499	1486	1468	1461	1485	1504	1526	1522	1475	1453	1454	1451	1454	1458	1471	1490	1495	1488	1481	1490	1489	1490	1493	1487	1467	1467	1479	1496	1500	1491	1493	1514	1538	1525	1480	1440	1439	1459	1476	1470	1462	1455	1455	1463	1463	1450	1432	1436	1445	1457	1478	1492	1498	1508	1518	1516	1503	1490	1479	1473	1477	1482	1499	1526	1526	1542	1526	1504	1469	1450	1453	1452	1451	1437	1438	1441	1449	1452	1446	1446	1458	1468	1470	1469	1451	0	0	0	0	0	0	0
0	0	0	0	0	0	0	0	0	0	0	0	0	0	0	0	0	0	0	0	0	0	0	0	0	0	0	0	0	0	0	0	0	0	0	0	0	0	0	0	0	0	0	0	0	0	0	0	0	0	0	0	0	0	0	0	0	0	0	0	0	0	0	0	0	0	0	0	0	0	0	0	0	0	0	0	0	0	0	0	0	0	0	0	0	0	0	0	0	0	0	0	0	1465	1470	1460	1477	1480	1485	1470	1459	1465	1473	1469	1456	1451	1444	1446	1445	1453	1456	1454	1466	1476	1480	1476	1468	1469	1486	1495	1475	1486	1501	1512	1509	1498	1496	0	0	0	0	0	0	0	0	0	0	0	0	0	0	0	0	0	0	0	0	0	0	0	0	0	0	0	0	0	0	0	0	0	0	0	0	0	0	0	0	0	0	0	0	0	0	0	0	0	0	1396	1395	1394	1388	1403	1422	1423	1421	1410	1403	1395	1399	1408	1414	1433	1440	1438	1421	1412	1414	1410	1402	1395	1386	1384	1398	1428	1436	1429	1380	1380	1393	1405	1413	1395	1380	1385	1396	1418	1402	1392	1389	1399	1397	1424	1434	1406	1383	1375	1374	1384	0	0	0	1281	1246	1222	0	0	0	0	0	0	0	0	0	0	0	0	0	0	0	0	0	0	0	0	0	0	0	0	0	0	0	0	0	0	0	0	0	0	0	0	0	0	0	0	0	0	0	0	0	0	0	0	0	0	0	0	0	0	0	0	0	0	0	0	0	0	0	0	0	0	0	0	0	0	0	0	0	0	0	0	1477	1447	1415	1425	1413	1398	1390	1390	1398	1404	1389	1379	1377	1373	1373	1384	1407	1404	1396	1389	1389	1383	1372	1364	1368	1388	1408	1415	1415	1413	1407	1390	1404	1402	1400	1395	1391	1392	1398	1402	1399	1393	1387	1394	1396	1397	1397	1404	1385	1381	1397	1419	1416	1418	1429	1453	1491	1513	1526	1541	1541	1522	1500	1471	1470	1495	1520	1511	1455	1438	1437	1445	1461	1461	1454	1436	1439	1471	1503	1530	1542	1536	1473	1449	1462	1497	1514	1524	1564	1599	1542	1503	1465	1407	0	0	0	0	0	0	0	0	0	0	0	0	1106	1099	1095	1089	1087	1089	1103	1097	1098	1102	1103	1111	1113	1132	1132	1126	0	0	0	1122	1132	1156	0	0	0	0	0	1129	1142	1161	1189	1216	1268	1328	1389	1403	1408	0	0	0	0	1393	1392	1357	1332	1331	1343	1350	1353	1358	1362	1372	1382	1384	1377	1372	1358	1340	1336	1345	1360	1361	1360	1369	1370	1370	1362	1361	1361	1357	1348	1339	1326	1316	1314	1320	1332	1333	1333	1337	1339	1343	1350	1347	1352	1348	1348	1363	1368	1382	1407	1429	1452	1474	1502	1520	1528	1522	1495	1458	1457	1475	1483	1494	1498	1500	1485	1473	1470	1473	1476	1477	1482	1489	1496	1497	1489	1481	1473	1470	1470	1475	1480	1476	1481	1473	1467	1459	1450	1437	1437	1442	1449	1455	1460	1474	1488	1497	1489	1478	1462	1463	1477	1489	1493	1493	1486	1475	1487	1503	1511	1514	1511	1504	1506	1505	1489	1487	1487	1487	1484	1462	1453	1482	1518	1515	1487	1454	1454	1469	1478	1470	1452	1447	1449	1463	1460	1442	1426	1427	1436	1447	1467	1478	1484	1492	1486	1485	1471	1459	1462	1463	1472	1479	1494	1494	1510	1535	1527	1505	1471	1448	1437	1448	1448	1440	1429	1438	1447	1454	1461	1461	1470	1477	1486	1485	1471	0	0	0	0	0	0	0
0	0	0	0	0	0	0	0	0	0	0	0	0	0	0	0	0	0	0	0	0	0	0	0	0	0	0	0	0	0	0	0	0	0	0	0	0	0	0	0	0	0	0	0	0	0	0	0	0	0	0	0	0	0	0	0	0	0	0	0	0	0	0	0	0	0	0	0	0	0	0	0	0	0	0	0	0	0	0	0	0	0	0	0	0	0	0	0	0	0	0	0	0	1479	1476	1466	1463	1470	1480	1488	1481	1477	1472	1451	1440	1431	1441	1453	1457	1461	1454	1444	1449	1460	1466	1464	1464	1472	1484	1491	1481	1475	1496	1514	1510	1508	1499	1482	0	0	0	0	0	0	0	0	0	0	0	0	0	0	0	0	0	0	0	0	0	0	0	0	0	0	0	0	0	0	0	0	0	0	0	0	0	0	0	0	0	0	0	0	0	0	0	0	1435	1406	1407	1412	1413	1415	1422	1424	1424	1430	1422	1416	1416	1408	1409	1424	1439	1444	1432	1420	1412	1403	1389	1378	1367	1370	1395	1421	1429	1429	1417	1377	1390	1414	1422	1413	1408	1408	1417	1412	1401	1400	1407	1440	1454	1444	1452	1432	1405	1387	1380	1353	1311	1274	1241	1213	1186	1169	1149	1143	1208	0	0	0	0	0	0	0	0	0	0	1134	1125	1140	1170	0	0	0	0	1193	0	0	0	0	0	0	0	0	0	0	0	0	0	0	1314	1380	1421	1433	1417	1423	1478	1487	1492	1493	1483	1479	1488	1504	1517	1517	1507	1507	1516	1525	1529	1532	1547	1551	1542	1492	1467	1455	1462	1486	1515	1534	1546	1537	1530	1527	1519	1521	1495	1453	1429	1418	1410	1428	1441	1419	1396	1392	1402	1405	1402	1388	1375	1373	1380	1414	1411	1403	1394	1393	1402	1393	1380	1379	1392	1405	1414	1417	1419	1417	1406	1388	1387	1390	1393	1390	1389	1393	1402	1408	1408	1401	1395	1395	1398	1399	1404	1400	1389	1378	1395	1429	1429	1430	1468	1504	1503	1507	1498	1491	1482	1467	1461	1461	1483	1494	1495	1489	1479	1467	1460	1465	1479	1486	1489	1488	1488	1487	1479	1476	1469	1472	1467	1475	1494	1508	1513	1510	1526	1545	1542	1530	1476	1395	1288	1238	1180	1177	0	0	0	0	0	0	0	0	1080	1080	1074	1070	1072	1076	1084	1091	1085	1086	1086	1088	1087	1087	1087	1093	1088	1081	1075	1079	1095	1097	1097	1092	1055	1064	1072	1085	1098	1105	1113	1134	1164	1252	1355	1375	1357	0	0	0	0	1414	1409	1389	1354	1339	1338	1346	1348	1350	1358	1370	1378	1381	1376	1371	1355	1331	1318	1322	1333	1341	1349	1364	1375	1371	1361	1352	1355	1362	1353	1335	1321	1312	1319	1336	1342	1336	1334	1336	1344	1350	1357	1348	1347	1345	1343	1354	1368	1380	1411	1424	1446	1471	1492	1511	1523	1518	1500	1470	1464	1474	1482	1499	1505	1506	1494	1477	1472	1469	1473	1477	1477	1474	1470	1469	1478	1480	1481	1487	1494	1483	1486	1482	1483	1483	1474	1465	1455	1450	1445	1445	1456	1455	1460	1480	1492	1498	1487	1475	1469	1469	1483	1492	1495	1488	1488	1482	1485	1488	1499	1506	1504	1509	1511	1512	1500	1500	1493	1494	1484	1466	1463	1481	1502	1505	1480	1456	1455	1469	1481	1474	1463	1451	1457	1467	1465	1446	1431	1434	1438	1442	1460	1463	1464	1458	1452	1445	1441	1447	1454	1459	1474	1479	1490	1490	1501	1515	1527	1516	1484	1448	1436	1446	1452	1455	1439	1445	1454	1468	1468	1471	1484	1491	1506	1502	1480	0	0	0	0	0	0	0
0	0	0	0	0	0	0	0	0	0	0	0	0	0	0	0	0	0	0	0	0	0	0	0	0	0	0	0	0	0	0	0	0	0	0	0	0	0	0	0	0	0	0	0	0	0	0	0	0	0	0	0	0	0	0	0	0	0	0	0	0	0	0	0	0	0	0	0	0	0	0	0	0	0	0	0	0	0	0	0	0	0	0	0	0	0	0	0	0	0	0	0	0	1477	1468	1459	1454	1462	1468	1489	1499	1489	1477	1455	1437	1430	1448	1464	1472	1468	1455	1439	1439	1443	1450	1454	1455	1468	1479	1475	1476	1471	1488	1512	1515	1513	1496	1478	1458	1424	1413	0	0	0	1534	1550	1521	1487	1450	1432	1442	1446	1455	1472	1469	1474	1479	1473	1442	1417	1406	1407	1410	1420	1434	1454	1474	1493	1483	1474	1483	1489	1488	1501	1492	1469	1442	1443	1448	1454	1454	1444	1437	1434	1437	1433	1421	1425	1430	1430	1423	1422	1428	1430	1431	1435	1438	1427	1415	1409	1402	1411	1442	1452	1442	1436	1429	1426	1412	1381	1369	1385	1408	1424	1438	1441	1430	1389	1396	1412	1421	1414	1415	1407	1411	1406	1409	1430	1461	1479	1465	1460	1442	1431	1397	1385	1356	1311	1232	1194	1175	1158	1149	1142	1119	1110	1108	1114	1106	0	0	0	0	0	0	0	1117	1104	1101	1116	1145	1166	1173	1161	1156	1150	1148	1148	0	0	0	0	1106	1115	1106	1111	1113	1132	1149	1188	1276	1364	1443	1478	1483	1489	1496	1519	1527	1530	1532	1526	1517	1512	1507	1498	1491	1482	1482	1492	1500	1517	1527	1529	1522	1512	1502	1490	1479	1475	1477	1490	1509	1510	1495	1474	1458	1463	1484	1461	1436	1427	1420	1436	1451	1436	1400	1402	1400	1402	1405	1397	1395	1403	1405	1398	1395	1392	1389	1395	1416	1413	1393	1394	1404	1409	1414	1417	1413	1407	1397	1381	1388	1390	1387	1391	1397	1397	1400	1416	1407	1402	1394	1392	1391	1394	1394	1386	1379	1396	1416	1434	1438	1454	1493	1503	1506	1506	1503	1489	1476	1472	1467	1473	1478	1475	1481	1491	1484	1470	1468	1471	1477	1479	1484	1488	1489	1484	1472	1462	1459	1458	1461	1463	1475	1503	1518	1523	1529	1537	1535	1524	1483	1384	1260	1199	1161	1148	0	0	0	0	0	0	0	1053	1067	1072	1067	1063	1064	1065	1076	1073	1065	1066	1071	1070	1063	1062	1051	1061	1068	1053	1052	1062	1069	1040	1037	1033	1037	1044	1052	1061	1068	1067	1067	1071	1085	1103	1118	1166	1228	1310	1325	1373	1399	1403	1413	1421	1397	1375	1365	1357	1340	1342	1351	1363	1364	1369	1373	1366	1341	1319	1305	1304	1317	1342	1364	1374	1378	1365	1353	1360	1370	1372	1360	1344	1328	1324	1336	1354	1367	1358	1348	1349	1357	1360	1357	1360	1347	1340	1351	1359	1368	1401	1428	1443	1459	1466	1477	1498	1508	1509	1502	1478	1473	1476	1486	1495	1503	1507	1498	1489	1474	1472	1469	1478	1479	1468	1460	1453	1461	1481	1494	1499	1503	1505	1502	1499	1498	1495	1475	1457	1457	1461	1470	1470	1479	1480	1484	1499	1504	1504	1492	1477	1471	1472	1478	1487	1487	1478	1478	1481	1478	1463	1461	1478	1488	1503	1503	1510	1506	1499	1500	1496	1488	1465	1462	1483	1490	1491	1468	1448	1451	1466	1484	1481	1470	1466	1468	1471	1467	1466	1450	1445	1444	1447	1458	1456	1455	1447	1436	1430	1432	1443	1450	1460	1477	1482	1494	1494	1495	1495	1508	1504	1476	1460	1445	1451	1446	1450	1450	1463	1476	1477	1477	1483	1480	1494	1513	1502	1482	0	0	0	0	0	0	0
0	0	0	0	0	0	0	0	0	0	0	0	0	0	0	0	0	0	0	0	0	0	0	0	0	0	0	0	0	0	0	0	0	0	0	0	0	0	0	0	0	0	0	0	0	0	0	0	0	0	0	0	0	0	0	0	0	0	0	0	0	0	0	0	0	0	0	0	0	0	0	0	0	0	0	0	0	0	0	0	0	0	0	0	0	0	0	0	0	0	0	0	0	1467	1460	1461	1456	1460	1475	1493	1499	1495	1485	1468	1454	1440	1449	1470	1477	1472	1456	1437	1442	1449	1457	1453	1455	1463	1467	1460	1447	1450	1481	1497	1499	1488	1460	1435	1426	1421	1421	1408	1419	1459	1498	1525	1518	1497	1471	1465	1460	1454	1456	1468	1462	1452	1443	1432	1414	1418	1420	1432	1447	1459	1476	1490	1504	1504	1489	1466	1469	1471	1458	1440	1452	1449	1425	1427	1440	1447	1453	1461	1475	1483	1454	1442	1429	1446	1462	1443	1429	1423	1428	1432	1439	1447	1438	1430	1428	1415	1422	1443	1459	1462	1457	1451	1455	1459	1457	1445	1438	1436	1443	1452	1458	1462	1449	1412	1407	1411	1407	1396	1398	1407	1415	1426	1438	1454	1462	1480	1470	1444	1403	1378	1352	1342	1257	1194	1159	1133	1120	1120	0	1121	1104	1088	1084	1082	1074	1055	1034	1071	0	0	0	0	1121	1097	1100	1113	1128	1142	1137	1133	1125	1116	1110	1106	0	0	0	1096	1090	1092	1097	1111	1120	1131	1154	1192	1277	1404	1455	1476	1482	1480	1489	1501	1511	1518	1512	1491	1490	1490	1496	1488	1481	1478	1478	1489	1502	1517	1521	1516	1511	1508	1503	1491	1476	1473	1488	1494	1500	1498	1490	1474	1459	1462	1473	1478	1451	1442	1442	1452	1457	1454	1434	1408	1413	1423	1428	1420	1417	1408	1393	1374	1384	1384	1397	1415	1428	1429	1421	1411	1410	1413	1413	1410	1408	1395	1393	1398	1390	1395	1397	1401	1404	1407	1410	1410	1411	1421	1424	1410	1401	1394	1384	1393	1406	1421	1435	1443	1450	1464	1478	1497	1508	1502	1487	1474	1471	1475	1474	1480	1481	1473	1474	1485	1482	1475	1471	1473	1483	1482	1488	1488	1488	1481	1472	1468	1464	1465	1468	1470	1477	1499	1518	1531	1532	1524	1524	1514	1454	0	0	0	0	0	0	0	0	0	0	1014	1018	1031	1058	1071	1074	1067	1062	1066	1067	1059	1047	1048	1058	1061	1052	1042	1039	1048	1042	1029	1027	1009	1023	1025	1022	1022	1028	1037	1044	1046	1051	1044	1040	1042	1056	1076	1090	1112	1136	1213	1266	1286	1318	1366	1389	1420	1437	1423	1415	1411	1408	1406	1398	1394	1388	1388	1384	1371	1354	1347	1357	1364	1390	1434	1460	1448	1419	1402	1403	1417	1422	1401	1401	1395	1396	1401	1405	1412	1406	1393	1392	1396	1403	1399	1388	1390	1375	1371	1362	1368	1376	1407	1439	1460	1480	1472	1463	1471	1474	1481	1492	1488	1485	1481	1484	1490	1501	1500	1496	1483	1465	1463	1460	1476	1479	1477	1461	1438	1452	1477	1485	1502	1515	1526	1518	1509	1500	1477	1457	1450	1458	1467	1479	1493	1503	1508	1513	1515	1518	1508	1488	1470	1460	1464	1476	1488	1489	1481	1469	1465	1457	1456	1459	1464	1474	1490	1495	1493	1496	1496	1501	1495	1488	1467	1465	1472	1474	1469	1455	1451	1450	1471	1475	1476	1473	1468	1456	1462	1468	1475	1466	1460	1454	1451	1456	1456	1448	1439	1438	1443	1452	1455	1460	1465	1469	1480	1482	1482	1483	1482	1487	1479	1462	1452	1445	1458	1453	1454	1471	1483	1494	1488	1488	1484	1475	1481	1494	1488	1478	0	0	0	0	0	0	0
0	0	0	0	0	0	0	0	0	0	0	0	0	0	0	0	0	0	0	0	0	0	0	0	0	0	0	0	0	0	0	0	0	0	0	0	0	0	0	0	0	0	0	0	0	0	0	0	0	0	0	0	0	0	0	0	0	0	0	0	0	0	0	0	0	0	0	0	0	0	0	0	0	0	0	0	0	0	0	0	0	0	0	0	0	0	0	0	0	0	0	0	0	1468	1475	1473	1477	1468	1460	1475	1488	1492	1486	1481	1471	1460	1454	1463	1470	1468	1458	1470	1459	1457	1455	1454	1459	1465	1466	1454	1443	1430	1453	1471	1474	1470	1459	1452	1445	1442	1436	1440	1438	1446	1453	1481	1494	1492	1485	1475	1477	1484	1487	1488	1481	1458	1441	1430	1426	1432	1447	1457	1464	1468	1483	1498	1510	1506	1494	1481	1479	1476	1450	1431	1425	1423	1414	1423	1431	1439	1454	1466	1486	1502	1498	1476	1442	1438	1461	1448	1443	1437	1438	1443	1450	1461	1455	1456	1464	1473	1475	1462	1457	1459	1459	1460	1465	1476	1469	1458	1442	1441	1454	1465	1478	1481	1458	1416	1416	1427	1417	1407	1412	1422	1436	1448	1451	1453	1448	1447	1438	1406	1378	1367	1275	1179	1132	1120	1100	1083	1076	1083	0	1108	1099	1080	1067	1070	1060	1045	1020	1012	1027	1046	1119	1148	1129	1107	1104	1105	1110	1113	1111	1102	1099	1091	1084	1086	1090	0	0	1095	1086	1085	1098	1112	1125	1146	1181	1224	1289	1416	1465	1476	1482	1484	1489	1499	1502	1500	1490	1484	1479	1480	1483	1472	1466	1467	1478	1493	1511	1516	1513	1507	1500	1507	1505	1494	1483	1490	1492	1490	1491	1488	1485	1466	1464	1464	1475	1481	1472	1461	1468	1476	1469	1461	1449	1443	1443	1449	1443	1433	1428	1415	1397	1395	1398	1405	1420	1437	1449	1451	1453	1457	1461	1470	1469	1439	1425	1410	1405	1408	1423	1409	1413	1409	1412	1422	1435	1447	1461	1457	1452	1436	1417	1412	1407	1416	1419	1428	1442	1447	1455	1456	1464	1480	1492	1489	1476	1462	1470	1475	1477	1484	1480	1483	1486	1478	1476	1466	1465	1475	1485	1487	1488	1485	1483	1480	1479	1474	1475	1474	1475	1475	1477	1498	1521	1526	1517	1510	1510	1512	1465	0	0	0	0	0	0	0	0	0	0	992	992	1006	1037	1066	1084	1086	1082	1076	1069	1054	1043	1040	1052	1059	1051	1032	1017	1016	992	983	988	1004	1015	1021	1021	1021	1029	1032	1033	1026	1033	1035	1034	1037	1054	1074	1084	1089	1105	1137	1165	1237	1259	1303	1350	1407	1437	1423	1416	1423	1418	1416	1421	1422	1422	1425	1411	1398	1383	1386	1403	1419	1434	1452	1465	1464	1451	1442	1441	1447	1452	1437	1436	1437	1446	1450	1437	1438	1434	1434	1433	1439	1449	1450	1435	1417	1404	1400	1379	1370	1373	1407	1449	1485	1485	1468	1454	1458	1461	1477	1485	1495	1488	1489	1490	1491	1495	1485	1480	1464	1454	1450	1449	1467	1474	1477	1460	1430	1440	1461	1477	1497	1521	1525	1512	1492	1470	1465	1452	1454	1471	1485	1494	1513	1524	1529	1533	1524	1505	1494	1478	1467	1456	1468	1482	1491	1493	1476	1465	1457	1457	1457	1454	1465	1478	1484	1486	1483	1484	1485	1493	1499	1486	1465	1456	1461	1457	1451	1451	1455	1451	1450	1461	1464	1468	1466	1467	1465	1468	1476	1464	1463	1454	1446	1447	1448	1452	1450	1453	1461	1471	1474	1473	1470	1468	1459	1460	1460	1458	1456	1467	1467	1461	1457	1451	1451	1456	1460	1478	1493	1500	1492	1492	1483	1471	1477	1486	1477	1473	0	0	0	0	0	0	0
0	0	0	0	0	0	0	0	0	0	0	0	0	0	0	0	0	0	0	0	0	0	0	0	0	0	0	0	0	0	0	0	0	0	0	0	0	0	0	0	0	0	0	0	0	0	0	0	0	0	0	0	0	0	0	0	0	0	0	0	0	0	0	0	0	0	0	0	0	0	0	0	0	0	0	0	0	0	0	0	0	0	0	0	0	0	0	0	0	0	0	0	0	1491	1493	1502	1517	1519	1479	1471	1470	1473	1478	1481	1476	1465	1460	1465	1469	1462	1493	1481	1467	1447	1446	1448	1458	1468	1471	1458	1440	1436	1449	1468	1468	1460	1461	1457	1454	1449	1450	1460	1460	1449	1441	1441	1457	1484	1480	1486	1493	1499	1501	1497	1488	1467	1449	1439	1438	1450	1465	1481	1479	1480	1481	1500	1496	1494	1492	1488	1489	1482	1461	1426	1423	1414	1412	1425	1436	1432	1441	1467	1495	1511	1518	1502	1476	1448	1456	1459	1455	1454	1452	1453	1462	1478	1481	1481	1489	1499	1495	1473	1455	1450	1456	1465	1478	1489	1494	1491	1489	1482	1480	1469	1469	1483	1469	1444	1454	1460	1460	1447	1439	1444	1454	1466	1469	1461	1439	1419	1407	1379	1347	1257	1123	1089	1073	1064	1060	1050	1049	1058	1077	1089	1086	1059	1049	1045	1048	1034	1021	1014	1016	1010	1009	1040	1102	1103	1095	1085	1086	1089	1088	1083	1080	1077	1077	1079	1084	1098	1091	1089	1088	1090	1110	0	0	0	1203	1263	1328	1442	1469	1474	1479	1489	1497	1497	1493	1492	1493	1485	1478	1483	1484	1481	1473	1468	1475	1491	1500	1496	1499	1492	1494	1496	1503	1496	1501	1498	1499	1492	1492	1484	1471	1465	1466	1471	1475	1492	1511	1518	1517	1503	1488	1473	1456	1455	1461	1457	1450	1437	1432	1424	1412	1414	1414	1424	1439	1456	1462	1462	1459	1454	1457	1465	1469	1474	1461	1488	1504	1499	1506	1500	1498	1499	1500	1492	1473	1481	1479	1489	1488	1475	1444	1433	1423	1431	1438	1445	1455	1462	1466	1463	1475	1481	1487	1489	1481	1467	1467	1473	1473	1477	1477	1476	1484	1480	1466	1461	1462	1477	1491	1492	1490	1484	1480	1478	1476	1483	1480	1486	1481	1481	1481	1489	1520	1516	1490	1488	1500	1505	1488	0	0	0	0	0	0	0	0	0	0	0	991	998	1024	0	0	0	1094	1089	1072	1047	1033	1028	1042	1052	1048	1028	1004	994	984	977	987	1007	1013	1012	1016	1016	1031	1028	1024	1020	1025	0	0	0	0	0	0	0	1058	1071	1084	1120	1156	1194	1275	1349	1402	1423	1413	1422	1417	1420	1439	1449	1463	1461	1437	1422	1414	1427	1449	1469	1471	1470	1473	1482	1483	1473	1474	1482	1476	1460	1464	1475	1477	1468	1461	1458	1463	1465	1471	1474	1481	1474	1457	1455	1453	1445	1444	1442	1437	1445	1458	1470	1473	1457	1450	1454	1466	1475	1488	1501	1494	1491	1490	1488	1486	1482	1469	1458	1450	1444	1443	1460	1469	1469	1461	1426	1430	1441	1459	1484	1501	1507	1487	1473	1466	1461	1455	1460	1478	1496	1510	1517	1528	1528	1532	1499	1489	1482	1470	1460	1460	1470	1491	1496	1489	1471	1458	1454	1455	1458	1458	1463	1473	1475	1475	1470	1470	1478	1485	1490	1476	1458	1453	1452	1454	1448	1456	1456	1455	1452	1460	1467	1473	1480	1483	1481	1474	1475	1462	1458	1452	1451	1446	1454	1462	1460	1461	1472	1484	1479	1474	1463	1456	1446	1447	1447	1440	1446	1453	1464	1469	1470	1458	1450	1451	1458	1474	1483	1490	1490	1490	1478	1473	1470	1470	1466	1458	0	0	0	0	0	0	0
0	0	0	0	0	0	0	0	0	0	0	0	0	0	0	0	0	0	0	0	0	0	0	0	0	0	0	0	0	0	0	0	0	0	0	0	0	0	0	0	0	0	0	0	0	0	0	0	0	0	0	0	0	0	0	0	0	0	0	0	0	0	0	0	0	0	0	0	0	0	0	0	0	0	0	0	0	0	0	0	0	0	0	0	0	0	0	0	0	0	0	0	0	1496	1504	1515	1529	1528	1515	1458	1454	1457	1464	1469	1471	1468	1469	1470	1475	1470	1491	1479	1465	1444	1438	1443	1446	1457	1466	1454	1454	1453	1456	1464	1457	1448	1448	1445	1456	1452	1459	1468	1464	1457	1443	1437	1449	1462	1469	1482	1497	1505	1499	1490	1472	1462	1457	1452	1451	1466	1484	1494	1488	1481	1478	1470	1472	1479	1492	1486	1485	1467	1455	1443	1423	1420	1429	1429	1440	1434	1442	1472	1494	1511	1509	1496	1476	1451	1439	1431	1439	1446	1456	1461	1470	1495	1514	1517	1505	1492	1482	1480	1474	1481	1483	1478	1480	1486	1493	1498	1483	1477	1468	1462	1463	1472	1468	1441	1451	1464	1460	1458	1454	1458	1460	1468	1475	1466	1436	1360	1282	1203	1149	1119	1071	1063	1046	1040	1031	1024	1020	1031	1058	1070	1069	1040	1026	1021	1022	1019	1006	1003	997	998	1000	1021	1031	1042	1064	1057	1062	1067	1072	1072	1072	1073	1075	1078	1077	1075	1065	1068	1079	1096	0	0	0	0	0	1281	1376	1460	1479	1480	1473	1493	1504	1502	1491	1487	1487	1489	1486	1489	1495	1490	1485	1476	1478	1480	1487	1483	1479	1473	1482	1490	1492	1506	1506	1505	1503	1499	1500	1501	1503	1499	1482	1473	1476	1489	1504	1505	1503	1495	1487	1474	1469	1468	1472	1479	1483	1486	1467	1449	1464	1475	1488	1492	1486	1490	1487	1483	1482	1473	1477	1477	1488	1495	1490	1470	1462	1496	1506	1496	1495	1498	1501	1489	1496	1498	1507	1517	1517	1519	1513	1504	1484	1480	1473	1463	1468	1471	1473	1474	1476	1479	1485	1486	1484	1478	1476	1468	1471	1475	1469	1466	1473	1475	1467	1464	1462	1478	1490	1495	1491	1483	1480	1475	1475	1480	1484	1483	1486	1493	1492	1501	1513	1505	1481	1483	1499	1511	1509	0	0	0	0	0	0	0	0	0	0	0	0	0	0	0	0	0	0	1074	1052	1031	1015	1017	1027	1037	1017	1002	998	998	992	992	996	1005	1007	1001	998	1010	1019	1021	1017	1015	0	0	0	0	0	0	0	0	1052	1036	1046	1071	1103	1124	1140	1161	1273	1344	1408	1409	1407	1418	1446	1468	1482	1491	1469	1451	1446	1448	1458	1475	1479	1476	1468	1465	1468	1486	1504	1510	1502	1477	1485	1490	1487	1483	1471	1475	1482	1486	1484	1486	1485	1480	1476	1485	1498	1486	1481	1471	1465	1468	1464	1463	1461	1444	1446	1452	1473	1486	1485	1501	1496	1486	1484	1483	1489	1480	1472	1458	1461	1460	1458	1462	1459	1460	1457	1423	1423	1435	1449	1462	1464	1462	1464	1462	1464	1458	1458	1462	1489	1503	1511	1514	1511	1506	1494	1458	1463	1465	1463	1461	1465	1483	1494	1499	1477	1461	1445	1443	1450	1456	1456	1461	1467	1469	1468	1471	1472	1477	1488	1491	1476	1462	1456	1457	1456	1447	1461	1458	1457	1464	1470	1479	1488	1486	1484	1477	1475	1479	1475	1468	1468	1457	1457	1467	1473	1478	1469	1465	1468	1466	1457	1449	1447	1445	1445	1446	1442	1445	1459	1468	1481	1474	1464	1448	1446	1454	1464	1468	1472	1471	1471	1457	1458	1461	1467	1456	1449	0	0	0	0	0	0	0
0	0	0	0	0	0	0	0	0	0	0	0	0	0	0	0	0	0	0	0	0	0	0	0	0	0	0	0	0	0	0	0	0	0	0	0	0	0	0	0	0	0	0	0	0	0	0	0	0	0	0	0	0	0	0	0	0	0	0	0	0	0	0	0	0	0	0	0	0	0	0	0	0	0	0	0	0	0	0	0	0	0	0	0	0	0	0	0	0	0	0	0	0	1486	1505	1517	1525	1522	1505	1457	1447	1445	1455	1457	1464	1473	1479	1481	1479	1487	1489	1470	1460	1455	1442	1425	1426	1440	1466	1461	1464	1467	1471	1464	1454	1445	1448	1449	1459	1458	1460	1469	1471	1463	1457	1455	1458	1459	1468	1476	1490	1496	1492	1475	1460	1459	1458	1469	1470	1485	1490	1493	1483	1476	1469	1461	1456	1471	1480	1482	1473	1463	1453	1442	1429	1433	1443	1446	1455	1451	1460	1487	1509	1508	1509	1496	1476	1454	1432	1433	1438	1440	1452	1471	1483	1496	1509	1508	1500	1486	1483	1483	1496	1511	1508	1499	1487	1489	1495	1489	1468	1452	1448	1448	1457	1465	1459	1449	1458	1466	1463	1456	1456	1457	1451	1445	1426	1397	1295	1187	1151	1124	1102	1082	1059	1053	1043	1034	1023	1014	1013	1024	1043	1055	1044	1019	1003	1000	998	1004	998	996	994	998	1005	1020	1027	1038	1042	1034	1039	1036	1045	1054	1063	1070	1076	1070	1071	1062	1056	1058	1075	0	0	0	0	0	0	1317	1392	1453	1479	1481	1481	1499	1502	1499	1487	1490	1492	1490	1484	1488	1488	1488	1482	1482	1477	1481	1479	1475	1470	1465	1461	1465	1479	1492	1502	1500	1497	1497	1501	1505	1510	1499	1488	1483	1482	1489	1497	1495	1491	1489	1489	1483	1477	1477	1476	1477	1481	1483	1478	1468	1484	1493	1494	1494	1482	1476	1483	1473	1474	1474	1476	1472	1479	1494	1490	1489	1470	1469	1472	1482	1466	1469	1486	1480	1490	1497	1501	1511	1511	1512	1518	1507	1497	1500	1501	1488	1485	1490	1483	1465	1464	1463	1470	1479	1483	1486	1486	1478	1480	1465	1456	1455	1463	1474	1482	1473	1465	1469	1484	1493	1487	1482	1481	1476	1476	1477	1478	1479	1487	1498	1500	1505	1508	1500	1485	1488	1503	1516	1521	0	0	0	0	0	0	0	0	0	0	0	0	0	0	0	0	0	0	0	0	0	1011	1011	0	0	0	0	0	0	0	998	1007	1008	1005	995	991	1000	1009	1015	1010	1015	0	0	0	0	0	0	0	0	0	0	1045	1057	1075	1085	1088	1092	1097	1131	1210	1366	1379	1402	1440	1461	1475	1482	1464	1469	1449	1447	1454	1470	1484	1485	1474	1465	1460	1474	1499	1511	1508	1477	1480	1482	1477	1469	1467	1476	1480	1482	1483	1483	1483	1476	1478	1489	1508	1493	1494	1489	1485	1484	1483	1469	1459	1448	1450	1462	1489	1496	1505	1507	1505	1485	1466	1471	1481	1481	1470	1464	1464	1468	1467	1454	1457	1460	1455	1436	1434	1440	1440	1444	1436	1438	1445	1459	1466	1461	1457	1467	1491	1507	1514	1511	1502	1488	1471	1446	1457	1466	1473	1483	1486	1499	1505	1496	1477	1445	1437	1432	1442	1457	1456	1460	1459	1463	1472	1480	1481	1490	1489	1475	1467	1456	1456	1457	1453	1455	1459	1458	1470	1483	1484	1492	1491	1488	1455	1443	1471	1480	1484	1477	1472	1466	1473	1485	1494	1494	1482	1470	1461	1449	1440	1435	1441	1445	1445	1453	1458	1466	1472	1482	1492	1490	1471	1458	1452	1448	1453	1450	1455	1453	1453	1447	1458	1466	1473	1465	1458	0	0	0	0	0	0	0
0	0	0	0	0	0	0	0	0	0	0	0	0	0	0	0	0	0	0	0	0	0	0	0	0	0	0	0	0	0	0	0	0	0	0	0	0	0	0	0	0	0	0	0	0	0	0	0	0	0	0	0	0	0	0	0	0	0	0	0	0	0	0	0	0	0	0	0	0	0	0	0	0	0	0	0	0	0	0	0	0	0	0	0	0	0	0	0	0	0	0	0	0	1472	1496	1501	1503	1496	1475	1459	1457	1459	1466	1463	1468	1481	1485	1483	1481	1494	1500	1499	1481	1462	1442	1431	1429	1439	1473	1481	1469	1481	1490	1478	1459	1449	1454	1465	1471	1469	1476	1475	1469	1465	1465	1467	1468	1463	1464	1465	1471	1482	1478	1468	1461	1459	1469	1486	1488	1491	1488	1482	1466	1469	1462	1450	1456	1461	1475	1473	1468	1463	1455	1443	1430	1436	1448	1465	1469	1485	1494	1516	1518	1514	1504	1493	1476	1459	1452	1450	1445	1448	1465	1489	1503	1501	1503	1494	1492	1486	1477	1480	1497	1518	1531	1516	1497	1490	1487	1473	1449	1433	1438	1447	1461	1468	1461	1465	1471	1474	1464	1455	1434	1406	1387	1309	1258	1231	1191	1160	1134	1123	0	0	0	1060	1050	1031	1021	1013	1016	1027	1033	1035	1025	1008	992	985	985	994	996	993	990	1004	1015	1023	1037	1048	1051	1036	1013	1001	1020	1034	1053	1076	1073	1065	1060	1054	1064	0	0	0	0	0	0	0	0	1385	1448	1470	1480	1476	1486	1502	1500	1496	1487	1485	1494	1498	1494	1486	1482	1479	1475	1478	1482	1481	1474	1475	1475	1471	1467	1455	1453	1459	1479	1481	1483	1490	1497	1506	1503	1496	1494	1491	1492	1494	1495	1492	1498	1494	1500	1503	1493	1479	1480	1481	1480	1487	1484	1501	1514	1505	1497	1494	1493	1480	1476	1465	1458	1455	1462	1464	1466	1463	1467	1470	1465	1461	1468	1465	1465	1477	1481	1483	1477	1475	1478	1487	1497	1503	1498	1495	1512	1515	1514	1504	1495	1489	1474	1455	1448	1443	1451	1474	1482	1489	1490	1489	1482	1476	1456	1453	1457	1468	1480	1482	1471	1472	1478	1485	1487	1488	1485	1481	1480	1485	1479	1477	1484	1489	1494	1501	1498	1493	1496	1507	1515	1529	1534	1509	0	0	0	0	0	0	0	0	0	0	0	0	0	0	0	0	0	0	0	0	0	0	0	0	0	0	0	0	0	0	0	0	0	0	0	0	1014	1020	1024	0	0	0	0	0	0	0	0	0	0	0	0	0	0	1073	1068	1059	1058	1056	1057	1056	1120	1240	1387	1412	1449	1454	1467	1469	1465	1457	1457	1469	1483	1484	1477	1470	1457	1468	1492	1507	1501	1478	1476	1473	1462	1459	1467	1476	1485	1484	1479	1479	1475	1476	1477	1509	1504	1497	1496	1493	1495	1495	1494	1485	1484	1456	1461	1480	1500	1507	1500	1507	1499	1479	1455	1457	1475	1475	1464	1452	1463	1467	1467	1464	1466	1467	1457	1439	1456	1457	1453	1439	1432	1427	1445	1466	1472	1465	1461	1476	1497	1518	1517	1506	1492	1480	1473	1462	1466	1480	1489	1493	1499	1500	1492	1478	1463	1444	1431	1427	1440	1455	1464	1458	1457	1461	1483	1498	1499	1493	1480	1459	1447	1451	1454	1452	1453	1461	1470	1484	1489	1495	1488	1499	1494	1469	1449	1434	1446	1473	1485	1477	1471	1468	1480	1497	1505	1506	1494	1478	1464	1449	1432	1426	1433	1446	1446	1461	1470	1476	1486	1502	1508	1511	1501	1479	1468	1452	1446	1448	1447	1447	1452	1460	1464	1474	1484	1481	1469	0	0	0	0	0	0	0
0	0	0	0	0	0	0	0	0	0	0	0	0	0	0	0	0	0	0	0	0	0	0	0	0	0	0	0	0	0	0	0	0	0	0	0	0	0	0	0	0	0	0	0	0	0	0	0	0	0	0	0	0	0	0	0	0	0	0	0	0	0	0	0	0	0	0	0	0	0	0	0	0	0	0	0	0	0	0	0	0	0	0	0	0	0	0	0	0	0	0	0	0	1469	1486	1486	1477	1479	1478	1472	1466	1474	1493	1499	1495	1492	1474	1469	1472	1487	1498	1486	1469	1454	1443	1442	1452	1478	1497	1494	1494	1497	1492	1488	1473	1462	1466	1472	1478	1480	1485	1485	1475	1475	1471	1476	1472	1467	1462	1465	1473	1482	1482	1469	1467	1476	1487	1498	1499	1491	1472	1456	1446	1444	1444	1450	1460	1474	1479	1472	1464	1464	1458	1447	1437	1436	1453	1477	1491	1504	1516	1527	1529	1514	1505	1482	1472	1464	1465	1460	1456	1463	1473	1492	1502	1501	1482	1479	1480	1480	1483	1485	1489	1505	1517	1506	1501	1490	1482	1469	1451	1439	1441	1445	1467	1475	1469	1458	1465	1460	1430	1417	1375	1306	1260	1243	1229	1217	1187	1156	1146	0	0	0	0	0	1059	1033	1014	1013	1019	1019	1017	1012	1014	1005	994	986	989	990	989	979	979	988	1001	0	0	0	0	1034	1009	991	0	0	0	0	0	0	0	0	0	0	0	0	0	0	0	0	1378	1445	1438	1444	1454	1468	1479	1485	1487	1489	1482	1485	1490	1496	1496	1492	1485	1483	1474	1478	1498	1519	1526	1524	1518	1513	1502	1485	1478	1485	1503	1498	1487	1478	1477	1487	1490	1488	1482	1487	1479	1487	1485	1495	1491	1510	1517	1515	1501	1490	1479	1484	1487	1490	1494	1514	1508	1500	1490	1492	1494	1488	1464	1456	1449	1449	1452	1460	1461	1465	1473	1477	1479	1473	1471	1469	1474	1478	1484	1473	1468	1465	1468	1476	1494	1497	1492	1492	1507	1514	1515	1509	1493	1481	1462	1449	1448	1446	1451	1458	1473	1478	1490	1494	1496	1487	1466	1458	1456	1464	1468	1475	1481	1484	1478	1479	1477	1488	1482	1489	1497	1490	1484	1480	1469	1476	1485	1494	1499	1500	1508	1523	1535	1537	1536	1539	1503	0	0	0	0	0	0	0	0	0	0	0	0	0	0	0	0	0	994	0	0	0	0	0	0	0	0	0	0	0	0	0	0	0	0	0	0	0	0	0	0	0	0	0	0	0	0	0	0	0	0	0	0	1062	1046	1042	1041	1031	1026	1020	1017	1058	1120	1241	1368	1435	1441	1449	1464	1466	1468	1475	1478	1479	1480	1466	1445	1461	1480	1496	1490	1480	1476	1461	1456	1456	1467	1480	1483	1481	1475	1471	1467	1468	1471	1498	1504	1498	1486	1485	1482	1485	1494	1500	1497	1487	1487	1504	1519	1523	1502	1497	1493	1476	1455	1452	1477	1478	1466	1452	1451	1459	1467	1468	1463	1458	1458	1458	1462	1472	1467	1458	1449	1441	1453	1460	1468	1458	1450	1466	1491	1507	1507	1490	1479	1475	1477	1485	1491	1481	1489	1487	1492	1486	1477	1471	1453	1448	1441	1435	1442	1461	1467	1467	1461	1465	1494	1503	1501	1494	1473	1448	1435	1441	1450	1452	1458	1464	1478	1495	1504	1501	1499	1501	1497	1484	1454	1430	1435	1456	1474	1476	1468	1466	1474	1497	1513	1510	1492	1475	1463	1451	1432	1429	1441	1453	1453	1467	1483	1494	1504	1516	1526	1532	1518	1490	1471	1461	1450	1451	1454	1454	1464	1465	1479	1484	1484	1500	1503	0	0	0	0	0	0	0
0	0	0	0	0	0	0	0	0	0	0	0	0	0	0	0	0	0	0	0	0	0	0	0	0	0	0	0	0	0	0	0	0	0	0	0	0	0	0	0	0	0	0	0	0	0	0	0	0	0	0	0	0	0	0	0	0	0	0	0	0	0	0	0	0	0	0	0	0	0	0	0	0	0	0	0	0	0	0	0	0	0	0	0	0	0	0	0	0	0	0	0	0	1468	1482	1483	1477	1480	1489	1478	1475	1473	1475	1480	1491	1491	1461	1464	1472	1480	1484	1473	1459	1451	1456	1469	1489	1506	1517	1504	1500	1505	1507	1503	1495	1473	1462	1458	1464	1482	1495	1503	1502	1492	1488	1483	1468	1453	1455	1474	1489	1490	1486	1472	1474	1477	1483	1485	1490	1478	1471	1447	1437	1428	1429	1449	1474	1492	1486	1473	1459	1462	1455	1448	1439	1440	1455	1471	1497	1504	1516	1522	1518	1511	1498	1480	1468	1469	1470	1466	1458	1464	1474	1487	1493	1490	1466	1454	1456	1474	1485	1493	1486	1494	1505	1497	1502	1484	1476	1473	1455	1450	1441	1446	1452	1468	1467	1457	1422	1341	1287	1267	1247	1227	1213	1206	1193	1190	1177	1163	1150	0	0	0	0	0	0	1029	1014	1002	1004	1000	994	1001	1005	1007	997	991	991	990	982	970	960	963	979	0	0	0	0	0	995	0	0	0	0	0	0	0	0	0	0	0	0	0	0	0	0	1340	1419	1437	1440	1440	1441	1461	1470	1478	1480	1481	1481	1485	1492	1496	1500	1494	1493	1490	1485	1478	1490	1519	1534	1534	1530	1521	1512	1494	1488	1495	1508	1509	1497	1480	1484	1490	1489	1486	1479	1477	1472	1475	1486	1486	1496	1517	1523	1515	1506	1489	1475	1482	1484	1487	1481	1489	1491	1483	1474	1479	1486	1483	1469	1446	1439	1442	1455	1468	1468	1468	1471	1481	1485	1482	1475	1462	1464	1467	1473	1473	1463	1455	1459	1477	1488	1493	1493	1501	1497	1509	1512	1500	1489	1473	1458	1453	1454	1460	1463	1467	1468	1476	1488	1500	1508	1509	1496	1486	1475	1465	1469	1472	1485	1487	1496	1497	1487	1488	1489	1490	1495	1498	1483	1472	1475	1481	1485	1496	1510	1500	1509	1522	1531	1538	1538	1539	1536	0	0	0	0	0	0	0	0	0	0	0	0	0	1004	993	980	986	980	970	958	952	952	971	990	1000	980	957	935	927	956	0	0	0	0	0	0	1028	1029	0	0	0	0	0	0	0	0	0	0	988	997	1007	1010	993	1004	1017	1021	1006	998	989	984	992	1029	1075	1144	1356	1417	1442	1452	1458	1468	1477	1476	1479	1475	1468	1457	1461	1478	1496	1485	1477	1470	1462	1455	1459	1460	1474	1479	1476	1471	1462	1460	1461	1465	1499	1501	1494	1478	1464	1461	1465	1484	1501	1499	1492	1499	1512	1528	1524	1497	1498	1488	1482	1466	1473	1481	1488	1464	1445	1445	1457	1460	1459	1463	1464	1459	1461	1468	1470	1475	1479	1474	1470	1471	1463	1454	1447	1437	1446	1462	1483	1489	1483	1477	1474	1475	1487	1476	1463	1459	1468	1473	1474	1470	1457	1460	1456	1452	1446	1448	1458	1463	1468	1466	1470	1483	1492	1492	1482	1463	1436	1427	1434	1447	1456	1458	1466	1473	1488	1503	1501	1499	1507	1506	1489	1462	1444	1440	1463	1480	1477	1465	1462	1467	1490	1505	1502	1490	1476	1464	1450	1447	1453	1461	1464	1464	1480	1492	1494	1499	1511	1521	1527	1511	1484	1468	1456	1457	1462	1466	1466	1469	1472	1479	1482	1487	1490	1477	0	0	0	0	0	0	0
0	0	0	0	0	0	0	0	0	0	0	0	0	0	0	0	0	0	0	0	0	0	0	0	0	0	0	0	0	0	0	0	0	0	0	0	0	0	0	0	0	0	0	0	0	0	0	0	0	0	0	0	0	0	0	0	0	0	0	0	0	0	0	0	0	0	0	0	0	0	0	0	0	0	0	0	0	0	0	0	0	0	0	0	0	0	0	0	0	0	0	0	0	1461	1451	1457	1474	1485	1490	1486	1475	1470	1471	1463	1481	1485	1470	1464	1469	1483	1486	1487	1472	1462	1458	1470	1482	1499	1508	1505	1503	1502	1504	1505	1495	1477	1466	1458	1467	1473	1485	1491	1493	1492	1492	1487	1466	1449	1445	1463	1496	1511	1512	1496	1482	1468	1454	1446	1437	1472	1471	1462	1449	1436	1440	1464	1485	1492	1488	1476	1454	1455	1457	1444	1442	1450	1457	1470	1492	1493	1507	1512	1507	1504	1496	1489	1472	1467	1472	1461	1458	1466	1476	1486	1486	1485	1468	1451	1457	1470	1489	1492	1493	1506	1501	1495	1477	1480	1478	1480	1463	1453	1444	1439	1445	1451	1411	1342	1238	1221	1220	1219	1194	1182	1164	1153	1150	1150	1150	1145	0	0	0	0	0	0	0	1010	998	988	983	978	979	984	997	1001	990	979	986	987	979	964	952	953	969	990	0	0	0	0	0	0	0	0	0	0	0	0	0	0	0	0	0	0	0	0	1349	1411	1438	1440	1445	1450	1455	1463	1472	1477	1485	1487	1481	1477	1492	1496	1494	1497	1497	1498	1479	1476	1486	1506	1534	1531	1530	1522	1511	1493	1487	1496	1510	1510	1504	1491	1494	1499	1499	1496	1480	1467	1475	1487	1490	1488	1504	1518	1520	1514	1504	1489	1468	1482	1490	1487	1476	1479	1479	1475	1467	1471	1475	1476	1462	1447	1442	1444	1460	1475	1481	1476	1477	1482	1485	1490	1479	1467	1459	1462	1478	1474	1465	1459	1464	1477	1479	1488	1494	1498	1503	1508	1511	1501	1484	1467	1461	1463	1468	1460	1467	1472	1474	1483	1496	1502	1512	1530	1530	1516	1497	1483	1475	1484	1492	1501	1511	1509	1503	1494	1487	1489	1487	1495	1485	1471	1472	1467	1484	1491	1508	1503	1502	1507	1516	1516	1518	1521	1520	1506	0	0	0	0	0	0	0	0	0	0	0	0	0	979	975	967	951	931	920	921	916	928	949	966	956	935	919	918	931	957	959	953	951	966	979	981	975	964	940	920	925	943	967	981	972	945	930	925	929	938	949	966	981	988	989	984	978	965	961	972	997	1014	1025	1059	1251	1348	1392	1419	1437	1467	1478	1481	1479	1471	1459	1472	1480	1497	1486	1478	1473	1458	1457	1460	1452	1458	1467	1472	1470	1468	1465	1459	1476	1506	1506	1499	1477	1457	1454	1457	1469	1481	1489	1485	1490	1504	1525	1526	1496	1492	1492	1494	1496	1497	1504	1491	1464	1446	1450	1461	1463	1465	1465	1468	1463	1462	1459	1471	1477	1478	1483	1480	1475	1459	1447	1450	1456	1461	1457	1468	1479	1491	1494	1489	1480	1464	1445	1432	1432	1444	1458	1466	1475	1495	1493	1487	1473	1460	1458	1463	1467	1466	1469	1476	1474	1469	1458	1463	1449	1434	1431	1435	1453	1459	1459	1463	1467	1482	1490	1492	1492	1494	1497	1486	1462	1453	1457	1486	1495	1481	1465	1454	1459	1479	1492	1493	1489	1476	1470	1471	1474	1472	1464	1464	1467	1476	1484	1487	1484	1494	1503	1498	1483	1465	1452	1453	1466	1475	1473	1473	1474	1471	1463	1467	1462	1458	1448	0	0	0	0	0	0	0
0	0	0	0	0	0	0	0	0	0	0	0	0	0	0	0	0	0	0	0	0	0	0	0	0	0	0	0	0	0	0	0	0	0	0	0	0	0	0	0	0	0	0	0	0	0	0	0	0	0	0	0	0	0	0	0	0	0	0	0	0	0	0	0	0	0	0	0	0	0	0	0	0	0	0	0	0	0	0	0	0	0	0	0	0	0	0	0	0	0	0	0	0	1442	1445	1451	1469	1487	1487	1490	1483	1481	1463	1465	1476	1477	1478	1471	1470	1481	1491	1490	1477	1461	1449	1460	1471	1479	1491	1495	1498	1492	1492	1490	1484	1473	1461	1465	1468	1476	1476	1476	1472	1477	1482	1488	1464	1449	1449	1467	1492	1520	1521	1501	1482	1472	1450	1428	1430	1459	1477	1487	1484	1478	1479	1480	1492	1487	1479	1475	1462	1460	1452	1443	1450	1460	1466	1475	1488	1491	1495	1493	1494	1496	1495	1485	1471	1457	1463	1455	1454	1464	1479	1490	1498	1495	1490	1474	1481	1487	1490	1487	1486	1508	1502	1491	1478	1481	1476	1473	1465	1456	1448	1430	1398	1349	1240	1157	1148	1163	1174	1172	1159	1131	1106	1100	1099	1107	1111	0	0	0	0	0	0	0	999	987	981	963	952	960	971	982	993	990	978	979	986	986	981	966	954	963	979	994	0	0	0	0	950	0	0	0	0	0	0	0	0	0	0	0	0	0	0	0	1412	1418	1445	1438	1448	1448	1468	1477	1485	1494	1498	1493	1482	1478	1492	1499	1495	1499	1493	1477	1510	1522	1516	1506	1520	1528	1521	1511	1501	1492	1485	1489	1501	1514	1512	1510	1507	1513	1516	1512	1505	1482	1501	1514	1505	1495	1485	1464	1502	1493	1487	1472	1473	1470	1483	1485	1479	1475	1480	1477	1473	1472	1470	1468	1457	1449	1449	1453	1465	1483	1487	1489	1475	1476	1487	1491	1487	1474	1473	1483	1483	1485	1476	1471	1466	1485	1493	1497	1511	1513	1515	1516	1511	1499	1473	1455	1468	1468	1466	1462	1460	1465	1474	1486	1499	1498	1512	1521	1531	1517	1499	1490	1490	1497	1493	1511	1509	1512	1508	1499	1487	1484	1486	1485	1481	1469	1465	1464	1468	1474	1502	1500	1497	1493	1489	1488	1489	1498	1503	1508	1467	0	0	0	0	0	0	0	0	0	0	0	0	0	962	936	914	899	890	887	886	892	911	933	931	924	919	915	924	936	931	922	927	933	938	940	939	923	913	916	923	936	951	954	962	935	914	900	897	913	927	941	949	953	949	943	945	940	941	949	967	984	998	1006	1025	1062	1132	1248	1368	1416	1438	1473	1477	1471	1469	1469	1486	1502	1489	1481	1470	1461	1462	1465	1455	1456	1471	1487	1485	1488	1472	1461	1466	1500	1509	1501	1483	1476	1474	1463	1465	1474	1475	1476	1478	1495	1518	1517	1488	1479	1477	1487	1500	1507	1514	1502	1483	1459	1459	1475	1470	1471	1477	1479	1478	1483	1490	1492	1471	1465	1466	1470	1468	1462	1463	1462	1477	1477	1478	1483	1488	1497	1502	1501	1488	1464	1452	1445	1455	1466	1469	1470	1487	1505	1504	1491	1481	1466	1468	1465	1464	1469	1476	1474	1466	1460	1445	1435	1426	1436	1455	1464	1470	1472	1466	1467	1466	1472	1475	1478	1478	1479	1474	1470	1462	1453	1474	1488	1495	1486	1469	1453	1453	1461	1483	1491	1492	1489	1481	1478	1472	1470	1463	1463	1457	1470	1478	1477	1474	1479	1480	1475	1466	1444	1437	1449	1466	1477	1483	1483	1475	1470	1460	1459	1454	1432	1431	0	0	0	0	0	0	0
0	0	0	0	0	0	0	0	0	0	0	0	0	0	0	0	0	0	0	0	0	0	0	0	0	0	0	0	0	0	0	0	0	0	0	0	0	0	0	0	0	0	0	0	0	0	0	0	0	0	0	0	0	0	0	0	0	0	0	0	0	0	0	0	0	0	0	0	0	0	0	0	0	0	0	0	0	0	0	0	0	0	0	0	0	0	0	0	0	0	0	0	0	1427	1437	1447	1460	1474	1473	1476	1477	1475	1471	1465	1472	1487	1482	1480	1483	1486	1486	1481	1469	1449	1446	1444	1456	1464	1482	1494	1493	1478	1468	1463	1460	1461	1459	1466	1471	1468	1466	1455	1453	1456	1468	1473	1463	1459	1464	1480	1507	1511	1510	1496	1479	1469	1447	1438	1442	1474	1490	1485	1481	1476	1475	1473	1464	1464	1462	1470	1466	1453	1451	1442	1452	1455	1467	1477	1481	1486	1485	1488	1486	1490	1487	1480	1463	1449	1448	1440	1446	1461	1486	1499	1499	1494	1485	1481	1483	1476	1470	1466	1472	1496	1489	1471	1457	1457	1460	1452	1439	1416	1348	1212	1156	1124	1097	1097	1109	1118	1125	1123	1111	1084	1063	1067	1061	1066	1072	0	0	0	0	0	1007	994	986	983	970	946	941	943	958	971	984	987	977	973	975	979	976	969	963	971	979	990	988	0	0	0	0	0	0	0	0	0	0	0	0	0	0	0	0	0	0	1435	1463	1468	1455	1441	1447	1455	1472	1487	1498	1510	1511	1499	1484	1478	1497	1508	1499	1482	1488	1494	1516	1515	1525	1502	1519	1521	1519	1502	1493	1484	1481	1482	1498	1511	1518	1516	1516	1519	1521	1508	1484	1488	1500	1521	1509	1496	1486	1472	1449	1481	1479	1482	1483	1487	1504	1506	1491	1482	1485	1487	1487	1475	1466	1462	1459	1456	1456	1465	1479	1492	1495	1491	1490	1489	1483	1483	1480	1476	1479	1486	1487	1479	1480	1490	1488	1490	1496	1502	1515	1527	1525	1514	1503	1489	1474	1458	1458	1465	1466	1464	1468	1465	1474	1482	1486	1494	1503	1515	1517	1504	1491	1487	1500	1511	1514	1512	1510	1509	1503	1498	1496	1488	1486	1484	1475	1465	1462	1461	1466	1497	1502	1504	1497	1482	1483	1479	1479	1495	1506	1508	1490	1437	0	0	0	0	0	0	0	0	0	0	0	0	0	917	891	877	869	863	861	868	883	909	910	906	906	897	901	911	910	898	902	907	908	908	897	894	898	906	916	919	932	942	946	927	894	879	879	895	908	922	929	922	914	909	905	907	911	922	940	949	965	974	984	996	1018	1073	1154	1206	1289	1388	1452	1455	1454	1460	1474	1490	1498	1489	1479	1472	1468	1465	1459	1468	1480	1487	1495	1497	1478	1464	1458	1483	1498	1492	1480	1480	1484	1483	1469	1465	1474	1479	1486	1501	1514	1512	1486	1470	1459	1467	1458	1479	1491	1501	1506	1501	1490	1476	1467	1468	1479	1483	1482	1488	1494	1489	1469	1447	1448	1460	1477	1485	1474	1476	1482	1481	1486	1493	1498	1498	1494	1493	1485	1479	1472	1466	1470	1477	1479	1473	1478	1490	1497	1497	1484	1481	1475	1470	1468	1472	1477	1476	1462	1449	1430	1421	1430	1451	1465	1469	1469	1477	1475	1468	1473	1482	1471	1466	1463	1467	1468	1469	1474	1469	1478	1482	1482	1480	1467	1454	1449	1452	1470	1488	1497	1492	1485	1479	1477	1465	1463	1463	1461	1467	1474	1476	1472	1477	1476	1467	1454	1435	1437	1452	1470	1479	1480	1480	1482	1476	1462	1459	1456	1432	1413	0	0	0	0	0	0	0
0	0	0	0	0	0	0	0	0	0	0	0	0	0	0	0	0	0	0	0	0	0	0	0	0	0	0	0	0	0	0	0	0	0	0	0	0	0	0	0	0	0	0	0	0	0	0	0	0	0	0	0	0	0	0	0	0	0	0	0	0	0	0	0	0	0	0	0	0	0	0	0	0	0	0	0	0	0	0	0	0	0	0	0	0	0	0	0	0	0	0	0	0	1430	1438	1443	1455	1462	1467	1460	1461	1460	1459	1468	1473	1481	1491	1492	1491	1481	1481	1470	1456	1452	1446	1448	1450	1463	1480	1494	1497	1476	1455	1443	1439	1446	1462	1475	1471	1466	1459	1451	1446	1442	1438	1447	1457	1468	1471	1484	1499	1503	1496	1483	1471	1464	1460	1454	1470	1493	1500	1486	1478	1476	1466	1455	1444	1451	1467	1475	1473	1461	1454	1458	1473	1466	1471	1485	1485	1489	1491	1482	1478	1474	1470	1467	1463	1456	1447	1432	1436	1460	1487	1496	1488	1473	1461	1460	1471	1467	1464	1452	1447	1471	1464	1449	1437	1431	1378	1284	1208	1166	1121	1099	1094	1083	1072	1077	1088	1087	1084	1082	1080	1052	1045	1039	1039	1041	1050	1061	0	0	0	999	1000	996	988	0	973	950	930	928	938	954	969	976	971	965	962	962	968	972	963	958	961	960	952	935	0	0	0	0	0	0	0	0	0	0	0	0	0	0	1313	1440	1385	1443	1479	1476	1474	1454	1459	1471	1485	1495	1506	1519	1519	1504	1481	1479	1490	1510	1498	1495	1495	1504	1503	1487	1482	1493	1517	1520	1513	1495	1484	1482	1480	1482	1498	1511	1519	1522	1517	1517	1520	1497	1490	1491	1488	1494	1476	1489	1488	1486	1485	1478	1474	1477	1495	1493	1514	1515	1510	1500	1498	1499	1491	1483	1466	1455	1457	1463	1473	1491	1497	1488	1490	1487	1489	1489	1485	1479	1471	1467	1473	1480	1488	1489	1497	1509	1515	1512	1498	1494	1503	1512	1512	1501	1490	1485	1475	1470	1471	1475	1476	1476	1469	1472	1471	1479	1484	1486	1492	1498	1505	1501	1486	1485	1505	1512	1521	1516	1511	1499	1490	1479	1477	1480	1488	1487	1477	1466	1457	1451	1458	1495	1501	1495	1482	1480	1480	1480	1487	1496	1508	1510	1496	1472	0	0	0	0	0	0	0	0	0	0	0	0	0	0	889	867	853	843	841	847	861	889	892	894	887	877	878	880	879	881	879	886	889	884	880	873	874	885	896	906	909	918	925	906	881	864	864	882	901	913	914	903	895	893	891	886	889	899	915	922	929	930	943	952	969	974	1027	1052	1126	1223	1326	1400	1413	1434	1453	1470	1488	1492	1485	1477	1475	1468	1474	1476	1477	1482	1492	1497	1497	1486	1470	1478	1491	1478	1479	1472	1477	1473	1463	1463	1474	1496	1514	1516	1512	1496	1493	1465	1453	1444	1445	1455	1478	1501	1512	1516	1496	1483	1468	1470	1488	1498	1479	1479	1484	1482	1465	1445	1445	1463	1482	1493	1485	1478	1474	1480	1489	1501	1490	1485	1477	1476	1477	1485	1483	1480	1481	1486	1484	1477	1474	1480	1493	1499	1503	1497	1486	1475	1475	1475	1480	1473	1460	1436	1415	1425	1434	1464	1459	1458	1459	1470	1479	1477	1470	1472	1466	1466	1463	1472	1478	1488	1496	1495	1491	1479	1486	1486	1478	1470	1453	1453	1463	1465	1484	1487	1486	1482	1482	1475	1475	1475	1476	1476	1483	1482	1485	1483	1471	1459	1447	1437	1443	1464	1473	1477	1478	1478	1484	1474	1465	1461	1462	1450	1420	0	0	0	0	0	0	0
0	0	0	0	0	0	0	0	0	0	0	0	0	0	0	0	0	0	0	0	0	0	0	0	0	0	0	0	0	0	0	0	0	0	0	0	0	0	0	0	0	0	0	0	0	0	0	0	0	0	0	0	0	0	0	0	0	0	0	0	0	0	0	0	0	0	0	0	0	0	0	0	0	0	0	0	0	0	0	0	0	0	0	0	0	0	0	0	0	0	0	0	0	1446	1449	1454	1470	1492	1480	1455	1449	1449	1448	1460	1471	1483	1490	1490	1492	1476	1465	1457	1459	1459	1460	1459	1459	1465	1483	1499	1500	1489	1465	1465	1458	1463	1470	1473	1466	1465	1457	1462	1451	1436	1431	1440	1455	1466	1470	1474	1488	1494	1487	1473	1463	1468	1458	1459	1473	1503	1506	1495	1475	1467	1459	1451	1443	1460	1471	1477	1482	1476	1466	1459	1460	1468	1473	1479	1482	1496	1503	1498	1474	1464	1452	1462	1467	1470	1461	1439	1441	1472	1490	1490	1475	1451	1442	1443	1457	1465	1458	1439	1429	1431	1433	1416	1387	1313	1201	1100	1070	1071	1072	1072	1067	1059	1059	1063	1079	1077	1069	1070	1066	1057	1047	1035	1029	1026	1041	1048	1043	0	1007	997	998	999	0	0	0	0	941	928	929	946	961	967	960	952	945	951	956	964	958	0	0	0	914	936	0	0	0	0	0	0	0	0	0	0	0	0	0	1363	1444	1448	1450	1456	1480	1480	1483	1456	1487	1494	1496	1497	1506	1522	1518	1508	1488	1489	1500	1514	1506	1504	1502	1509	1492	1484	1479	1479	1503	1525	1518	1502	1487	1481	1479	1487	1496	1509	1514	1510	1508	1508	1503	1507	1478	1478	1509	1497	1487	1471	1493	1501	1506	1484	1471	1473	1488	1502	1509	1516	1518	1505	1505	1502	1507	1497	1478	1454	1450	1467	1479	1497	1509	1489	1490	1480	1485	1494	1497	1486	1472	1464	1471	1480	1487	1490	1501	1516	1528	1520	1501	1492	1482	1496	1500	1490	1479	1478	1488	1491	1497	1492	1490	1482	1482	1478	1477	1485	1486	1483	1477	1485	1496	1496	1480	1479	1496	1508	1523	1518	1507	1496	1476	1470	1464	1477	1474	1483	1473	1464	1457	1452	1458	1477	1483	1479	1472	1480	1490	1499	1498	1505	1508	1511	1514	1513	1508	0	0	0	0	0	0	0	0	0	0	0	0	0	909	874	846	828	823	829	846	869	873	874	866	859	860	864	863	863	870	877	886	884	876	869	869	877	889	892	895	897	901	894	882	867	865	878	897	904	906	900	891	888	886	887	887	890	897	901	899	902	914	926	933	937	929	929	940	965	1024	1132	1227	1316	1391	1439	1473	1480	1480	1471	1469	1473	1481	1482	1474	1477	1480	1500	1505	1497	1484	1482	1482	1485	1478	1470	1468	1468	1457	1473	1496	1513	1524	1525	1506	1494	1484	1463	1446	1451	1449	1454	1467	1497	1510	1512	1505	1489	1480	1483	1493	1498	1474	1473	1479	1473	1456	1447	1451	1467	1476	1485	1478	1468	1476	1481	1497	1504	1495	1486	1470	1467	1475	1485	1488	1471	1466	1469	1469	1469	1476	1482	1487	1505	1507	1501	1494	1484	1479	1476	1476	1472	1452	1436	1427	1425	1438	1457	1459	1449	1458	1472	1487	1480	1463	1456	1454	1453	1452	1460	1471	1478	1487	1488	1484	1475	1474	1491	1490	1482	1468	1455	1456	1457	1456	1461	1473	1485	1483	1484	1490	1490	1495	1500	1485	1492	1492	1482	1473	1461	1452	1447	1451	1461	1469	1468	1468	1474	1471	1467	1464	1468	1472	1490	0	0	0	0	0	0	0	0
0	0	0	0	0	0	0	0	0	0	0	0	0	0	0	0	0	0	0	0	0	0	0	0	0	0	0	0	0	0	0	0	0	0	0	0	0	0	0	0	0	0	0	0	0	0	0	0	0	0	0	0	0	0	0	0	0	0	0	0	0	0	0	0	0	0	0	0	0	0	0	0	0	0	0	0	0	0	0	0	0	0	0	0	0	0	0	0	0	0	0	0	0	1471	1466	1476	1492	1501	1500	1480	1461	1449	1452	1454	1463	1475	1483	1485	1484	1481	1459	1459	1464	1472	1474	1472	1466	1471	1479	1493	1498	1499	1491	1488	1475	1470	1469	1464	1457	1455	1448	1464	1459	1444	1434	1438	1450	1456	1460	1457	1471	1481	1478	1473	1464	1460	1452	1459	1469	1486	1489	1482	1479	1476	1474	1465	1463	1471	1473	1479	1491	1494	1485	1472	1464	1457	1459	1468	1467	1485	1502	1503	1484	1462	1456	1461	1481	1484	1482	1460	1453	1466	1472	1474	1454	1442	1433	1435	1449	1454	1440	1416	1408	1397	1371	1259	1161	1135	1091	1074	1072	1078	1078	1068	1058	1056	1058	1078	1090	1086	1076	1077	1079	1078	1071	1056	1039	1033	1041	1051	1049	1035	1016	1000	1004	1000	0	0	0	0	0	0	952	959	972	971	962	950	940	943	947	951	949	0	0	0	0	0	0	0	0	0	0	0	0	0	0	0	0	0	1400	1454	1448	1446	1449	1456	1458	1458	1479	1466	1500	1509	1502	1496	1497	1509	1521	1513	1504	1502	1507	1514	1510	1497	1516	1504	1496	1482	1484	1482	1497	1530	1524	1515	1493	1483	1473	1472	1484	1494	1500	1500	1498	1498	1492	1483	1480	1491	1506	1504	1496	1465	1480	1500	1515	1487	1478	1477	1491	1503	1503	1511	1518	1515	1508	1518	1518	1495	1475	1462	1463	1477	1488	1497	1503	1497	1483	1482	1487	1500	1501	1491	1482	1473	1475	1488	1493	1494	1502	1523	1534	1535	1514	1496	1480	1490	1497	1500	1490	1489	1497	1503	1502	1498	1496	1491	1492	1490	1482	1480	1487	1486	1473	1477	1486	1486	1475	1466	1481	1495	1503	1510	1494	1479	1474	1472	1470	1474	1462	1453	1442	1457	1463	1461	1452	1457	1460	1466	1476	1488	1504	1514	1511	1508	1506	1506	1511	1507	1490	1481	0	0	0	0	0	0	0	0	0	0	0	0	0	0	863	830	824	830	834	845	842	845	846	847	857	863	860	857	866	872	884	883	881	863	860	865	876	882	879	878	881	886	887	880	875	881	889	893	896	888	885	884	888	894	893	894	892	882	877	883	893	904	913	912	908	898	900	919	944	988	1055	1103	1159	1406	1443	1459	1464	1460	1466	1476	1488	1491	1481	1475	1477	1487	1498	1498	1489	1485	1486	1487	1492	1490	1484	1476	1481	1493	1510	1523	1525	1517	1502	1492	1479	1454	1439	1437	1451	1459	1474	1499	1507	1514	1510	1499	1486	1486	1493	1496	1474	1475	1470	1459	1448	1444	1441	1462	1465	1478	1468	1459	1460	1489	1513	1515	1507	1488	1477	1469	1460	1471	1471	1470	1461	1460	1466	1467	1468	1475	1481	1490	1492	1487	1485	1471	1476	1483	1488	1480	1468	1452	1440	1440	1446	1452	1453	1453	1461	1476	1487	1476	1454	1447	1445	1441	1440	1447	1456	1459	1468	1473	1474	1470	1468	1470	1481	1490	1490	1484	1468	1457	1456	1454	1469	1478	1484	1490	1490	1502	1516	1513	1502	1499	1486	1474	1468	1460	1458	1455	1460	1467	1459	1467	1467	1467	1468	1460	1460	1463	1474	1507	0	0	0	0	0	0	0	0
0	0	0	0	0	0	0	0	0	0	0	0	0	0	0	0	0	0	0	0	0	0	0	0	0	0	0	0	0	0	0	0	0	0	0	0	0	0	0	0	0	0	0	0	0	0	0	0	0	0	0	0	0	0	0	0	0	0	0	0	0	0	0	0	0	0	0	0	0	0	0	0	0	0	0	0	0	0	0	0	0	0	0	0	0	0	0	0	0	0	0	0	0	1481	1476	1489	1499	1501	1502	1490	1488	1467	1459	1464	1472	1471	1472	1474	1479	1481	1476	1471	1466	1467	1469	1472	1468	1473	1474	1484	1485	1492	1490	1492	1487	1476	1465	1457	1451	1443	1443	1457	1458	1448	1438	1440	1448	1455	1451	1447	1450	1470	1477	1480	1463	1454	1450	1454	1455	1472	1466	1467	1463	1469	1472	1482	1475	1471	1470	1486	1502	1502	1499	1487	1469	1461	1456	1451	1463	1480	1498	1493	1469	1452	1452	1457	1458	1463	1468	1463	1453	1453	1461	1458	1459	1441	1439	1433	1432	1425	1408	1375	1342	1289	1147	1140	1134	1127	1110	1094	1090	1090	1086	1082	1073	1073	1089	1106	1123	1105	1097	1105	1110	1115	1113	1098	1084	1074	1075	1075	1069	1056	1042	1025	1024	0	0	0	0	0	0	0	0	0	0	0	0	0	0	0	0	951	0	0	0	0	0	0	0	0	0	0	0	0	0	0	0	0	0	1409	1454	1465	1465	1447	1450	1437	1445	1457	1493	1499	1505	1508	1502	1494	1491	1503	1521	1523	1519	1513	1516	1513	1501	1483	1486	1510	1490	1460	1462	1504	1525	1521	1521	1508	1499	1481	1467	1463	1477	1485	1490	1493	1494	1493	1488	1480	1477	1490	1505	1514	1480	1475	1481	1498	1507	1497	1490	1485	1498	1512	1506	1508	1513	1511	1512	1516	1507	1495	1478	1477	1480	1497	1498	1494	1494	1495	1490	1476	1481	1488	1480	1479	1480	1492	1487	1477	1464	1462	1481	1514	1526	1530	1524	1505	1496	1498	1511	1519	1523	1515	1507	1516	1513	1512	1507	1506	1499	1488	1477	1473	1476	1478	1478	1474	1481	1479	1471	1462	1461	1480	1493	1485	1471	1475	1481	1490	1491	1499	1485	1469	1451	1466	1468	1465	1445	1445	1452	1472	1491	1502	1512	1522	1516	1508	1503	1499	1499	1496	1489	1478	1458	0	0	0	0	0	0	0	0	0	0	0	0	0	0	859	841	838	831	831	829	828	833	840	855	863	860	857	860	869	874	879	866	859	848	846	857	866	869	865	869	875	881	882	881	880	880	882	886	879	875	884	893	896	897	894	888	869	864	870	879	885	888	887	880	876	877	885	898	921	956	994	1034	1183	1342	1426	1436	1449	1461	1472	1482	1492	1496	1491	1486	1481	1480	1486	1483	1480	1486	1486	1496	1499	1501	1487	1486	1497	1521	1529	1521	1502	1493	1485	1469	1449	1425	1433	1451	1474	1485	1497	1501	1499	1499	1493	1488	1480	1485	1492	1478	1471	1471	1455	1439	1438	1435	1447	1458	1469	1464	1459	1460	1487	1509	1519	1505	1508	1490	1467	1441	1455	1461	1471	1476	1478	1473	1473	1474	1470	1475	1469	1470	1470	1470	1458	1463	1480	1496	1495	1483	1469	1456	1452	1455	1458	1456	1454	1458	1466	1476	1469	1460	1454	1450	1447	1439	1443	1447	1445	1454	1460	1470	1473	1460	1461	1471	1482	1485	1488	1491	1478	1459	1463	1476	1485	1478	1490	1490	1502	1513	1517	1508	1492	1477	1470	1470	1461	1464	1466	1464	1465	1458	1458	1458	1468	1468	1466	1466	1464	1468	1486	0	0	0	0	0	0	0	0
0	0	0	0	0	0	0	0	0	0	0	0	0	0	0	0	0	0	0	0	0	0	0	0	0	0	0	0	0	0	0	0	0	0	0	0	0	0	0	0	0	0	0	0	0	0	0	0	0	0	0	0	0	0	0	0	0	0	0	0	0	0	0	0	0	0	0	0	0	0	0	0	0	0	0	0	0	0	0	0	0	0	0	0	0	0	0	0	0	0	0	0	0	1489	1491	1500	1500	1502	1492	1496	1494	1488	1482	1479	1479	1473	1470	1472	1479	1490	1491	1477	1467	1467	1455	1456	1459	1464	1466	1463	1466	1469	1482	1488	1490	1488	1479	1461	1453	1441	1439	1450	1451	1441	1444	1450	1456	1457	1451	1447	1458	1471	1480	1485	1475	1457	1452	1448	1451	1455	1455	1449	1449	1455	1466	1477	1471	1467	1464	1480	1500	1505	1492	1479	1472	1467	1453	1446	1456	1473	1489	1466	1444	1435	1439	1446	1446	1449	1447	1459	1462	1462	1461	1483	1473	1465	1448	1429	1415	1395	1367	1286	1199	1114	1099	1111	1120	1127	1126	1117	1111	1112	1114	1112	1117	1123	1134	1142	1144	1126	1125	1137	1144	1149	1149	1135	1125	1115	1114	0	0	0	1073	0	0	0	0	0	0	0	0	0	0	0	0	0	0	0	0	0	0	0	0	0	0	0	0	0	0	0	0	0	0	0	0	0	0	0	1416	1463	1496	1491	1486	1475	1439	1437	1441	1456	1483	1477	1480	1499	1499	1491	1487	1497	1517	1527	1527	1524	1523	1520	1488	1472	1468	1474	1473	1444	1450	1509	1530	1512	1507	1510	1504	1497	1480	1471	1472	1478	1484	1488	1488	1489	1487	1481	1479	1497	1538	1511	1489	1481	1480	1476	1503	1507	1501	1499	1510	1516	1511	1505	1503	1502	1498	1507	1507	1498	1490	1490	1498	1509	1504	1501	1493	1497	1492	1481	1478	1472	1462	1464	1472	1492	1494	1482	1469	1466	1476	1501	1516	1523	1522	1515	1504	1506	1514	1528	1527	1523	1515	1526	1525	1527	1526	1522	1511	1477	1451	1454	1465	1479	1474	1475	1474	1472	1465	1464	1467	1479	1473	1465	1464	1472	1484	1499	1513	1529	1530	1515	1501	1487	1482	1453	1442	1441	1453	1480	1504	1516	1520	1521	1517	1507	1496	1495	1494	1494	1488	1484	1480	1454	0	0	0	0	0	0	0	0	0	0	0	0	0	0	863	855	830	828	827	824	829	841	853	856	851	852	855	859	864	863	857	844	833	832	842	855	859	861	862	864	871	873	878	873	868	863	865	857	872	877	888	890	886	880	878	868	861	862	869	867	866	867	868	864	862	858	861	879	891	900	919	991	1114	1262	1377	1425	1446	1464	1468	1483	1491	1496	1474	1449	1442	1456	1476	1476	1476	1476	1489	1502	1506	1494	1491	1501	1520	1533	1526	1502	1491	1471	1457	1431	1421	1426	1438	1462	1473	1479	1477	1472	1481	1484	1480	1472	1471	1475	1480	1475	1479	1467	1454	1441	1441	1439	1453	1462	1467	1469	1470	1478	1501	1507	1516	1517	1494	1458	1423	1437	1456	1471	1487	1496	1495	1490	1484	1478	1468	1467	1469	1472	1478	1476	1475	1485	1496	1495	1487	1482	1470	1465	1451	1453	1452	1453	1453	1461	1466	1465	1472	1477	1474	1466	1455	1455	1455	1449	1445	1457	1473	1476	1471	1464	1465	1469	1485	1494	1490	1481	1461	1466	1476	1486	1488	1478	1478	1492	1501	1505	1500	1490	1476	1466	1464	1467	1473	1475	1470	1463	1455	1462	1462	1467	1474	1474	1479	1482	1472	1456	0	0	0	0	0	0	0	0
