0	0	0	0	0	0	0	0	0	0	0	0	0	0	0	0	0	0	0	0	0	0	0	0	0	0	0	0	0	0	0	0	0	0	0	0	0	0	0	0	0	0	0	0	0	0	0	0	0	0	0	0	0	0	0	0	0	0	0	0	0	0	0	0	0	0	0	0	0	0	0	0	0	0	0	0	0	0	0	0	0	0	0	0	0	0	0	0	0	0	0	0	1452	1459	1469	1471	1478	1481	1474	1462	1455	1466	1473	1476	1482	1483	1477	1472	1463	1418	0	0	0	1477	1473	1461	1467	1477	1471	1457	1474	1488	1495	1497	0	0	0	0	0	0	0	0	0	0	0	0	0	0	0	0	0	0	0	0	0	0	0	0	0	0	0	0	0	0	0	0	0	0	0	0	0	0	0	0	0	0	0	0	0	0	0	0	0	0	0	0	1430	1410	1418	1420	1424	1428	1439	1442	1434	1437	1438	1439	1432	1422	1419	1418	1412	1411	1406	1400	1392	1387	1387	1386	1389	1395	1402	1409	1408	1403	1412	1416	1422	1427	1433	1423	1409	1410	1421	1417	1403	1398	1390	1401	1434	1431	1403	1436	1451	0	0	0	0	0	0	0	0	0	0	0	0	1672	1700	1716	1717	1731	1733	1711	1702	1704	1723	1731	1738	1745	1751	1751	1764	1758	1755	1743	1713	0	0	0	0	0	0	0	0	0	0	0	0	0	0	0	0	0	0	0	0	0	0	0	0	0	0	0	0	0	0	0	0	0	0	0	0	0	0	0	0	0	0	0	0	0	0	0	0	0	0	0	0	0	1437	1463	1449	1418	1395	1381	1383	1392	1396	1389	1397	1402	1400	1393	1388	1387	1391	1389	1387	1372	1364	1358	1361	1371	1382	1383	1380	1384	1381	1376	1366	1356	1361	1360	1362	1364	1369	1366	1364	1361	1367	1380	1384	1377	1373	1369	1384	1388	1388	1390	1391	1417	1456	1541	1602	0	0	0	0	0	0	0	0	0	0	0	0	0	0	0	0	0	0	0	0	0	0	0	0	0	0	0	0	0	0	0	0	0	0	0	0	0	0	0	0	0	0	0	0	0	0	0	0	0	0	0	0	0	0	0	0	0	0	0	0	0	0	0	0	0	0	0	0	0	0	0	1562	1630	1647	1662	1651	1620	1610	1616	1639	1638	0	0	0	0	0	0	0	0	0	1427	1391	1381	1393	1405	1386	1373	1359	1353	1354	1351	1353	1350	1368	1375	1373	1362	1356	1353	1363	1357	1361	1368	1371	1369	1361	1353	1344	1340	1343	1348	1365	1373	1374	1376	1368	1361	1352	1348	1353	1371	1365	1359	1350	1348	1346	1363	1405	1411	1400	1396	1408	0	0	0	0	0	0	0	0	0	0	0	0	0	0	0	0	0	0	0	0	0	0	0	0	0	0	0	0	0	0	0	0	0	0	0	0	0	0	0	0	0	0	0	0	0	0	0	0	0	0	0	0	0	0	0	0	0	0	0	0	0	0	0	0	0	0	0	0	0	0	0	0	0	0	0	0	0	0	0	0	0	0	0	0	0	0	0	0	0	0	0	0	0	0	0	0	0	0	0	0	0	0	0	0	0	0	0	0	0	0	0	0	0	0	0	0	0	0	0	0	0	0	0	0	0	0	0	0	0	0	0	0	0
0	0	0	0	0	0	0	0	0	0	0	0	0	0	0	0	0	0	0	0	0	0	0	0	0	0	0	0	0	0	0	0	0	0	0	0	0	0	0	0	0	0	0	0	0	0	0	0	0	0	0	0	0	0	0	0	0	0	0	0	0	0	0	0	0	0	0	0	0	0	0	0	0	0	0	0	0	0	0	0	0	0	0	0	0	0	0	0	0	0	0	0	1438	1448	1458	1471	1485	1478	1475	1461	1459	1465	1469	1474	1482	1499	1494	1472	1468	1411	1390	0	1443	1476	1476	1468	1475	1482	1466	1444	1474	1486	1498	1503	0	0	0	0	0	0	0	0	0	0	0	0	0	0	0	0	0	0	0	0	0	0	0	0	0	0	0	0	0	0	0	0	0	0	0	0	0	0	0	0	0	0	0	0	0	0	0	0	0	0	0	0	1388	1410	1424	1434	1435	1441	1443	1438	1437	1432	1428	1427	1416	1412	1406	1410	1413	1405	1399	1388	1380	1386	1386	1383	1379	1386	1396	1409	1406	1400	1402	1405	1403	1411	1426	1428	1407	1413	1424	1426	1417	1399	1385	1401	1433	1428	1386	1410	1447	0	0	0	0	0	0	0	0	0	0	0	0	0	0	1672	1698	1718	1699	1676	1670	1680	1702	1702	1698	1698	1718	1757	1772	1770	1771	1756	1719	0	0	0	0	0	0	0	0	0	0	0	0	0	0	0	0	0	0	0	0	0	0	0	0	0	0	0	0	0	0	0	0	0	0	0	0	0	0	0	0	0	0	0	0	0	0	0	0	0	0	0	0	0	1405	1447	1424	1401	1401	1384	1387	1391	1392	1395	1394	1397	1391	1380	1370	1371	1382	1383	1382	1380	1383	1389	1382	1379	1384	1382	1380	1382	1383	1382	1376	1389	1380	1376	1368	1374	1374	1371	1371	1370	1381	1387	1391	1386	1385	1386	1386	1381	1384	1386	1389	1401	1427	1539	1618	1646	0	0	0	0	0	0	0	0	0	0	0	0	0	0	0	0	0	0	0	0	0	0	0	0	0	0	0	0	0	0	0	0	0	0	0	0	0	0	0	0	0	0	0	0	0	0	0	0	0	0	0	0	0	0	0	0	0	0	0	0	0	0	0	0	0	0	0	0	0	0	1561	1598	1632	1636	1615	1598	1572	1601	0	0	0	0	0	0	0	0	0	0	0	0	1399	1376	1382	1402	1389	1368	1351	1346	1353	1355	1349	1355	1370	1373	1371	1363	1357	1351	1354	1350	1356	1367	1366	1362	1352	1351	1351	1346	1351	1358	1363	1370	1373	1377	1376	1370	1363	1351	1353	1364	1362	1361	1355	1343	1334	1347	1400	1405	1392	1379	1399	0	0	0	0	0	0	0	0	0	0	0	0	0	0	0	0	0	0	0	0	0	0	0	0	0	0	0	0	0	0	0	0	0	0	0	0	0	0	0	0	0	0	0	0	0	0	0	0	0	0	0	0	0	0	0	0	0	0	0	0	0	0	0	0	0	0	0	0	0	0	0	0	0	0	0	0	0	0	0	0	0	0	0	0	0	0	0	0	0	0	0	0	0	0	0	0	0	0	0	0	0	0	0	0	0	0	0	0	0	0	0	0	0	0	0	0	0	0	0	0	0	0	0	0	0	0	0	0	0	0	0	0	0
0	0	0	0	0	0	0	0	0	0	0	0	0	0	0	0	0	0	0	0	0	0	0	0	0	0	0	0	0	0	0	0	0	0	0	0	0	0	0	0	0	0	0	0	0	0	0	0	0	0	0	0	0	0	0	0	0	0	0	0	0	0	0	0	0	0	0	0	0	0	0	0	0	0	0	0	0	0	0	0	0	0	0	0	0	0	0	0	0	0	0	0	1416	1435	1452	1463	1475	1468	1463	1459	1455	1469	1471	1472	1491	1517	1498	1453	1434	1420	1428	1456	1488	1487	1477	1478	1489	1485	1461	1432	1450	1465	1477	1497	0	0	0	0	0	0	0	0	0	0	0	0	0	0	0	0	0	0	0	0	0	0	0	0	0	0	0	0	0	0	0	0	0	0	0	0	0	0	0	0	0	0	0	0	0	0	0	0	0	0	0	0	1398	1413	1429	1433	1429	1435	1437	1435	1433	1431	1424	1416	1406	1402	1397	1399	1404	1403	1394	1387	1385	1388	1391	1385	1378	1381	1390	1394	1391	1386	1386	1383	1390	1392	1405	1419	1406	1405	1412	1418	1412	1398	1392	1406	1438	1423	1379	1398	0	0	0	0	0	0	0	0	0	0	0	0	0	0	0	0	0	0	0	0	1640	1650	1682	1681	1657	1669	1692	1735	1777	1779	1785	1761	0	0	0	0	0	0	0	0	0	0	0	0	0	0	0	0	0	0	0	0	0	0	0	0	0	0	0	0	0	0	0	0	0	0	0	0	0	0	0	0	0	0	0	0	0	0	0	0	0	0	0	0	0	0	0	1431	1417	1402	1385	1379	1383	1384	1390	1398	1399	1395	1385	1367	1362	1368	1378	1378	1372	1375	1384	1385	1380	1381	1390	1380	1380	1370	1371	1380	1407	1405	1395	1373	1369	1374	1379	1379	1375	1381	1395	1393	1392	1385	1386	1392	1390	1375	1379	1390	1393	1400	1422	1525	1610	0	0	0	0	0	0	0	0	0	0	0	0	0	0	0	0	0	0	0	0	0	0	0	0	0	0	0	0	0	0	0	0	0	0	0	0	0	0	0	0	0	0	0	0	0	0	0	0	0	0	0	0	0	0	0	0	0	0	0	0	0	0	0	0	0	0	0	0	0	0	0	0	1581	1597	1604	1588	1570	0	0	0	0	0	0	0	0	0	0	0	0	0	0	1414	1375	1360	1384	1397	1370	1346	1341	1347	1345	1343	1349	1355	1359	1367	1367	1361	1356	1351	1343	1346	1355	1360	1352	1350	1353	1364	1365	1364	1364	1376	1367	1369	1377	1375	1373	1367	1357	1355	1360	1363	1367	1361	1349	1333	1348	1383	1390	1379	1378	1397	0	0	0	0	0	0	0	0	0	0	0	0	0	0	0	0	0	0	0	0	0	0	0	0	0	0	0	0	0	0	0	0	0	0	0	0	0	0	0	0	0	0	0	0	0	0	0	0	0	0	0	0	0	0	0	0	0	0	0	0	0	0	0	0	0	0	0	0	0	0	0	0	0	0	0	0	0	0	0	0	0	0	0	0	0	0	0	0	0	0	0	0	0	0	0	0	0	0	0	0	0	0	0	0	0	0	0	0	0	0	0	0	0	0	0	0	0	0	0	0	0	0	0	0	0	0	0	0	0	0	0	0	0
0	0	0	0	0	0	0	0	0	0	0	0	0	0	0	0	0	0	0	0	0	0	0	0	0	0	0	0	0	0	0	0	0	0	0	0	0	0	0	0	0	0	0	0	0	0	0	0	0	0	0	0	0	0	0	0	0	0	0	0	0	0	0	0	0	0	0	0	0	0	0	0	0	0	0	0	0	0	0	0	0	0	0	0	0	0	0	0	0	0	0	0	1403	1457	1473	1460	1458	1453	1454	1456	1449	1461	1464	1469	1479	1515	1505	1462	1442	1438	1447	1463	1480	1479	1477	1475	1476	1479	1465	1432	1449	1467	1469	1487	0	0	0	0	0	0	0	0	0	0	0	0	0	0	0	0	0	0	0	0	0	0	0	0	0	0	0	0	0	0	0	0	0	0	0	0	0	0	0	0	0	0	0	0	0	0	0	0	0	0	0	0	1419	1421	1435	1427	1423	1423	1425	1428	1429	1430	1424	1419	1412	1404	1390	1397	1406	1405	1403	1399	1401	1400	1398	1387	1385	1367	1371	1378	1375	1374	1372	1372	1377	1386	1402	1408	1394	1394	1407	1418	1419	1403	1402	1416	1448	1443	1383	1393	0	0	0	0	0	0	0	0	0	0	0	0	0	0	0	0	0	0	0	0	0	0	0	0	0	0	0	0	0	1757	1759	0	0	0	0	0	0	0	0	0	0	0	0	0	0	0	0	0	0	0	0	0	0	0	0	0	0	0	0	0	0	0	0	0	0	0	0	0	0	0	0	0	0	0	0	0	0	0	0	0	0	0	0	0	0	0	0	1420	1411	1391	1373	1378	1377	1379	1381	1389	1388	1384	1374	1363	1365	1374	1383	1378	1376	1380	1380	1381	1379	1381	1393	1401	1394	1382	1377	1381	1398	1405	1392	1368	1362	1369	1376	1385	1385	1390	1395	1390	1385	1383	1386	1393	1388	1377	1376	1385	1401	1413	1429	1571	1611	0	0	0	0	0	0	0	0	0	0	0	0	0	0	0	0	0	0	0	0	0	0	0	0	0	0	0	0	0	0	0	0	0	0	0	0	0	0	0	0	0	0	0	0	0	0	0	0	0	0	0	0	0	0	0	0	0	0	0	0	0	0	0	0	0	0	0	0	0	0	0	0	0	0	0	0	0	0	0	0	0	0	0	0	0	0	0	0	0	0	0	1419	1374	1354	1375	1392	1372	1349	1339	1346	1337	1333	1334	1342	1350	1357	1367	1363	1359	1351	1353	1348	1351	1358	1357	1349	1356	1368	1376	1370	1371	1372	1370	1366	1370	1374	1369	1364	1358	1347	1355	1363	1376	1368	1349	1337	1362	1378	1371	1368	1380	1411	1466	0	0	0	0	0	0	0	0	0	0	0	0	0	0	0	0	0	0	0	0	0	0	0	0	0	0	0	0	0	0	0	0	0	0	0	0	0	0	0	0	0	0	0	0	0	0	0	0	0	0	0	0	0	0	0	0	0	0	0	0	0	0	0	0	0	0	0	0	0	0	0	0	0	0	0	0	0	0	0	0	0	0	0	0	0	0	0	0	0	0	0	0	0	0	0	0	0	0	0	0	0	0	0	0	0	0	0	0	0	0	0	0	0	0	0	0	0	0	0	0	0	0	0	0	0	0	0	0	0	0	0	0
0	0	0	0	0	0	0	0	0	0	0	0	0	0	0	0	0	0	0	0	0	0	0	0	0	0	0	0	0	0	0	0	0	0	0	0	0	0	0	0	0	0	0	0	0	0	0	0	0	0	0	0	0	0	0	0	0	0	0	0	0	0	0	0	0	0	0	0	0	0	0	0	0	0	0	0	0	0	0	0	0	0	0	0	0	0	0	0	0	0	0	0	1394	1457	1466	1463	1457	1452	1464	1453	1451	1454	1458	1467	1474	1515	1507	1476	1470	1469	1471	1472	1471	1472	1475	1464	1461	1463	1455	1424	1459	1493	1503	1505	0	0	0	0	0	0	0	0	0	0	0	0	0	0	0	0	0	0	0	0	0	0	0	0	0	0	0	0	0	0	0	0	0	0	0	0	0	0	0	0	0	0	0	0	0	0	0	0	0	0	0	0	1435	1440	1430	1419	1414	1414	1420	1419	1430	1427	1420	1415	1412	1412	1400	1396	1404	1412	1412	1412	1410	1409	1406	1396	1379	1360	1361	1370	1372	1361	1357	1369	1383	1394	1408	1402	1398	1402	1413	1419	1417	1413	1415	1417	1456	1455	1403	1401	0	0	0	0	0	0	0	0	0	0	0	0	0	0	0	0	0	0	0	0	0	0	0	0	0	0	0	0	0	0	0	0	0	0	0	0	0	0	0	0	0	0	0	0	0	0	0	0	0	0	0	0	0	0	0	0	0	0	0	0	0	0	0	0	0	0	0	0	0	0	0	0	0	0	0	0	0	0	0	0	0	0	0	0	0	0	1415	1412	1404	1382	1369	1378	1380	1380	1376	1376	1379	1374	1368	1364	1370	1376	1381	1382	1379	1380	1381	1384	1386	1388	1403	1413	1411	1394	1383	1382	1382	1375	1365	1356	1358	1360	1368	1384	1387	1391	1393	1383	1376	1373	1378	1388	1386	1377	1375	1384	1402	1412	1423	1548	1609	0	0	0	0	0	0	0	0	0	0	0	0	0	0	0	0	0	0	0	0	0	0	0	0	0	0	0	0	0	0	0	0	0	0	0	0	0	0	0	0	0	0	0	0	0	0	0	0	0	0	0	0	0	0	0	0	0	0	0	0	0	0	0	0	0	0	0	0	0	0	0	0	0	0	0	0	0	0	0	0	0	0	0	0	0	0	0	0	0	0	0	1405	1358	1338	1366	1383	1369	1355	1348	1344	1330	1317	1317	1327	1337	1350	1354	1360	1356	1354	1349	1348	1347	1350	1354	1355	1356	1367	1370	1371	1369	1373	1370	1368	1368	1373	1369	1362	1356	1358	1370	1378	1377	1376	1359	1344	1362	1373	1364	1358	1387	1434	1488	0	0	0	0	0	0	0	0	0	0	0	0	0	0	0	0	0	0	0	0	0	0	0	0	0	0	0	0	0	0	0	0	0	0	0	0	0	0	0	0	0	0	0	0	0	0	0	0	0	0	0	0	0	0	0	0	0	0	0	0	0	0	0	0	0	0	0	0	0	0	0	0	0	0	0	0	0	0	0	0	0	0	0	0	0	0	0	0	0	0	0	0	0	0	0	0	0	0	0	0	0	0	0	0	0	0	0	0	0	0	0	0	0	0	0	0	0	0	0	0	0	0	0	0	0	0	0	0	0	0	0	0
0	0	0	0	0	0	0	0	0	0	0	0	0	0	0	0	0	0	0	0	0	0	0	0	0	0	0	0	0	0	0	0	0	0	0	0	0	0	0	0	0	0	0	0	0	0	0	0	0	0	0	0	0	0	0	0	0	0	0	0	0	0	0	0	0	0	0	0	0	0	0	0	0	0	0	0	0	0	0	0	0	0	0	0	0	0	0	0	0	0	0	0	1391	1443	1453	1456	1462	1476	1482	1474	1458	1452	1458	1461	1471	1502	1501	1488	1486	1480	1479	1477	1474	1471	1470	1464	1455	1451	1454	1431	1473	1495	1514	1508	0	0	0	0	0	0	0	0	0	0	0	0	0	0	0	0	0	0	0	0	0	0	0	0	0	0	0	0	0	0	0	0	0	0	0	0	0	0	0	0	0	0	0	0	0	0	0	0	0	0	0	0	1460	1460	1447	1421	1418	1418	1414	1415	1421	1421	1421	1413	1409	1411	1397	1395	1401	1411	1416	1419	1414	1410	1401	1391	1373	1364	1374	1378	1381	1364	1369	1393	1405	1412	1417	1406	1400	1402	1405	1409	1410	1412	1416	1433	1474	1457	1417	1411	1430	0	0	0	0	0	0	0	0	0	0	0	0	0	0	0	0	0	0	0	0	0	0	0	0	0	0	0	0	0	0	0	0	0	0	0	0	0	0	0	0	0	0	0	0	0	0	0	0	0	0	0	0	0	0	0	0	0	0	0	0	0	0	0	0	0	0	0	0	0	0	0	0	0	0	0	0	0	0	0	0	0	0	0	0	0	1416	1410	1411	1394	1381	1380	1383	1382	1370	1370	1371	1372	1371	1371	1371	1378	1379	1377	1375	1379	1384	1402	1406	1407	1412	1419	1421	1402	1386	1378	1377	1375	1367	1360	1360	1358	1364	1379	1382	1392	1387	1373	1362	1365	1369	1386	1386	1376	1373	1389	1395	1407	1418	1493	1593	0	0	0	0	0	0	0	0	0	0	0	0	0	0	0	0	0	0	0	0	0	0	0	0	0	0	0	0	0	0	0	0	0	0	0	0	0	0	0	0	0	0	0	0	0	0	0	0	0	0	0	0	0	0	0	0	0	0	0	0	0	0	0	0	0	0	0	0	0	0	0	0	0	0	0	0	0	0	0	0	0	0	0	0	0	0	0	0	0	0	0	1391	1349	1338	1355	1374	1368	1363	1362	1348	1325	1311	1306	1320	1336	1346	1351	1348	1353	1353	1345	1350	1354	1358	1356	1361	1357	1355	1358	1354	1368	1375	1370	1368	1367	1370	1367	1365	1363	1377	1390	1393	1384	1376	1358	1347	1357	1360	1352	1344	1353	1426	0	0	0	0	0	0	0	0	0	0	0	0	0	0	0	0	0	0	0	0	0	0	0	0	0	0	0	0	0	0	0	0	0	0	0	0	0	0	0	0	0	0	0	0	0	0	0	0	0	0	0	0	0	0	0	0	0	0	0	0	0	0	0	0	0	0	0	0	0	0	0	0	0	0	0	0	0	0	0	0	0	0	0	0	0	0	0	0	0	0	0	0	0	0	0	0	0	0	0	0	0	0	0	0	0	0	0	0	0	0	0	0	0	0	0	0	0	0	0	0	0	0	0	0	0	0	0	0	0	0	0	0	0
0	0	0	0	0	0	0	0	0	0	0	0	0	0	0	0	0	0	0	0	0	0	0	0	0	0	0	0	0	0	0	0	0	0	0	0	0	0	0	0	0	0	0	0	0	0	0	0	0	0	0	0	0	0	0	0	0	0	0	0	0	0	0	0	0	0	0	0	0	0	0	0	0	0	0	0	0	0	0	0	0	0	0	0	0	0	0	0	0	0	0	0	1389	1418	1436	1453	1468	1472	1490	1493	1475	1458	1456	1463	1466	1489	1487	1480	1480	1474	1468	1470	1474	1477	1476	1473	1464	1455	1466	1444	1464	1485	1496	1493	0	0	0	0	0	0	0	0	0	0	0	0	0	0	0	0	0	0	0	0	0	0	0	0	0	0	0	0	0	0	0	0	0	0	0	0	0	0	0	0	0	0	0	0	0	0	0	0	0	0	0	0	1484	1479	1433	1421	1421	1425	1424	1416	1426	1428	1436	1419	1409	1399	1393	1395	1394	1412	1420	1421	1418	1411	1400	1390	1378	1373	1381	1387	1389	1387	1396	1407	1421	1421	1411	1398	1400	1401	1400	1402	1409	1418	1431	1449	1457	1440	1415	1407	1434	0	0	0	0	0	0	0	0	0	0	0	0	0	0	0	0	0	0	0	0	0	0	0	0	0	0	0	0	0	0	0	0	0	0	0	0	0	0	0	0	0	0	0	0	0	0	0	0	0	0	0	0	0	0	0	0	0	0	0	0	0	0	0	0	0	0	0	0	0	0	0	0	0	0	0	0	0	0	0	0	0	0	0	0	0	1427	1423	1424	1392	1386	1386	1385	1377	1365	1365	1367	1384	1388	1382	1382	1380	1379	1378	1379	1380	1394	1409	1420	1424	1431	1426	1412	1399	1386	1374	1374	1374	1363	1358	1367	1365	1361	1369	1380	1380	1374	1366	1357	1360	1364	1379	1384	1376	1374	1385	1398	1404	1415	1485	1590	0	0	0	0	0	0	0	0	0	0	0	0	0	1740	0	0	0	0	0	0	0	0	0	0	0	0	0	0	0	0	0	0	0	0	0	0	0	0	0	0	0	0	0	0	0	0	0	0	0	0	0	0	0	0	0	0	0	0	0	0	0	0	0	0	0	0	0	0	0	0	0	0	0	0	0	0	0	0	0	0	0	0	0	0	0	0	0	0	0	0	0	1391	1350	1344	1365	1365	1366	1375	1379	1353	1327	1315	1310	1325	1336	1347	1350	1349	1353	1351	1351	1354	1359	1361	1365	1361	1356	1338	1340	1346	1369	1376	1367	1363	1360	1365	1366	1371	1381	1389	1397	1395	1382	1366	1357	1354	1359	1355	1346	1338	1346	1415	0	0	0	0	0	0	0	0	0	0	0	0	0	0	0	0	0	0	0	0	0	0	0	0	0	0	0	0	0	0	0	0	0	0	0	0	0	0	0	0	0	0	0	0	0	0	0	0	0	0	0	0	0	0	0	0	0	0	0	0	0	0	0	0	0	0	0	0	0	0	0	0	0	0	0	0	0	0	0	0	0	0	0	0	0	0	0	0	0	0	0	0	0	0	0	0	0	0	0	0	0	0	0	0	0	0	0	0	0	0	0	0	0	0	0	0	0	0	0	0	0	0	0	0	0	0	0	0	0	0	0	0	0
0	0	0	0	0	0	0	0	0	0	0	0	0	0	0	0	0	0	0	0	0	0	0	0	0	0	0	0	0	0	0	0	0	0	0	0	0	0	0	0	0	0	0	0	0	0	0	0	0	0	0	0	0	0	0	0	0	0	0	0	0	0	0	0	0	0	0	0	0	0	0	0	0	0	0	0	0	0	0	0	0	0	0	0	0	0	0	0	0	0	0	0	1404	1435	1450	1460	1469	1474	1480	1485	1482	1468	1463	1461	1468	1478	1475	1463	1461	1457	1450	1457	1466	1474	1484	1477	1472	1471	1483	1465	1452	1462	1461	1463	1472	0	0	0	0	0	0	0	0	0	0	0	0	0	0	0	0	0	0	0	0	0	0	0	0	0	0	0	0	0	0	0	0	0	0	0	0	0	0	0	0	0	0	0	0	0	0	0	0	0	0	0	1477	1406	1402	1410	1422	1426	1413	1401	1406	1433	1449	1438	1404	1386	1381	1393	1399	1409	1426	1430	1427	1417	1405	1395	1385	1381	1382	1387	1393	1401	1408	1414	1419	1413	1401	1397	1400	1397	1391	1393	1396	1414	1446	1452	1426	1406	1412	1427	1444	0	0	0	0	0	0	0	0	0	0	0	0	0	0	0	0	0	0	0	0	0	0	0	0	0	0	0	0	0	0	0	0	0	0	0	0	0	0	0	0	0	0	0	0	0	0	0	0	0	0	0	0	0	0	0	0	0	0	0	0	0	0	0	0	0	0	0	0	0	0	0	0	0	0	0	0	0	0	0	0	0	0	0	0	0	0	1442	1421	1391	1393	1397	1392	1381	1370	1362	1370	1391	1391	1390	1390	1385	1381	1381	1381	1389	1397	1412	1419	1424	1420	1407	1393	1385	1376	1368	1362	1368	1368	1372	1369	1368	1366	1359	1355	1358	1364	1368	1364	1364	1364	1374	1386	1391	1384	1388	1400	1405	1416	1483	0	0	0	0	0	0	0	0	0	0	0	0	0	0	0	0	0	0	0	0	0	0	0	0	0	0	0	0	0	0	0	0	0	0	0	0	0	0	0	0	0	0	0	0	0	0	0	0	0	0	0	0	0	0	0	0	0	0	0	0	0	0	0	0	0	0	0	0	0	0	0	0	0	0	0	0	0	0	0	0	0	0	0	0	0	0	0	0	0	0	0	0	1397	1350	1367	1359	1357	1368	1389	1384	1352	1338	1332	1326	1332	1338	1343	1346	1346	1345	1346	1347	1352	1360	1364	1364	1360	1348	1338	1338	1349	1375	1373	1363	1354	1349	1353	1358	1367	1377	1384	1383	1382	1375	1368	1362	1365	1365	1356	1346	1344	1349	1419	0	0	0	0	0	0	0	0	0	0	0	0	0	0	0	0	0	0	0	0	0	0	0	0	0	0	0	0	0	0	0	0	0	0	0	0	0	0	0	0	0	0	0	0	0	0	0	0	0	0	0	0	0	0	0	0	0	0	0	0	0	0	0	0	0	0	0	0	0	0	0	0	0	0	0	0	0	0	0	0	0	0	0	0	0	0	0	0	0	0	0	0	0	0	0	0	0	0	0	0	0	0	0	0	0	0	0	0	0	0	0	0	0	0	0	0	0	0	0	0	0	0	0	0	0	0	0	0	0	0	0	0	0
0	0	0	0	0	0	0	0	0	0	0	0	0	0	0	0	0	0	0	0	0	0	0	0	0	0	0	0	0	0	0	0	0	0	0	0	0	0	0	0	0	0	0	0	0	0	0	0	0	0	0	0	0	0	0	0	0	0	0	0	0	0	0	0	0	0	0	0	0	0	0	0	0	0	0	0	0	0	0	0	0	0	0	0	0	0	0	0	0	0	0	0	1416	1441	1458	1466	1469	1466	1467	1477	1488	1481	1476	1471	1461	1458	1454	1441	1451	1442	1435	1438	1449	1466	1474	1478	1476	1478	1482	1479	1444	1444	1447	1457	1461	1459	0	0	0	0	0	0	0	0	0	0	0	0	0	0	0	0	0	0	0	0	0	0	0	0	0	0	0	0	0	0	0	0	0	0	0	0	0	0	0	0	0	0	0	0	0	0	0	0	0	0	1351	1354	1369	1389	1412	1418	1410	1397	1400	1419	1428	1424	1403	1388	1384	1399	1413	1417	1423	1428	1427	1428	1414	1405	1392	1381	1376	1370	1385	1387	1400	1405	1411	1412	1407	1403	1400	1397	1385	1387	1393	1408	1438	1439	1419	1397	1425	1447	0	0	0	0	0	0	0	0	0	0	0	0	0	0	0	0	0	0	0	0	0	0	0	0	0	0	0	0	0	0	0	0	0	0	0	0	0	0	0	0	0	0	0	0	0	0	0	0	0	0	0	0	0	0	0	0	0	0	0	0	0	0	0	0	0	0	0	0	0	0	0	0	0	0	0	0	0	0	0	0	0	0	0	0	0	0	0	1446	1413	1393	1404	1408	1401	1388	1376	1375	1387	1396	1395	1386	1382	1386	1383	1383	1385	1385	1384	1383	1384	1382	1384	1379	1369	1370	1364	1358	1346	1349	1359	1364	1365	1365	1367	1365	1357	1360	1365	1373	1374	1374	1373	1365	1399	1402	1397	1395	1405	1413	1426	1497	0	0	0	0	0	0	0	0	0	0	0	0	0	0	0	0	0	0	0	0	0	0	0	0	0	0	0	0	0	0	0	0	0	0	0	0	0	0	0	0	0	0	0	0	0	0	0	0	0	0	0	0	0	0	0	0	0	0	0	0	0	0	0	0	0	0	0	0	0	0	0	0	0	0	0	0	0	0	0	0	0	0	0	0	0	0	0	0	0	0	0	0	1399	1362	1376	1369	1363	1372	1393	1391	1374	1358	1342	1341	1339	1339	1336	1342	1344	1347	1343	1346	1350	1357	1370	1375	1369	1358	1354	1357	1359	1365	1368	1362	1354	1348	1350	1353	1364	1368	1370	1372	1374	1370	1367	1367	1371	1359	1351	1348	1351	1364	1411	0	0	0	0	0	0	0	0	0	0	0	0	0	0	0	0	0	0	0	0	0	0	0	0	0	0	0	0	0	0	0	0	0	0	0	0	0	0	0	0	0	0	0	0	0	0	0	0	0	0	0	0	0	0	0	0	0	0	0	0	0	0	0	0	0	0	0	0	0	0	0	0	0	0	0	0	0	0	0	0	0	0	0	0	0	0	0	0	0	0	0	0	0	0	0	0	0	0	0	0	0	0	0	0	0	0	0	0	0	0	0	0	0	0	0	0	0	0	0	0	0	0	0	0	0	0	0	0	0	0	0	0	0
0	0	0	0	0	0	0	0	0	0	0	0	0	0	0	0	0	0	0	0	0	0	0	0	0	0	0	0	0	0	0	0	0	0	0	0	0	0	0	0	0	0	0	0	0	0	0	0	0	0	0	0	0	0	0	0	0	0	0	0	0	0	0	0	0	0	0	0	0	0	0	0	0	0	0	0	0	0	0	0	0	0	0	0	0	0	0	0	0	0	0	0	1416	1443	1460	1464	1472	1470	1461	1468	1482	1492	1485	1473	1454	1442	1440	1445	1447	1438	1430	1424	1437	1454	1466	1468	1470	1471	1478	1479	1441	1439	1445	1460	1458	1459	0	0	0	0	0	0	0	0	0	0	0	0	0	0	0	0	0	0	0	0	0	0	0	0	0	0	0	0	0	0	0	0	0	0	0	0	0	0	0	0	0	0	0	0	0	0	0	0	0	0	1397	1338	1361	1379	1407	1410	1397	1395	1390	1403	1414	1420	1413	1405	1398	1415	1426	1429	1425	1423	1425	1419	1408	1393	1387	1391	1407	1409	1387	1387	1392	1398	1403	1406	1413	1420	1407	1399	1390	1389	1395	1407	1417	1427	1420	1404	1453	1475	0	0	0	0	0	0	0	0	0	0	0	0	0	0	0	0	0	0	0	0	0	0	0	0	0	0	0	0	0	0	0	0	0	0	0	0	0	0	0	0	0	0	0	0	0	0	0	0	0	0	0	0	0	0	0	0	0	0	0	0	0	0	0	0	0	0	0	0	0	0	0	0	0	0	0	0	0	0	0	0	0	0	0	0	0	0	0	1464	1417	1396	1412	1421	1415	1397	1383	1384	1393	1403	1401	1390	1374	1378	1382	1381	1384	1380	1378	1374	1375	1375	1376	1375	1358	1353	1347	1352	1337	1345	1351	1352	1351	1353	1363	1363	1361	1369	1378	1382	1384	1382	1374	1358	1396	1410	1410	1400	1400	1429	1435	1514	0	0	0	0	0	0	0	0	0	0	0	0	0	0	0	0	0	0	0	0	0	0	0	0	0	0	0	0	0	0	0	0	0	0	0	0	0	0	0	0	0	0	0	0	0	0	0	0	0	0	0	0	0	0	0	0	0	0	0	0	0	0	0	0	0	0	0	0	0	0	0	0	0	0	0	0	0	0	0	0	0	0	0	0	0	0	0	0	0	0	0	0	1383	1363	1382	1384	1363	1369	1383	1393	1389	1375	1357	1346	1343	1336	1335	1343	1350	1361	1358	1354	1353	1360	1375	1389	1382	1366	1361	1354	1354	1354	1355	1356	1354	1350	1350	1350	1357	1363	1365	1364	1373	1373	1375	1370	1371	1343	1341	1343	1351	1367	1411	0	0	0	0	0	0	0	0	0	0	0	0	0	0	0	0	0	0	0	0	0	0	0	0	0	0	0	0	0	0	0	0	0	0	0	0	0	0	0	0	0	0	0	0	0	0	0	0	0	0	0	0	0	0	0	0	0	0	0	0	0	0	0	0	0	0	0	0	0	0	0	0	0	0	0	0	0	0	0	0	0	0	0	0	0	0	0	0	0	0	0	0	0	0	0	0	0	0	0	0	0	0	0	0	0	0	0	0	0	0	0	0	0	0	0	0	0	0	0	0	0	0	0	0	0	0	0	0	0	0	0	0	0
0	0	0	0	0	0	0	0	0	0	0	0	0	0	0	0	0	0	0	0	0	0	0	0	0	0	0	0	0	0	0	0	0	0	0	0	0	0	0	0	0	0	0	0	0	0	0	0	0	0	0	0	0	0	0	0	0	0	0	0	0	0	0	0	0	0	0	0	0	0	0	0	0	0	0	0	0	0	0	0	0	0	0	0	0	0	0	0	0	0	0	0	0	1446	1461	1463	1471	1468	1458	1461	1471	1476	1481	1478	1467	1456	1449	1456	1448	1451	1438	1431	1437	1453	1462	1461	1460	1459	1460	1467	1461	1459	1463	1472	1456	1453	1457	0	0	0	0	0	0	0	0	0	0	0	0	0	0	0	0	0	0	0	0	0	0	0	0	0	0	0	0	0	0	0	0	0	0	0	0	0	0	0	0	0	0	0	0	0	0	0	0	0	1384	1356	1372	1391	1408	1413	1396	1392	1385	1399	1411	1419	1420	1416	1419	1432	1438	1437	1425	1415	1414	1416	1406	1389	1382	1389	1417	1430	1423	1413	1387	1384	1387	1402	1410	1429	1415	1407	1395	1391	1399	1410	1413	1421	1431	1432	1489	0	0	0	0	0	0	0	0	0	0	0	0	0	0	0	0	0	0	0	0	0	0	0	0	0	0	0	0	0	0	0	0	0	0	0	0	0	0	0	0	0	0	0	0	0	0	0	0	0	0	0	0	0	0	0	0	0	0	0	0	0	0	0	0	0	0	0	0	0	0	0	0	0	0	0	0	0	0	0	0	0	0	0	0	0	0	0	0	1474	1423	1398	1406	1424	1420	1403	1380	1381	1386	1398	1401	1392	1391	1387	1375	1376	1374	1374	1374	1367	1373	1374	1376	1371	1369	1356	1352	1364	1376	1384	1360	1337	1328	1350	1379	1397	1395	1378	1383	1385	1387	1388	1382	1365	1381	1398	1403	1402	1410	1431	1438	1521	0	0	0	0	0	0	0	0	0	0	0	0	0	0	0	0	0	0	0	0	0	0	0	0	0	0	0	0	0	0	0	0	0	0	0	0	0	0	0	0	0	0	0	0	0	0	0	0	0	0	0	0	0	0	0	0	0	0	0	0	0	0	0	0	0	0	0	0	0	0	0	0	0	0	0	0	0	0	0	0	0	0	0	0	0	0	0	0	0	0	0	0	1356	1354	1390	1413	1370	1365	1368	1385	1389	1384	1376	1346	1340	1343	1344	1357	1360	1362	1360	1354	1353	1359	1375	1387	1385	1379	1367	1358	1349	1344	1344	1347	1349	1350	1347	1350	1354	1365	1376	1380	1381	1375	1382	1378	1376	1346	1331	1332	1345	1370	1423	0	0	0	0	0	0	0	0	0	0	0	0	0	0	0	0	0	0	0	0	0	0	0	0	0	0	0	0	0	0	0	0	0	0	0	0	0	0	0	0	0	0	0	0	0	0	0	0	0	0	0	0	0	0	0	0	0	0	0	0	0	0	0	0	0	0	0	0	0	0	0	0	0	0	0	0	0	0	0	0	0	0	0	0	0	0	0	0	0	0	0	0	0	0	0	0	0	0	0	0	0	0	0	0	0	0	0	0	0	0	0	0	0	0	0	0	0	0	0	0	0	0	0	0	0	0	0	0	0	0	0	0	0
0	0	0	0	0	0	0	0	0	0	0	0	0	0	0	0	0	0	0	0	0	0	0	0	0	0	0	0	0	0	0	0	0	0	0	0	0	0	0	0	0	0	0	0	0	0	0	0	0	0	0	0	0	0	0	0	0	0	0	0	0	0	0	0	0	0	0	0	0	0	0	0	0	0	0	0	0	0	0	0	0	0	0	0	0	0	0	0	0	0	0	0	0	1459	1468	1473	1472	1465	1458	1451	1448	1458	1470	1487	1483	1474	1467	1471	1466	1468	1459	1450	1454	1461	1468	1457	1449	1447	1442	1465	1483	1484	1481	1478	1464	1459	0	0	0	0	0	0	0	0	0	0	0	0	0	0	0	0	0	0	0	0	0	0	0	0	0	0	0	0	0	0	0	0	0	0	0	0	0	0	0	0	0	0	0	0	0	0	0	0	0	0	1390	1409	1403	1409	1409	1411	1402	1393	1391	1393	1403	1411	1417	1413	1420	1431	1437	1429	1421	1411	1414	1423	1410	1394	1388	1396	1421	1428	1420	1411	1393	1388	1389	1399	1409	1422	1424	1414	1401	1382	1393	1414	1422	1431	1441	1457	1501	0	0	0	0	0	0	0	0	0	0	0	0	0	0	0	0	0	0	0	0	0	0	0	0	0	0	0	0	0	0	0	0	0	0	0	0	0	0	0	0	0	0	0	0	0	0	0	0	0	0	0	0	0	0	0	0	0	0	0	0	0	0	0	0	0	0	0	0	0	0	0	0	0	0	0	0	0	0	0	0	0	0	0	0	0	0	0	0	1477	1429	1395	1397	1402	1411	1390	1379	1374	1379	1387	1388	1392	1391	1394	1386	1375	1366	1359	1361	1363	1371	1373	1371	1361	1366	1373	1378	1385	1395	1400	1399	1390	1392	1393	1395	1396	1391	1379	1383	1389	1392	1396	1394	1377	1376	1381	1394	1400	1417	1421	1431	1541	0	0	0	0	0	0	0	0	0	0	0	0	0	0	0	0	0	0	0	0	0	0	0	0	0	0	0	0	0	0	0	0	0	0	0	0	0	0	0	0	0	0	0	0	0	0	0	0	0	0	0	0	0	0	0	0	0	0	0	0	0	0	0	0	0	0	0	0	0	0	0	0	0	0	0	0	0	0	0	0	0	0	0	0	0	0	0	0	0	0	0	0	1344	1361	1412	1443	1436	1368	1360	1370	1376	1372	1360	1344	1343	1350	1355	1356	1353	1351	1351	1353	1353	1356	1363	1381	1383	1383	1367	1350	1345	1343	1344	1352	1354	1353	1352	1356	1361	1372	1375	1392	1393	1391	1386	1382	1377	1349	1334	1336	1360	1403	1494	0	0	0	0	0	0	0	0	0	0	0	0	0	0	0	0	0	0	0	0	0	0	0	0	0	0	0	0	0	0	0	0	0	0	0	0	0	0	0	0	0	0	0	0	0	0	0	0	0	0	0	0	0	0	0	0	0	0	0	0	0	0	0	0	0	0	0	0	0	0	0	0	0	0	0	0	0	0	0	0	0	0	0	0	0	0	0	0	0	0	0	0	0	0	0	0	0	0	0	0	0	0	0	0	0	0	0	0	0	0	0	0	0	0	0	0	0	0	0	0	0	0	0	0	0	0	0	0	0	0	0	0	0
0	0	0	0	0	0	0	0	0	0	0	0	0	0	0	0	0	0	0	0	0	0	0	0	0	0	0	0	0	0	0	0	0	0	0	0	0	0	0	0	0	0	0	0	0	0	0	0	0	0	0	0	0	0	0	0	0	0	0	0	0	0	0	0	0	0	0	0	0	0	0	0	0	0	0	0	0	0	0	0	0	0	0	0	0	0	0	0	0	0	0	0	0	1471	1474	1477	1478	1474	1470	1454	1445	1449	1463	1490	1499	1489	1487	1485	1483	1479	1477	1470	1477	1474	1465	1457	1444	1441	1439	1461	1495	1497	1497	1490	1488	1484	0	0	0	0	0	0	0	0	0	0	0	0	0	0	0	0	0	0	0	0	0	0	0	0	0	0	0	0	0	0	0	0	0	0	0	0	0	0	0	0	0	0	0	0	0	0	0	0	0	0	1417	1452	1422	1414	1406	1395	1394	1391	1387	1388	1390	1397	1403	1406	1399	1411	1419	1414	1416	1412	1424	1433	1420	1402	1396	1403	1423	1429	1407	1390	1402	1397	1395	1402	1413	1417	1416	1413	1394	1396	1416	1426	1430	1439	1447	1468	1493	0	0	0	0	0	0	0	0	0	0	0	0	0	0	0	0	0	0	0	0	0	0	0	0	0	0	0	0	0	0	0	0	0	0	0	0	0	0	0	0	0	0	0	0	0	0	0	0	0	0	0	0	0	0	0	0	0	0	0	0	0	0	0	0	0	0	0	0	0	0	0	0	0	0	0	0	0	0	0	0	0	0	0	0	0	0	0	0	1451	1406	1385	1380	1382	1393	1381	1378	1375	1377	1374	1381	1390	1392	1398	1404	1398	1368	1353	1347	1355	1361	1372	1364	1362	1369	1378	1390	1403	1410	1406	1399	1396	1399	1398	1394	1390	1385	1378	1385	1390	1397	1403	1397	1384	1375	1367	1377	1399	1413	1399	1422	1562	0	0	0	0	0	0	0	0	0	0	0	0	0	0	0	0	0	0	0	0	0	0	0	0	0	0	0	0	0	0	0	0	0	0	0	0	0	0	0	0	0	0	0	0	0	0	0	0	0	0	0	0	0	0	0	0	0	0	0	0	0	0	0	0	0	0	0	0	0	0	0	0	0	0	0	0	0	0	0	0	0	0	0	0	0	0	0	0	0	0	0	0	1357	1372	1422	1418	1381	1355	1345	1361	1375	1359	1350	1342	1349	1358	1368	1358	1348	1346	1343	1344	1348	1353	1360	1372	1376	1376	1372	1351	1342	1344	1342	1349	1354	1359	1357	1357	1363	1369	1376	1386	1394	1390	1386	1384	1377	1355	1348	1356	1373	1422	1496	0	0	0	0	0	0	0	0	0	0	0	0	0	0	0	0	0	0	0	0	0	0	0	0	0	0	0	0	0	0	0	0	0	0	0	0	0	0	0	0	0	0	0	0	0	0	0	0	0	0	0	0	0	0	0	0	0	0	0	0	0	0	0	0	0	0	0	0	0	0	0	0	0	0	0	0	0	0	0	0	0	0	0	0	0	0	0	0	0	0	0	0	0	0	0	0	0	0	0	0	0	0	0	0	0	0	0	0	0	0	0	0	0	0	0	0	0	0	0	0	0	0	0	0	0	0	0	0	0	0	0	0	0
0	0	0	0	0	0	0	0	0	0	0	0	0	0	0	0	0	0	0	0	0	0	0	0	0	0	0	0	0	0	0	0	0	0	0	0	0	0	0	0	0	0	0	0	0	0	0	0	0	0	0	0	0	0	0	0	0	0	0	0	0	0	0	0	0	0	0	0	0	0	0	0	0	0	0	0	0	0	0	0	0	0	0	0	0	0	0	0	0	0	0	0	0	1467	1474	1485	1492	1489	1489	1462	1446	1455	1468	1481	1491	1487	1484	1476	1470	1467	1477	1476	1471	1465	1462	1454	1452	1447	1456	1465	1478	1486	1496	1509	1516	0	0	0	0	0	0	0	0	0	0	0	0	0	0	0	0	0	0	0	0	0	0	0	0	0	0	0	0	0	0	0	0	0	0	0	0	0	0	0	0	0	0	0	0	0	0	0	0	0	0	0	1454	1456	1442	1411	1397	1389	1388	1388	1387	1375	1376	1386	1398	1397	1394	1392	1389	1393	1400	1416	1431	1432	1421	1405	1407	1409	1418	1421	1406	1395	1410	1408	1401	1406	1414	1417	1405	1402	1395	1402	1418	1415	1407	1413	1428	1459	1480	0	0	1390	0	0	0	0	0	0	0	0	0	0	0	0	0	0	0	0	0	0	0	0	0	0	0	0	0	0	0	0	0	0	0	0	0	0	0	0	0	0	0	0	0	0	0	0	0	0	0	0	0	0	0	0	0	0	0	0	0	0	0	0	0	0	0	0	0	0	0	0	0	0	0	0	0	0	0	0	0	0	0	0	0	0	0	0	0	1415	1388	1375	1373	1371	1376	1380	1382	1379	1377	1372	1380	1383	1388	1390	1395	1393	1392	1367	1344	1340	1348	1359	1358	1369	1379	1386	1397	1405	1414	1405	1401	1401	1401	1399	1385	1383	1379	1382	1375	1388	1397	1399	1397	1386	1373	1366	1375	1406	1407	1391	1414	1542	0	0	0	0	0	0	0	0	0	0	0	0	0	0	0	0	0	0	0	0	0	0	0	0	0	0	0	0	0	0	0	0	0	0	0	0	0	0	0	0	0	0	0	0	0	0	0	0	0	0	0	0	0	0	0	0	0	0	0	0	0	0	0	0	0	0	0	0	0	0	0	0	0	0	0	0	0	0	0	0	0	0	0	0	0	0	0	0	0	0	0	0	0	1359	1389	1384	1350	1335	1341	1351	1356	1361	1356	1352	1356	1366	1369	1359	1350	1343	1340	1337	1346	1353	1358	1359	1365	1372	1372	1346	1347	1353	1347	1351	1361	1356	1359	1358	1358	1360	1365	1369	1378	1380	1379	1380	1374	1361	1362	1365	1393	1420	1462	0	0	0	0	0	0	0	0	0	0	0	0	0	0	0	0	0	0	0	0	0	0	0	0	0	0	0	0	0	0	0	0	0	0	0	0	0	0	0	0	0	0	0	0	0	0	0	0	0	0	0	0	0	0	0	0	0	0	0	0	0	0	0	0	0	0	0	0	0	0	0	0	0	0	0	0	0	0	0	0	0	0	0	0	0	0	0	0	0	0	0	0	0	0	0	0	0	0	0	0	0	0	0	0	0	0	0	0	0	0	0	0	0	0	0	0	0	0	0	0	0	0	0	0	0	0	0	0	0	0	0	0	0
0	0	0	0	0	0	0	0	0	0	0	0	0	0	0	0	0	0	0	0	0	0	0	0	0	0	0	0	0	0	0	0	0	0	0	0	0	0	0	0	0	0	0	0	0	0	0	0	0	0	0	0	0	0	0	0	0	0	0	0	0	0	0	0	0	0	0	0	0	0	0	0	0	0	0	0	0	0	0	0	0	0	0	0	0	0	0	0	0	0	0	0	0	1459	1475	1487	1499	1506	1500	1480	1461	1464	1469	1474	1481	1479	1471	1455	1455	1460	1463	1465	1454	1443	1442	1450	1455	1461	1467	1465	1457	1479	1496	1526	0	0	0	0	0	0	0	0	0	0	0	0	0	0	0	0	0	0	0	0	0	0	0	0	0	0	0	0	0	0	0	0	0	0	0	0	0	0	0	0	0	0	0	0	0	0	0	0	0	0	0	0	1452	1440	1424	1409	1397	1389	1387	1385	1380	1380	1379	1393	1398	1400	1389	1378	1382	1386	1397	1411	1427	1422	1420	1413	1419	1412	1413	1421	1407	1401	1417	1421	1414	1415	1419	1415	1397	1397	1400	1404	1403	1403	1391	1396	1421	1449	1463	1447	1407	1374	1378	0	0	0	0	0	0	0	0	0	0	0	0	0	0	0	0	0	0	0	0	0	0	0	0	0	0	0	0	0	0	0	0	0	0	0	0	0	0	0	0	0	0	0	0	0	0	0	0	0	0	0	0	0	0	0	0	0	0	0	0	0	0	0	0	0	0	0	0	0	0	0	0	0	0	0	0	0	0	0	0	0	0	0	0	1409	1388	1377	1375	1372	1373	1372	1381	1380	1375	1374	1377	1385	1385	1382	1385	1393	1386	1380	1363	1352	1359	1370	1374	1391	1396	1394	1396	1399	1405	1399	1399	1398	1400	1399	1388	1383	1377	1382	1380	1388	1398	1398	1393	1383	1376	1370	1394	1398	1396	1383	1394	1488	1600	0	0	0	0	0	0	0	0	0	0	0	0	0	0	0	0	0	0	0	0	0	0	0	0	0	0	0	0	0	0	0	0	0	0	0	0	0	0	0	0	0	0	0	0	0	0	0	0	0	0	0	0	0	0	0	0	0	0	0	0	0	0	0	0	0	0	0	0	0	0	0	0	0	0	0	0	0	0	0	0	0	0	0	0	0	0	0	0	0	0	0	0	1329	1361	1362	1338	1330	1334	1342	1348	1353	1362	1360	1358	1363	1364	1359	1356	1347	1339	1336	1342	1356	1357	1355	1360	1365	1362	1356	1360	1361	1355	1349	1353	1351	1353	1356	1347	1352	1356	1360	1372	1385	1385	1379	1363	1360	1359	1353	1390	1418	1427	0	0	0	0	0	0	0	0	0	0	0	0	0	0	0	0	0	0	0	0	0	0	0	0	0	0	0	0	0	0	0	0	0	0	0	0	0	0	0	0	0	0	0	0	0	0	0	0	0	0	0	0	0	0	0	0	0	0	0	0	0	0	0	0	0	0	0	0	0	0	0	0	0	0	0	0	0	0	0	0	0	0	0	0	0	0	0	0	0	0	0	0	0	0	0	0	0	0	0	0	0	0	0	0	0	0	0	0	0	0	0	0	0	0	0	0	0	0	0	0	0	0	0	0	0	0	0	0	0	0	0	0	0
0	0	0	0	0	0	0	0	0	0	0	0	0	0	0	0	0	0	0	0	0	0	0	0	0	0	0	0	0	0	0	0	0	0	0	0	0	0	0	0	0	0	0	0	0	0	0	0	0	0	0	0	0	0	0	0	0	0	0	0	0	0	0	0	0	0	0	0	0	0	0	0	0	0	0	0	0	0	0	0	0	0	0	0	0	0	0	0	0	0	0	0	0	1441	1449	1462	1492	1503	1491	1479	1468	1464	1469	1471	1473	1475	1468	1451	1455	1467	1468	1463	1443	1429	1422	1429	1442	1460	1468	1462	1450	1463	1500	1528	0	0	0	0	0	0	0	0	0	0	0	0	0	0	0	0	0	0	0	0	0	0	0	0	0	0	0	0	0	0	0	0	0	0	0	0	0	0	0	0	0	0	0	0	0	0	0	0	0	0	0	0	1428	1427	1434	1414	1400	1394	1386	1379	1381	1382	1391	1398	1405	1405	1400	1385	1387	1391	1387	1408	1416	1409	1409	1417	1428	1429	1423	1418	1412	1400	1403	1411	1417	1419	1420	1405	1391	1396	1397	1399	1392	1388	1386	1407	1415	1440	1459	1442	1409	0	0	0	0	0	0	0	0	0	0	0	0	0	0	0	0	0	0	0	0	0	0	0	0	0	0	0	0	0	0	0	0	0	0	0	0	0	0	0	0	0	0	0	0	0	0	0	0	0	0	0	0	0	0	0	0	0	0	0	0	0	0	0	0	0	0	0	0	0	0	0	0	0	0	0	0	0	0	0	0	0	0	0	0	0	0	1425	1402	1390	1381	1375	1373	1372	1373	1374	1373	1367	1377	1382	1382	1378	1379	1377	1381	1380	1373	1364	1362	1372	1387	1396	1400	1398	1397	1402	1404	1396	1389	1387	1394	1403	1392	1385	1383	1389	1390	1397	1405	1405	1392	1386	1370	1367	1392	1401	1397	1388	1400	1456	1556	0	0	0	0	0	0	0	0	0	0	0	0	0	0	0	0	0	0	0	0	0	0	0	0	0	0	0	0	0	0	0	0	0	0	0	0	0	0	0	0	0	0	0	0	0	0	0	0	0	0	0	0	0	0	0	0	0	0	0	0	0	0	0	0	0	0	0	0	0	0	0	0	0	0	0	0	0	0	0	0	0	0	0	0	0	0	0	0	0	0	0	0	1314	1343	1356	1342	1329	1321	1329	1337	1350	1359	1357	1357	1358	1360	1357	1352	1342	1333	1328	1335	1356	1362	1359	1362	1360	1365	1366	1370	1370	1358	1348	1347	1346	1348	1352	1347	1355	1359	1375	1387	1395	1382	1373	1342	1344	1341	1350	1391	1426	1427	1423	0	0	0	0	0	0	0	0	0	0	0	0	0	0	0	0	0	0	0	0	0	0	0	0	0	0	0	0	0	0	0	0	0	0	0	0	0	0	0	0	0	0	0	0	0	0	0	0	0	0	0	0	0	0	0	0	0	0	0	0	0	0	0	0	0	0	0	0	0	0	0	0	0	0	0	0	0	0	0	0	0	0	0	0	0	0	0	0	0	0	0	0	0	0	0	0	0	1453	1452	0	0	0	0	0	0	1514	1504	1501	0	0	0	0	0	1441	1441	1435	1438	1444	1456	1456	1463	1469	1452	1425	1398	0	0	0	0	0	0	0
0	0	0	0	0	0	0	0	0	0	0	0	0	0	0	0	0	0	0	0	0	0	0	0	0	0	0	0	0	0	0	0	0	0	0	0	0	0	0	0	0	0	0	0	0	0	0	0	0	0	0	0	0	0	0	0	0	0	0	0	0	0	0	0	0	0	0	0	0	0	0	0	0	0	0	0	0	0	0	0	0	0	0	0	0	0	0	0	0	0	0	0	0	1432	1420	1431	1447	1464	1469	1466	1452	1455	1465	1474	1481	1478	1464	1453	1462	1479	1480	1475	1456	1439	1426	1422	1437	1457	1466	1466	1462	1472	1483	1509	1528	1540	0	0	0	0	0	0	0	0	0	0	0	0	0	0	0	0	0	0	0	0	0	0	0	0	0	0	0	0	0	0	0	0	0	0	0	0	0	0	0	0	0	0	0	0	0	0	0	0	0	0	1411	1423	1436	1435	1426	1400	1384	1381	1386	1389	1396	1402	1411	1412	1408	1404	1401	1401	1396	1400	1407	1405	1409	1420	1434	1441	1437	1430	1419	1400	1380	1395	1400	1416	1421	1404	1388	1391	1389	1388	1392	1389	1411	1399	1392	1433	1487	0	0	0	0	0	0	0	0	0	0	0	0	0	0	0	0	0	0	0	0	0	0	0	0	0	0	0	0	0	0	0	0	0	0	0	0	0	0	0	0	0	0	0	0	0	0	0	0	0	0	0	0	0	0	0	0	0	0	0	0	0	0	0	0	0	0	0	0	0	0	0	0	0	0	0	0	0	0	0	0	0	0	0	0	0	0	0	0	1451	1411	1401	1381	1373	1373	1365	1364	1364	1364	1369	1373	1380	1385	1389	1379	1379	1390	1386	1379	1379	1374	1369	1382	1391	1396	1394	1400	1405	1402	1390	1375	1378	1391	1398	1393	1388	1391	1393	1400	1405	1395	1398	1388	1377	1365	1373	1396	1406	1416	1414	1422	1454	1516	1596	0	0	0	0	0	0	0	0	0	0	0	0	0	0	0	0	0	0	0	0	0	0	0	0	0	0	0	0	0	0	0	0	0	0	0	0	0	0	0	0	0	0	0	0	0	0	0	0	0	0	0	0	0	0	0	0	0	0	0	0	0	0	0	0	0	0	0	0	0	0	0	0	0	0	0	0	0	0	0	0	0	1326	1358	1397	1405	0	0	0	0	0	0	1315	1335	1357	1345	1335	1327	1321	1330	1346	1354	1355	1353	1355	1356	1353	1344	1332	1327	1325	1331	1350	1363	1364	1367	1366	1366	1370	1380	1380	1358	1350	1345	1346	1349	1353	1350	1351	1363	1377	1386	1388	1376	1359	1318	1312	1319	1360	1397	1423	1429	1430	1412	1417	0	0	1502	1532	1561	0	0	1489	1443	1427	1439	0	0	1433	1409	1384	1376	1380	1405	0	0	0	0	0	1455	1462	0	0	1436	1464	1484	1510	0	0	0	0	0	1413	1418	1439	1482	1518	1523	1520	1538	1540	1537	1520	1498	1483	1482	1490	1490	1479	1475	1497	1495	1496	1502	1508	1517	1518	1488	1436	1406	1382	1405	1454	1494	1494	1476	1461	1453	1458	1475	1492	1491	1464	1446	1431	1438	1447	1458	1467	1464	1468	1476	1477	1467	1458	1439	1441	1451	1467	1482	1496	1506	1506	1505	1512	1517	1526	1526	1534	1513	1509	1498	1486	1469	1470	1477	1480	1470	1454	1456	1458	1466	1466	1477	1472	1464	1443	1425	0	0	0	0	0	0	0
0	0	0	0	0	0	0	0	0	0	0	0	0	0	0	0	0	0	0	0	0	0	0	0	0	0	0	0	0	0	0	0	0	0	0	0	0	0	0	0	0	0	0	0	0	0	0	0	0	0	0	0	0	0	0	0	0	0	0	0	0	0	0	0	0	0	0	0	0	0	0	0	0	0	0	0	0	0	0	0	0	0	0	0	0	0	0	0	0	0	0	0	0	1430	1409	1413	1430	1440	1441	1444	1441	1444	1467	1476	1488	1485	1475	1463	1468	1483	1489	1486	1474	1456	1443	1433	1436	1450	1473	1484	1475	1476	1482	1482	1477	1485	1518	0	0	0	0	0	0	0	0	0	0	0	0	0	0	0	0	0	0	0	0	0	0	0	0	0	0	0	0	0	0	0	0	0	0	0	0	0	0	0	0	0	0	0	0	0	0	0	0	0	0	1390	1432	1439	1428	1407	1387	1386	1393	1395	1403	1401	1400	1409	1417	1422	1417	1407	1398	1396	1398	1393	1396	1416	1434	1440	1443	1438	1424	1403	1377	1391	1399	1411	1413	1401	1380	1378	1376	1378	1384	1390	1412	1400	1385	1441	1504	0	0	0	0	0	1371	1355	1334	1293	1239	0	0	0	0	0	0	0	0	0	0	0	0	0	0	0	0	0	0	0	0	0	0	0	0	0	0	0	0	0	0	0	0	0	0	0	0	0	0	0	0	0	0	0	0	0	0	0	0	0	0	0	0	0	0	0	0	0	0	0	0	0	0	0	0	0	0	0	0	0	0	0	0	0	0	0	0	0	1464	1453	1418	1386	1373	1360	1361	1366	1366	1366	1364	1367	1382	1392	1401	1404	1401	1395	1389	1385	1387	1386	1382	1370	1369	1377	1384	1386	1389	1395	1392	1378	1369	1373	1384	1392	1386	1385	1395	1400	1404	1403	1395	1389	1380	1370	1368	1386	1406	1410	1427	1431	1427	1436	1487	1561	1580	1561	1544	1536	1525	1535	1540	1538	1539	1514	1489	1481	1501	1509	1485	1487	1528	1536	1504	1496	1529	1568	1592	1599	0	0	0	1538	1527	1545	1559	1561	1540	1509	1470	1482	1466	0	0	0	0	0	0	0	0	0	0	0	0	0	0	1127	1119	1126	1126	1130	1129	1112	1120	1129	1133	1128	1114	1098	1092	1111	0	0	0	1107	0	0	0	0	0	0	0	1122	1121	1130	1165	1199	1226	1273	1336	1354	1369	0	0	0	0	1333	1348	1354	1349	1342	1338	1334	1335	1350	1358	1360	1359	1355	1357	1347	1336	1329	1323	1322	1328	1343	1355	1362	1362	1369	1374	1378	1386	1368	1354	1348	1348	1346	1348	1344	1346	1343	1356	1371	1376	1375	1366	1340	1303	1298	1314	1350	1384	1411	1419	1413	1399	1414	1441	1473	1497	1511	1516	1525	1526	1516	1496	1479	1473	1460	1448	1444	1450	1454	1451	1443	1437	1439	1446	1447	1447	1460	1467	1472	1467	1461	1456	1450	1459	1472	1482	1486	1483	1477	1464	1438	1431	1451	1485	1502	1492	1475	1472	1485	1492	1499	1500	1495	1486	1499	1515	1512	1515	1521	1528	1526	1520	1505	1496	1496	1485	1480	1461	1449	1456	1492	1512	1514	1491	1468	1456	1454	1472	1487	1489	1471	1454	1447	1454	1457	1466	1459	1464	1476	1480	1481	1481	1467	1453	1455	1461	1477	1485	1492	1499	1496	1480	1480	1495	1495	1511	1527	1517	1506	1491	1475	1467	1460	1470	1477	1460	1458	1456	1463	1475	1475	1474	1470	1460	1442	1433	0	0	0	0	0	0	0
0	0	0	0	0	0	0	0	0	0	0	0	0	0	0	0	0	0	0	0	0	0	0	0	0	0	0	0	0	0	0	0	0	0	0	0	0	0	0	0	0	0	0	0	0	0	0	0	0	0	0	0	0	0	0	0	0	0	0	0	0	0	0	0	0	0	0	0	0	0	0	0	0	0	0	0	0	0	0	0	0	0	0	0	0	0	0	0	0	0	0	0	0	1482	1420	1420	1427	1437	1437	1438	1435	1450	1468	1485	1493	1491	1470	1464	1468	1481	1490	1491	1491	1472	1452	1444	1440	1452	1464	1477	1481	1479	1488	1492	1481	1473	1483	1491	0	0	0	0	0	0	0	0	0	0	0	0	0	0	0	0	0	0	0	0	0	0	0	0	0	0	0	0	0	0	0	0	0	0	0	0	0	0	0	0	0	0	0	0	0	0	0	0	1421	1383	1402	1423	1417	1397	1390	1389	1398	1406	1393	1387	1394	1405	1414	1431	1420	1413	1406	1406	1391	1383	1385	1412	1429	1431	1434	1426	1416	1407	1390	1392	1402	1411	1407	1390	1368	1360	1356	1361	1370	1383	1402	1387	1382	1462	1501	0	1449	1413	1371	1333	1311	1292	1263	1227	1175	1159	0	0	0	0	0	0	0	0	0	0	0	0	0	0	0	0	0	0	0	0	0	0	0	0	0	0	1171	1159	1138	1134	1144	0	0	0	0	0	0	0	1489	1462	1454	1470	1571	1591	1565	1528	1515	1535	1556	1549	1532	1509	1491	1466	1457	1474	1495	1501	1486	1462	1434	1448	1501	1536	1549	1523	1500	1502	1524	1537	1518	1504	1515	1512	1493	1463	1450	1429	1415	1401	1375	1356	1358	1368	1381	1386	1379	1368	1382	1397	1407	1415	1405	1397	1394	1392	1393	1390	1387	1380	1373	1373	1377	1380	1379	1382	1378	1368	1361	1366	1380	1387	1374	1370	1379	1394	1401	1397	1390	1386	1380	1378	1390	1406	1412	1411	1435	1437	1435	1442	1468	1509	1513	1511	1513	1512	1516	1507	1494	1477	1488	1509	1517	1506	1497	1492	1489	1487	1504	1510	1501	1504	1502	1508	1498	1486	1482	1478	1467	1462	1468	1479	1491	1489	1488	1474	1477	1463	1407	1360	1278	0	0	0	0	0	0	0	0	0	0	0	1097	1082	1078	1076	1089	1096	1087	1086	1090	1107	1118	1110	1097	1078	1062	1067	1089	1086	1073	1055	1063	1087	1113	1143	1067	1048	1052	1067	1079	1087	1100	1131	1166	1233	1316	1331	1340	1352	0	0	0	1380	1369	1353	1344	1345	1342	1347	1358	1374	1377	1371	1361	1357	1359	1355	1342	1336	1330	1332	1327	1325	1330	1346	1357	1363	1370	1382	1386	1365	1349	1342	1336	1337	1340	1342	1333	1329	1337	1347	1360	1360	1351	1334	1301	1312	1325	1343	1367	1389	1409	1407	1398	1411	1432	1455	1474	1491	1502	1515	1511	1501	1491	1491	1482	1475	1466	1464	1466	1462	1452	1443	1437	1438	1450	1444	1446	1463	1473	1480	1478	1465	1456	1451	1455	1461	1480	1488	1484	1476	1453	1430	1425	1442	1475	1500	1487	1471	1468	1478	1491	1501	1511	1505	1497	1497	1506	1522	1522	1519	1523	1521	1518	1508	1502	1494	1488	1480	1468	1457	1457	1487	1512	1507	1481	1457	1452	1452	1461	1475	1474	1462	1456	1459	1457	1463	1463	1460	1462	1471	1481	1485	1489	1481	1473	1466	1465	1474	1492	1498	1502	1492	1482	1472	1483	1483	1499	1504	1513	1502	1491	1467	1467	1466	1462	1463	1454	1462	1462	1474	1474	1477	1478	1461	1455	1441	1436	0	0	0	0	0	0	0
0	0	0	0	0	0	0	0	0	0	0	0	0	0	0	0	0	0	0	0	0	0	0	0	0	0	0	0	0	0	0	0	0	0	0	0	0	0	0	0	0	0	0	0	0	0	0	0	0	0	0	0	0	0	0	0	0	0	0	0	0	0	0	0	0	0	0	0	0	0	0	0	0	0	0	0	0	0	0	0	0	0	0	0	0	0	0	0	0	0	0	0	0	1501	1431	1430	1437	1450	1446	1450	1450	1452	1471	1489	1496	1495	1469	1463	1464	1474	1483	1486	1481	1468	1451	1448	1451	1457	1464	1466	1477	1499	1506	1508	1493	1479	1475	1465	1476	0	0	0	0	0	0	0	0	0	0	1400	0	0	0	0	0	0	0	0	0	0	0	0	0	0	1490	1513	1539	0	0	0	0	1465	1470	0	0	0	0	1581	1565	1531	1486	1445	1420	1416	1423	1429	1411	1374	1378	1387	1384	1390	1387	1395	1405	1399	1395	1389	1401	1418	1424	1433	1443	1444	1441	1436	1403	1383	1392	1411	1417	1416	1404	1407	1406	1407	1403	1407	1412	1416	1407	1397	1371	1346	1349	1352	1367	1384	1397	1384	1414	1466	1494	1494	1404	1389	1357	1300	1269	1240	1205	1175	1143	0	0	0	0	0	0	0	0	0	0	0	0	0	0	0	0	1103	0	0	0	0	0	0	0	1148	1136	1133	1117	1105	1089	1093	1104	1129	1134	1135	1151	1196	1274	1370	1419	1427	1451	1476	1501	1498	1494	1485	1507	1547	1559	1534	1499	1478	1462	1463	1469	1491	1502	1505	1506	1506	1511	1518	1531	1553	1544	1522	1497	1483	1486	1493	1505	1521	1530	1527	1516	1464	1438	1428	1413	1398	1390	1370	1363	1384	1394	1400	1400	1384	1381	1394	1405	1388	1387	1389	1392	1395	1399	1396	1391	1382	1375	1375	1382	1378	1369	1371	1366	1361	1362	1374	1381	1394	1385	1368	1373	1393	1391	1386	1381	1384	1387	1400	1403	1407	1416	1436	1441	1439	1444	1455	1479	1504	1500	1498	1507	1516	1517	1509	1499	1494	1489	1497	1493	1503	1490	1478	1468	1464	1468	1469	1483	1494	1499	1500	1490	1476	1468	1471	1473	1462	1465	1478	1490	1494	1485	1478	1479	1480	1456	1377	0	0	0	0	0	0	0	0	0	0	0	0	1068	1057	1051	1056	1063	1065	1067	1063	1076	1088	1091	1084	1077	1068	1048	1050	1063	1053	1036	1029	1038	1039	1053	1048	1033	1029	1032	1043	1056	1063	1082	1100	1112	1123	1144	1182	1247	1301	1322	1378	1397	1396	1396	1397	1346	1335	1338	1347	1353	1367	1380	1372	1353	1351	1359	1358	1348	1348	1347	1345	1335	1331	1328	1342	1351	1359	1362	1378	1388	1367	1348	1341	1340	1342	1335	1331	1328	1330	1333	1336	1347	1353	1343	1340	1329	1328	1340	1355	1371	1413	1419	1420	1426	1425	1435	1452	1465	1482	1500	1507	1500	1495	1495	1488	1489	1490	1488	1492	1483	1471	1460	1452	1440	1440	1451	1439	1439	1455	1480	1493	1491	1482	1470	1461	1458	1462	1472	1482	1486	1472	1448	1429	1430	1446	1474	1501	1488	1477	1473	1477	1487	1507	1515	1514	1508	1491	1478	1473	1484	1491	1502	1509	1513	1507	1495	1486	1484	1479	1462	1453	1456	1480	1493	1493	1469	1454	1442	1442	1439	1448	1457	1456	1460	1470	1470	1467	1457	1458	1461	1469	1477	1482	1487	1484	1475	1467	1462	1465	1481	1497	1500	1495	1476	1466	1472	1472	1481	1491	1497	1490	1479	1476	1467	1468	1452	1445	1451	1463	1477	1474	1474	1473	1469	1460	1456	1440	1432	0	0	0	0	0	0	0
0	0	0	0	0	0	0	0	0	0	0	0	0	0	0	0	0	0	0	0	0	0	0	0	0	0	0	0	0	0	0	0	0	0	0	0	0	0	0	0	0	0	0	0	0	0	0	0	0	0	0	0	0	0	0	0	0	0	0	0	0	0	0	0	0	0	0	0	0	0	0	0	0	0	0	0	0	0	0	0	0	0	0	0	0	0	0	0	0	0	0	0	0	1489	1427	1429	1449	1465	1478	1478	1473	1465	1474	1485	1492	1490	1472	1464	1457	1463	1464	1466	1477	1466	1458	1451	1456	1459	1463	1469	1477	1509	1530	1527	1505	1466	1440	1429	1438	1458	1469	1463	1458	1481	1507	1535	1532	1496	1469	1461	1462	1477	1485	1479	1467	1452	1438	1438	1434	1438	1435	1446	1472	1482	1485	1496	1510	1525	1520	1505	1500	1479	1472	1476	1485	1489	1490	1485	1474	1454	1436	1433	1442	1459	1447	1430	1414	1384	1367	1365	1364	1377	1391	1408	1409	1404	1402	1413	1427	1434	1444	1445	1452	1470	1469	1463	1459	1448	1422	1403	1396	1389	1392	1401	1406	1417	1416	1422	1430	1422	1417	1408	1412	1396	1394	1392	1421	1433	1418	1392	1413	1450	1430	1384	1370	1359	1327	1229	1194	1178	1161	1138	1109	1098	0	0	0	0	0	1088	1082	1109	0	0	0	0	1110	1101	1090	1069	1048	1041	1050	1081	0	0	1104	1107	1114	1110	1104	1089	1079	1079	1092	1107	1115	1113	1125	1171	1246	1398	1422	1448	1457	1480	1506	1519	1502	1504	1506	1500	1501	1503	1499	1482	1475	1469	1478	1490	1495	1506	1513	1515	1524	1532	1542	1539	1521	1504	1482	1471	1472	1478	1490	1498	1507	1510	1513	1498	1455	1435	1417	1400	1386	1389	1398	1407	1433	1450	1447	1437	1418	1394	1384	1372	1387	1383	1385	1389	1393	1401	1397	1386	1379	1381	1390	1391	1384	1371	1372	1373	1368	1394	1403	1412	1407	1395	1393	1385	1382	1376	1371	1380	1393	1405	1405	1413	1436	1438	1441	1446	1454	1475	1496	1504	1500	1486	1491	1500	1511	1507	1502	1500	1500	1489	1489	1495	1495	1490	1481	1469	1471	1466	1474	1486	1501	1503	1493	1477	1480	1484	1479	1476	1467	1475	1490	1496	1488	1473	1475	1479	1424	0	0	0	0	0	0	0	0	0	0	0	0	0	1047	1037	1033	1039	1044	1050	1049	1046	1043	1044	1050	1040	1044	1053	1053	1047	1042	1037	1029	1014	1017	1020	1032	1034	1030	1026	1024	1028	1044	1056	1077	1086	1093	1095	1090	1108	1136	1222	1246	1269	1314	1365	1389	1408	1396	1374	1356	1344	1348	1362	1371	1370	1366	1371	1362	1361	1376	1375	1380	1374	1372	1368	1335	1348	1369	1384	1374	1377	1388	1398	1384	1373	1376	1375	1375	1380	1375	1371	1374	1378	1373	1378	1367	1361	1361	1370	1376	1392	1413	1430	1441	1445	1457	1450	1448	1448	1467	1481	1494	1500	1492	1486	1485	1486	1495	1497	1496	1496	1483	1482	1468	1459	1446	1447	1452	1446	1447	1457	1477	1491	1495	1490	1484	1482	1470	1460	1465	1471	1476	1468	1447	1438	1439	1457	1477	1507	1502	1490	1479	1485	1496	1511	1519	1513	1502	1490	1478	1466	1463	1466	1482	1487	1487	1493	1469	1468	1473	1464	1453	1452	1460	1474	1482	1485	1466	1452	1438	1430	1435	1438	1452	1466	1471	1468	1452	1448	1453	1461	1458	1463	1471	1472	1468	1462	1453	1452	1451	1455	1461	1481	1498	1491	1471	1462	1455	1455	1471	1484	1486	1469	1460	1466	1469	1476	1460	1444	1459	1475	1482	1477	1477	1470	1459	1453	1456	1448	1438	0	0	0	0	0	0	0
0	0	0	0	0	0	0	0	0	0	0	0	0	0	0	0	0	0	0	0	0	0	0	0	0	0	0	0	0	0	0	0	0	0	0	0	0	0	0	0	0	0	0	0	0	0	0	0	0	0	0	0	0	0	0	0	0	0	0	0	0	0	0	0	0	0	0	0	0	0	0	0	0	0	0	0	0	0	0	0	0	0	0	0	0	0	0	0	0	0	0	0	0	1455	1414	1431	1454	1475	1484	1489	1487	1480	1466	1478	1481	1487	1470	1456	1449	1447	1448	1437	1455	1465	1462	1456	1459	1455	1466	1472	1485	1493	1509	1497	1478	1460	1447	1454	1463	1464	1459	1441	1433	1441	1444	1449	1466	1487	1482	1470	1477	1482	1489	1490	1473	1455	1456	1458	1451	1447	1452	1473	1483	1487	1481	1478	1485	1489	1499	1506	1503	1496	1478	1463	1467	1481	1483	1475	1458	1439	1431	1435	1456	1475	1484	1457	1414	1392	1380	1371	1375	1393	1411	1431	1432	1435	1437	1446	1452	1460	1462	1453	1450	1464	1474	1466	1464	1455	1440	1421	1400	1390	1401	1405	1415	1428	1430	1427	1426	1419	1418	1418	1422	1434	1453	1460	1469	1459	1439	1417	1408	1385	1359	1344	1283	1212	1171	1154	1146	1132	1115	1097	1084	1077	1072	1073	1078	1090	1086	1082	1071	1074	1083	1102	0	1104	1092	1076	1061	1046	1039	1037	1051	1062	1077	1072	1067	1079	1094	1102	1095	1090	1083	1074	1078	1091	1099	1108	1125	1178	1246	1425	1453	1461	1476	1491	1518	1529	1516	1513	1509	1509	1506	1503	1501	1491	1480	1482	1487	1491	1503	1513	1521	1534	1533	1540	1530	1514	1491	1481	1469	1461	1466	1469	1482	1479	1485	1492	1508	1504	1477	1441	1428	1410	1397	1405	1420	1452	1481	1499	1497	1479	1449	1407	1390	1397	1409	1402	1397	1394	1391	1391	1402	1416	1433	1436	1420	1417	1410	1395	1385	1390	1389	1394	1417	1426	1439	1467	1478	1460	1437	1419	1407	1399	1400	1410	1417	1428	1441	1441	1445	1446	1463	1495	1507	1509	1491	1470	1476	1495	1502	1501	1503	1503	1494	1493	1494	1495	1508	1510	1501	1493	1486	1479	1481	1494	1504	1501	1497	1492	1494	1499	1491	1483	1476	1481	1489	1502	1495	1466	1466	1474	1440	0	0	0	0	0	0	0	0	0	0	0	0	0	1042	1028	1031	1029	1035	1032	1030	1027	1019	1012	1007	1012	1020	1030	1033	1031	1017	1015	1004	1003	996	1006	1017	1026	1026	1023	1014	1012	1022	1048	1067	1083	1074	1062	1056	1066	1087	1108	1171	1212	1258	1307	1364	1393	1394	1380	1359	1364	1370	1389	1386	1378	1373	1376	1394	1398	1403	1405	1403	1405	1404	1424	1435	1446	1443	1445	1433	1424	1418	1412	1411	1405	1404	1406	1402	1396	1394	1395	1402	1401	1412	1420	1436	1454	1425	1408	1402	1409	1432	1452	1470	1482	1483	1471	1462	1459	1466	1481	1491	1485	1480	1478	1471	1471	1480	1488	1486	1480	1483	1480	1476	1463	1449	1450	1456	1470	1466	1469	1478	1484	1484	1492	1492	1487	1465	1457	1451	1465	1476	1468	1453	1453	1459	1467	1480	1504	1502	1491	1488	1490	1506	1518	1523	1509	1498	1491	1478	1464	1457	1454	1464	1469	1469	1463	1459	1463	1462	1454	1446	1456	1457	1463	1468	1479	1467	1445	1435	1439	1438	1445	1455	1470	1471	1459	1448	1442	1455	1462	1459	1465	1464	1467	1464	1454	1450	1451	1454	1451	1464	1477	1488	1490	1470	1450	1449	1449	1461	1471	1467	1453	1443	1454	1468	1467	1461	1451	1455	1472	1480	1477	1477	1469	1461	1455	1463	1459	1456	0	0	0	0	0	0	0
0	0	0	0	0	0	0	0	0	0	0	0	0	0	0	0	0	0	0	0	0	0	0	0	0	0	0	0	0	0	0	0	0	0	0	0	0	0	0	0	0	0	0	0	0	0	0	0	0	0	0	0	0	0	0	0	0	0	0	0	0	0	0	0	0	0	0	0	0	0	0	0	0	0	0	0	0	0	0	0	0	0	0	0	0	0	0	0	0	0	0	0	0	1427	1422	1437	1467	1486	1493	1486	1488	1463	1454	1458	1469	1481	1467	1458	1441	1425	1419	1400	1435	1455	1469	1467	1464	1466	1469	1479	1490	1493	1487	1481	1468	1461	1460	1461	1465	1461	1455	1437	1439	1441	1436	1458	1472	1495	1486	1479	1481	1490	1497	1489	1468	1451	1456	1467	1477	1463	1465	1479	1487	1484	1472	1477	1477	1482	1491	1496	1511	1502	1486	1457	1461	1474	1480	1469	1451	1429	1432	1453	1472	1490	1494	1474	1436	1424	1409	1387	1394	1411	1429	1447	1458	1465	1462	1470	1475	1486	1481	1467	1452	1456	1461	1469	1482	1481	1465	1448	1447	1457	1474	1475	1455	1462	1465	1443	1430	1418	1420	1421	1431	1449	1465	1472	1469	1449	1438	1401	1380	1359	1336	1292	1139	1134	1126	1112	1093	1078	1069	1061	1059	1058	1060	1065	1063	1048	1048	1041	1046	1046	1046	1050	1055	1063	1077	1061	1045	1036	1038	1046	1049	1043	1046	1051	1055	1066	1083	1091	1094	1088	1086	1076	1076	1092	1103	1117	0	1208	1278	1456	1465	1478	1498	1514	1527	1527	1523	1521	1522	1510	1504	1505	1502	1497	1492	1486	1491	1496	1491	1495	1497	1500	1504	1514	1511	1502	1494	1476	1468	1462	1466	1471	1482	1481	1479	1482	1486	1517	1509	1481	1449	1429	1422	1429	1442	1464	1487	1502	1501	1480	1452	1417	1401	1406	1422	1419	1410	1403	1397	1397	1404	1419	1436	1437	1425	1422	1420	1466	1462	1466	1475	1500	1489	1482	1464	1492	1486	1466	1444	1436	1429	1417	1420	1424	1431	1445	1458	1472	1485	1489	1489	1490	1489	1479	1465	1467	1481	1491	1503	1501	1497	1489	1483	1483	1487	1498	1505	1512	1508	1509	1506	1491	1489	1482	1481	1484	1484	1490	1493	1501	1497	1491	1483	1476	1495	1502	1485	1469	1458	1461	1441	0	0	0	0	0	0	0	0	0	0	0	0	0	1046	1031	1030	1022	1024	1024	1022	1017	1009	999	994	1000	1001	997	977	1006	1003	995	983	983	985	990	1004	1008	1011	1006	999	999	1013	1053	1077	1087	1076	1057	1044	1044	1039	1051	1067	1095	1145	1249	1322	1361	1375	1380	1364	1373	1375	1386	1397	1390	1393	1407	1416	1426	1428	1431	1423	1431	1434	1456	1463	1470	1470	1470	1464	1450	1439	1429	1421	1420	1417	1423	1427	1432	1439	1447	1452	1438	1437	1451	1479	1488	1472	1454	1452	1466	1473	1482	1495	1504	1500	1484	1474	1469	1470	1473	1474	1469	1468	1468	1457	1459	1463	1465	1465	1471	1477	1473	1469	1466	1456	1453	1464	1485	1481	1474	1474	1472	1474	1479	1491	1491	1477	1456	1448	1458	1466	1470	1471	1470	1471	1480	1483	1499	1492	1486	1487	1501	1514	1524	1517	1506	1494	1484	1480	1474	1461	1451	1457	1463	1464	1463	1464	1467	1465	1463	1456	1453	1456	1458	1467	1471	1465	1448	1447	1441	1449	1460	1469	1473	1470	1461	1454	1456	1458	1456	1450	1449	1463	1466	1463	1458	1457	1464	1471	1467	1468	1478	1490	1482	1470	1450	1461	1461	1467	1469	1459	1449	1440	1467	1469	1466	1457	1444	1450	1461	1470	1474	1474	1466	1456	1454	1459	1465	1463	0	0	0	0	0	0	0
0	0	0	0	0	0	0	0	0	0	0	0	0	0	0	0	0	0	0	0	0	0	0	0	0	0	0	0	0	0	0	0	0	0	0	0	0	0	0	0	0	0	0	0	0	0	0	0	0	0	0	0	0	0	0	0	0	0	0	0	0	0	0	0	0	0	0	0	0	0	0	0	0	0	0	0	0	0	0	0	0	0	0	0	0	0	0	0	0	0	0	0	0	1417	1428	1449	1477	1487	1485	1480	1469	1444	1440	1450	1469	1479	1458	1446	1442	1433	1418	1429	1436	1461	1475	1482	1478	1464	1470	1482	1494	1492	1479	1470	1459	1448	1452	1450	1458	1453	1452	1454	1446	1439	1441	1455	1499	1497	1488	1473	1476	1490	1497	1484	1454	1441	1457	1483	1491	1483	1483	1485	1486	1478	1468	1465	1470	1476	1490	1490	1507	1508	1494	1475	1464	1473	1479	1464	1449	1429	1439	1467	1491	1499	1491	1470	1457	1446	1412	1399	1405	1416	1436	1455	1473	1500	1510	1512	1514	1516	1511	1502	1482	1480	1479	1482	1494	1494	1483	1478	1466	1481	1485	1472	1439	1445	1460	1452	1441	1437	1433	1442	1450	1453	1444	1435	1430	1426	1412	1341	1294	1232	1187	1131	1096	1100	1092	1081	1054	1036	1034	1033	1038	1049	1064	1063	1048	1032	1013	1006	1006	1010	1021	1037	1045	1044	1031	1019	1035	1034	1044	1049	1048	1042	1042	1040	1049	1057	1067	1076	1074	1080	1082	0	0	0	0	0	0	0	1360	1469	1475	1490	1503	1516	1521	1517	1516	1518	1507	1495	1481	1491	1498	1493	1489	1488	1491	1491	1495	1498	1501	1503	1505	1512	1515	1512	1498	1483	1478	1484	1487	1489	1485	1479	1476	1475	1478	1485	1496	1493	1485	1473	1478	1490	1496	1497	1502	1502	1471	1463	1443	1439	1455	1474	1485	1485	1486	1483	1465	1452	1452	1451	1459	1466	1465	1458	1461	1478	1467	1480	1488	1499	1517	1509	1505	1496	1494	1487	1482	1477	1486	1489	1506	1506	1494	1479	1473	1491	1502	1502	1491	1484	1476	1471	1467	1474	1491	1502	1503	1491	1482	1479	1475	1473	1487	1493	1492	1498	1500	1507	1507	1498	1491	1481	1472	1470	1468	1476	1485	1496	1497	1499	1486	1482	1499	1504	1492	1476	1465	1464	1460	0	0	0	0	0	0	0	0	0	0	0	0	0	0	0	0	0	0	1018	1021	1012	1002	995	994	985	972	959	960	995	992	982	972	972	978	990	993	991	986	977	979	990	1012	1050	0	0	0	0	1043	1047	1040	1033	1026	1041	1061	1093	1108	1178	1332	1367	1374	1374	1378	1387	1399	1409	1413	1429	1441	1456	1467	1464	1457	1452	1453	1464	1472	1485	1495	1496	1487	1480	1471	1452	1446	1440	1444	1458	1468	1479	1489	1493	1496	1503	1510	1516	1529	1546	1505	1473	1462	1455	1456	1469	1483	1493	1494	1487	1483	1480	1477	1477	1463	1460	1458	1457	1452	1455	1454	1453	1454	1457	1468	1474	1473	1473	1458	1455	1466	1482	1479	1475	1470	1465	1467	1477	1487	1496	1476	1456	1448	1452	1461	1470	1479	1481	1482	1485	1487	1479	1475	1478	1491	1507	1519	1514	1503	1492	1476	1474	1479	1479	1476	1473	1468	1469	1476	1474	1479	1484	1494	1481	1475	1474	1469	1463	1466	1467	1452	1434	1445	1447	1456	1473	1478	1479	1471	1471	1471	1470	1467	1457	1447	1446	1461	1468	1469	1463	1462	1476	1480	1471	1470	1473	1479	1481	1472	1463	1463	1462	1472	1471	1467	1458	1469	1480	1476	1460	1448	1443	1442	1453	1462	1464	1464	1450	1446	1446	1456	1459	1457	0	0	0	0	0	0	0
0	0	0	0	0	0	0	0	0	0	0	0	0	0	0	0	0	0	0	0	0	0	0	0	0	0	0	0	0	0	0	0	0	0	0	0	0	0	0	0	0	0	0	0	0	0	0	0	0	0	0	0	0	0	0	0	0	0	0	0	0	0	0	0	0	0	0	0	0	0	0	0	0	0	0	0	0	0	0	0	0	0	0	0	0	0	0	0	0	0	0	0	0	1425	1438	1454	1468	1479	1484	1479	1460	1440	1444	1456	1473	1480	1464	1456	1457	1443	1443	1466	1465	1476	1485	1481	1473	1454	1463	1476	1481	1490	1477	1466	1453	1442	1439	1434	1450	1454	1456	1459	1464	1458	1460	1509	1507	1488	1468	1463	1473	1487	1499	1484	1455	1439	1451	1486	1496	1488	1487	1489	1485	1468	1459	1461	1471	1474	1479	1482	1486	1500	1492	1481	1476	1478	1477	1460	1449	1433	1443	1464	1489	1492	1475	1457	1445	1436	1389	1395	1394	1406	1427	1449	1460	1474	1485	1493	1501	1498	1502	1494	1490	1485	1481	1488	1488	1489	1479	1469	1457	1465	1478	1469	1445	1445	1455	1461	1452	1445	1449	1442	1453	1450	1432	1414	1403	1342	1219	1175	1170	1153	1126	1099	1066	1071	1074	1060	1033	1022	1018	1020	1029	1047	1058	1055	1043	1021	997	988	994	1009	1022	1037	1043	1021	1001	989	983	1008	1042	1043	1044	1040	1035	1033	1040	1042	1051	1067	1075	0	0	0	0	0	0	0	0	0	1403	1478	1480	1488	1503	1513	1505	1499	1501	1502	1484	1470	1470	1479	1490	1492	1487	1489	1487	1497	1499	1504	1503	1511	1516	1520	1525	1518	1503	1490	1492	1493	1499	1491	1482	1473	1468	1472	1475	1480	1487	1483	1465	1463	1470	1487	1494	1498	1500	1500	1476	1462	1456	1451	1462	1478	1489	1491	1493	1485	1476	1464	1468	1463	1469	1471	1466	1456	1450	1455	1465	1479	1487	1491	1506	1498	1506	1490	1491	1486	1483	1481	1492	1494	1508	1504	1496	1477	1472	1488	1506	1504	1493	1479	1473	1467	1469	1479	1493	1501	1500	1490	1483	1475	1473	1479	1484	1491	1490	1483	1478	1494	1503	1499	1486	1480	1472	1469	1466	1468	1479	1490	1501	1501	1497	1500	1504	1510	1496	1481	1474	1476	1472	1411	0	0	0	0	0	0	0	0	0	0	0	0	0	0	0	0	0	0	0	1016	1000	988	0	0	0	0	958	987	985	978	971	974	985	993	990	985	972	960	967	994	1021	1048	0	0	0	0	0	0	0	0	1043	1041	1053	1064	1075	1080	1103	1159	1238	1340	1373	1384	1401	1409	1422	1450	1458	1489	1469	1464	1458	1452	1459	1469	1481	1493	1498	1490	1487	1483	1477	1447	1446	1451	1466	1490	1505	1507	1501	1505	1506	1506	1508	1513	1521	1530	1500	1457	1450	1454	1454	1456	1462	1473	1486	1498	1506	1498	1491	1481	1468	1461	1458	1456	1456	1455	1450	1443	1446	1455	1462	1466	1473	1460	1467	1458	1462	1466	1466	1460	1461	1466	1469	1479	1487	1493	1479	1466	1452	1453	1458	1465	1477	1488	1492	1492	1491	1468	1466	1473	1487	1505	1510	1505	1488	1470	1463	1461	1466	1473	1487	1492	1490	1489	1488	1484	1486	1498	1506	1505	1499	1479	1471	1469	1466	1457	1438	1432	1432	1435	1458	1473	1478	1476	1475	1481	1479	1480	1474	1454	1447	1450	1469	1473	1466	1459	1461	1477	1480	1471	1465	1463	1475	1471	1466	1458	1458	1454	1461	1474	1475	1483	1491	1497	1484	1465	1446	1439	1441	1447	1456	1463	1463	1452	1448	1453	1458	1455	1447	0	0	0	0	0	0	0
0	0	0	0	0	0	0	0	0	0	0	0	0	0	0	0	0	0	0	0	0	0	0	0	0	0	0	0	0	0	0	0	0	0	0	0	0	0	0	0	0	0	0	0	0	0	0	0	0	0	0	0	0	0	0	0	0	0	0	0	0	0	0	0	0	0	0	0	0	0	0	0	0	0	0	0	0	0	0	0	0	0	0	0	0	0	0	0	0	0	0	0	0	1424	1438	1432	1445	1457	1479	1492	1462	1455	1462	1471	1486	1490	1479	1473	1469	1461	1456	1466	1473	1475	1468	1463	1454	1443	1449	1462	1468	1481	1479	1472	1458	1439	1435	1441	1443	1454	1465	1467	1475	1472	1478	1500	1496	1476	1466	1460	1469	1494	1497	1494	1477	1450	1457	1488	1503	1494	1489	1475	1460	1462	1465	1471	1472	1473	1473	1472	1478	1482	1491	1484	1479	1478	1469	1463	1444	1440	1437	1454	1464	1466	1460	1441	1433	1417	1392	1389	1391	1403	1424	1439	1450	1458	1463	1462	1467	1480	1479	1480	1480	1484	1482	1484	1477	1476	1464	1453	1445	1453	1468	1474	1473	1469	1465	1465	1461	1458	1454	1447	1451	1442	1379	1294	1245	1196	1174	1180	1166	1154	1125	1090	1070	1058	1060	1046	1023	1015	1016	1021	1024	1032	1038	1045	1034	1015	982	977	994	1013	1028	1035	1040	1025	976	967	967	1001	1009	1015	1036	1034	1029	1032	1026	1029	1041	1054	0	0	0	0	0	0	0	0	0	1419	1489	1489	1487	1485	1495	1498	1482	1473	1469	1476	1471	1468	1469	1477	1483	1488	1486	1486	1492	1494	1499	1500	1507	1516	1524	1526	1528	1521	1508	1498	1494	1501	1502	1494	1479	1467	1464	1468	1476	1485	1486	1483	1471	1458	1458	1469	1489	1496	1497	1491	1481	1471	1462	1461	1464	1477	1487	1499	1519	1507	1495	1484	1491	1492	1496	1475	1445	1431	1425	1440	1469	1476	1485	1475	1460	1462	1462	1467	1469	1475	1488	1495	1499	1493	1491	1485	1489	1476	1482	1496	1507	1508	1501	1485	1474	1457	1457	1480	1487	1491	1497	1493	1485	1483	1486	1491	1492	1492	1483	1473	1477	1493	1501	1493	1480	1476	1473	1469	1468	1479	1484	1493	1502	1506	1503	1505	1506	1500	1492	1485	1473	1466	1478	1438	0	0	0	0	0	0	0	0	0	0	0	0	0	0	0	0	0	0	0	0	0	0	0	0	0	0	0	0	0	0	0	0	0	996	990	0	0	972	972	1004	1021	0	0	0	0	0	0	0	0	0	0	0	0	1054	1051	1058	1057	1065	1068	1103	1167	1244	1348	1391	1412	1448	1474	1485	1475	1461	1449	1457	1467	1477	1488	1495	1488	1481	1475	1472	1464	1444	1444	1458	1483	1515	1531	1527	1518	1511	1509	1502	1492	1488	1486	1497	1471	1460	1453	1451	1453	1455	1455	1468	1485	1504	1523	1529	1513	1494	1481	1479	1473	1465	1464	1458	1462	1451	1448	1449	1461	1461	1466	1467	1472	1468	1456	1439	1455	1462	1466	1471	1476	1479	1485	1483	1475	1467	1460	1459	1455	1462	1472	1481	1492	1491	1487	1470	1466	1467	1481	1496	1495	1486	1470	1456	1452	1444	1452	1470	1485	1498	1503	1506	1504	1499	1490	1499	1515	1512	1499	1480	1473	1469	1460	1451	1427	1426	1431	1439	1455	1472	1477	1484	1485	1484	1492	1487	1473	1455	1450	1462	1475	1475	1468	1460	1456	1467	1471	1471	1464	1464	1471	1471	1460	1451	1451	1450	1455	1467	1481	1489	1504	1508	1496	1465	1444	1437	1437	1439	1444	1444	1453	1463	1439	1444	1454	1450	1449	0	0	0	0	0	0	0
0	0	0	0	0	0	0	0	0	0	0	0	0	0	0	0	0	0	0	0	0	0	0	0	0	0	0	0	0	0	0	0	0	0	0	0	0	0	0	0	0	0	0	0	0	0	0	0	0	0	0	0	0	0	0	0	0	0	0	0	0	0	0	0	0	0	0	0	0	0	0	0	0	0	0	0	0	0	0	0	0	0	0	0	0	0	0	0	0	0	0	0	0	1415	1428	1416	1423	1449	1482	1496	1473	1470	1478	1493	1500	1505	1490	1477	1469	1455	1458	1459	1453	1447	1442	1443	1446	1440	1447	1452	1459	1470	1482	1482	1466	1449	1445	1441	1440	1453	1459	1485	1483	1475	1478	1483	1485	1477	1466	1471	1480	1501	1513	1506	1492	1472	1470	1489	1506	1493	1477	1457	1448	1448	1467	1485	1488	1488	1479	1468	1466	1467	1467	1469	1471	1469	1466	1463	1456	1444	1436	1440	1452	1453	1449	1438	1427	1415	1402	1393	1400	1408	1414	1424	1434	1445	1447	1445	1452	1462	1471	1474	1484	1487	1487	1479	1474	1461	1453	1447	1444	1446	1460	1469	1484	1477	1471	1457	1447	1450	1441	1425	1394	1333	1258	1234	1219	1202	1199	1190	1177	0	0	0	0	1058	1048	1027	0	0	0	0	1017	1016	1023	1025	1026	1011	984	973	992	1016	1029	1029	1022	1001	985	985	0	0	994	0	0	0	1025	1023	1030	1022	1032	0	0	0	0	0	0	0	0	0	1399	1491	1524	1516	1493	1477	1469	1469	1473	1480	1484	1477	1459	1452	1468	1498	1507	1502	1494	1491	1500	1504	1503	1490	1479	1479	1491	1503	1516	1517	1523	1513	1513	1517	1521	1506	1490	1479	1477	1479	1477	1488	1489	1500	1483	1478	1469	1466	1476	1491	1501	1493	1485	1474	1465	1464	1464	1460	1464	1483	1501	1499	1484	1492	1500	1497	1488	1471	1455	1439	1436	1446	1458	1459	1460	1464	1471	1471	1468	1464	1472	1491	1509	1514	1509	1496	1481	1478	1480	1478	1489	1503	1515	1517	1507	1491	1477	1463	1463	1471	1478	1477	1483	1492	1496	1495	1497	1496	1500	1496	1484	1475	1485	1494	1490	1479	1462	1463	1464	1474	1491	1496	1498	1497	1496	1497	1499	1500	1507	1491	1485	1481	1469	1450	1455	1470	1408	0	0	0	0	0	0	0	0	0	0	0	0	0	0	0	0	0	0	0	0	0	0	0	0	0	0	0	0	0	0	0	0	996	0	0	0	0	0	0	0	0	0	0	0	0	0	0	0	0	0	0	0	1024	1022	1020	1027	1035	1039	1053	1073	1078	1109	1245	1340	1430	1441	1449	1454	1447	1451	1462	1472	1477	1485	1485	1473	1470	1461	1460	1450	1449	1451	1457	1487	1525	1535	1530	1509	1505	1501	1490	1488	1479	1461	1452	1456	1456	1454	1457	1453	1450	1448	1455	1476	1501	1533	1540	1532	1517	1502	1493	1479	1473	1459	1450	1461	1461	1462	1466	1466	1468	1472	1480	1474	1469	1444	1443	1458	1471	1474	1480	1479	1475	1476	1474	1474	1470	1468	1464	1456	1452	1459	1471	1491	1497	1496	1478	1470	1462	1471	1477	1486	1476	1466	1455	1444	1444	1449	1463	1481	1493	1504	1512	1509	1507	1501	1500	1501	1492	1483	1472	1473	1472	1466	1458	1436	1430	1435	1439	1457	1473	1483	1492	1491	1485	1484	1478	1472	1458	1461	1471	1480	1477	1461	1459	1463	1461	1466	1466	1468	1476	1484	1480	1475	1470	1470	1467	1471	1473	1482	1494	1497	1500	1493	1461	1445	1434	1434	1437	1442	1442	1456	1455	1433	1433	1429	1443	1465	0	0	0	0	0	0	0
0	0	0	0	0	0	0	0	0	0	0	0	0	0	0	0	0	0	0	0	0	0	0	0	0	0	0	0	0	0	0	0	0	0	0	0	0	0	0	0	0	0	0	0	0	0	0	0	0	0	0	0	0	0	0	0	0	0	0	0	0	0	0	0	0	0	0	0	0	0	0	0	0	0	0	0	0	0	0	0	0	0	0	0	0	0	0	0	0	0	0	0	0	1408	1433	1435	1438	1458	1481	1491	1492	1482	1474	1472	1484	1493	1477	1465	1464	1462	1468	1463	1455	1444	1453	1465	1480	1477	1447	1436	1429	1434	1453	1464	1474	1469	1468	1457	1446	1450	1470	1487	1469	1449	1439	1439	1452	1460	1465	1475	1489	1501	1511	1503	1499	1488	1487	1495	1506	1495	1476	1455	1442	1451	1478	1498	1510	1504	1489	1468	1458	1457	1454	1459	1465	1464	1461	1459	1464	1455	1439	1438	1444	1452	1455	1446	1430	1419	1403	1405	1404	1404	1408	1410	1429	1438	1438	1437	1435	1444	1454	1467	1476	1505	1496	1479	1471	1440	1437	1442	1435	1434	1452	1469	1476	1481	1464	1447	1429	1403	1326	1268	1241	1226	1222	1221	1210	1198	1196	1189	0	0	0	0	0	1051	1035	0	0	0	0	0	1001	1003	1006	1008	1006	997	981	972	982	995	1005	1005	1004	997	987	998	0	990	0	0	0	0	0	0	1040	1041	0	0	0	0	0	0	0	0	0	1359	1458	1521	1522	1500	1477	1472	1472	1475	1480	1487	1491	1483	1469	1461	1477	1501	1511	1510	1497	1487	1490	1499	1497	1491	1485	1482	1494	1507	1515	1513	1511	1510	1510	1508	1516	1513	1502	1487	1481	1479	1477	1478	1489	1486	1481	1480	1473	1470	1475	1480	1504	1501	1487	1477	1465	1464	1457	1449	1451	1458	1472	1483	1490	1490	1492	1490	1476	1464	1461	1461	1461	1467	1471	1463	1460	1462	1469	1471	1464	1457	1459	1482	1501	1508	1499	1493	1483	1483	1475	1482	1497	1505	1518	1516	1510	1497	1491	1488	1489	1481	1469	1464	1473	1484	1494	1499	1491	1506	1508	1504	1496	1482	1480	1480	1479	1469	1453	1458	1468	1477	1504	1516	1511	1497	1498	1497	1493	1499	1500	1479	1476	1476	1469	1463	1458	1472	1469	0	0	0	0	0	0	0	0	0	0	0	0	0	0	0	0	0	0	967	954	944	944	951	962	966	950	0	0	969	985	986	982	979	977	0	0	0	0	0	0	0	0	0	0	0	0	0	0	0	0	0	0	987	984	991	998	1011	1027	1033	1036	1030	1021	1034	1131	1379	1407	1418	1428	1432	1439	1457	1466	1468	1471	1479	1487	1487	1472	1462	1455	1459	1462	1463	1498	1520	1515	1507	1489	1485	1480	1474	1476	1462	1446	1432	1431	1446	1445	1446	1440	1439	1445	1461	1473	1498	1528	1541	1540	1534	1515	1506	1486	1472	1448	1439	1443	1454	1465	1469	1480	1490	1488	1489	1477	1476	1458	1452	1468	1481	1489	1489	1482	1471	1471	1474	1472	1476	1471	1462	1453	1450	1452	1469	1488	1501	1504	1501	1475	1459	1461	1470	1479	1487	1473	1460	1458	1455	1459	1465	1475	1481	1492	1496	1509	1511	1509	1493	1482	1472	1472	1466	1473	1474	1476	1468	1459	1449	1447	1449	1467	1481	1493	1486	1487	1481	1471	1463	1451	1453	1463	1476	1476	1470	1458	1463	1467	1459	1454	1450	1462	1480	1496	1497	1498	1498	1498	1497	1489	1482	1479	1486	1491	1497	1484	1459	1443	1437	1437	1438	1439	1439	1442	1441	1422	1419	1426	1448	1495	0	0	0	0	0	0	0
0	0	0	0	0	0	0	0	0	0	0	0	0	0	0	0	0	0	0	0	0	0	0	0	0	0	0	0	0	0	0	0	0	0	0	0	0	0	0	0	0	0	0	0	0	0	0	0	0	0	0	0	0	0	0	0	0	0	0	0	0	0	0	0	0	0	0	0	0	0	0	0	0	0	0	0	0	0	0	0	0	0	0	0	0	0	0	0	0	0	0	0	0	1437	1467	1482	1477	1464	1467	1478	1479	1475	1472	1466	1471	1480	1473	1460	1459	1463	1467	1467	1461	1459	1458	1474	1494	1495	1473	1445	1433	1424	1433	1449	1467	1476	1480	1468	1458	1456	1463	1472	1451	1432	1424	1429	1438	1450	1449	1454	1462	1482	1492	1486	1486	1479	1485	1487	1496	1490	1473	1453	1450	1461	1491	1511	1508	1496	1480	1473	1455	1456	1456	1465	1469	1464	1462	1454	1457	1453	1449	1451	1457	1465	1464	1455	1434	1418	1412	1412	1413	1411	1402	1406	1420	1436	1446	1444	1435	1435	1442	1455	1475	1505	1496	1476	1446	1430	1428	1441	1442	1437	1444	1459	1472	1467	1448	1382	1273	1222	1204	1184	1179	1185	1190	1187	1176	1163	1163	0	0	0	0	0	0	1037	1017	991	0	0	0	993	990	990	986	988	988	980	969	960	960	966	973	981	983	984	984	1001	995	974	958	0	0	0	0	0	0	0	0	0	0	0	0	0	0	0	1363	1440	1480	1497	1502	1490	1480	1473	1471	1473	1485	1493	1495	1494	1485	1484	1494	1508	1517	1517	1496	1480	1475	1490	1500	1493	1490	1492	1503	1506	1510	1507	1505	1503	1504	1505	1503	1503	1501	1490	1477	1461	1468	1463	1452	1444	1472	1473	1479	1480	1480	1480	1488	1493	1490	1477	1467	1462	1459	1449	1443	1449	1460	1476	1489	1497	1496	1487	1472	1462	1465	1472	1480	1485	1481	1474	1464	1471	1478	1476	1461	1448	1457	1472	1495	1498	1484	1478	1479	1480	1482	1487	1501	1511	1517	1512	1509	1507	1507	1495	1502	1483	1460	1453	1461	1477	1489	1504	1507	1512	1512	1509	1496	1477	1470	1472	1470	1466	1461	1463	1475	1494	1515	1527	1512	1493	1490	1480	1491	1497	1487	1474	1471	1474	1473	1475	1477	1480	1488	1473	0	0	0	0	0	0	0	0	0	0	0	0	0	0	0	0	951	952	950	938	933	931	938	938	931	926	931	943	955	965	961	963	952	941	936	946	963	974	971	973	974	980	984	986	985	982	984	978	983	967	961	958	956	956	972	993	1020	1024	1013	998	990	983	994	1113	1248	1319	1376	1393	1401	1424	1446	1451	1456	1478	1496	1506	1489	1478	1476	1482	1482	1486	1494	1505	1485	1476	1474	1466	1460	1455	1450	1436	1434	1419	1419	1434	1435	1428	1428	1432	1444	1459	1477	1499	1521	1530	1530	1534	1525	1517	1500	1482	1460	1440	1441	1443	1452	1474	1490	1509	1509	1491	1480	1476	1468	1459	1478	1506	1505	1503	1492	1487	1486	1500	1510	1516	1514	1500	1483	1459	1450	1467	1481	1494	1500	1503	1489	1472	1459	1472	1482	1493	1497	1491	1477	1475	1470	1461	1458	1455	1455	1465	1478	1493	1497	1478	1458	1460	1465	1477	1482	1480	1477	1476	1477	1469	1460	1460	1472	1487	1484	1484	1473	1465	1452	1447	1443	1447	1459	1465	1462	1458	1455	1465	1471	1462	1445	1438	1446	1470	1493	1505	1510	1510	1511	1502	1496	1484	1478	1488	1496	1488	1474	1456	1445	1444	1447	1442	1438	1438	1429	1427	1410	1424	1437	1436	0	0	0	0	0	0	0	0
0	0	0	0	0	0	0	0	0	0	0	0	0	0	0	0	0	0	0	0	0	0	0	0	0	0	0	0	0	0	0	0	0	0	0	0	0	0	0	0	0	0	0	0	0	0	0	0	0	0	0	0	0	0	0	0	0	0	0	0	0	0	0	0	0	0	0	0	0	0	0	0	0	0	0	0	0	0	0	0	0	0	0	0	0	0	0	0	0	0	0	0	0	1436	1467	1480	1479	1469	1456	1466	1477	1478	1466	1456	1469	1472	1482	1469	1458	1462	1465	1467	1467	1462	1463	1481	1493	1502	1478	1460	1449	1436	1444	1457	1469	1483	1480	1475	1466	1458	1460	1459	1431	1421	1414	1423	1432	1448	1446	1446	1449	1463	1475	1479	1477	1478	1479	1482	1495	1474	1452	1437	1435	1456	1479	1496	1513	1494	1479	1475	1473	1473	1474	1476	1481	1479	1468	1457	1455	1447	1448	1457	1462	1463	1456	1441	1428	1413	1418	1426	1425	1424	1416	1419	1429	1445	1459	1466	1470	1459	1451	1455	1473	1496	1490	1467	1442	1436	1436	1445	1453	1450	1450	1425	1378	1348	1291	1240	1182	1166	1152	1136	1135	1129	1138	1132	1122	1110	1105	0	0	0	0	0	0	1016	995	975	973	977	981	988	983	976	973	969	974	974	967	949	944	947	952	962	970	974	975	982	978	958	941	955	0	0	0	0	0	0	0	0	0	0	0	0	0	0	1397	1446	1480	1481	1492	1485	1487	1482	1481	1480	1481	1484	1488	1492	1488	1491	1494	1508	1517	1500	1445	1423	1415	1464	1487	1500	1505	1505	1503	1507	1506	1508	1505	1509	1504	1500	1496	1498	1497	1492	1468	1433	1420	1425	1443	1480	1502	1506	1480	1480	1479	1466	1485	1473	1473	1468	1461	1456	1461	1455	1451	1450	1460	1476	1493	1501	1496	1483	1470	1470	1473	1484	1486	1486	1492	1480	1474	1482	1494	1487	1467	1455	1451	1475	1494	1504	1495	1484	1488	1484	1478	1477	1484	1496	1488	1485	1505	1511	1500	1496	1491	1480	1458	1448	1456	1470	1485	1498	1517	1525	1524	1510	1491	1476	1462	1469	1464	1460	1460	1465	1483	1506	1518	1513	1505	1490	1483	1480	1490	1484	1475	1462	1460	1467	1472	1475	1482	1488	1485	1480	1492	0	0	0	0	0	0	0	0	0	0	0	0	0	0	0	920	924	934	935	925	922	916	911	908	909	913	925	934	938	942	940	941	929	920	916	926	937	938	944	953	964	969	960	942	934	939	946	952	951	953	949	944	940	950	968	988	996	980	957	950	957	970	974	1002	1050	1167	1307	1326	1356	1399	1441	1451	1477	1500	1507	1502	1494	1482	1487	1488	1485	1484	1487	1469	1455	1461	1466	1449	1439	1425	1425	1425	1411	1415	1413	1414	1422	1425	1433	1448	1462	1482	1495	1505	1516	1519	1522	1525	1514	1505	1492	1470	1447	1431	1434	1452	1470	1488	1484	1483	1477	1465	1469	1470	1471	1470	1485	1495	1498	1499	1495	1501	1514	1530	1534	1540	1526	1497	1464	1448	1456	1470	1481	1485	1486	1479	1473	1473	1476	1480	1487	1493	1492	1476	1461	1458	1453	1460	1457	1452	1456	1460	1468	1468	1464	1458	1461	1475	1498	1494	1486	1477	1472	1471	1465	1461	1456	1471	1481	1479	1469	1457	1445	1439	1427	1440	1444	1448	1451	1446	1442	1456	1470	1470	1459	1446	1436	1436	1456	1470	1493	1500	1500	1504	1501	1494	1483	1489	1501	1504	1485	1473	1461	1455	1456	1460	1450	1441	1441	1426	1425	1432	1442	1456	1434	0	0	0	0	0	0	0	0
0	0	0	0	0	0	0	0	0	0	0	0	0	0	0	0	0	0	0	0	0	0	0	0	0	0	0	0	0	0	0	0	0	0	0	0	0	0	0	0	0	0	0	0	0	0	0	0	0	0	0	0	0	0	0	0	0	0	0	0	0	0	0	0	0	0	0	0	0	0	0	0	0	0	0	0	0	0	0	0	0	0	0	0	0	0	0	0	0	0	0	0	0	1417	1465	1476	1482	1464	1450	1459	1468	1475	1471	1464	1466	1487	1484	1471	1464	1455	1440	1455	1472	1470	1466	1469	1481	1488	1484	1475	1469	1486	1490	1493	1486	1478	1479	1467	1454	1444	1441	1444	1420	1401	1403	1413	1442	1452	1447	1447	1455	1464	1469	1471	1476	1475	1468	1473	1486	1462	1442	1436	1438	1452	1478	1490	1491	1473	1462	1455	1457	1463	1486	1483	1480	1476	1467	1461	1443	1443	1448	1451	1448	1450	1448	1442	1422	1414	1420	1434	1442	1434	1442	1442	1444	1464	1478	1486	1488	1475	1467	1462	1476	1478	1462	1441	1434	1428	1435	1448	1456	1411	1358	1268	1187	1155	1147	1147	1120	1107	1105	1096	1097	1087	1095	1103	1086	1068	1057	1065	0	0	0	0	1036	991	974	966	968	972	980	977	971	967	971	975	979	975	967	953	946	945	940	948	950	956	960	958	949	946	946	0	0	0	0	0	0	0	0	0	0	0	0	0	0	1369	1432	1473	1492	1487	1495	1495	1494	1490	1484	1477	1471	1468	1473	1478	1491	1494	1492	1486	1479	1490	1473	1464	1427	1434	1475	1508	1510	1506	1504	1500	1499	1502	1507	1513	1513	1505	1502	1497	1496	1491	1450	1433	1427	1436	1458	1485	1503	1508	1510	1487	1482	1478	1491	1485	1492	1478	1460	1456	1457	1464	1461	1455	1461	1481	1501	1507	1499	1490	1480	1477	1480	1493	1504	1507	1498	1485	1485	1493	1504	1510	1503	1465	1469	1485	1503	1516	1516	1505	1491	1479	1471	1461	1464	1462	1462	1465	1474	1488	1492	1487	1493	1479	1466	1457	1455	1464	1482	1500	1518	1522	1520	1506	1492	1474	1470	1470	1463	1455	1453	1465	1491	1496	1503	1500	1495	1478	1478	1485	1490	1478	1464	1455	1456	1463	1473	1474	1475	1482	1481	1469	1460	1455	0	0	0	0	0	0	0	0	0	0	0	0	0	903	894	913	925	925	915	907	904	891	891	888	899	908	909	918	927	924	930	920	910	903	906	912	914	915	929	942	950	930	915	900	908	920	924	928	932	934	934	929	926	936	950	955	935	928	925	936	948	955	964	978	988	1013	1134	1233	1278	1338	1431	1465	1485	1502	1502	1497	1470	1473	1479	1478	1470	1469	1451	1447	1458	1466	1463	1457	1435	1426	1419	1413	1421	1424	1433	1433	1441	1445	1449	1450	1461	1480	1493	1505	1508	1519	1523	1514	1500	1485	1463	1463	1465	1471	1471	1475	1479	1477	1478	1475	1465	1453	1468	1468	1459	1461	1474	1489	1490	1484	1488	1510	1525	1543	1547	1532	1494	1457	1440	1451	1455	1463	1465	1469	1463	1469	1475	1486	1486	1479	1483	1485	1463	1449	1442	1459	1467	1473	1461	1447	1450	1444	1449	1454	1454	1466	1483	1499	1508	1497	1483	1461	1458	1456	1450	1452	1441	1453	1463	1465	1445	1435	1431	1433	1436	1441	1443	1441	1436	1440	1454	1470	1472	1466	1453	1437	1436	1437	1454	1467	1480	1480	1488	1490	1490	1489	1489	1500	1505	1498	1479	1467	1465	1465	1464	1462	1439	1439	1430	1433	1442	1454	1461	1434	0	0	0	0	0	0	0	0
0	0	0	0	0	0	0	0	0	0	0	0	0	0	0	0	0	0	0	0	0	0	0	0	0	0	0	0	0	0	0	0	0	0	0	0	0	0	0	0	0	0	0	0	0	0	0	0	0	0	0	0	0	0	0	0	0	0	0	0	0	0	0	0	0	0	0	0	0	0	0	0	0	0	0	0	0	0	0	0	0	0	0	0	0	0	0	0	0	0	0	0	0	1406	1459	1474	1478	1481	1474	1460	1471	1476	1470	1479	1475	1479	1473	1473	1476	1446	1422	1454	1479	1472	1460	1465	1471	1481	1483	1486	1504	1512	1520	1518	1497	1486	1474	1461	1446	1436	1432	1429	1406	1395	1395	1434	1460	1462	1463	1459	1468	1466	1462	1469	1476	1474	1469	1472	1476	1458	1450	1440	1442	1462	1478	1484	1480	1471	1457	1445	1444	1446	1455	1470	1488	1477	1478	1473	1452	1447	1443	1440	1441	1443	1443	1455	1447	1435	1434	1444	1445	1446	1462	1477	1500	1495	1493	1491	1495	1485	1482	1473	1471	1458	1438	1420	1410	1417	1410	1358	1252	1205	1168	1149	1123	1096	1086	1086	1076	1064	1065	1067	1060	1065	1080	1082	1069	1047	1038	1035	0	0	0	1017	995	976	960	956	959	966	971	972	973	966	973	981	984	982	964	949	949	949	937	936	939	940	941	937	933	0	0	0	0	0	0	0	0	0	0	0	0	0	1377	1458	1407	1444	1462	1480	1503	1503	1509	1509	1512	1503	1490	1474	1465	1460	1462	1471	1484	1495	1479	1476	1484	1494	1484	1462	1450	1445	1480	1508	1504	1499	1489	1483	1482	1490	1505	1513	1516	1516	1507	1500	1493	1505	1505	1442	1460	1497	1490	1493	1514	1512	1514	1484	1480	1480	1502	1501	1504	1478	1468	1463	1471	1475	1470	1459	1466	1485	1500	1506	1512	1511	1499	1480	1485	1502	1512	1509	1497	1490	1489	1501	1512	1514	1509	1497	1486	1498	1511	1518	1514	1501	1480	1468	1461	1452	1446	1447	1444	1452	1463	1472	1478	1489	1490	1487	1476	1469	1463	1459	1475	1495	1515	1519	1514	1501	1490	1469	1464	1468	1465	1461	1457	1462	1476	1480	1479	1478	1476	1469	1469	1475	1479	1471	1464	1459	1464	1471	1479	1473	1475	1478	1478	1469	1444	1444	0	0	0	0	0	0	0	0	0	0	0	0	0	0	901	914	917	910	896	884	877	879	879	880	887	894	900	900	911	914	910	905	900	901	900	895	893	891	894	900	906	902	888	885	892	903	898	906	911	916	923	919	914	910	909	906	902	903	910	914	928	932	936	939	947	948	960	1011	1096	1148	1339	1414	1451	1469	1477	1477	1446	1448	1461	1476	1472	1461	1448	1443	1457	1472	1475	1471	1462	1456	1449	1439	1433	1431	1452	1461	1465	1457	1446	1437	1442	1467	1483	1497	1501	1500	1500	1483	1482	1474	1475	1470	1480	1489	1491	1490	1478	1486	1484	1479	1465	1462	1465	1469	1464	1456	1459	1474	1466	1457	1456	1481	1513	1527	1535	1512	1474	1447	1427	1432	1449	1451	1446	1445	1454	1467	1475	1485	1479	1485	1480	1474	1454	1440	1444	1458	1473	1477	1462	1453	1451	1454	1458	1459	1454	1472	1481	1508	1516	1514	1485	1462	1453	1459	1462	1468	1455	1461	1466	1471	1469	1463	1462	1454	1448	1439	1438	1444	1447	1456	1467	1479	1481	1469	1450	1443	1447	1444	1449	1448	1458	1458	1476	1483	1488	1491	1484	1481	1494	1504	1503	1483	1476	1477	1475	1463	1440	1440	1443	1444	1455	1465	1467	1431	0	0	0	0	0	0	0	0
0	0	0	0	0	0	0	0	0	0	0	0	0	0	0	0	0	0	0	0	0	0	0	0	0	0	0	0	0	0	0	0	0	0	0	0	0	0	0	0	0	0	0	0	0	0	0	0	0	0	0	0	0	0	0	0	0	0	0	0	0	0	0	0	0	0	0	0	0	0	0	0	0	0	0	0	0	0	0	0	0	0	0	0	0	0	0	0	0	0	0	0	0	1426	1453	1471	1489	1497	1503	1481	1470	1478	1480	1475	1473	1463	1462	1470	1480	1451	1424	1430	1474	1464	1454	1456	1467	1480	1488	1506	1511	1531	1531	1531	1509	1495	1485	1460	1449	1443	1443	1434	1406	1406	1420	1444	1465	1470	1470	1471	1475	1473	1473	1469	1471	1472	1466	1456	1463	1465	1460	1451	1447	1455	1477	1485	1480	1475	1461	1452	1444	1441	1447	1458	1474	1483	1482	1479	1473	1463	1462	1457	1440	1447	1456	1471	1474	1459	1452	1445	1447	1462	1484	1501	1511	1502	1492	1485	1481	1481	1480	1480	1473	1442	1414	1394	1380	1361	1305	1197	1138	1125	1134	1133	1111	1079	1069	1063	1070	1049	1033	1024	1026	1043	1062	1069	1062	1038	1026	1032	0	0	0	997	972	952	0	0	0	958	972	977	971	967	970	972	967	960	943	939	939	940	937	930	926	924	921	937	0	0	0	0	0	0	0	0	0	0	0	0	0	1398	1459	1471	1459	1459	1483	1485	1499	1495	1519	1521	1517	1503	1491	1477	1470	1463	1468	1480	1490	1497	1486	1480	1479	1495	1489	1471	1464	1471	1504	1512	1508	1490	1473	1468	1470	1479	1496	1509	1514	1513	1508	1502	1489	1491	1511	1511	1503	1491	1491	1485	1497	1504	1515	1491	1487	1483	1493	1506	1493	1473	1463	1463	1476	1481	1477	1468	1469	1469	1489	1512	1514	1518	1510	1495	1504	1516	1517	1503	1486	1481	1488	1500	1503	1506	1500	1487	1486	1493	1505	1510	1499	1487	1463	1465	1454	1443	1434	1431	1443	1457	1470	1468	1468	1475	1486	1491	1488	1483	1468	1463	1460	1483	1503	1517	1515	1511	1493	1471	1471	1471	1476	1471	1471	1467	1471	1474	1462	1466	1465	1460	1460	1466	1468	1473	1485	1481	1483	1488	1485	1484	1479	1480	1484	1477	1476	1473	1450	0	0	0	0	0	0	0	0	0	0	0	0	0	921	909	905	886	857	837	833	857	869	877	882	883	890	896	904	907	899	889	892	893	894	888	881	874	874	881	884	879	877	882	890	890	887	889	897	905	909	911	904	894	882	884	892	896	892	893	909	916	916	909	907	908	913	928	957	1019	1117	1150	1288	1369	1397	1428	1421	1424	1449	1469	1467	1460	1452	1453	1468	1476	1481	1477	1475	1472	1468	1458	1443	1454	1469	1477	1477	1468	1448	1446	1453	1462	1483	1492	1497	1500	1493	1482	1484	1488	1477	1476	1481	1496	1494	1494	1490	1492	1493	1490	1476	1467	1481	1486	1474	1462	1452	1455	1441	1430	1439	1457	1481	1493	1499	1483	1455	1430	1419	1431	1441	1440	1428	1437	1450	1461	1465	1468	1470	1477	1474	1464	1452	1451	1458	1467	1473	1471	1467	1459	1461	1469	1473	1468	1471	1472	1481	1489	1509	1505	1477	1452	1452	1462	1478	1483	1478	1480	1478	1478	1482	1480	1478	1469	1450	1431	1426	1449	1472	1472	1489	1491	1489	1475	1457	1456	1470	1461	1444	1445	1449	1449	1478	1483	1485	1492	1474	1471	1481	1504	1507	1499	1492	1486	1479	1450	1450	1451	1455	1470	1481	1480	1475	1442	0	0	0	0	0	0	0	0
0	0	0	0	0	0	0	0	0	0	0	0	0	0	0	0	0	0	0	0	0	0	0	0	0	0	0	0	0	0	0	0	0	0	0	0	0	0	0	0	0	0	0	0	0	0	0	0	0	0	0	0	0	0	0	0	0	0	0	0	0	0	0	0	0	0	0	0	0	0	0	0	0	0	0	0	0	0	0	0	0	0	0	0	0	0	0	0	0	0	0	0	0	1462	1473	1482	1494	1508	1513	1498	1474	1482	1480	1475	1467	1449	1459	1464	1472	1450	1435	1450	1464	1456	1452	1453	1460	1480	1502	1514	1518	1525	1532	1525	1509	1497	1485	1465	1458	1454	1446	1442	1415	1422	1437	1456	1464	1465	1472	1475	1473	1474	1470	1468	1468	1467	1461	1456	1449	1461	1466	1460	1461	1466	1466	1474	1474	1483	1478	1473	1466	1455	1450	1452	1455	1472	1468	1477	1481	1492	1495	1487	1487	1493	1493	1493	1485	1471	1461	1452	1458	1476	1480	1494	1485	1479	1469	1460	1461	1466	1472	1464	1462	1405	1368	1279	1194	1163	1129	1097	1091	1110	1129	1135	1116	1088	1060	1065	1080	1071	1045	1022	1029	1040	1047	1058	1055	1041	1034	0	0	0	0	982	965	950	0	0	0	0	0	0	966	959	956	0	945	936	926	929	929	941	947	0	0	932	932	946	0	0	0	0	0	0	0	0	0	0	0	0	1411	1468	1467	1466	1470	1461	1463	1439	1461	1480	1509	1516	1508	1499	1492	1487	1480	1476	1488	1501	1503	1498	1498	1486	1490	1505	1498	1497	1491	1488	1507	1518	1508	1495	1472	1466	1474	1489	1507	1507	1506	1504	1501	1497	1486	1482	1485	1491	1497	1492	1482	1477	1494	1502	1515	1504	1499	1495	1490	1491	1491	1471	1463	1461	1474	1481	1473	1457	1449	1455	1477	1506	1513	1509	1504	1509	1521	1527	1514	1496	1479	1477	1494	1497	1499	1498	1490	1481	1481	1490	1495	1499	1495	1485	1477	1470	1460	1449	1436	1442	1454	1463	1468	1464	1464	1472	1482	1489	1495	1488	1480	1469	1456	1474	1497	1515	1529	1528	1513	1486	1476	1481	1481	1484	1485	1486	1481	1474	1456	1453	1457	1453	1452	1454	1476	1489	1496	1503	1506	1508	1500	1496	1489	1489	1493	1496	1498	1503	1516	1516	0	0	0	0	0	0	0	0	0	0	0	0	0	911	892	865	830	811	810	843	859	877	887	887	893	896	904	903	892	878	871	876	887	881	878	873	873	873	873	872	867	876	881	881	876	875	886	893	896	894	893	887	876	879	889	891	890	881	891	903	905	894	884	880	887	901	925	958	993	1016	1071	1173	1267	1386	1392	1406	1433	1456	1466	1459	1459	1466	1479	1486	1481	1477	1473	1469	1475	1460	1457	1457	1467	1478	1489	1477	1449	1450	1463	1470	1479	1484	1491	1504	1500	1480	1474	1470	1474	1469	1472	1488	1499	1501	1492	1490	1486	1493	1490	1481	1491	1504	1497	1471	1452	1436	1418	1428	1429	1443	1456	1462	1468	1458	1439	1429	1429	1431	1433	1431	1421	1433	1450	1458	1460	1459	1464	1469	1469	1471	1464	1467	1467	1476	1480	1466	1473	1474	1483	1491	1490	1488	1484	1479	1465	1460	1460	1455	1447	1442	1450	1466	1488	1493	1493	1488	1485	1485	1483	1486	1484	1473	1458	1433	1426	1439	1470	1494	1504	1501	1492	1476	1474	1492	1502	1487	1468	1454	1454	1462	1478	1489	1496	1495	1479	1474	1477	1489	1504	1501	1495	1484	1461	1436	1436	1445	1460	1484	1491	1493	1483	1448	0	0	0	0	0	0	0	0
0	0	0	0	0	0	0	0	0	0	0	0	0	0	0	0	0	0	0	0	0	0	0	0	0	0	0	0	0	0	0	0	0	0	0	0	0	0	0	0	0	0	0	0	0	0	0	0	0	0	0	0	0	0	0	0	0	0	0	0	0	0	0	0	0	0	0	0	0	0	0	0	0	0	0	0	0	0	0	0	0	0	0	0	0	0	0	0	0	0	0	0	0	1470	1472	1474	1485	1492	1497	1490	1486	1495	1491	1480	1470	1456	1457	1463	1464	1461	1448	1450	1452	1452	1445	1450	1463	1483	1501	1500	1501	1500	1510	1502	1500	1494	1485	1473	1462	1457	1452	1441	1425	1432	1441	1456	1456	1458	1453	1461	1463	1470	1465	1457	1460	1461	1454	1443	1440	1458	1467	1466	1460	1461	1450	1460	1471	1480	1490	1487	1479	1467	1464	1459	1454	1456	1459	1468	1484	1501	1515	1520	1507	1511	1512	1500	1484	1473	1466	1485	1480	1484	1481	1460	1455	1432	1441	1442	1446	1447	1445	1411	1381	1313	1198	1144	1105	1094	1082	1081	0	0	0	0	1128	1102	1081	1089	1123	1141	1119	1096	1064	1062	1059	1060	1064	1069	0	0	0	0	0	0	0	0	0	0	0	0	0	0	0	0	0	0	0	0	0	0	0	0	0	0	0	0	0	0	0	0	0	0	0	0	0	0	0	0	0	1378	1470	1481	1480	1484	1472	1464	1466	1423	1441	1487	1502	1505	1497	1495	1495	1494	1492	1491	1502	1506	1509	1497	1495	1494	1494	1500	1512	1501	1497	1517	1534	1528	1512	1489	1478	1477	1492	1508	1519	1512	1503	1499	1494	1490	1485	1481	1485	1486	1495	1484	1483	1497	1500	1515	1515	1508	1506	1502	1491	1492	1489	1474	1465	1466	1465	1470	1456	1449	1440	1448	1472	1509	1515	1504	1499	1509	1523	1518	1503	1484	1473	1482	1489	1503	1499	1493	1485	1469	1454	1447	1454	1473	1497	1497	1500	1495	1488	1478	1470	1465	1468	1476	1475	1469	1469	1475	1479	1498	1496	1493	1480	1470	1461	1472	1496	1525	1544	1552	1538	1510	1504	1493	1496	1507	1508	1511	1497	1468	1451	1454	1451	1452	1447	1446	1470	1491	1505	1501	1503	1502	1507	1500	1499	1500	1499	1502	1506	1499	1487	1486	1460	0	0	0	0	0	0	0	0	0	0	0	0	915	881	853	823	800	797	822	844	867	878	886	895	894	893	889	881	868	865	874	878	882	876	877	874	878	875	870	863	864	870	866	863	865	873	892	899	891	880	872	869	875	887	892	886	886	889	896	891	884	870	867	866	876	892	905	926	941	958	1016	1075	1283	1350	1377	1409	1444	1458	1456	1455	1468	1484	1486	1482	1470	1462	1455	1449	1448	1456	1461	1471	1490	1501	1494	1464	1462	1476	1482	1472	1472	1479	1503	1488	1478	1461	1453	1465	1463	1472	1489	1500	1505	1498	1475	1481	1483	1491	1490	1502	1508	1506	1489	1452	1434	1429	1432	1434	1438	1442	1446	1453	1450	1442	1438	1440	1444	1439	1429	1424	1441	1453	1460	1464	1461	1465	1463	1465	1472	1478	1480	1479	1480	1479	1474	1486	1493	1496	1498	1496	1492	1488	1477	1453	1444	1441	1437	1427	1433	1456	1482	1493	1498	1491	1493	1489	1482	1481	1481	1483	1477	1459	1452	1441	1453	1485	1505	1507	1499	1493	1489	1495	1507	1526	1509	1483	1464	1464	1464	1471	1481	1497	1493	1488	1480	1482	1483	1486	1488	1485	1478	1457	1429	1429	1442	1460	1487	1494	1486	1472	1448	0	0	0	0	0	0	0	0
0	0	0	0	0	0	0	0	0	0	0	0	0	0	0	0	0	0	0	0	0	0	0	0	0	0	0	0	0	0	0	0	0	0	0	0	0	0	0	0	0	0	0	0	0	0	0	0	0	0	0	0	0	0	0	0	0	0	0	0	0	0	0	0	0	0	0	0	0	0	0	0	0	0	0	0	0	0	0	0	0	0	0	0	0	0	0	0	0	0	0	0	0	1468	1459	1455	1464	1476	1488	1499	1506	1515	1514	1492	1486	1467	1464	1468	1468	1461	1453	1444	1443	1443	1442	1451	1465	1479	1489	1484	1472	1467	1469	1470	1472	1487	1495	1488	1474	1462	1448	1446	1434	1434	1447	1455	1451	1447	1442	1443	1457	1462	1465	1464	1457	1457	1447	1436	1435	1437	1458	1459	1464	1450	1444	1448	1467	1480	1491	1491	1476	1470	1458	1450	1445	1456	1455	1456	1474	1493	1508	1507	1518	1520	1524	1505	1480	1468	1470	1492	1492	1478	1438	1412	1414	1422	1430	1439	1438	1412	1384	1341	1289	1199	1137	1122	1109	0	0	0	0	0	0	0	1155	1133	1128	1148	1179	1197	1177	1153	1123	1105	1096	1093	1103	0	0	0	0	0	0	0	0	0	0	0	0	0	0	0	0	0	0	0	0	0	0	0	0	0	0	0	0	0	0	0	0	0	0	0	0	0	0	0	0	0	1360	1458	1466	1463	1492	1494	1482	1471	1465	1437	1454	1480	1495	1499	1492	1484	1490	1497	1499	1498	1505	1506	1505	1500	1484	1485	1486	1477	1495	1493	1488	1514	1531	1524	1510	1498	1484	1488	1506	1524	1529	1514	1499	1483	1477	1483	1484	1483	1484	1491	1489	1470	1500	1510	1516	1517	1501	1501	1501	1503	1494	1492	1491	1483	1479	1480	1477	1471	1468	1459	1450	1459	1477	1502	1507	1504	1492	1501	1509	1490	1488	1487	1481	1487	1488	1501	1500	1493	1484	1474	1456	1449	1451	1473	1496	1513	1515	1518	1511	1510	1502	1494	1485	1480	1471	1472	1480	1490	1496	1504	1496	1493	1481	1477	1467	1474	1499	1527	1549	1561	1546	1532	1510	1510	1521	1531	1531	1518	1500	1469	1455	1455	1460	1462	1459	1461	1469	1467	1465	1480	1488	1491	1498	1502	1501	1503	1503	1509	1497	1479	1470	1471	1478	1438	0	0	0	0	0	0	0	0	0	0	0	0	897	863	839	817	800	821	838	850	864	877	881	881	875	867	864	865	870	872	877	878	875	867	867	870	865	861	859	859	857	859	857	856	865	878	888	879	875	862	857	869	881	883	881	886	888	884	880	868	854	853	857	859	862	858	863	878	888	912	935	981	1127	1294	1384	1413	1445	1444	1444	1455	1468	1476	1458	1470	1464	1461	1458	1465	1472	1469	1480	1506	1514	1509	1494	1490	1492	1485	1482	1466	1472	1485	1490	1469	1450	1438	1446	1465	1479	1490	1502	1503	1502	1490	1481	1483	1486	1495	1499	1510	1516	1494	1472	1447	1443	1444	1445	1435	1432	1442	1449	1454	1460	1453	1459	1459	1450	1444	1441	1444	1462	1470	1471	1470	1465	1462	1468	1471	1478	1479	1482	1479	1481	1487	1494	1501	1505	1501	1491	1482	1475	1467	1444	1440	1437	1437	1435	1445	1477	1499	1508	1500	1493	1489	1489	1492	1481	1486	1482	1475	1468	1461	1469	1490	1505	1514	1513	1510	1503	1510	1511	1524	1521	1513	1505	1480	1480	1468	1470	1481	1488	1497	1487	1483	1487	1482	1486	1488	1488	1478	1461	1439	1439	1447	1466	1482	1488	1489	1472	1452	0	0	0	0	0	0	0	0
0	0	0	0	0	0	0	0	0	0	0	0	0	0	0	0	0	0	0	0	0	0	0	0	0	0	0	0	0	0	0	0	0	0	0	0	0	0	0	0	0	0	0	0	0	0	0	0	0	0	0	0	0	0	0	0	0	0	0	0	0	0	0	0	0	0	0	0	0	0	0	0	0	0	0	0	0	0	0	0	0	0	0	0	0	0	0	0	0	0	0	0	0	1469	1443	1442	1453	1467	1477	1491	1508	1517	1510	1498	1481	1482	1481	1480	1475	1468	1458	1449	1443	1436	1446	1454	1467	1476	1479	1471	1459	1458	1455	1452	1456	1478	1498	1500	1483	1469	1450	1442	1445	1447	1452	1454	1445	1443	1433	1435	1447	1464	1466	1464	1462	1457	1450	1443	1441	1443	1449	1459	1466	1444	1445	1450	1458	1479	1483	1465	1455	1452	1445	1433	1437	1454	1456	1452	1455	1454	1465	1478	1492	1506	1506	1493	1472	1455	1470	1497	1491	1471	1449	1418	1398	1393	1294	1408	1377	1308	1242	1176	1139	0	1133	1134	0	0	0	0	0	0	0	0	0	1171	1171	1185	1206	1233	1223	1194	1172	1149	1140	1142	0	0	0	0	0	0	0	0	0	0	0	0	0	0	0	0	0	0	0	0	0	0	0	0	0	0	0	0	0	0	0	0	0	0	0	0	0	0	0	0	1273	1375	1465	1474	1471	1461	1464	1490	1498	1483	1483	1476	1488	1478	1485	1493	1484	1491	1494	1508	1525	1530	1524	1513	1499	1496	1493	1484	1479	1476	1473	1465	1468	1508	1519	1517	1510	1506	1498	1492	1495	1504	1497	1499	1511	1514	1501	1475	1481	1483	1485	1481	1445	1485	1504	1519	1498	1495	1490	1491	1496	1504	1502	1498	1493	1487	1474	1488	1484	1484	1479	1470	1464	1468	1488	1503	1500	1496	1485	1481	1486	1497	1500	1496	1493	1490	1492	1499	1490	1487	1483	1474	1464	1459	1468	1476	1486	1498	1504	1509	1508	1511	1511	1497	1481	1472	1474	1476	1493	1497	1506	1503	1499	1487	1490	1479	1478	1483	1509	1531	1548	1550	1540	1521	1505	1513	1534	1539	1539	1525	1498	1478	1462	1463	1468	1478	1473	1472	1474	1475	1478	1481	1489	1483	1489	1490	1493	1496	1508	1505	1492	1475	1473	1473	1486	1463	1439	0	0	0	0	0	0	0	0	0	0	0	0	890	863	833	806	822	837	841	852	857	863	858	852	850	848	863	871	874	870	863	857	849	850	847	845	851	854	854	847	850	852	849	852	865	875	869	862	852	848	852	867	870	871	873	880	875	863	852	841	838	837	843	841	841	839	843	850	860	871	904	925	965	1048	1224	1331	1408	1271	1348	1366	1396	1428	1445	1454	1457	1463	1475	1483	1488	1500	1517	1518	1513	1500	1498	1496	1485	1472	1470	1464	1487	1486	1468	1443	1433	1442	1469	1482	1493	1496	1496	1502	1494	1486	1474	1480	1495	1497	1494	1502	1497	1481	1464	1464	1462	1456	1447	1442	1452	1459	1468	1475	1477	1476	1472	1469	1458	1451	1459	1466	1478	1486	1483	1471	1465	1466	1472	1479	1472	1472	1474	1484	1491	1503	1504	1482	1475	1467	1465	1459	1457	1449	1454	1457	1463	1464	1478	1493	1505	1503	1497	1489	1491	1492	1493	1489	1487	1485	1478	1477	1476	1488	1506	1519	1521	1515	1514	1518	1519	1520	1515	1509	1496	1483	1481	1485	1481	1488	1486	1493	1495	1488	1480	1483	1486	1488	1496	1500	1492	1474	1452	1452	1454	1467	1476	1475	1477	1477	1462	0	0	0	0	0	0	0	0
0	0	0	0	0	0	0	0	0	0	0	0	0	0	0	0	0	0	0	0	0	0	0	0	0	0	0	0	0	0	0	0	0	0	0	0	0	0	0	0	0	0	0	0	0	0	0	0	0	0	0	0	0	0	0	0	0	0	0	0	0	0	0	0	0	0	0	0	0	0	0	0	0	0	0	0	0	0	0	0	0	0	0	0	0	0	0	0	0	0	0	0	0	0	1456	1452	1452	1458	1470	1482	1501	1513	1508	1493	1482	1487	1488	1489	1490	1482	1466	1451	1445	1443	1444	1459	1464	1467	1468	1469	1473	1466	1458	1450	1452	1470	1496	1510	1494	1472	1446	1431	1441	1448	1449	1443	1433	1430	1427	1429	1443	1463	1467	1467	1467	1464	1464	1458	1460	1446	1443	1457	1450	1441	1445	1447	1460	1461	1455	1452	1452	1453	1448	1438	1441	1460	1467	1457	1451	1452	1453	1462	1476	1487	1487	1481	1466	1463	1477	1502	1491	1462	1435	1401	1298	1255	1202	1153	1139	1121	1111	1115	0	0	0	0	0	0	0	0	0	0	0	0	0	1198	1189	1196	1218	1235	1239	1222	1201	1179	1174	1174	0	0	0	0	0	0	0	0	0	0	0	0	0	0	0	0	0	0	0	0	0	0	0	0	0	0	0	0	0	0	0	0	0	0	0	0	0	0	0	1250	1361	1468	1480	1477	1472	1467	1467	1483	1487	1481	1483	1486	1515	1511	1497	1499	1480	1488	1502	1523	1527	1534	1525	1488	1502	1499	1500	1497	1496	1483	1459	1445	1448	1496	1502	1504	1501	1497	1498	1528	1509	1502	1483	1470	1477	1513	1523	1500	1473	1474	1466	1437	1458	1475	1506	1489	1491	1490	1478	1476	1485	1502	1498	1500	1494	1489	1474	1473	1474	1489	1487	1483	1487	1491	1510	1514	1509	1492	1479	1479	1490	1505	1511	1511	1507	1498	1493	1486	1487	1484	1478	1475	1474	1468	1478	1482	1478	1468	1473	1484	1492	1503	1506	1488	1476	1470	1471	1490	1497	1503	1509	1509	1501	1490	1484	1484	1480	1483	1498	1528	1537	1528	1523	1505	1492	1498	1513	1511	1510	1501	1492	1476	1472	1472	1473	1477	1478	1485	1491	1492	1498	1504	1499	1500	1495	1499	1488	1491	1498	1498	1493	1487	1482	1479	1492	1495	1451	0	0	0	0	0	0	0	0	0	0	0	0	0	0	828	818	827	830	829	833	843	845	836	832	834	843	854	861	862	853	842	834	831	832	836	832	842	846	844	842	839	837	839	844	849	858	857	852	847	838	841	851	861	855	862	865	861	849	838	831	831	839	836	831	833	834	833	835	830	835	845	868	902	959	894	939	965	995	1156	1266	1297	1346	1377	1417	1427	1449	1463	1477	1486	1503	1510	1510	1505	1496	1494	1494	1476	1468	1463	1455	1476	1475	1468	1447	1444	1454	1476	1484	1487	1490	1491	1493	1491	1489	1477	1479	1496	1492	1480	1472	1472	1478	1471	1481	1481	1476	1465	1458	1468	1454	1468	1478	1489	1488	1482	1475	1473	1473	1476	1473	1489	1501	1493	1482	1470	1476	1476	1474	1466	1461	1466	1473	1488	1491	1490	1476	1464	1463	1459	1457	1456	1460	1481	1494	1498	1505	1504	1496	1484	1484	1485	1484	1486	1489	1493	1485	1481	1476	1481	1485	1486	1501	1509	1515	1523	1518	1519	1518	1512	1502	1497	1488	1481	1471	1471	1476	1490	1501	1497	1499	1499	1492	1488	1484	1490	1504	1507	1502	1501	1484	1484	1462	1459	1461	1467	1465	1465	1465	1446	0	0	0	0	0	0	0	0
0	0	0	0	0	0	0	0	0	0	0	0	0	0	0	0	0	0	0	0	0	0	0	0	0	0	0	0	0	0	0	0	0	0	0	0	0	0	0	0	0	0	0	0	0	0	0	0	0	0	0	0	0	0	0	0	0	0	0	0	0	0	0	0	0	0	0	0	0	0	0	0	0	0	0	0	0	0	0	0	0	0	0	0	0	0	0	0	0	0	0	0	0	0	1457	1456	1460	1457	1461	1475	1495	1511	1503	1484	1480	1486	1491	1493	1493	1484	1473	1462	1451	1450	1458	1466	1460	1454	1459	1465	1473	1475	1464	1456	1459	1466	1489	1505	1499	1472	1449	1428	1432	1438	1437	1427	1417	1414	1422	1433	1445	1457	1466	1471	1466	1467	1474	1468	1461	1460	1447	1450	1443	1443	1439	1444	1453	1456	1458	1462	1463	1464	1458	1447	1451	1468	1471	1467	1458	1455	1453	1454	1465	1469	1461	1450	1446	1450	1482	1505	1484	1367	1246	0	0	0	0	0	0	0	0	0	0	0	0	0	0	0	0	0	0	0	0	0	0	1211	1198	1201	1217	1230	1223	1208	1192	1178	1181	1181	1167	0	0	0	0	0	0	0	0	0	0	0	0	0	0	0	0	0	0	0	0	0	0	0	0	0	0	0	0	0	0	0	0	0	0	0	0	0	0	1346	1456	1482	1481	1479	1502	1551	1497	1472	1475	1475	1488	1486	1511	1512	1503	1497	1486	1478	1468	1468	1467	1523	1518	1493	1497	1506	1513	1514	1506	1493	1445	1425	1426	1494	1497	1493	1488	1484	1492	1522	1513	1502	1479	1465	1466	1501	1519	1503	1492	1479	1474	1458	1461	1470	1478	1494	1497	1493	1473	1466	1471	1495	1501	1500	1504	1489	1476	1470	1475	1492	1490	1489	1498	1509	1524	1533	1529	1515	1501	1489	1485	1492	1506	1486	1479	1484	1489	1494	1493	1492	1488	1480	1466	1478	1479	1472	1467	1471	1476	1485	1489	1486	1486	1494	1483	1477	1479	1481	1494	1500	1507	1508	1503	1489	1489	1486	1475	1473	1487	1503	1514	1515	1501	1483	1468	1455	1457	1469	1492	1493	1493	1484	1481	1480	1477	1474	1480	1491	1500	1514	1521	1524	1526	1527	1515	1502	1490	1481	1475	1483	1483	1480	1488	1488	1495	1504	1505	1442	0	0	0	0	0	0	0	0	0	0	0	0	0	0	848	829	824	818	823	827	825	823	822	822	829	839	848	844	835	818	812	816	828	831	827	828	839	839	831	822	824	831	835	835	837	840	840	836	828	831	842	845	847	850	855	855	838	822	821	829	836	831	826	829	827	823	823	824	819	808	806	809	806	819	843	876	895	931	1034	1081	1146	1258	1326	1383	1423	1444	1458	1468	1476	1485	1489	1492	1490	1491	1490	1482	1469	1461	1458	1471	1488	1483	1463	1449	1452	1475	1486	1480	1475	1481	1485	1488	1483	1481	1490	1495	1475	1470	1464	1463	1469	1479	1484	1484	1482	1486	1488	1470	1452	1462	1480	1489	1487	1484	1473	1481	1503	1493	1484	1496	1495	1499	1490	1480	1471	1472	1463	1462	1459	1462	1466	1478	1488	1483	1472	1466	1459	1462	1465	1470	1474	1488	1501	1517	1524	1512	1492	1481	1483	1478	1474	1474	1478	1478	1473	1469	1473	1479	1487	1504	1508	1514	1510	1518	1514	1515	1499	1477	1469	1472	1471	1469	1470	1470	1473	1486	1500	1504	1498	1497	1496	1496	1493	1502	1510	1507	1504	1493	1495	1495	1485	1468	1470	1463	1453	1449	1450	1431	0	0	0	0	0	0	0	0
0	0	0	0	0	0	0	0	0	0	0	0	0	0	0	0	0	0	0	0	0	0	0	0	0	0	0	0	0	0	0	0	0	0	0	0	0	0	0	0	0	0	0	0	0	0	0	0	0	0	0	0	0	0	0	0	0	0	0	0	0	0	0	0	0	0	0	0	0	0	0	0	0	0	0	0	0	0	0	0	0	0	0	0	0	0	0	0	0	0	0	0	0	0	1454	1469	1464	1461	1456	1476	1496	1501	1481	1474	1486	1486	1486	1483	1481	1474	1455	1448	1446	1451	1462	1478	1468	1462	1453	1459	1473	1474	1473	1458	1453	1460	1475	1497	1494	1476	1456	1431	1423	1432	1430	1428	1417	1414	1428	1444	1455	1462	1471	1473	1473	1465	1464	1465	1469	1494	1464	1448	1445	1441	1443	1450	1455	1461	1466	1471	1476	1480	1480	1472	1466	1474	1478	1477	1472	1464	1459	1458	1459	1453	1432	1426	1413	1411	1395	1372	1111	0	0	0	0	0	0	0	0	0	0	0	0	0	0	0	0	0	0	0	0	0	0	0	0	1225	1206	1201	1219	1225	1196	1177	1174	1169	1167	1165	1157	0	0	0	0	0	0	0	0	0	0	0	0	0	0	0	0	0	0	0	0	0	0	0	0	0	0	0	0	0	0	0	0	0	0	0	0	0	1249	1373	1460	1486	1485	1495	1530	1526	1502	1470	1479	1489	1486	1485	1494	1510	1492	1475	1476	1482	1487	1493	1502	1506	1510	1491	1521	1514	1516	1517	1504	1480	1421	1409	1421	1496	1503	1491	1484	1482	1472	1479	1488	1481	1464	1461	1472	1505	1516	1502	1489	1484	1477	1470	1464	1464	1471	1495	1497	1493	1464	1453	1464	1475	1500	1501	1498	1495	1487	1479	1483	1494	1493	1498	1498	1503	1521	1538	1537	1507	1503	1493	1480	1487	1488	1474	1479	1500	1496	1502	1497	1486	1495	1489	1462	1454	1458	1462	1469	1482	1490	1493	1501	1503	1495	1493	1485	1479	1473	1473	1485	1495	1509	1511	1506	1501	1499	1495	1471	1471	1480	1493	1499	1500	1494	1484	1465	1454	1454	1467	1485	1494	1481	1478	1478	1485	1477	1465	1473	1488	1506	1522	1528	1535	1530	1522	1513	1502	1490	1473	1462	1468	1481	1493	1493	1495	1494	1503	1512	1502	0	0	0	0	0	0	0	0	0	0	0	0	0	0	0	864	837	814	810	814	815	813	810	807	814	826	829	828	819	804	803	807	818	822	822	833	836	837	828	813	811	818	822	824	826	827	823	823	821	820	825	833	840	843	842	836	822	812	813	822	829	826	823	821	819	816	816	807	806	808	813	808	793	791	798	816	835	845	870	925	997	1057	1125	1238	1380	1406	1429	1440	1450	1457	1471	1475	1476	1487	1484	1486	1471	1465	1464	1487	1497	1493	1477	1457	1457	1468	1471	1465	1466	1474	1484	1483	1478	1481	1492	1497	1474	1470	1467	1466	1473	1482	1486	1485	1488	1489	1494	1456	1449	1458	1473	1487	1486	1473	1475	1480	1504	1489	1480	1482	1478	1481	1477	1477	1466	1466	1467	1469	1463	1462	1466	1474	1480	1476	1466	1464	1466	1469	1472	1483	1486	1490	1509	1514	1519	1506	1492	1488	1491	1480	1471	1455	1458	1466	1466	1467	1468	1471	1478	1490	1501	1509	1508	1509	1510	1505	1479	1459	1445	1453	1464	1469	1474	1474	1477	1485	1499	1505	1491	1483	1489	1500	1502	1505	1505	1508	1502	1501	1491	1491	1489	1482	1479	1471	1447	1438	1434	1425	1419	0	0	0	0	0	0	0
