0	0	0	0	0	0	0	0	0	0	0	0	0	0	0	0	0	0	0	0	0	0	0	0	0	0	0	0	0	0	0	0	0	0	0	0	0	0	0	0	0	0	0	0	0	0	0	0	0	0	0	0	0	0	0	0	0	0	0	0	0	0	0	0	0	0	0	0	0	0	0	0	0	0	0	0	0	0	0	0	0	0	0	0	0	0	0	0	0	0	0	0	0	1454	1450	1455	1460	1463	1453	1448	1454	1463	1467	1463	1453	1448	1447	1444	1445	1463	1478	1486	1491	1486	1490	1477	1481	1485	1477	1481	1487	1487	1486	1482	1472	1455	1445	0	0	0	0	0	0	0	0	0	0	0	0	0	0	0	0	0	0	0	0	0	0	0	0	0	0	0	0	0	0	0	0	0	0	0	0	0	0	0	0	0	0	0	0	0	0	0	0	0	1335	1380	1396	1399	1391	1390	1390	1395	1382	1381	1385	1392	1393	1388	1385	1407	1434	1445	1444	1438	1441	1439	1439	1439	1442	1444	1447	1449	1449	1429	1401	1421	1418	1421	1407	1399	1402	1407	1406	1414	1422	1408	1395	1389	1407	1401	1422	1426	1409	0	0	0	0	0	0	0	0	0	0	0	0	0	0	0	0	0	0	0	0	0	0	0	0	0	0	0	0	0	0	0	0	0	0	0	0	0	0	0	0	0	0	0	0	0	0	0	0	0	0	0	0	0	0	0	0	0	0	0	0	0	0	0	0	0	0	0	0	0	0	0	0	0	0	0	0	0	0	0	0	0	0	0	0	0	0	1480	1429	1401	1402	1411	1415	1408	1405	1404	1400	1396	1389	1388	1387	1397	1410	1405	1407	1396	1386	1387	1383	1365	1368	1374	1386	1397	1398	1396	1383	1374	1377	1378	1378	1380	1388	1395	1409	1411	1412	1408	1393	1396	1390	1386	1389	1391	1403	1420	1448	1438	1449	1477	1530	0	0	0	0	0	0	0	0	0	0	0	0	0	0	0	0	0	0	0	0	0	0	0	0	0	0	0	0	0	0	0	0	0	0	0	0	0	0	0	0	0	0	0	0	0	0	0	0	0	0	0	0	0	0	0	0	0	0	0	0	0	0	0	0	0	0	0	0	0	0	0	0	0	0	0	0	0	0	0	0	0	0	0	1404	1445	0	0	0	0	0	0	1408	1406	1382	1342	1334	1346	1364	1380	1389	1397	1400	1395	1385	1381	1377	1379	1373	1363	1359	1359	1353	1341	1332	1333	1337	1350	1368	1382	1390	1386	1364	1359	1359	1372	1381	1386	1386	1382	1377	1372	1362	1365	1368	1376	1367	1361	1361	1367	1361	1362	1383	1395	1458	0	0	0	1514	1502	1485	1468	0	0	0	0	0	1426	1407	0	0	0	0	0	0	0	0	1456	1454	1470	1476	1474	1460	1461	0	0	0	0	0	0	0	0	0	0	0	0	1474	1453	1446	1444	1444	1431	0	0	0	0	0	0	0	1499	1468	1466	1481	1491	1489	1465	1454	1446	1440	1456	1469	1467	1471	1472	1474	1461	1468	1498	1524	1519	1474	1463	1472	1470	1462	1440	1424	1419	1432	1441	1438	1451	1458	1457	1461	1463	1452	1443	1439	1436	1441	1445	1443	1443	1456	1459	1472	1479	1479	1482	1467	1464	1461	1460	1451	1426	1407	1397	1397	1406	1423	1438	1465	1465	1484	1497	1495	1488	1480	0	0	0	0	0	0	0
0	0	0	0	0	0	0	0	0	0	0	0	0	0	0	0	0	0	0	0	0	0	0	0	0	0	0	0	0	0	0	0	0	0	0	0	0	0	0	0	0	0	0	0	0	0	0	0	0	0	0	0	0	0	0	0	0	0	0	0	0	0	0	0	0	0	0	0	0	0	0	0	0	0	0	0	0	0	0	0	0	0	0	0	0	0	0	0	0	0	0	0	0	1454	1447	1444	1448	1455	1456	1454	1459	1471	1478	1464	1456	1449	1451	1452	1452	1461	1467	1470	1470	1475	1476	1471	1462	1466	1482	1489	1482	1474	1469	1457	1446	1442	1434	0	0	0	0	0	0	0	0	0	0	0	0	0	0	0	0	0	0	0	0	0	0	0	0	0	0	0	0	0	0	0	0	0	0	0	0	0	0	0	0	0	0	0	0	0	0	0	0	0	1354	1367	1384	1387	1384	1388	1396	1394	1390	1379	1385	1384	1389	1387	1395	1428	1442	1454	1455	1451	1451	1446	1440	1440	1441	1434	1441	1450	1445	1431	1407	1407	1400	1393	1395	1396	1412	1416	1420	1432	1426	1405	1391	1382	1401	1417	1425	1428	1417	1411	1420	0	0	0	1359	1314	0	0	0	0	0	0	0	0	0	0	0	0	0	0	0	0	0	0	0	0	0	0	0	0	0	0	0	0	0	0	0	0	0	0	0	0	0	0	0	0	0	0	0	0	0	0	0	0	0	0	0	0	0	0	0	0	0	0	0	0	0	0	0	0	0	0	0	0	0	0	0	0	0	0	0	0	0	0	1513	1430	1406	1381	1380	1387	1401	1404	1411	1410	1409	1401	1400	1398	1395	1397	1408	1419	1411	1400	1398	1396	1394	1375	1367	1377	1390	1393	1392	1391	1388	1397	1399	1393	1387	1379	1392	1399	1408	1412	1414	1410	1399	1396	1389	1386	1388	1400	1406	1422	1450	1445	1457	1477	1498	1554	0	0	0	0	0	0	0	0	0	1566	1570	0	0	0	0	0	0	1543	1556	1563	1571	1571	1556	1504	1482	1478	1466	1463	1492	0	0	0	0	0	0	0	0	0	0	0	0	0	0	0	0	0	0	0	0	0	0	0	0	0	1122	1094	1082	1066	1075	1102	1120	1133	1136	1123	1140	1155	1171	0	0	0	0	0	1182	0	0	0	0	0	0	0	0	1282	1303	1342	1408	1404	1374	0	0	0	1389	1402	1396	1386	1341	1355	1375	1385	1389	1395	1399	1402	1396	1388	1381	1372	1364	1363	1378	1380	1377	1367	1348	1335	1335	1345	1358	1371	1379	1366	1356	1350	1357	1367	1379	1388	1392	1382	1375	1354	1343	1342	1351	1359	1362	1354	1361	1373	1368	1370	1379	1392	1418	1453	1488	1502	1496	1490	1478	1478	1482	1477	1459	1453	1462	1466	1464	1460	1481	1496	1512	1501	1487	1477	1483	1516	1521	1533	1530	1516	1499	1491	1497	1501	1493	1488	1474	1456	1457	1467	1474	1466	1460	1473	1475	1446	1445	1454	1454	1442	1449	1454	1481	1502	1508	1500	1477	1450	1448	1458	1475	1476	1463	1445	1451	1463	1481	1501	1509	1504	1473	1460	1474	1484	1480	1486	1495	1484	1474	1472	1475	1460	1442	1427	1423	1426	1437	1435	1444	1462	1460	1449	1449	1456	1457	1449	1449	1451	1455	1446	1446	1454	1458	1456	1455	1455	1449	1460	1459	1470	1473	1468	1453	1432	1409	1399	1394	1411	1429	1441	1463	1463	1479	1493	1499	1498	1495	0	0	0	0	0	0	0
0	0	0	0	0	0	0	0	0	0	0	0	0	0	0	0	0	0	0	0	0	0	0	0	0	0	0	0	0	0	0	0	0	0	0	0	0	0	0	0	0	0	0	0	0	0	0	0	0	0	0	0	0	0	0	0	0	0	0	0	0	0	0	0	0	0	0	0	0	0	0	0	0	0	0	0	0	0	0	0	0	0	0	0	0	0	0	0	0	0	0	0	0	1450	1446	1442	1444	1452	1451	1456	1458	1473	1476	1466	1447	1441	1457	1455	1455	1453	1456	1457	1466	1470	1470	1456	1451	1456	1472	1483	1472	1452	1440	1433	1436	1423	1418	1416	0	0	0	0	0	0	0	0	0	0	0	0	0	0	0	0	0	0	0	0	0	0	0	0	0	0	0	0	0	0	0	0	0	0	0	0	0	0	0	0	0	0	0	0	0	0	0	1412	1389	1367	1370	1379	1385	1393	1400	1400	1393	1391	1387	1387	1394	1400	1405	1438	1445	1451	1460	1457	1454	1452	1449	1444	1430	1423	1421	1438	1441	1438	1415	1381	1373	1379	1388	1401	1420	1434	1437	1446	1434	1414	1399	1399	1420	1455	1450	1442	1431	1417	1398	1362	1344	1310	1276	1245	1213	0	0	0	0	0	0	0	0	0	0	0	0	0	0	0	0	0	0	0	0	0	0	0	0	0	0	0	1172	0	1199	0	0	0	0	0	0	0	0	0	1456	1453	1425	1433	1491	1498	1491	1500	1509	1546	0	0	0	0	1538	1538	1544	1559	1548	1528	1490	1455	1448	1453	1457	1451	1459	1483	1506	1505	1485	1476	1470	1470	1477	1507	1529	1509	1436	1407	1394	1370	1362	1374	1391	1404	1415	1418	1416	1412	1406	1392	1390	1388	1397	1410	1409	1408	1406	1403	1403	1393	1387	1386	1389	1387	1383	1383	1388	1410	1408	1399	1394	1386	1387	1397	1406	1410	1412	1407	1400	1394	1392	1386	1388	1402	1409	1420	1439	1445	1457	1464	1460	1472	1484	1489	1506	1524	1530	1513	1513	1509	1518	1533	1546	1543	1531	1505	1476	1468	1475	1497	1506	1511	1510	1512	1521	1530	1536	1525	1498	1487	1502	1524	1536	1544	1550	1514	1490	1477	1478	1431	0	0	0	0	0	0	0	0	0	0	0	0	0	0	1103	1090	1080	1081	1070	1055	1048	1059	1080	1089	1098	1106	1102	1111	1116	1093	1053	1026	1029	1058	1077	1117	1079	1098	1113	0	0	1160	1173	1186	1216	1311	1400	1395	1345	1393	0	0	1397	1398	1402	1399	1376	1373	1385	1387	1380	1383	1390	1396	1397	1387	1382	1374	1369	1385	1393	1392	1391	1390	1381	1365	1336	1337	1348	1364	1373	1361	1354	1348	1352	1362	1373	1381	1362	1361	1356	1341	1326	1324	1329	1340	1355	1361	1365	1380	1380	1376	1383	1393	1412	1450	1487	1511	1507	1500	1492	1490	1478	1463	1442	1448	1472	1488	1486	1478	1480	1485	1487	1485	1474	1476	1493	1511	1520	1519	1512	1503	1494	1489	1498	1499	1495	1493	1487	1468	1464	1469	1479	1480	1477	1474	1468	1446	1439	1440	1441	1449	1456	1470	1483	1493	1484	1470	1459	1447	1443	1444	1450	1458	1461	1453	1452	1469	1491	1515	1520	1490	1459	1448	1458	1472	1471	1466	1466	1463	1466	1466	1465	1452	1434	1425	1426	1436	1446	1445	1457	1463	1455	1436	1440	1449	1455	1453	1457	1454	1457	1457	1461	1459	1462	1459	1455	1455	1444	1446	1459	1471	1472	1465	1458	1443	1430	1425	1416	1436	1442	1445	1445	1457	1472	1483	1492	1494	1489	0	0	0	0	0	0	0
0	0	0	0	0	0	0	0	0	0	0	0	0	0	0	0	0	0	0	0	0	0	0	0	0	0	0	0	0	0	0	0	0	0	0	0	0	0	0	0	0	0	0	0	0	0	0	0	0	0	0	0	0	0	0	0	0	0	0	0	0	0	0	0	0	0	0	0	0	0	0	0	0	0	0	0	0	0	0	0	0	0	0	0	0	0	0	0	0	0	0	0	0	1445	1453	1455	1453	1451	1442	1447	1457	1463	1468	1461	1451	1446	1461	1463	1459	1452	1443	1448	1461	1472	1474	1460	1452	1459	1475	1486	1482	1453	1437	1432	1426	1422	1414	1417	1434	0	0	0	0	0	0	0	0	0	0	0	0	0	0	0	0	0	0	0	0	0	0	0	0	0	0	0	0	0	0	0	0	0	0	1469	1467	1462	1448	1435	1439	1452	1477	1485	1481	1473	1449	1436	1413	1410	1399	1401	1393	1397	1402	1399	1402	1406	1418	1425	1438	1446	1444	1445	1443	1445	1442	1446	1449	1451	1454	1440	1423	1413	1407	1419	1430	1435	1423	1364	1356	1366	1383	1404	1431	1438	1445	1443	1433	1420	1417	1438	1446	1468	1473	1466	1400	1371	1330	1281	1244	1221	1196	1176	1151	0	0	0	0	0	0	0	0	0	0	0	0	0	0	0	0	1125	1119	1111	1116	1139	1148	1134	1136	1134	1128	1127	1125	1135	1142	1139	1135	1146	1160	0	0	0	1292	1351	1422	1431	1431	1429	1435	1447	1462	1497	1546	1584	1593	1572	1543	1518	1498	1496	1495	1508	1513	1525	1528	1521	1513	1506	1491	1487	1497	1520	1520	1504	1486	1474	1466	1465	1466	1469	1470	1440	1427	1420	1413	1393	1363	1366	1383	1411	1419	1421	1420	1416	1410	1397	1376	1363	1383	1401	1411	1414	1405	1404	1403	1398	1397	1396	1392	1384	1371	1375	1387	1405	1413	1408	1395	1392	1390	1397	1407	1421	1411	1406	1396	1394	1390	1386	1388	1393	1393	1403	1425	1436	1443	1443	1454	1459	1455	1447	1455	1472	1491	1503	1498	1501	1509	1517	1526	1532	1514	1486	1471	1471	1472	1477	1484	1485	1488	1497	1515	1527	1528	1518	1506	1500	1493	1494	1501	1521	1532	1496	1481	1466	1474	1437	0	0	0	0	0	0	0	0	0	0	0	0	0	1075	1067	1064	1062	1058	1054	1042	1037	1039	1052	1068	1083	1093	1080	1080	1071	1053	1026	1010	1010	1004	1017	1033	1041	1044	1043	1064	1075	1077	1095	1114	1131	1146	1161	1205	1248	1310	1390	1402	1399	1404	1401	1404	1398	1396	1392	1384	1367	1367	1381	1392	1394	1389	1385	1379	1383	1406	1408	1398	1394	1401	1404	1402	1381	1332	1335	1353	1367	1359	1356	1353	1353	1357	1361	1352	1358	1360	1352	1337	1323	1312	1314	1330	1352	1362	1383	1385	1386	1394	1395	1408	1422	1458	1488	1504	1507	1503	1502	1494	1488	1473	1455	1450	1471	1495	1499	1492	1480	1481	1479	1487	1478	1479	1485	1499	1494	1481	1468	1462	1467	1480	1496	1495	1491	1499	1490	1476	1477	1488	1500	1497	1497	1491	1487	1460	1450	1443	1440	1451	1468	1486	1491	1489	1483	1458	1455	1455	1450	1445	1443	1456	1459	1460	1457	1466	1480	1491	1488	1476	1453	1439	1442	1464	1465	1463	1456	1455	1458	1459	1455	1441	1432	1442	1444	1451	1452	1460	1464	1459	1446	1438	1438	1446	1453	1459	1461	1465	1458	1462	1466	1467	1469	1466	1460	1460	1452	1455	1463	1472	1472	1470	1462	1461	1444	1442	1448	1457	1456	1450	1450	1450	1450	1457	1462	1446	1446	0	0	0	0	0	0	0
0	0	0	0	0	0	0	0	0	0	0	0	0	0	0	0	0	0	0	0	0	0	0	0	0	0	0	0	0	0	0	0	0	0	0	0	0	0	0	0	0	0	0	0	0	0	0	0	0	0	0	0	0	0	0	0	0	0	0	0	0	0	0	0	0	0	0	0	0	0	0	0	0	0	0	0	0	0	0	0	0	0	0	0	0	0	0	0	0	0	0	0	0	1457	1457	1465	1460	1453	1447	1444	1449	1457	1462	1457	1452	1457	1466	1465	1458	1451	1439	1442	1467	1485	1491	1476	1465	1467	1475	1489	1489	1477	1458	1437	1433	1429	1428	1436	1444	1450	1443	1467	1471	1490	1500	1498	1484	1464	1450	1443	1443	1432	1432	1438	1451	1473	1484	1493	1480	1473	1461	1450	1464	1481	1489	1491	1476	1470	1470	1476	1493	1493	1492	1477	1485	1494	1495	1507	1516	1520	1517	1501	1490	1485	1458	1433	1409	1423	1433	1414	1400	1396	1393	1398	1406	1413	1412	1426	1447	1453	1451	1443	1429	1433	1433	1431	1433	1439	1435	1433	1425	1409	1405	1404	1415	1418	1415	1373	1361	1367	1380	1394	1419	1433	1440	1429	1421	1420	1435	1450	1456	1468	1470	1436	1365	1333	1282	1206	1176	1151	1130	1117	1100	0	0	0	0	0	0	1124	1114	0	0	0	0	0	0	1096	1093	1097	1097	1096	1097	1099	1094	1092	1091	1098	1093	0	0	1113	1115	1115	1126	1140	1157	1167	1180	1212	1285	1423	1434	1465	1459	1447	1463	1499	1507	1526	1542	1552	1562	1550	1527	1503	1505	1512	1516	1508	1506	1526	1527	1528	1517	1510	1496	1492	1501	1518	1525	1509	1489	1481	1473	1471	1472	1471	1469	1461	1443	1434	1422	1425	1417	1385	1391	1409	1424	1425	1425	1421	1414	1404	1384	1364	1381	1392	1406	1417	1412	1395	1391	1393	1400	1400	1390	1370	1362	1371	1402	1417	1414	1412	1406	1401	1401	1397	1404	1414	1414	1407	1392	1386	1386	1384	1380	1378	1386	1402	1428	1431	1437	1436	1458	1457	1455	1451	1451	1462	1480	1500	1503	1506	1510	1507	1509	1505	1492	1485	1487	1479	1481	1477	1478	1474	1480	1490	1504	1519	1522	1519	1510	1506	1492	1492	1487	1493	1501	1475	1465	1455	1442	0	0	0	0	0	0	0	0	0	0	0	0	0	1083	1071	1056	1044	1040	1036	1036	1032	1026	1029	1040	1057	1075	1080	1068	1052	1044	1033	1014	1002	1002	1006	1015	1022	1030	1022	1010	999	1009	1026	1052	1070	1089	1106	1121	1134	1162	1226	1254	1287	1336	1375	1388	1395	1399	1397	1391	1381	1366	1370	1381	1393	1391	1389	1376	1375	1406	1436	1437	1418	1394	1395	1401	1402	1393	1375	1348	1354	1368	1370	1356	1360	1356	1353	1350	1353	1360	1362	1360	1355	1345	1340	1347	1360	1389	1420	1410	1406	1403	1421	1422	1427	1449	1462	1479	1494	1498	1501	1506	1505	1499	1487	1467	1460	1481	1495	1496	1491	1482	1484	1488	1493	1489	1484	1480	1457	1464	1456	1448	1442	1458	1469	1469	1459	1455	1464	1472	1473	1484	1501	1506	1512	1508	1504	1502	1480	1472	1457	1450	1457	1472	1483	1493	1488	1481	1472	1475	1470	1469	1452	1456	1456	1462	1464	1461	1464	1475	1480	1479	1471	1458	1439	1448	1462	1465	1466	1461	1461	1455	1459	1450	1448	1448	1450	1447	1450	1455	1462	1459	1458	1453	1453	1452	1450	1447	1452	1468	1474	1474	1468	1468	1476	1476	1469	1461	1461	1458	1464	1470	1474	1475	1471	1463	1475	1465	1454	1469	1472	1467	1450	1450	1450	1438	1444	1445	1443	1437	0	0	0	0	0	0	0
0	0	0	0	0	0	0	0	0	0	0	0	0	0	0	0	0	0	0	0	0	0	0	0	0	0	0	0	0	0	0	0	0	0	0	0	0	0	0	0	0	0	0	0	0	0	0	0	0	0	0	0	0	0	0	0	0	0	0	0	0	0	0	0	0	0	0	0	0	0	0	0	0	0	0	0	0	0	0	0	0	0	0	0	0	0	0	0	0	0	0	0	0	1476	1451	1453	1459	1451	1439	1433	1445	1454	1459	1459	1459	1462	1463	1459	1450	1441	1433	1440	1467	1490	1502	1494	1484	1476	1478	1488	1490	1484	1480	1474	1471	1460	1453	1457	1455	1454	1456	1463	1455	1459	1471	1474	1468	1470	1462	1446	1437	1424	1425	1441	1455	1466	1470	1469	1463	1462	1454	1450	1456	1464	1462	1460	1464	1467	1463	1470	1475	1476	1464	1450	1458	1486	1500	1513	1529	1529	1525	1492	1478	1475	1478	1447	1416	1407	1435	1414	1400	1398	1403	1417	1426	1418	1415	1423	1439	1453	1447	1426	1417	1433	1438	1433	1424	1426	1425	1424	1419	1417	1409	1404	1409	1408	1409	1398	1388	1384	1390	1407	1424	1438	1438	1434	1424	1421	1432	1443	1439	1418	1389	1371	1300	1220	1180	1155	1139	1119	1102	1092	1088	0	0	0	0	1077	1073	1085	1088	1088	1091	1101	0	0	1102	1076	1067	1080	1089	1094	1093	1082	1073	1066	1064	1067	1067	0	0	0	1098	1105	1119	1141	1161	1168	1181	1220	1281	1429	1480	1477	1467	1460	1476	1517	1523	1531	1537	1556	1562	1552	1516	1497	1503	1520	1523	1517	1512	1513	1528	1529	1522	1507	1497	1494	1505	1521	1521	1509	1495	1482	1485	1479	1478	1472	1470	1462	1461	1436	1427	1426	1439	1450	1471	1488	1482	1464	1438	1427	1417	1410	1399	1393	1379	1374	1383	1397	1397	1391	1392	1403	1418	1439	1440	1430	1430	1399	1408	1429	1430	1420	1414	1413	1421	1426	1423	1422	1422	1414	1409	1402	1399	1404	1403	1405	1407	1413	1423	1433	1437	1461	1477	1486	1476	1464	1461	1468	1473	1485	1489	1501	1504	1496	1482	1473	1482	1489	1493	1499	1494	1483	1477	1480	1496	1501	1501	1506	1507	1509	1506	1494	1483	1481	1480	1485	1484	1466	1455	1449	1426	0	0	0	0	0	0	0	0	0	0	0	0	0	1080	1069	1050	1037	1026	1019	1015	1019	1022	1023	1032	1056	1071	1068	1051	1027	1008	1005	1001	1001	1003	1010	1017	1025	1020	1008	993	984	994	1009	1030	1048	1070	1080	1090	1091	1112	1137	1160	1200	1244	1307	1343	1371	1389	1390	1391	1400	1405	1404	1404	1404	1407	1405	1423	1434	1450	1465	1466	1444	1416	1403	1403	1402	1399	1389	1384	1385	1398	1391	1388	1399	1392	1386	1379	1390	1406	1421	1436	1447	1447	1447	1455	1466	1467	1454	1438	1418	1420	1441	1451	1462	1470	1465	1472	1484	1485	1495	1507	1500	1495	1486	1474	1470	1483	1494	1493	1492	1486	1482	1494	1502	1504	1494	1485	1464	1461	1448	1441	1441	1457	1472	1464	1452	1434	1449	1455	1462	1479	1491	1501	1504	1498	1500	1503	1490	1473	1456	1453	1456	1467	1480	1486	1490	1488	1486	1484	1488	1481	1461	1460	1466	1469	1464	1457	1453	1460	1463	1465	1466	1462	1449	1447	1459	1464	1459	1461	1460	1453	1444	1446	1453	1454	1453	1454	1450	1456	1462	1464	1464	1463	1464	1470	1463	1457	1459	1476	1485	1487	1484	1477	1475	1474	1459	1456	1456	1461	1467	1478	1478	1468	1463	1463	1462	1461	1462	1460	1463	1451	1449	1449	1446	1441	1440	1442	1436	1438	0	0	0	0	0	0	0
0	0	0	0	0	0	0	0	0	0	0	0	0	0	0	0	0	0	0	0	0	0	0	0	0	0	0	0	0	0	0	0	0	0	0	0	0	0	0	0	0	0	0	0	0	0	0	0	0	0	0	0	0	0	0	0	0	0	0	0	0	0	0	0	0	0	0	0	0	0	0	0	0	0	0	0	0	0	0	0	0	0	0	0	0	0	0	0	0	0	0	0	0	1482	1442	1440	1441	1437	1432	1432	1438	1447	1462	1462	1459	1463	1458	1454	1442	1427	1449	1493	1493	1494	1502	1503	1496	1486	1484	1485	1478	1461	1454	1459	1462	1459	1455	1457	1463	1469	1477	1487	1481	1473	1467	1464	1454	1461	1456	1451	1438	1429	1435	1454	1467	1466	1463	1457	1462	1466	1462	1450	1443	1440	1439	1446	1454	1458	1463	1463	1473	1472	1463	1434	1449	1472	1496	1520	1534	1530	1516	1482	1464	1468	1483	1473	1436	1427	1430	1415	1401	1403	1415	1434	1436	1428	1414	1420	1437	1455	1455	1435	1424	1437	1445	1444	1434	1424	1430	1438	1439	1426	1426	1425	1412	1437	1445	1436	1416	1411	1428	1439	1448	1456	1459	1448	1439	1430	1425	1416	1401	1385	1351	1336	1172	1148	1137	1136	1120	1110	1100	1087	1082	1085	0	0	1071	1054	1065	1071	1078	1070	1056	1045	1034	1061	1081	1053	1051	1056	1071	1088	1089	1076	1062	1056	1050	1046	1047	1049	0	1075	1089	1105	1121	1151	0	0	1205	1237	1297	1423	1488	1487	1478	1475	1481	1494	1520	1519	1532	1549	1556	1542	1501	1504	1518	1521	1524	1520	1509	1515	1521	1515	1511	1499	1491	1494	1509	1510	1511	1501	1489	1478	1477	1474	1473	1468	1460	1459	1458	1450	1430	1427	1443	1467	1480	1491	1479	1462	1443	1429	1418	1412	1407	1396	1383	1376	1386	1396	1394	1395	1392	1404	1420	1436	1437	1436	1441	1487	1504	1491	1486	1477	1471	1443	1443	1438	1433	1424	1422	1429	1417	1403	1398	1402	1407	1414	1423	1450	1468	1476	1473	1463	1479	1487	1486	1483	1481	1480	1488	1479	1476	1481	1483	1476	1460	1454	1460	1478	1492	1502	1500	1489	1488	1492	1497	1498	1493	1492	1494	1497	1488	1479	1453	1449	1471	1478	1477	1469	1471	1466	1437	0	0	0	0	0	0	0	0	0	0	0	1060	1079	1085	1067	1053	1032	1022	1012	1005	1005	1009	1011	1025	1044	1063	1056	1007	986	985	987	989	994	1005	1005	1011	1012	1011	1003	999	1006	1014	1025	1039	1049	1060	1067	1066	1062	1047	1061	1079	1102	1140	1245	1287	1324	1354	1385	1389	1400	1399	1404	1416	1426	1436	1439	1437	1445	1462	1470	1473	1456	1441	1434	1431	1434	1431	1420	1429	1423	1432	1426	1423	1415	1402	1390	1398	1412	1432	1449	1460	1465	1461	1458	1470	1479	1486	1475	1472	1468	1462	1471	1485	1489	1483	1470	1469	1466	1473	1487	1501	1494	1487	1480	1472	1476	1486	1494	1494	1487	1489	1490	1488	1514	1516	1509	1494	1471	1465	1452	1448	1455	1465	1463	1462	1453	1446	1445	1446	1452	1459	1480	1483	1482	1480	1485	1496	1478	1463	1451	1451	1465	1466	1480	1486	1491	1491	1492	1483	1481	1464	1453	1459	1458	1460	1460	1456	1455	1448	1456	1458	1460	1460	1459	1456	1457	1462	1458	1470	1459	1454	1453	1458	1454	1452	1454	1453	1461	1462	1471	1472	1476	1479	1481	1481	1476	1472	1470	1479	1490	1497	1496	1485	1470	1452	1448	1455	1455	1460	1467	1470	1475	1464	1455	1446	1444	1452	1451	1457	1449	1443	1443	1443	1443	1435	1432	1436	1436	1434	0	0	0	0	0	0	0
0	0	0	0	0	0	0	0	0	0	0	0	0	0	0	0	0	0	0	0	0	0	0	0	0	0	0	0	0	0	0	0	0	0	0	0	0	0	0	0	0	0	0	0	0	0	0	0	0	0	0	0	0	0	0	0	0	0	0	0	0	0	0	0	0	0	0	0	0	0	0	0	0	0	0	0	0	0	0	0	0	0	0	0	0	0	0	0	0	0	0	0	0	1454	1430	1432	1433	1429	1426	1420	1427	1446	1461	1465	1457	1466	1466	1456	1449	1445	1480	1483	1496	1497	1493	1498	1497	1491	1489	1488	1478	1463	1459	1457	1456	1454	1452	1452	1466	1469	1486	1502	1494	1481	1468	1454	1458	1450	1455	1448	1440	1440	1444	1464	1477	1470	1467	1462	1464	1468	1461	1444	1433	1424	1421	1426	1444	1452	1461	1465	1482	1485	1464	1446	1437	1457	1485	1500	1520	1517	1507	1486	1479	1482	1499	1496	1478	1461	1447	1433	1426	1422	1444	1474	1485	1474	1471	1480	1498	1511	1500	1490	1467	1468	1468	1469	1474	1474	1470	1483	1478	1480	1471	1456	1459	1464	1474	1475	1470	1457	1450	1465	1480	1485	1479	1465	1450	1433	1413	1404	1368	1282	1235	1176	1115	1101	1101	1107	1103	1097	1090	1081	1080	1078	1081	1076	1061	1046	1046	1049	1046	1042	1027	1017	1015	1011	1022	1036	1039	1044	1057	1073	1072	1072	1062	1049	1042	1034	1033	1035	1044	1065	1085	1100	0	0	0	0	0	1272	1333	1434	1495	1488	1484	1482	1481	1480	1495	1504	1511	1517	1522	1523	1518	1522	1526	1517	1510	1501	1503	1511	1517	1516	1507	1501	1497	1504	1507	1503	1504	1502	1490	1473	1465	1463	1464	1468	1462	1459	1454	1451	1462	1468	1471	1456	1437	1431	1445	1468	1449	1445	1433	1433	1452	1464	1477	1479	1472	1448	1423	1414	1420	1444	1473	1485	1487	1476	1476	1512	1519	1505	1484	1485	1493	1489	1504	1497	1487	1478	1466	1462	1458	1466	1465	1459	1458	1463	1478	1499	1504	1491	1468	1447	1465	1482	1491	1495	1500	1505	1498	1477	1462	1471	1471	1459	1445	1444	1452	1468	1485	1500	1500	1494	1496	1501	1506	1501	1490	1491	1493	1500	1488	1468	1440	1437	1465	1492	1485	1486	1491	1497	1454	0	0	0	0	0	0	0	0	0	0	0	1065	1081	1085	0	0	0	0	1024	1005	1002	998	1001	1011	1027	1011	1009	997	982	983	981	984	997	1001	995	988	988	991	999	1017	1040	0	0	0	0	0	0	0	0	1019	1024	1030	1042	1055	1077	1159	1245	1312	1371	1399	1392	1392	1406	1440	1454	1459	1442	1446	1455	1468	1462	1457	1466	1480	1491	1488	1478	1471	1473	1484	1501	1498	1470	1455	1453	1458	1465	1458	1460	1468	1481	1490	1492	1482	1482	1482	1493	1524	1525	1511	1491	1478	1472	1480	1486	1490	1471	1466	1465	1475	1492	1493	1485	1482	1482	1479	1476	1487	1490	1488	1485	1488	1496	1502	1514	1505	1498	1491	1472	1461	1454	1457	1456	1454	1451	1455	1456	1452	1447	1446	1444	1453	1456	1464	1466	1463	1468	1480	1463	1441	1436	1449	1459	1470	1474	1483	1488	1485	1482	1478	1468	1452	1451	1450	1453	1453	1456	1462	1463	1467	1458	1456	1468	1474	1473	1465	1460	1457	1450	1471	1463	1464	1461	1457	1455	1448	1448	1452	1455	1468	1475	1483	1489	1493	1489	1492	1492	1488	1487	1487	1492	1498	1495	1480	1457	1445	1453	1453	1465	1468	1462	1460	1462	1455	1444	1436	1432	1432	1444	1450	1446	1439	1442	1442	1430	1428	1428	1434	1432	1439	0	0	0	0	0	0	0
0	0	0	0	0	0	0	0	0	0	0	0	0	0	0	0	0	0	0	0	0	0	0	0	0	0	0	0	0	0	0	0	0	0	0	0	0	0	0	0	0	0	0	0	0	0	0	0	0	0	0	0	0	0	0	0	0	0	0	0	0	0	0	0	0	0	0	0	0	0	0	0	0	0	0	0	0	0	0	0	0	0	0	0	0	0	0	0	0	0	0	0	0	1437	1433	1439	1441	1433	1428	1421	1436	1454	1471	1461	1463	1473	1470	1463	1459	1456	1443	1479	1481	1467	1475	1483	1485	1487	1486	1483	1482	1472	1469	1465	1460	1454	1453	1452	1467	1476	1482	1486	1487	1475	1463	1460	1458	1454	1453	1459	1450	1451	1456	1462	1465	1472	1471	1475	1476	1454	1444	1433	1421	1416	1418	1425	1438	1455	1463	1467	1478	1484	1468	1452	1441	1452	1471	1483	1510	1517	1513	1502	1496	1505	1517	1505	1482	1456	1450	1453	1445	1437	1456	1477	1480	1470	1464	1467	1487	1501	1512	1503	1485	1482	1480	1482	1488	1490	1489	1501	1493	1485	1478	1467	1465	1475	1480	1484	1468	1457	1460	1470	1493	1496	1478	1467	1456	1397	1297	1225	1181	1155	0	0	1079	1071	1070	1069	1068	1073	1075	1069	1058	1057	1059	1055	1042	1032	1024	1018	1018	1020	1016	1008	1004	1000	1015	1027	1026	1020	1038	1039	1055	1060	1052	1035	1030	1022	1023	1028	1055	0	0	0	0	0	0	0	0	0	1379	1463	1493	1491	1489	1485	1474	1466	1481	1489	1491	1496	1500	1511	1524	1535	1528	1515	1492	1488	1496	1508	1507	1511	1510	1505	1502	1505	1506	1501	1504	1501	1494	1472	1461	1459	1460	1464	1458	1454	1452	1454	1454	1463	1463	1452	1439	1430	1443	1461	1449	1446	1448	1450	1464	1474	1483	1482	1470	1449	1428	1421	1432	1447	1477	1486	1492	1477	1460	1486	1515	1504	1487	1478	1483	1483	1501	1495	1491	1483	1468	1463	1459	1474	1478	1473	1476	1480	1493	1510	1512	1497	1473	1440	1451	1469	1492	1506	1511	1513	1507	1482	1469	1466	1464	1454	1445	1452	1468	1473	1477	1491	1500	1500	1498	1503	1518	1513	1508	1503	1511	1516	1511	1494	1476	1481	1498	1510	1504	1504	1505	1511	1471	1420	0	0	0	0	0	0	0	0	0	0	0	0	0	0	0	0	0	0	0	1015	998	995	0	0	0	0	1010	994	989	981	982	992	993	980	973	970	983	1001	1022	0	0	0	0	0	0	0	0	0	0	0	0	1031	1028	1022	1025	1054	1100	1159	1250	1359	1373	1402	1443	1456	1455	1444	1450	1479	1470	1463	1453	1460	1475	1492	1492	1481	1473	1473	1486	1491	1491	1473	1465	1466	1479	1483	1479	1469	1475	1485	1490	1496	1492	1491	1490	1498	1529	1516	1514	1496	1482	1472	1474	1486	1486	1483	1477	1472	1485	1491	1490	1482	1491	1490	1483	1474	1473	1475	1473	1482	1489	1500	1509	1500	1498	1490	1479	1463	1460	1457	1455	1452	1446	1449	1455	1456	1455	1445	1445	1442	1440	1444	1450	1457	1464	1464	1470	1455	1444	1433	1443	1455	1462	1471	1480	1493	1489	1477	1464	1455	1453	1451	1453	1451	1449	1455	1469	1477	1480	1472	1474	1472	1471	1469	1460	1460	1454	1462	1469	1470	1473	1471	1460	1444	1438	1443	1439	1447	1460	1469	1486	1500	1504	1498	1489	1486	1492	1492	1487	1490	1495	1496	1475	1448	1442	1453	1453	1472	1479	1467	1462	1458	1455	1449	1433	1422	1425	1434	1446	1443	1438	1434	1434	1431	1442	1449	1448	1445	1442	0	0	0	0	0	0	0
0	0	0	0	0	0	0	0	0	0	0	0	0	0	0	0	0	0	0	0	0	0	0	0	0	0	0	0	0	0	0	0	0	0	0	0	0	0	0	0	0	0	0	0	0	0	0	0	0	0	0	0	0	0	0	0	0	0	0	0	0	0	0	0	0	0	0	0	0	0	0	0	0	0	0	0	0	0	0	0	0	0	0	0	0	0	0	0	0	0	0	0	0	1432	1452	1459	1453	1446	1439	1441	1462	1472	1474	1469	1466	1471	1473	1469	1470	1473	1458	1447	1453	1459	1469	1475	1479	1476	1478	1488	1486	1485	1485	1482	1470	1460	1461	1462	1474	1482	1480	1475	1466	1460	1460	1460	1455	1459	1466	1464	1460	1459	1458	1458	1461	1461	1466	1483	1480	1440	1432	1420	1412	1427	1434	1437	1446	1456	1461	1468	1474	1475	1465	1453	1442	1447	1464	1480	1497	1520	1521	1520	1517	1522	1522	1511	1485	1452	1461	1466	1459	1450	1456	1465	1472	1470	1460	1461	1475	1495	1501	1504	1495	1495	1497	1502	1503	1509	1508	1510	1499	1488	1481	1478	1477	1482	1479	1471	1471	1463	1467	1474	1492	1491	1453	1382	1331	1276	1231	1200	1167	1145	0	0	0	1057	1052	1047	1040	1049	1050	1044	1024	1022	1028	1024	1016	1011	1001	1001	1004	1009	1007	1004	1006	1001	1010	1027	1029	1018	1009	1014	1042	1049	1038	1027	1013	1013	1026	1044	0	0	0	0	0	0	0	0	0	1405	1498	1505	1499	1491	1491	1487	1472	1468	1468	1485	1483	1486	1497	1512	1529	1539	1524	1501	1480	1476	1488	1498	1506	1510	1511	1511	1509	1510	1511	1505	1504	1505	1499	1479	1462	1470	1466	1461	1456	1455	1454	1460	1463	1458	1460	1448	1437	1431	1435	1443	1451	1459	1462	1476	1493	1482	1473	1485	1495	1518	1534	1516	1490	1482	1477	1469	1470	1480	1478	1478	1473	1469	1469	1464	1465	1475	1486	1494	1487	1480	1475	1476	1483	1487	1485	1485	1493	1489	1511	1515	1501	1493	1477	1464	1458	1464	1478	1507	1517	1510	1504	1486	1481	1473	1473	1460	1458	1474	1488	1489	1485	1485	1494	1494	1492	1507	1510	1514	1510	1512	1521	1522	1518	1497	1484	1494	1507	1518	1510	1509	1508	1508	1492	1437	0	0	0	0	0	0	0	0	0	0	0	0	0	0	0	0	0	0	0	0	0	0	0	0	0	0	0	0	0	0	0	0	0	0	957	968	980	999	1024	0	0	0	0	0	0	0	0	0	0	0	0	0	0	0	0	1007	1037	1059	1072	1103	1292	1384	1427	1437	1437	1438	1465	1479	1478	1469	1463	1457	1470	1483	1490	1482	1471	1469	1477	1475	1479	1468	1465	1472	1490	1499	1490	1468	1472	1479	1489	1487	1485	1488	1492	1518	1516	1522	1516	1498	1484	1475	1478	1485	1487	1489	1483	1495	1492	1494	1483	1490	1496	1494	1481	1468	1469	1461	1456	1464	1479	1489	1492	1494	1488	1486	1475	1454	1458	1462	1460	1454	1447	1455	1456	1456	1450	1447	1441	1443	1442	1440	1448	1471	1482	1470	1460	1449	1445	1438	1443	1445	1453	1461	1477	1488	1497	1485	1466	1460	1462	1464	1468	1458	1458	1465	1483	1497	1507	1493	1480	1463	1459	1456	1456	1460	1463	1469	1485	1493	1489	1478	1452	1444	1439	1443	1443	1443	1447	1460	1479	1499	1502	1493	1478	1478	1487	1498	1494	1486	1482	1477	1464	1449	1446	1469	1469	1484	1485	1476	1471	1462	1464	1458	1453	1435	1425	1426	1436	1438	1432	1432	1432	1444	1454	1461	1460	1456	1449	0	0	0	0	0	0	0
0	0	0	0	0	0	0	0	0	0	0	0	0	0	0	0	0	0	0	0	0	0	0	0	0	0	0	0	0	0	0	0	0	0	0	0	0	0	0	0	0	0	0	0	0	0	0	0	0	0	0	0	0	0	0	0	0	0	0	0	0	0	0	0	0	0	0	0	0	0	0	0	0	0	0	0	0	0	0	0	0	0	0	0	0	0	0	0	0	0	0	0	0	1439	1466	1466	1458	1456	1463	1470	1467	1465	1468	1467	1464	1462	1462	1465	1477	1486	1480	1469	1463	1466	1467	1470	1480	1485	1467	1471	1485	1478	1476	1483	1473	1466	1466	1466	1478	1485	1479	1470	1454	1454	1459	1467	1464	1469	1468	1472	1465	1471	1469	1460	1455	1455	1467	1475	1471	1433	1417	1419	1424	1435	1445	1447	1452	1462	1469	1476	1477	1475	1465	1456	1452	1454	1466	1480	1492	1507	1519	1517	1522	1524	1527	1511	1473	1440	1460	1477	1485	1471	1456	1454	1461	1469	1469	1462	1469	1487	1502	1507	1502	1495	1496	1492	1498	1500	1513	1514	1507	1491	1480	1474	1479	1476	1472	1467	1460	1462	1468	1477	1456	1387	1310	1292	1279	1255	1234	1197	1169	0	0	0	0	1060	1052	1039	1028	1026	1025	1011	1000	999	1012	1014	1006	999	995	996	1000	1001	1000	1007	1010	1013	1018	1026	0	0	0	0	0	0	1020	1012	1015	1018	1036	0	0	0	0	0	0	0	0	0	1394	1509	1512	1508	1493	1480	1468	1455	1450	1462	1474	1480	1474	1472	1474	1489	1496	1496	1491	1479	1470	1468	1469	1476	1487	1495	1505	1507	1505	1502	1517	1521	1532	1529	1522	1518	1514	1505	1491	1479	1462	1465	1465	1474	1456	1465	1479	1487	1462	1439	1447	1450	1465	1476	1490	1507	1508	1490	1469	1478	1497	1527	1535	1535	1519	1489	1471	1459	1463	1483	1491	1478	1459	1446	1450	1461	1473	1485	1496	1491	1488	1479	1479	1476	1485	1488	1482	1479	1485	1492	1502	1506	1497	1493	1481	1475	1472	1473	1484	1499	1509	1501	1495	1490	1492	1495	1491	1488	1488	1498	1494	1496	1492	1490	1487	1487	1483	1497	1501	1504	1516	1516	1523	1526	1506	1490	1490	1495	1509	1513	1504	1506	1508	1502	1489	1450	0	0	0	0	0	0	0	0	0	0	0	0	0	0	0	0	0	0	0	0	0	0	0	0	0	0	0	0	0	0	0	0	0	0	0	963	980	0	0	0	0	0	0	0	0	0	0	0	0	0	0	0	0	0	0	991	998	1008	1026	1036	1053	1141	1186	1222	1379	1438	1454	1460	1472	1472	1468	1466	1468	1479	1492	1486	1460	1460	1463	1469	1474	1471	1463	1468	1487	1497	1490	1472	1463	1473	1475	1479	1481	1489	1488	1505	1528	1529	1516	1501	1480	1473	1472	1479	1486	1490	1496	1499	1500	1500	1491	1489	1490	1486	1475	1464	1465	1461	1462	1464	1467	1474	1485	1485	1484	1486	1468	1463	1462	1471	1467	1462	1457	1457	1456	1455	1446	1445	1459	1456	1440	1442	1459	1476	1481	1473	1461	1449	1452	1447	1451	1444	1450	1457	1469	1486	1488	1484	1481	1473	1476	1476	1473	1472	1469	1478	1494	1516	1509	1495	1475	1460	1447	1438	1446	1461	1466	1472	1486	1501	1501	1480	1457	1450	1446	1452	1454	1451	1446	1455	1473	1491	1491	1482	1470	1469	1483	1488	1490	1472	1465	1459	1461	1452	1451	1482	1482	1496	1502	1496	1484	1479	1476	1480	1474	1453	1437	1436	1438	1443	1442	1442	1453	1454	1465	1466	1459	1464	1487	0	0	0	0	0	0	0
0	0	0	0	0	0	0	0	0	0	0	0	0	0	0	0	0	0	0	0	0	0	0	0	0	0	0	0	0	0	0	0	0	0	0	0	0	0	0	0	0	0	0	0	0	0	0	0	0	0	0	0	0	0	0	0	0	0	0	0	0	0	0	0	0	0	0	0	0	0	0	0	0	0	0	0	0	0	0	0	0	0	0	0	0	0	0	0	0	0	0	0	0	1446	1466	1470	1454	1456	1465	1454	1431	1436	1437	1448	1449	1439	1440	1455	1483	1500	1493	1478	1471	1462	1458	1457	1463	1463	1449	1437	1430	1438	1447	1456	1469	1463	1460	1456	1462	1473	1488	1492	1478	1465	1468	1485	1496	1494	1479	1479	1475	1471	1473	1466	1463	1456	1457	1457	1452	1427	1424	1429	1437	1450	1450	1452	1458	1469	1476	1480	1486	1485	1472	1465	1460	1465	1473	1483	1490	1499	1501	1506	1510	1517	1515	1504	1466	1445	1466	1488	1491	1474	1449	1446	1458	1470	1466	1455	1456	1476	1496	1502	1500	1489	1477	1473	1482	1474	1479	1491	1487	1475	1469	1465	1465	1465	1459	1457	1450	1415	1376	1335	1287	1271	1255	1251	1244	1241	1228	1201	1165	0	0	0	0	0	1059	1042	1022	1005	999	994	988	994	1001	1004	991	986	983	984	989	988	987	988	995	1007	1005	1017	0	0	0	0	0	0	0	0	0	0	0	0	0	0	0	0	0	0	0	1368	1485	1515	1499	1488	1468	1466	1460	1462	1462	1466	1474	1477	1477	1480	1487	1490	1495	1499	1490	1478	1471	1471	1473	1484	1499	1506	1510	1506	1500	1500	1507	1519	1521	1518	1509	1508	1515	1509	1494	1481	1464	1459	1468	1467	1462	1471	1486	1494	1490	1469	1456	1465	1475	1492	1507	1522	1519	1499	1473	1467	1485	1513	1539	1528	1511	1484	1462	1451	1464	1488	1493	1481	1461	1447	1451	1453	1469	1485	1494	1487	1481	1476	1474	1481	1480	1483	1484	1489	1477	1487	1496	1489	1491	1493	1495	1483	1479	1486	1496	1502	1498	1494	1494	1492	1497	1499	1494	1506	1506	1509	1504	1492	1488	1485	1482	1482	1475	1485	1490	1500	1503	1510	1515	1514	1512	1501	1492	1497	1507	1500	1489	1494	1500	1500	1490	1480	1446	0	0	0	0	0	0	0	0	0	0	0	0	0	0	0	0	0	0	0	0	0	0	953	954	956	0	0	0	0	0	0	0	931	935	954	969	0	0	0	0	0	0	0	0	0	0	0	0	0	0	0	996	991	974	953	964	974	991	1000	1002	1018	1055	1119	1184	1396	1444	1454	1459	1464	1464	1460	1461	1473	1481	1481	1470	1452	1455	1457	1467	1467	1460	1460	1479	1500	1490	1468	1462	1465	1468	1468	1478	1487	1483	1501	1521	1529	1508	1486	1466	1460	1464	1478	1484	1490	1504	1506	1509	1500	1491	1492	1482	1476	1465	1461	1457	1466	1466	1466	1458	1459	1467	1482	1488	1484	1466	1462	1462	1468	1465	1466	1460	1460	1453	1442	1437	1443	1455	1456	1452	1448	1452	1463	1467	1465	1458	1456	1463	1464	1456	1456	1461	1472	1473	1465	1469	1470	1476	1477	1469	1471	1475	1473	1474	1481	1485	1497	1483	1471	1469	1447	1442	1433	1442	1455	1462	1473	1479	1483	1479	1471	1461	1464	1469	1470	1464	1461	1459	1463	1475	1478	1474	1469	1455	1464	1471	1481	1483	1471	1463	1461	1466	1471	1472	1490	1490	1512	1517	1501	1488	1483	1481	1493	1491	1465	1450	1438	1440	1454	1464	1464	1482	1476	1473	1472	1472	1489	1482	0	0	0	0	0	0	0
0	0	0	0	0	0	0	0	0	0	0	0	0	0	0	0	0	0	0	0	0	0	0	0	0	0	0	0	0	0	0	0	0	0	0	0	0	0	0	0	0	0	0	0	0	0	0	0	0	0	0	0	0	0	0	0	0	0	0	0	0	0	0	0	0	0	0	0	0	0	0	0	0	0	0	0	0	0	0	0	0	0	0	0	0	0	0	0	0	0	0	0	0	1447	1464	1466	1472	1466	1454	1443	1433	1432	1448	1459	1476	1485	1447	1459	1474	1488	1479	1469	1463	1456	1450	1454	1453	1452	1447	1438	1437	1434	1444	1457	1461	1462	1455	1457	1465	1483	1489	1493	1477	1472	1474	1490	1493	1495	1482	1480	1483	1481	1479	1467	1462	1463	1465	1455	1433	1413	1418	1446	1459	1466	1458	1458	1453	1456	1465	1484	1486	1490	1486	1473	1469	1473	1480	1485	1488	1482	1486	1488	1490	1498	1508	1505	1480	1450	1466	1482	1482	1472	1448	1439	1453	1459	1456	1446	1444	1456	1482	1491	1490	1474	1456	1446	1438	1446	1458	1467	1458	1449	1451	1455	1458	1453	1446	1407	1297	1233	1219	1197	1207	1203	1208	1203	1208	1217	1216	1190	0	0	0	0	0	0	1053	1029	1021	1000	992	985	976	975	980	974	967	961	968	967	969	967	957	950	962	967	985	993	987	0	0	0	0	0	0	0	0	0	0	0	0	0	0	0	0	0	1371	1455	1490	1488	1489	1480	1475	1476	1475	1475	1481	1481	1477	1479	1481	1483	1484	1490	1496	1496	1492	1485	1478	1477	1484	1488	1501	1505	1509	1500	1497	1494	1500	1507	1510	1505	1500	1500	1509	1512	1504	1491	1471	1460	1457	1465	1475	1482	1494	1500	1496	1476	1453	1470	1480	1502	1519	1530	1525	1506	1478	1464	1469	1493	1513	1511	1494	1473	1457	1456	1467	1487	1494	1482	1466	1458	1453	1456	1464	1478	1487	1484	1479	1476	1476	1475	1472	1476	1489	1489	1478	1480	1481	1470	1475	1489	1508	1508	1493	1478	1490	1492	1490	1494	1501	1498	1495	1501	1501	1510	1519	1519	1501	1485	1471	1472	1480	1483	1482	1481	1483	1489	1487	1497	1504	1506	1507	1487	1488	1486	1497	1486	1481	1484	1495	1502	1498	1494	1493	1467	0	0	0	0	0	0	0	0	0	0	0	0	0	0	0	0	0	0	950	940	929	931	938	943	961	0	964	949	930	908	900	906	922	948	953	962	0	0	0	971	969	985	1004	0	1008	984	979	966	934	935	942	941	938	939	947	952	969	973	981	994	1013	1032	1034	1090	1303	1379	1407	1430	1428	1436	1439	1455	1471	1471	1459	1452	1444	1448	1461	1459	1458	1457	1475	1501	1483	1461	1460	1461	1467	1477	1480	1473	1472	1484	1497	1505	1484	1461	1445	1444	1455	1472	1486	1497	1506	1503	1496	1492	1490	1491	1485	1481	1476	1458	1463	1466	1471	1477	1464	1458	1463	1473	1490	1485	1471	1464	1464	1462	1458	1452	1453	1446	1439	1434	1435	1443	1454	1455	1447	1437	1436	1445	1448	1450	1453	1467	1481	1490	1489	1482	1476	1471	1477	1472	1465	1457	1454	1451	1447	1449	1454	1457	1462	1458	1448	1432	1432	1454	1462	1463	1466	1455	1447	1454	1467	1470	1465	1462	1456	1452	1462	1475	1488	1481	1470	1464	1467	1474	1478	1473	1459	1452	1448	1457	1467	1469	1468	1463	1462	1467	1483	1488	1481	1481	1486	1494	1496	1487	1476	1474	1489	1498	1497	1484	1457	1441	1447	1470	1484	1484	1495	1490	1466	1477	1477	1477	1442	0	0	0	0	0	0	0
0	0	0	0	0	0	0	0	0	0	0	0	0	0	0	0	0	0	0	0	0	0	0	0	0	0	0	0	0	0	0	0	0	0	0	0	0	0	0	0	0	0	0	0	0	0	0	0	0	0	0	0	0	0	0	0	0	0	0	0	0	0	0	0	0	0	0	0	0	0	0	0	0	0	0	0	0	0	0	0	0	0	0	0	0	0	0	0	0	0	0	0	0	1436	1446	1455	1458	1457	1447	1437	1438	1445	1449	1467	1492	1489	1475	1466	1467	1476	1460	1457	1458	1457	1458	1457	1462	1452	1451	1447	1442	1439	1457	1468	1468	1463	1457	1462	1470	1483	1482	1476	1463	1468	1475	1490	1491	1487	1485	1483	1487	1497	1494	1473	1464	1466	1462	1449	1439	1413	1422	1451	1497	1512	1500	1468	1454	1446	1452	1473	1482	1490	1487	1475	1471	1479	1480	1484	1484	1475	1474	1471	1468	1492	1504	1501	1492	1457	1460	1473	1476	1465	1452	1438	1440	1447	1441	1435	1438	1451	1463	1469	1471	1456	1445	1434	1438	1447	1449	1446	1437	1433	1431	1428	1382	1311	1217	1156	1138	1145	1140	1136	1139	1141	1144	1152	1168	1182	1179	1154	0	0	0	0	0	1052	1024	1005	994	982	973	974	967	962	954	948	948	947	957	957	953	943	931	925	923	932	963	970	963	957	0	0	0	0	0	0	0	0	0	0	0	0	0	0	0	0	1416	1455	1479	1472	1479	1474	1484	1489	1496	1496	1493	1489	1482	1475	1473	1478	1480	1491	1496	1517	1501	1482	1465	1475	1478	1493	1496	1500	1498	1496	1493	1495	1499	1501	1495	1492	1491	1502	1512	1516	1485	1425	1449	1477	1482	1476	1478	1487	1493	1495	1493	1467	1449	1446	1463	1495	1517	1521	1520	1509	1487	1470	1462	1469	1477	1485	1483	1469	1463	1465	1473	1486	1482	1472	1476	1469	1467	1459	1469	1475	1479	1471	1465	1464	1472	1475	1477	1483	1491	1487	1481	1474	1465	1456	1451	1477	1512	1515	1489	1479	1485	1488	1491	1494	1503	1494	1492	1486	1494	1504	1513	1507	1493	1473	1454	1461	1469	1479	1482	1473	1469	1468	1468	1475	1485	1497	1494	1479	1475	1469	1478	1478	1474	1482	1497	1499	1507	1508	1523	1522	1498	0	0	0	0	0	0	0	0	0	0	0	0	0	0	0	928	930	926	924	921	920	928	939	953	0	0	937	908	889	886	896	917	937	948	949	956	963	961	955	946	952	973	967	952	946	939	913	915	922	931	932	937	936	939	940	945	952	956	957	970	983	1000	1009	1020	1125	1258	1346	1377	1391	1401	1430	1447	1454	1450	1444	1446	1450	1444	1451	1454	1467	1488	1499	1477	1461	1458	1469	1474	1484	1476	1466	1467	1475	1490	1476	1457	1435	1419	1430	1448	1469	1490	1499	1494	1487	1479	1473	1486	1481	1486	1485	1477	1469	1464	1471	1476	1480	1469	1470	1470	1489	1513	1512	1493	1494	1488	1475	1462	1454	1461	1458	1457	1449	1454	1452	1462	1464	1461	1459	1452	1452	1452	1454	1453	1458	1473	1487	1497	1478	1463	1455	1465	1478	1468	1459	1452	1445	1442	1450	1457	1464	1470	1449	1432	1423	1430	1451	1471	1489	1487	1483	1468	1463	1465	1464	1459	1449	1445	1455	1468	1484	1488	1485	1470	1454	1472	1482	1479	1464	1448	1440	1439	1448	1458	1463	1455	1453	1456	1472	1483	1485	1478	1478	1467	1470	1465	1458	1459	1474	1487	1506	1512	1503	1485	1452	1456	1476	1491	1491	1493	1478	1469	1472	1477	1469	1454	0	0	0	0	0	0	0
0	0	0	0	0	0	0	0	0	0	0	0	0	0	0	0	0	0	0	0	0	0	0	0	0	0	0	0	0	0	0	0	0	0	0	0	0	0	0	0	0	0	0	0	0	0	0	0	0	0	0	0	0	0	0	0	0	0	0	0	0	0	0	0	0	0	0	0	0	0	0	0	0	0	0	0	0	0	0	0	0	0	0	0	0	0	0	0	0	0	0	0	0	1417	1420	1434	1445	1439	1429	1433	1437	1443	1455	1466	1486	1496	1484	1478	1474	1470	1493	1473	1470	1468	1465	1469	1468	1466	1461	1457	1446	1445	1464	1473	1474	1469	1468	1469	1475	1472	1465	1451	1448	1458	1472	1483	1485	1480	1478	1488	1497	1502	1496	1479	1462	1451	1446	1442	1441	1429	1440	1472	1513	1529	1516	1475	1453	1452	1450	1454	1463	1471	1481	1478	1472	1472	1478	1482	1476	1473	1462	1462	1467	1481	1493	1497	1480	1458	1449	1463	1471	1462	1455	1439	1430	1430	1424	1425	1428	1423	1429	1436	1444	1448	1438	1428	1435	1445	1445	1434	1420	1411	1388	1243	1186	1150	1087	1078	1085	1086	1087	1090	1093	1094	1098	1119	1126	1133	1126	1105	1078	0	0	0	0	1010	986	971	967	960	956	959	957	951	942	935	934	940	947	947	939	930	921	910	908	918	933	958	952	955	0	0	0	0	0	0	0	0	0	0	0	0	0	0	0	1384	1437	1479	1476	1469	1472	1476	1484	1498	1500	1497	1492	1484	1479	1469	1461	1467	1474	1485	1488	1489	1519	1512	1488	1472	1479	1497	1499	1498	1497	1492	1492	1494	1496	1496	1488	1482	1490	1503	1513	1487	1442	1453	1464	1486	1493	1479	1466	1491	1499	1489	1483	1474	1452	1453	1473	1495	1501	1501	1501	1499	1487	1470	1454	1455	1462	1470	1475	1479	1480	1483	1487	1486	1490	1493	1485	1477	1471	1468	1470	1479	1472	1460	1456	1462	1471	1478	1484	1488	1487	1484	1476	1470	1459	1448	1441	1461	1494	1497	1491	1490	1501	1497	1501	1495	1490	1491	1485	1485	1485	1489	1496	1497	1485	1462	1451	1450	1463	1472	1475	1470	1465	1451	1453	1458	1475	1485	1485	1482	1473	1469	1471	1468	1477	1485	1500	1505	1506	1520	1528	1528	1515	1485	0	0	0	0	0	0	0	0	0	0	0	0	0	0	915	914	913	909	907	910	917	933	942	0	0	935	895	880	878	887	910	924	934	938	944	953	956	944	933	928	930	928	925	905	890	890	903	908	918	927	934	935	934	928	923	926	923	929	935	939	953	964	963	962	963	994	1143	1266	1322	1365	1389	1417	1436	1447	1451	1453	1449	1454	1459	1470	1479	1484	1471	1463	1459	1463	1466	1478	1476	1468	1462	1481	1487	1472	1452	1432	1425	1438	1452	1460	1471	1480	1480	1465	1460	1458	1476	1482	1483	1484	1475	1473	1471	1468	1471	1471	1472	1470	1474	1497	1528	1517	1491	1487	1487	1479	1465	1465	1474	1477	1479	1470	1470	1461	1465	1469	1472	1472	1466	1468	1463	1457	1453	1446	1457	1477	1492	1474	1455	1445	1461	1469	1467	1459	1451	1453	1453	1464	1469	1471	1476	1457	1435	1421	1423	1449	1470	1477	1483	1482	1473	1465	1466	1468	1480	1499	1488	1494	1503	1513	1496	1488	1474	1471	1479	1479	1474	1459	1448	1446	1451	1451	1446	1444	1441	1441	1456	1467	1482	1475	1465	1465	1452	1447	1443	1437	1443	1451	1482	1498	1500	1497	1482	1470	1459	1459	1466	1466	1472	1460	1466	1471	1478	1475	1462	0	0	0	0	0	0	0
0	0	0	0	0	0	0	0	0	0	0	0	0	0	0	0	0	0	0	0	0	0	0	0	0	0	0	0	0	0	0	0	0	0	0	0	0	0	0	0	0	0	0	0	0	0	0	0	0	0	0	0	0	0	0	0	0	0	0	0	0	0	0	0	0	0	0	0	0	0	0	0	0	0	0	0	0	0	0	0	0	0	0	0	0	0	0	0	0	0	0	0	0	1405	1420	1431	1435	1433	1430	1426	1437	1442	1449	1472	1491	1489	1483	1479	1479	1488	1487	1479	1474	1466	1464	1471	1472	1467	1469	1455	1451	1444	1456	1466	1467	1476	1488	1485	1481	1475	1462	1444	1438	1453	1461	1467	1473	1469	1471	1481	1490	1496	1492	1476	1452	1444	1437	1448	1457	1448	1462	1481	1511	1528	1505	1475	1452	1454	1461	1462	1474	1476	1480	1479	1482	1477	1488	1497	1479	1473	1465	1458	1467	1480	1482	1477	1459	1440	1439	1450	1462	1462	1459	1442	1424	1417	1415	1415	1423	1418	1419	1420	1430	1448	1441	1434	1435	1445	1416	1348	1307	1243	1161	1069	1059	1052	1047	1045	1050	1042	1041	1049	1059	1069	1075	1082	1093	1096	1082	1064	1046	1027	1011	1008	1012	1004	969	954	948	946	942	948	952	955	945	935	930	939	944	940	940	928	918	911	911	918	928	955	953	0	0	0	0	0	0	0	0	0	0	0	0	0	1375	1427	1388	1418	1437	1444	1478	1482	1476	1484	1494	1497	1494	1490	1489	1483	1475	1462	1459	1459	1479	1487	1470	1460	1488	1463	1450	1483	1485	1500	1501	1498	1496	1490	1489	1492	1495	1488	1483	1481	1492	1503	1509	1484	1484	1467	1480	1501	1501	1480	1469	1467	1505	1486	1467	1463	1459	1463	1479	1487	1489	1488	1488	1488	1483	1473	1450	1449	1458	1475	1483	1492	1496	1483	1487	1500	1505	1507	1503	1495	1489	1481	1476	1468	1468	1462	1466	1469	1485	1492	1489	1489	1484	1477	1475	1467	1459	1455	1451	1455	1478	1491	1494	1512	1521	1520	1506	1494	1490	1483	1481	1480	1477	1475	1479	1483	1484	1460	1455	1454	1464	1468	1472	1466	1460	1452	1454	1465	1480	1486	1483	1482	1475	1472	1468	1464	1471	1491	1520	1523	1514	1515	1520	1516	1513	1501	0	0	0	0	0	0	0	0	0	0	0	0	0	0	909	904	894	887	884	891	896	926	941	952	948	925	884	866	871	885	898	910	914	916	924	931	937	920	897	891	894	902	892	869	869	878	885	896	908	916	922	925	922	912	908	900	900	908	916	913	919	927	935	935	933	945	959	997	1043	1215	1340	1363	1415	1451	1463	1460	1459	1459	1459	1458	1462	1464	1458	1456	1457	1454	1455	1466	1481	1486	1477	1489	1492	1474	1470	1455	1455	1457	1460	1461	1461	1464	1468	1464	1478	1464	1471	1475	1486	1484	1481	1478	1478	1475	1473	1474	1464	1472	1475	1500	1517	1512	1470	1474	1474	1478	1480	1491	1497	1498	1497	1494	1491	1475	1467	1464	1462	1463	1460	1461	1470	1457	1447	1435	1448	1477	1484	1477	1455	1463	1474	1476	1473	1468	1462	1472	1478	1482	1490	1493	1486	1475	1450	1432	1428	1459	1471	1487	1484	1491	1487	1478	1471	1479	1489	1500	1490	1504	1512	1524	1528	1515	1502	1496	1488	1474	1468	1458	1448	1453	1455	1455	1439	1426	1424	1436	1463	1476	1484	1469	1456	1456	1449	1444	1442	1429	1433	1439	1457	1465	1474	1474	1474	1474	1467	1439	1438	1438	1457	1460	1470	1476	1481	1485	1470	0	0	0	0	0	0	0
0	0	0	0	0	0	0	0	0	0	0	0	0	0	0	0	0	0	0	0	0	0	0	0	0	0	0	0	0	0	0	0	0	0	0	0	0	0	0	0	0	0	0	0	0	0	0	0	0	0	0	0	0	0	0	0	0	0	0	0	0	0	0	0	0	0	0	0	0	0	0	0	0	0	0	0	0	0	0	0	0	0	0	0	0	0	0	0	0	0	0	0	0	1415	1435	1445	1449	1446	1440	1429	1443	1456	1466	1480	1491	1474	1468	1470	1472	1461	1453	1442	1449	1453	1454	1461	1464	1467	1468	1459	1446	1446	1447	1456	1460	1470	1486	1493	1491	1488	1479	1470	1465	1461	1463	1460	1458	1459	1465	1468	1474	1483	1476	1467	1453	1442	1442	1457	1473	1479	1465	1473	1485	1490	1481	1460	1449	1454	1460	1475	1485	1492	1486	1476	1475	1491	1492	1496	1493	1490	1480	1476	1469	1480	1475	1463	1446	1431	1431	1448	1457	1465	1462	1451	1434	1424	1426	1430	1441	1455	1440	1437	1442	1444	1444	1438	1438	1382	1284	1163	1087	1065	1056	1060	1054	1044	1043	1042	1046	1034	1030	1034	1040	1045	1057	1067	1074	1071	1060	1053	1045	1035	1019	1006	1000	992	959	946	942	937	938	945	953	961	953	947	940	939	937	939	934	924	919	913	916	925	934	960	0	0	0	0	0	0	0	0	0	0	0	0	0	1387	1446	1427	1408	1395	1431	1438	1451	1478	1501	1501	1500	1494	1493	1485	1486	1484	1474	1462	1457	1452	1477	1487	1483	1456	1445	1426	1418	1479	1488	1496	1490	1495	1497	1491	1489	1490	1493	1491	1487	1488	1498	1510	1516	1493	1491	1502	1502	1510	1499	1502	1493	1490	1504	1473	1453	1455	1461	1481	1482	1487	1479	1476	1478	1483	1486	1478	1460	1447	1461	1496	1498	1501	1497	1489	1500	1516	1530	1532	1524	1507	1503	1485	1470	1461	1460	1462	1471	1479	1487	1491	1489	1498	1490	1487	1479	1471	1465	1464	1466	1473	1487	1491	1501	1518	1531	1526	1509	1499	1487	1488	1479	1476	1469	1469	1472	1482	1477	1466	1462	1461	1468	1479	1481	1480	1472	1467	1459	1466	1475	1486	1485	1490	1492	1473	1461	1458	1468	1506	1521	1526	1523	1519	1514	1502	1493	1487	1459	0	0	0	0	0	0	0	0	0	0	0	0	0	911	895	875	868	860	863	876	915	926	935	928	907	875	864	869	880	890	896	899	899	905	916	919	898	877	866	875	877	862	854	859	867	877	883	891	897	900	903	900	895	888	888	894	900	901	897	899	910	919	914	910	908	919	940	969	1002	1157	1247	1299	1358	1441	1455	1448	1450	1450	1443	1439	1447	1452	1452	1452	1450	1445	1458	1480	1493	1495	1493	1498	1493	1479	1465	1466	1471	1471	1481	1485	1489	1499	1508	1497	1486	1470	1472	1479	1490	1490	1486	1485	1482	1474	1475	1479	1480	1486	1490	1500	1486	1450	1455	1463	1481	1493	1507	1513	1512	1510	1513	1507	1493	1469	1448	1442	1439	1446	1460	1459	1456	1434	1426	1441	1461	1477	1470	1467	1471	1485	1487	1483	1479	1484	1492	1502	1513	1516	1513	1494	1480	1468	1449	1447	1462	1485	1504	1502	1493	1496	1493	1487	1478	1477	1489	1490	1497	1509	1523	1520	1514	1508	1502	1493	1455	1434	1434	1432	1443	1454	1447	1438	1421	1421	1441	1471	1494	1486	1473	1459	1459	1457	1462	1451	1443	1432	1428	1433	1442	1452	1468	1476	1475	1472	1441	1441	1441	1447	1473	1487	1491	1493	1498	0	0	0	0	0	0	0	0
0	0	0	0	0	0	0	0	0	0	0	0	0	0	0	0	0	0	0	0	0	0	0	0	0	0	0	0	0	0	0	0	0	0	0	0	0	0	0	0	0	0	0	0	0	0	0	0	0	0	0	0	0	0	0	0	0	0	0	0	0	0	0	0	0	0	0	0	0	0	0	0	0	0	0	0	0	0	0	0	0	0	0	0	0	0	0	0	0	0	0	0	0	1441	1459	1463	1460	1454	1445	1439	1450	1473	1480	1487	1489	1459	1464	1459	1461	1432	1409	1398	1409	1437	1456	1463	1470	1472	1468	1468	1456	1448	1451	1453	1452	1463	1477	1490	1488	1485	1479	1487	1479	1469	1459	1456	1461	1469	1470	1467	1466	1465	1466	1469	1467	1461	1455	1469	1489	1486	1459	1450	1463	1473	1461	1448	1442	1453	1458	1471	1488	1495	1495	1491	1477	1484	1480	1490	1490	1491	1491	1480	1476	1485	1483	1478	1447	1436	1446	1467	1465	1462	1454	1464	1449	1450	1454	1471	1477	1473	1462	1445	1445	1433	1425	1340	1223	1195	1155	1097	1072	1061	1061	1063	1059	1057	1058	1063	1061	1043	1038	1038	1046	1053	1054	1069	1072	1065	1058	1058	1058	1047	1025	1005	1002	996	973	0	0	0	0	0	0	957	953	950	953	953	953	955	945	929	920	923	0	0	0	0	0	0	0	0	0	0	0	0	0	0	0	0	1397	1460	1456	1431	1421	1430	1433	1433	1432	1474	1517	1515	1503	1500	1496	1495	1492	1488	1480	1464	1459	1450	1455	1470	1471	1463	1438	1434	1435	1461	1481	1490	1485	1495	1492	1491	1484	1483	1493	1492	1492	1496	1507	1515	1515	1514	1495	1485	1479	1490	1512	1512	1511	1509	1495	1464	1462	1462	1466	1486	1494	1490	1477	1469	1471	1482	1488	1462	1449	1449	1463	1492	1502	1494	1491	1495	1505	1524	1535	1532	1516	1500	1504	1479	1465	1459	1460	1468	1469	1472	1478	1484	1494	1507	1507	1509	1495	1483	1470	1475	1484	1486	1481	1481	1497	1513	1534	1526	1513	1494	1493	1488	1476	1475	1465	1470	1475	1476	1478	1468	1458	1463	1473	1484	1496	1495	1484	1478	1471	1465	1464	1468	1478	1484	1497	1476	1459	1454	1473	1494	1514	1521	1520	1515	1506	1491	1489	1480	1484	1515	0	0	0	0	0	0	0	0	0	0	0	0	0	892	870	852	838	826	833	891	899	905	896	890	875	863	866	872	875	881	877	873	888	897	899	887	867	856	859	860	850	849	854	862	869	878	883	881	879	878	882	882	884	888	893	896	897	891	895	905	909	904	894	887	887	898	914	936	958	1020	1079	1128	1224	1402	1411	1418	1427	1427	1430	1441	1444	1448	1449	1442	1445	1448	1470	1487	1487	1488	1493	1487	1478	1476	1471	1469	1476	1482	1484	1486	1500	1514	1512	1500	1467	1465	1467	1473	1491	1496	1488	1483	1477	1481	1486	1489	1480	1480	1476	1468	1444	1453	1461	1476	1493	1507	1507	1516	1508	1508	1511	1497	1466	1440	1421	1423	1443	1453	1458	1458	1430	1430	1443	1465	1475	1477	1472	1481	1491	1493	1491	1488	1496	1510	1536	1538	1548	1530	1502	1483	1476	1477	1471	1487	1505	1511	1512	1504	1505	1502	1487	1474	1472	1471	1470	1476	1490	1497	1501	1492	1493	1490	1481	1456	1436	1427	1427	1440	1454	1453	1444	1429	1430	1451	1478	1494	1489	1475	1475	1467	1467	1478	1473	1473	1457	1437	1434	1445	1460	1477	1481	1481	1461	1452	1452	1455	1468	1486	1493	1492	1497	1510	0	0	0	0	0	0	0	0
0	0	0	0	0	0	0	0	0	0	0	0	0	0	0	0	0	0	0	0	0	0	0	0	0	0	0	0	0	0	0	0	0	0	0	0	0	0	0	0	0	0	0	0	0	0	0	0	0	0	0	0	0	0	0	0	0	0	0	0	0	0	0	0	0	0	0	0	0	0	0	0	0	0	0	0	0	0	0	0	0	0	0	0	0	0	0	0	0	0	0	0	0	1460	1471	1467	1464	1449	1441	1431	1448	1475	1480	1480	1482	1470	1465	1461	1458	1440	1396	1393	1413	1433	1457	1475	1478	1487	1484	1485	1472	1462	1460	1455	1446	1451	1461	1470	1468	1465	1470	1477	1481	1468	1451	1458	1471	1476	1475	1463	1455	1459	1467	1475	1483	1479	1475	1480	1498	1489	1449	1431	1438	1449	1444	1443	1433	1435	1440	1458	1473	1488	1489	1481	1480	1488	1485	1484	1493	1495	1492	1482	1470	1476	1476	1478	1469	1468	1473	1478	1466	1463	1464	1459	1466	1460	1473	1479	1482	1471	1451	1435	1424	1368	1292	1170	1121	1121	1100	1084	1079	1074	1079	1079	1078	1076	1082	1086	1086	1074	1067	1063	1064	1069	1078	1085	1089	1082	1075	1072	1068	1055	1036	0	0	0	0	0	0	0	0	0	0	0	0	0	0	0	0	0	0	0	0	0	0	0	0	0	0	0	0	0	0	0	0	0	0	0	0	1393	1458	1470	1468	1451	1432	1434	1438	1439	1489	1503	1523	1521	1504	1502	1502	1504	1501	1491	1486	1470	1464	1453	1458	1464	1475	1455	1457	1446	1450	1463	1479	1497	1496	1490	1490	1483	1483	1480	1492	1493	1495	1500	1510	1516	1518	1512	1503	1494	1482	1472	1489	1539	1538	1519	1474	1476	1479	1478	1481	1507	1512	1498	1480	1469	1471	1488	1482	1461	1447	1450	1460	1487	1480	1477	1485	1497	1509	1511	1513	1508	1489	1475	1464	1476	1477	1472	1468	1471	1470	1470	1472	1476	1491	1513	1524	1525	1512	1495	1480	1478	1482	1494	1477	1467	1475	1499	1514	1521	1509	1496	1490	1487	1481	1474	1473	1473	1478	1483	1480	1474	1471	1463	1471	1492	1504	1511	1500	1484	1465	1456	1454	1455	1462	1473	1494	1482	1456	1465	1476	1484	1494	1500	1501	1502	1495	1485	1480	1481	1485	1494	1484	0	0	0	0	0	0	0	0	0	0	0	0	0	889	859	837	809	801	828	863	874	876	871	864	863	860	860	857	860	862	862	863	870	873	862	851	846	851	857	846	844	844	851	866	877	884	880	878	871	869	881	883	891	891	896	894	899	903	900	893	882	878	870	870	872	877	891	909	933	965	1007	1039	1319	1358	1380	1394	1415	1428	1437	1438	1441	1444	1442	1442	1434	1449	1454	1461	1464	1468	1465	1467	1468	1469	1466	1464	1465	1472	1480	1487	1496	1503	1469	1461	1470	1463	1475	1494	1496	1489	1483	1479	1480	1482	1476	1473	1470	1472	1469	1452	1455	1461	1478	1496	1507	1507	1509	1501	1500	1495	1477	1453	1426	1405	1411	1433	1452	1463	1462	1447	1447	1459	1475	1481	1474	1475	1487	1494	1495	1494	1491	1499	1512	1535	1547	1553	1522	1494	1487	1485	1488	1499	1508	1513	1509	1512	1506	1508	1504	1495	1475	1460	1454	1451	1457	1469	1476	1476	1469	1471	1470	1473	1473	1451	1438	1442	1456	1463	1465	1470	1464	1459	1456	1480	1489	1482	1468	1468	1461	1467	1478	1494	1489	1484	1477	1456	1458	1469	1481	1478	1472	1444	1447	1447	1462	1477	1484	1488	1479	1483	1497	0	0	0	0	0	0	0	0
0	0	0	0	0	0	0	0	0	0	0	0	0	0	0	0	0	0	0	0	0	0	0	0	0	0	0	0	0	0	0	0	0	0	0	0	0	0	0	0	0	0	0	0	0	0	0	0	0	0	0	0	0	0	0	0	0	0	0	0	0	0	0	0	0	0	0	0	0	0	0	0	0	0	0	0	0	0	0	0	0	0	0	0	0	0	0	0	0	0	0	0	0	1474	1478	1467	1453	1443	1428	1426	1437	1453	1464	1464	1462	1468	1469	1472	1468	1458	1437	1419	1427	1448	1470	1482	1485	1491	1499	1495	1487	1471	1465	1454	1445	1447	1455	1462	1458	1450	1451	1468	1465	1436	1435	1456	1470	1478	1474	1471	1465	1466	1481	1498	1499	1492	1483	1479	1489	1489	1439	1424	1434	1440	1439	1429	1424	1426	1430	1445	1451	1447	1441	1445	1471	1490	1485	1483	1494	1498	1490	1472	1467	1459	1465	1463	1465	1465	1469	1482	1480	1483	1474	1479	1475	1481	1485	1485	1472	1444	1409	1379	1323	1220	0	0	0	0	0	0	0	0	0	0	1120	1112	1120	1121	1121	1114	1113	1113	1103	1107	1110	1118	1123	1121	0	0	0	0	0	0	0	0	0	0	0	0	0	0	0	0	0	0	0	0	0	0	0	0	0	0	0	0	0	0	0	0	0	0	0	0	0	0	0	0	1394	1452	1481	1483	1480	1470	1436	1433	1445	1456	1495	1516	1514	1520	1506	1501	1504	1506	1504	1501	1498	1486	1474	1470	1461	1468	1480	1474	1444	1448	1448	1449	1469	1502	1496	1496	1487	1480	1480	1487	1490	1494	1494	1502	1506	1514	1516	1509	1502	1495	1476	1471	1505	1538	1554	1515	1485	1491	1496	1502	1512	1528	1529	1513	1488	1471	1476	1494	1502	1486	1470	1469	1470	1470	1467	1468	1469	1478	1492	1495	1496	1480	1461	1460	1467	1492	1493	1486	1487	1492	1484	1486	1483	1486	1491	1505	1526	1527	1510	1498	1488	1479	1476	1476	1460	1451	1463	1478	1497	1503	1500	1500	1496	1500	1490	1479	1472	1472	1476	1483	1484	1489	1474	1478	1485	1505	1522	1518	1508	1496	1478	1468	1468	1463	1460	1483	1484	1473	1459	1468	1479	1481	1479	1479	1487	1493	1486	1483	1483	1481	1480	1477	1484	1448	0	0	0	0	0	0	0	0	0	0	0	0	0	898	856	810	802	822	840	851	857	856	853	852	845	841	832	839	844	846	845	849	851	843	836	838	847	849	837	832	832	845	857	873	876	872	869	865	876	877	884	887	884	882	885	908	908	896	877	862	857	855	856	853	856	858	866	883	899	927	952	1035	1131	1216	1355	1398	1413	1423	1423	1428	1429	1426	1389	1377	1379	1411	1452	1458	1452	1442	1446	1462	1473	1478	1472	1472	1470	1477	1488	1489	1488	1468	1469	1481	1483	1486	1482	1482	1482	1487	1487	1485	1483	1479	1466	1459	1468	1477	1465	1463	1469	1480	1493	1498	1500	1489	1494	1491	1482	1464	1437	1414	1410	1416	1436	1459	1471	1470	1455	1462	1475	1484	1485	1484	1482	1480	1488	1492	1487	1494	1488	1492	1518	1536	1536	1518	1489	1483	1485	1496	1491	1498	1481	1484	1486	1496	1498	1502	1493	1479	1464	1448	1440	1446	1456	1466	1462	1464	1461	1465	1468	1471	1467	1456	1457	1464	1468	1471	1469	1467	1461	1464	1459	1467	1477	1471	1471	1469	1468	1473	1480	1491	1493	1490	1483	1458	1464	1471	1460	1443	1436	1447	1447	1456	1468	1472	1473	1476	1475	1482	0	0	0	0	0	0	0	0
0	0	0	0	0	0	0	0	0	0	0	0	0	0	0	0	0	0	0	0	0	0	0	0	0	0	0	0	0	0	0	0	0	0	0	0	0	0	0	0	0	0	0	0	0	0	0	0	0	0	0	0	0	0	0	0	0	0	0	0	0	0	0	0	0	0	0	0	0	0	0	0	0	0	0	0	0	0	0	0	0	0	0	0	0	0	0	0	0	0	0	0	0	1474	1475	1463	1447	1432	1430	1425	1425	1435	1441	1450	1447	1469	1483	1485	1481	1471	1458	1441	1445	1462	1477	1486	1489	1493	1493	1495	1487	1477	1460	1451	1439	1442	1462	1466	1466	1454	1455	1469	1458	1440	1435	1448	1463	1474	1477	1472	1473	1477	1492	1506	1505	1500	1482	1473	1470	1458	1437	1440	1442	1444	1441	1427	1417	1425	1436	1445	1451	1441	1432	1430	1455	1476	1486	1491	1492	1493	1487	1473	1453	1452	1453	1459	1458	1448	1460	1478	1485	1485	1484	1481	1467	1454	1431	1479	1436	1372	1273	1220	1164	0	0	0	0	0	0	0	0	0	0	0	0	0	1162	1158	1160	1161	1167	1175	1173	1167	1161	1161	0	0	0	0	0	0	0	0	0	0	0	0	0	0	0	0	0	0	0	0	0	0	0	0	0	0	0	0	0	0	0	0	0	0	0	0	0	0	0	0	0	1378	1451	1490	1495	1495	1502	1489	1497	1464	1475	1485	1490	1512	1518	1516	1497	1511	1508	1502	1502	1511	1512	1512	1488	1480	1474	1476	1477	1481	1432	1434	1444	1446	1461	1498	1502	1505	1499	1493	1500	1514	1526	1534	1543	1542	1532	1512	1511	1502	1493	1458	1470	1490	1508	1532	1520	1487	1491	1502	1514	1528	1538	1541	1530	1513	1478	1473	1486	1512	1521	1504	1491	1479	1475	1470	1463	1463	1458	1461	1479	1485	1482	1464	1454	1465	1493	1506	1504	1503	1501	1502	1501	1500	1501	1495	1489	1483	1492	1504	1498	1494	1488	1483	1475	1472	1460	1458	1467	1470	1477	1484	1491	1495	1506	1510	1497	1491	1481	1482	1485	1484	1490	1497	1489	1491	1506	1520	1525	1528	1521	1508	1495	1496	1488	1479	1469	1480	1479	1466	1467	1473	1478	1476	1482	1482	1488	1497	1499	1497	1493	1491	1487	1474	1471	1454	0	0	0	0	0	0	0	0	0	0	0	0	0	0	0	835	804	819	833	837	841	842	837	834	834	833	821	824	831	831	834	838	837	829	826	829	835	829	814	812	816	827	842	856	857	854	852	853	867	875	879	878	870	860	868	903	907	893	867	841	835	837	829	841	838	844	848	854	867	882	897	923	962	967	1063	1296	1352	1385	1321	1342	1346	1354	1356	1360	1372	1405	1446	1450	1442	1435	1439	1456	1466	1475	1472	1472	1473	1473	1479	1493	1486	1480	1489	1488	1495	1493	1483	1471	1477	1486	1496	1490	1490	1483	1476	1454	1458	1475	1475	1469	1471	1487	1501	1495	1483	1477	1482	1481	1476	1456	1434	1427	1420	1431	1448	1458	1470	1472	1461	1472	1477	1477	1478	1483	1478	1475	1472	1474	1483	1485	1475	1473	1499	1524	1529	1511	1483	1479	1480	1482	1475	1465	1453	1460	1468	1476	1482	1492	1495	1478	1463	1450	1446	1454	1466	1473	1471	1464	1464	1465	1468	1476	1471	1466	1467	1474	1480	1474	1467	1466	1463	1461	1459	1472	1495	1502	1489	1480	1468	1451	1452	1457	1469	1477	1459	1452	1454	1452	1445	1439	1435	1447	1447	1448	1456	1457	1466	1475	1490	1485	0	0	0	0	0	0	0	0
0	0	0	0	0	0	0	0	0	0	0	0	0	0	0	0	0	0	0	0	0	0	0	0	0	0	0	0	0	0	0	0	0	0	0	0	0	0	0	0	0	0	0	0	0	0	0	0	0	0	0	0	0	0	0	0	0	0	0	0	0	0	0	0	0	0	0	0	0	0	0	0	0	0	0	0	0	0	0	0	0	0	0	0	0	0	0	0	0	0	0	0	0	0	1470	1460	1453	1444	1446	1446	1442	1440	1442	1447	1462	1479	1488	1496	1497	1485	1470	1450	1446	1461	1472	1478	1472	1472	1477	1481	1478	1468	1453	1436	1431	1444	1465	1481	1481	1473	1471	1476	1465	1448	1440	1447	1454	1463	1468	1471	1465	1470	1478	1489	1491	1489	1480	1475	1465	1430	1433	1451	1456	1453	1444	1432	1426	1430	1438	1448	1458	1460	1453	1452	1460	1470	1473	1478	1490	1498	1484	1473	1453	1451	1453	1454	1454	1445	1450	1467	1483	1481	1461	1430	1323	1197	0	0	0	0	0	0	0	0	0	0	0	0	0	0	0	0	0	0	0	0	1200	1194	1194	1198	1215	1224	1216	1202	1187	1187	0	0	0	0	0	0	0	0	0	0	0	0	0	0	0	0	0	0	0	0	0	0	0	0	0	0	0	0	0	0	0	0	0	0	0	0	0	0	0	0	1355	1437	1481	1488	1499	1502	1506	1506	1511	1513	1500	1504	1522	1538	1524	1513	1483	1524	1508	1498	1507	1517	1508	1500	1506	1498	1485	1479	1479	1477	1431	1426	1433	1459	1463	1500	1505	1511	1498	1487	1469	1484	1499	1502	1504	1494	1529	1518	1502	1492	1466	1483	1506	1497	1503	1517	1500	1493	1497	1506	1524	1538	1545	1541	1521	1503	1474	1458	1476	1513	1522	1515	1495	1479	1471	1473	1478	1466	1459	1460	1470	1484	1476	1464	1464	1496	1507	1513	1517	1507	1503	1502	1504	1504	1508	1503	1495	1484	1478	1484	1487	1501	1508	1498	1485	1475	1466	1471	1469	1464	1464	1467	1484	1494	1482	1492	1496	1499	1497	1497	1496	1494	1494	1494	1497	1505	1512	1516	1524	1515	1517	1505	1507	1513	1506	1493	1485	1482	1480	1472	1477	1484	1479	1484	1489	1502	1502	1502	1504	1510	1509	1500	1485	1471	1462	1465	1473	0	0	0	0	0	0	0	0	0	0	0	0	0	0	811	806	820	827	826	822	816	814	810	819	826	823	819	814	814	820	831	833	832	824	828	833	812	793	788	796	809	822	833	838	840	844	841	855	861	866	861	854	848	850	895	895	879	854	834	825	822	824	827	831	836	838	839	846	853	861	869	889	913	940	906	933	967	1030	1237	1252	1264	1308	1326	1363	1397	1433	1441	1438	1436	1443	1450	1464	1469	1468	1470	1482	1489	1495	1500	1488	1495	1489	1493	1495	1497	1483	1472	1475	1483	1494	1498	1494	1487	1477	1451	1456	1471	1485	1477	1478	1492	1500	1486	1479	1472	1473	1477	1474	1458	1430	1433	1431	1441	1453	1453	1459	1469	1468	1471	1476	1470	1474	1474	1469	1458	1456	1464	1474	1470	1458	1452	1476	1508	1521	1515	1496	1481	1476	1473	1464	1456	1455	1461	1463	1462	1466	1474	1482	1479	1469	1453	1459	1467	1477	1481	1473	1463	1455	1455	1459	1469	1481	1477	1478	1491	1492	1481	1470	1463	1458	1459	1459	1471	1496	1496	1490	1479	1442	1430	1421	1420	1432	1437	1428	1434	1443	1440	1441	1446	1455	1455	1457	1450	1447	1445	1453	1471	1490	1467	0	0	0	0	0	0	0	0
0	0	0	0	0	0	0	0	0	0	0	0	0	0	0	0	0	0	0	0	0	0	0	0	0	0	0	0	0	0	0	0	0	0	0	0	0	0	0	0	0	0	0	0	0	0	0	0	0	0	0	0	0	0	0	0	0	0	0	0	0	0	0	0	0	0	0	0	0	0	0	0	0	0	0	0	0	0	0	0	0	0	0	0	0	0	0	0	0	0	0	0	0	0	1448	1439	1441	1445	1459	1462	1465	1454	1453	1453	1474	1493	1502	1501	1496	1486	1471	1453	1436	1433	1439	1450	1449	1448	1454	1464	1468	1454	1444	1430	1427	1439	1466	1488	1490	1480	1480	1482	1471	1454	1443	1447	1455	1449	1449	1456	1446	1451	1458	1474	1471	1472	1477	1465	1446	1428	1436	1458	1469	1462	1451	1443	1444	1447	1455	1460	1466	1471	1465	1469	1478	1464	1463	1465	1479	1493	1492	1469	1458	1456	1449	1444	1441	1436	1439	1449	1446	1406	1340	1211	0	0	0	0	0	0	0	0	0	0	0	0	0	0	0	0	0	0	0	0	0	0	0	1207	1213	1224	1230	1232	1230	1211	1193	1185	0	0	0	0	0	0	0	0	0	0	0	0	0	0	0	0	0	0	0	0	0	0	0	0	0	0	0	0	0	0	0	0	0	0	0	0	0	0	0	1354	1430	1466	1480	1492	1516	1520	1490	1492	1502	1510	1501	1503	1516	1540	1528	1520	1487	1456	1445	1445	1484	1516	1515	1502	1511	1506	1497	1486	1478	1470	1428	1423	1429	1476	1479	1501	1502	1509	1495	1478	1459	1485	1499	1503	1500	1493	1532	1516	1501	1488	1486	1505	1504	1498	1514	1502	1493	1493	1500	1507	1522	1538	1544	1537	1526	1498	1466	1456	1465	1508	1518	1511	1482	1460	1461	1471	1488	1484	1480	1485	1492	1499	1498	1475	1460	1465	1491	1497	1503	1497	1502	1487	1461	1467	1471	1485	1487	1488	1488	1483	1490	1501	1513	1521	1505	1487	1486	1481	1474	1466	1461	1455	1455	1455	1465	1478	1488	1497	1511	1514	1507	1492	1475	1471	1489	1498	1499	1500	1504	1500	1508	1498	1500	1509	1515	1503	1495	1496	1491	1489	1495	1496	1487	1493	1502	1500	1502	1502	1507	1512	1508	1493	1480	1464	1456	1456	1473	1478	0	0	0	0	0	0	0	0	0	0	0	0	0	0	814	818	821	819	809	796	789	792	802	814	820	815	806	802	808	819	833	832	834	835	838	807	783	770	778	793	809	820	831	836	834	836	838	844	852	849	838	832	833	874	875	868	849	835	824	820	821	823	823	819	817	816	821	832	831	828	805	810	825	851	861	876	888	958	1059	1110	1208	1277	1323	1369	1427	1439	1453	1455	1457	1457	1468	1471	1477	1474	1485	1499	1499	1490	1489	1496	1500	1490	1486	1487	1480	1481	1481	1486	1493	1496	1494	1485	1467	1447	1448	1472	1489	1494	1501	1504	1502	1495	1482	1476	1476	1472	1464	1451	1430	1436	1437	1449	1455	1454	1451	1455	1472	1473	1475	1475	1463	1462	1464	1453	1446	1448	1456	1458	1448	1450	1460	1492	1505	1507	1497	1477	1470	1469	1468	1465	1463	1468	1466	1461	1464	1470	1477	1476	1475	1466	1474	1480	1486	1481	1468	1451	1444	1441	1454	1468	1475	1486	1493	1506	1498	1492	1482	1471	1466	1465	1469	1475	1485	1485	1477	1469	1460	1431	1411	1405	1407	1421	1423	1431	1436	1446	1452	1460	1472	1472	1474	1455	1439	1436	1443	1457	1480	1454	0	0	0	0	0	0	0	0
0	0	0	0	0	0	0	0	0	0	0	0	0	0	0	0	0	0	0	0	0	0	0	0	0	0	0	0	0	0	0	0	0	0	0	0	0	0	0	0	0	0	0	0	0	0	0	0	0	0	0	0	0	0	0	0	0	0	0	0	0	0	0	0	0	0	0	0	0	0	0	0	0	0	0	0	0	0	0	0	0	0	0	0	0	0	0	0	0	0	0	0	0	0	1436	1427	1425	1435	1454	1469	1473	1464	1463	1467	1489	1500	1499	1496	1483	1475	1462	1451	1430	1427	1433	1446	1447	1450	1450	1452	1453	1448	1435	1426	1422	1440	1463	1486	1489	1484	1491	1493	1467	1446	1443	1450	1452	1442	1422	1401	1416	1428	1446	1464	1469	1469	1468	1457	1442	1431	1442	1463	1475	1468	1463	1458	1460	1465	1465	1462	1468	1475	1484	1491	1491	1464	1462	1467	1479	1488	1486	1476	1463	1445	1442	1440	1427	1421	1417	1366	1207	1135	0	0	0	0	0	0	0	0	0	0	0	0	0	0	0	0	0	0	0	0	0	0	0	0	0	1221	1229	1230	1229	1226	1219	1198	1181	1169	0	0	0	0	0	0	0	0	0	0	0	0	0	0	0	0	0	0	0	0	0	0	0	0	0	0	0	0	0	0	0	0	0	0	0	0	0	0	0	1397	1446	1473	1479	1515	1510	1488	1468	1488	1507	1465	1479	1493	1498	1517	1505	1498	1489	1473	1475	1472	1478	1486	1491	1525	1503	1487	1488	1487	1479	1465	1427	1429	1429	1480	1492	1501	1502	1498	1488	1475	1474	1493	1523	1547	1552	1542	1536	1507	1501	1492	1497	1496	1496	1490	1504	1502	1487	1491	1487	1490	1501	1509	1535	1535	1522	1502	1478	1471	1474	1503	1517	1509	1484	1469	1465	1475	1493	1500	1496	1497	1497	1486	1481	1479	1465	1479	1488	1492	1505	1500	1500	1503	1474	1464	1471	1477	1492	1492	1489	1480	1490	1508	1519	1521	1507	1500	1491	1483	1477	1469	1467	1461	1461	1465	1470	1471	1477	1493	1509	1513	1500	1478	1462	1457	1467	1481	1482	1480	1482	1493	1496	1495	1497	1509	1512	1504	1503	1507	1510	1508	1502	1490	1488	1501	1506	1510	1507	1508	1508	1517	1509	1496	1473	1463	1455	1456	1463	1454	0	0	0	0	0	0	0	0	0	0	0	0	0	0	0	856	823	800	790	779	775	777	788	796	810	811	798	796	798	814	830	834	831	835	835	810	783	771	771	790	808	820	826	832	832	831	825	830	832	834	825	816	830	847	855	847	838	829	822	817	818	816	810	796	789	792	795	787	794	790	789	791	804	828	837	839	840	843	885	954	1026	1136	1210	1263	1406	1415	1444	1461	1460	1462	1475	1481	1480	1481	1483	1490	1483	1475	1473	1494	1491	1475	1470	1468	1482	1488	1491	1496	1503	1500	1493	1474	1445	1430	1446	1468	1492	1510	1521	1516	1506	1498	1489	1487	1484	1474	1465	1440	1435	1436	1441	1451	1454	1448	1452	1454	1481	1473	1483	1476	1462	1470	1464	1466	1449	1448	1446	1448	1444	1449	1461	1477	1482	1485	1478	1471	1466	1465	1470	1473	1476	1481	1487	1476	1473	1477	1477	1479	1477	1478	1481	1493	1484	1470	1457	1440	1433	1434	1443	1456	1468	1490	1508	1514	1509	1493	1486	1478	1475	1470	1474	1483	1480	1480	1477	1474	1463	1441	1425	1413	1423	1420	1431	1441	1458	1471	1471	1478	1485	1485	1471	1455	1442	1432	1435	1449	1467	1447	1438	0	0	0	0	0	0	0
0	0	0	0	0	0	0	0	0	0	0	0	0	0	0	0	0	0	0	0	0	0	0	0	0	0	0	0	0	0	0	0	0	0	0	0	0	0	0	0	0	0	0	0	0	0	0	0	0	0	0	0	0	0	0	0	0	0	0	0	0	0	0	0	0	0	0	0	0	0	0	0	0	0	0	0	0	0	0	0	0	0	0	0	0	0	0	0	0	0	0	0	0	0	1431	1420	1418	1433	1453	1469	1482	1476	1477	1478	1492	1496	1494	1484	1467	1454	1448	1439	1432	1427	1440	1459	1455	1456	1456	1453	1450	1442	1438	1435	1427	1441	1464	1480	1482	1491	1496	1507	1473	1450	1441	1444	1451	1436	1410	1391	1402	1428	1454	1471	1479	1461	1450	1445	1447	1439	1459	1474	1478	1477	1473	1469	1473	1471	1475	1471	1472	1472	1486	1492	1487	1469	1470	1477	1478	1481	1480	1473	1453	1433	1417	1406	1360	1258	1137	0	0	0	0	0	0	0	0	0	0	0	0	0	0	0	0	0	0	0	0	0	0	0	0	0	1171	1186	1202	1223	1229	1215	1201	1213	1200	1181	1168	0	0	0	0	0	0	0	0	0	0	0	0	0	0	0	0	0	0	0	0	0	0	0	0	0	0	0	0	911	0	0	0	0	0	0	0	0	0	0	1377	1431	1461	1475	1483	1505	1500	1486	1471	1460	1450	1447	1453	1471	1480	1478	1487	1490	1491	1480	1479	1481	1487	1492	1489	1484	1477	1480	1483	1485	1484	1466	1423	1433	1432	1475	1494	1504	1500	1493	1489	1491	1493	1495	1502	1511	1517	1514	1511	1508	1501	1495	1508	1499	1485	1478	1491	1500	1500	1492	1475	1483	1484	1490	1513	1519	1512	1497	1485	1487	1499	1514	1517	1510	1493	1488	1497	1502	1499	1499	1502	1499	1487	1485	1496	1464	1497	1511	1514	1501	1506	1507	1496	1501	1499	1483	1479	1488	1494	1490	1481	1478	1494	1508	1518	1515	1500	1487	1476	1471	1471	1470	1471	1465	1470	1464	1466	1462	1465	1476	1496	1503	1486	1469	1454	1455	1459	1474	1471	1467	1476	1483	1492	1487	1486	1498	1507	1505	1512	1517	1511	1492	1474	1479	1494	1508	1521	1518	1517	1513	1512	1509	1510	1496	1482	1470	1462	1463	1464	1466	1449	0	0	0	0	0	0	0	0	0	0	0	0	0	0	0	0	836	789	776	768	771	779	785	789	793	792	790	796	808	812	815	813	821	821	810	792	781	777	792	810	824	825	824	824	818	815	815	814	819	813	803	800	813	826	826	816	808	803	806	809	809	803	790	775	771	776	781	790	778	772	778	801	814	820	823	822	814	820	848	889	909	950	1061	1213	1327	1384	1433	1441	1452	1461	1478	1485	1490	1488	1486	1465	1455	1458	1486	1477	1460	1447	1450	1470	1484	1500	1502	1512	1511	1498	1476	1440	1436	1440	1466	1481	1506	1515	1513	1502	1498	1501	1499	1492	1480	1463	1438	1436	1436	1447	1458	1459	1456	1458	1466	1480	1477	1478	1483	1482	1474	1474	1469	1461	1453	1452	1453	1451	1460	1469	1470	1463	1455	1462	1467	1469	1462	1458	1466	1479	1490	1491	1491	1491	1481	1480	1476	1474	1477	1485	1486	1485	1471	1456	1444	1439	1437	1442	1448	1457	1471	1497	1508	1495	1485	1488	1483	1488	1491	1491	1485	1485	1483	1478	1474	1461	1442	1427	1424	1429	1441	1443	1464	1475	1483	1488	1488	1492	1492	1478	1458	1451	1445	1444	1448	1449	1451	1425	0	0	0	0	0	0	0
0	0	0	0	0	0	0	0	0	0	0	0	0	0	0	0	0	0	0	0	0	0	0	0	0	0	0	0	0	0	0	0	0	0	0	0	0	0	0	0	0	0	0	0	0	0	0	0	0	0	0	0	0	0	0	0	0	0	0	0	0	0	0	0	0	0	0	0	0	0	0	0	0	0	0	0	0	0	0	0	0	0	0	0	0	0	0	0	0	0	0	0	0	0	1450	1432	1427	1435	1458	1477	1489	1486	1482	1488	1489	1497	1491	1468	1452	1440	1440	1438	1435	1433	1446	1469	1472	1457	1456	1453	1450	1451	1446	1446	1447	1452	1459	1469	1475	1483	1486	1509	1486	1452	1439	1437	1446	1444	1427	1409	1430	1444	1471	1490	1484	1463	1439	1428	1433	1444	1469	1471	1468	1475	1476	1475	1476	1471	1482	1485	1482	1483	1478	1482	1487	1483	1476	1480	1480	1469	1455	1446	1423	1392	1328	1244	1157	1042	0	0	0	0	0	0	0	0	0	0	0	0	0	0	1092	1099	1097	1086	0	0	0	0	0	1135	0	1166	1164	1175	1191	1205	1204	1187	1167	1168	0	0	0	0	0	0	0	0	0	0	0	0	0	0	0	0	0	0	0	0	0	0	0	0	0	0	0	0	0	0	899	907	918	0	0	0	0	0	0	0	1255	1358	1439	1467	1473	1482	1486	1481	1486	1488	1481	1461	1447	1446	1456	1465	1461	1466	1480	1484	1489	1481	1479	1488	1488	1494	1491	1488	1483	1478	1479	1483	1481	1478	1422	1425	1441	1441	1492	1511	1505	1495	1484	1475	1488	1492	1492	1485	1486	1493	1502	1498	1489	1485	1494	1498	1459	1472	1488	1494	1490	1484	1468	1475	1477	1484	1507	1509	1504	1492	1494	1504	1514	1518	1520	1514	1503	1493	1500	1505	1497	1496	1501	1491	1486	1484	1498	1499	1498	1512	1512	1506	1508	1495	1494	1501	1501	1496	1499	1502	1493	1484	1474	1485	1502	1511	1513	1504	1497	1483	1467	1467	1477	1482	1482	1479	1482	1472	1473	1467	1466	1475	1484	1489	1482	1468	1460	1469	1469	1480	1479	1476	1477	1478	1485	1490	1486	1494	1504	1502	1508	1494	1493	1480	1475	1479	1492	1508	1518	1522	1520	1518	1510	1509	1507	1499	1494	1480	1473	1467	1471	1480	1485	1510	0	0	0	0	0	0	0	0	0	0	0	0	0	0	0	0	826	789	775	773	776	780	776	776	776	783	790	792	789	794	796	801	813	808	803	793	788	795	808	821	822	814	809	805	801	797	800	801	798	788	771	782	794	803	796	785	778	791	801	787	782	780	776	776	776	784	787	772	760	761	772	784	802	803	801	795	790	799	821	841	856	895	967	1077	1178	1289	1351	1393	1417	1451	1480	1498	1496	1480	1467	1462	1462	1477	1467	1451	1436	1435	1445	1450	1467	1488	1502	1504	1500	1480	1453	1435	1437	1452	1471	1492	1497	1489	1481	1485	1491	1499	1494	1478	1461	1441	1437	1445	1451	1461	1452	1452	1458	1475	1495	1493	1491	1506	1503	1493	1480	1462	1454	1454	1462	1461	1460	1466	1474	1466	1452	1450	1457	1468	1461	1457	1454	1460	1474	1489	1493	1494	1495	1481	1468	1459	1462	1467	1482	1486	1484	1472	1461	1450	1449	1445	1443	1460	1469	1480	1489	1488	1479	1464	1471	1479	1488	1495	1497	1489	1489	1481	1477	1473	1459	1443	1428	1431	1438	1451	1449	1459	1471	1475	1481	1487	1481	1481	1468	1455	1448	1451	1441	1440	1439	1448	1451	0	0	0	0	0	0	0
0	0	0	0	0	0	0	0	0	0	0	0	0	0	0	0	0	0	0	0	0	0	0	0	0	0	0	0	0	0	0	0	0	0	0	0	0	0	0	0	0	0	0	0	0	0	0	0	0	0	0	0	0	0	0	0	0	0	0	0	0	0	0	0	0	0	0	0	0	0	0	0	0	0	0	0	0	0	0	0	0	0	0	0	0	0	0	0	0	0	0	0	0	0	1461	1450	1436	1439	1455	1478	1487	1480	1478	1477	1487	1486	1477	1462	1444	1439	1435	1438	1440	1442	1466	1476	1486	1473	1460	1455	1449	1456	1463	1475	1475	1467	1464	1461	1462	1463	1466	1479	1483	1459	1450	1435	1437	1449	1452	1428	1434	1452	1477	1490	1482	1459	1427	1419	1423	1437	1461	1447	1445	1456	1486	1483	1471	1473	1483	1492	1489	1479	1469	1468	1472	1468	1461	1465	1459	1447	1402	1368	1295	1209	1080	958	0	0	0	0	0	0	0	0	0	0	0	0	0	0	0	0	1082	1076	1067	0	0	0	0	0	1064	1082	1090	1106	1116	1153	1161	1164	1162	1148	1140	0	0	0	0	0	0	0	0	0	0	0	0	0	0	0	0	0	0	0	0	0	0	0	0	0	0	0	0	0	0	0	900	905	921	0	0	0	0	0	0	1316	1418	1439	1458	1476	1479	1479	1480	1475	1477	1478	1483	1479	1477	1471	1467	1460	1466	1470	1478	1486	1495	1489	1485	1486	1489	1491	1489	1487	1484	1477	1475	1477	1478	1481	1477	1416	1421	1480	1503	1518	1509	1496	1484	1482	1493	1499	1495	1488	1486	1489	1499	1494	1485	1480	1475	1468	1462	1470	1482	1491	1496	1484	1489	1489	1484	1487	1500	1502	1498	1506	1508	1518	1522	1522	1517	1511	1508	1495	1486	1481	1485	1507	1510	1501	1485	1474	1468	1470	1490	1508	1525	1525	1502	1482	1469	1468	1485	1494	1495	1489	1483	1472	1478	1487	1504	1508	1504	1501	1495	1483	1494	1499	1505	1502	1496	1495	1495	1494	1503	1498	1488	1481	1482	1485	1488	1486	1483	1484	1486	1483	1485	1489	1497	1500	1499	1508	1508	1503	1500	1502	1499	1492	1487	1487	1489	1486	1490	1500	1508	1521	1524	1524	1518	1516	1519	1514	1505	1485	1466	1463	1476	1482	1504	1523	0	0	0	0	0	0	0	0	0	0	0	0	0	0	0	0	0	807	779	771	767	763	755	745	749	763	775	776	771	772	778	783	789	801	807	801	793	794	804	810	806	790	775	776	778	780	777	780	779	769	748	759	773	781	778	770	761	766	771	771	764	763	761	759	767	773	776	763	753	755	755	763	771	770	775	776	772	773	782	788	788	806	847	903	971	1070	1164	1219	1293	1374	1436	1472	1481	1481	1473	1472	1480	1483	1466	1450	1436	1427	1432	1441	1452	1470	1476	1483	1487	1478	1462	1443	1423	1435	1453	1483	1477	1472	1461	1464	1476	1481	1485	1470	1448	1438	1440	1449	1458	1456	1447	1445	1458	1483	1512	1512	1514	1522	1513	1493	1470	1456	1451	1458	1464	1461	1460	1467	1475	1484	1480	1472	1457	1461	1459	1461	1459	1461	1475	1481	1486	1490	1484	1466	1455	1450	1447	1456	1480	1499	1493	1481	1465	1459	1456	1452	1451	1476	1481	1486	1480	1468	1457	1453	1460	1469	1470	1468	1483	1487	1487	1485	1481	1478	1472	1467	1457	1461	1464	1467	1466	1463	1463	1469	1478	1478	1478	1468	1458	1445	1446	1445	1438	1433	1436	1441	1447	0	0	0	0	0	0	0
0	0	0	0	0	0	0	0	0	0	0	0	0	0	0	0	0	0	0	0	0	0	0	0	0	0	0	0	0	0	0	0	0	0	0	0	0	0	0	0	0	0	0	0	0	0	0	0	0	0	0	0	0	0	0	0	0	0	0	0	0	0	0	0	0	0	0	0	0	0	0	0	0	0	0	0	0	0	0	0	0	0	0	0	0	0	0	0	0	0	0	0	0	0	1481	1463	1453	1443	1461	1480	1490	1476	1471	1471	1479	1487	1478	1459	1445	1444	1450	1458	1462	1454	1471	1476	1478	1472	1465	1459	1459	1461	1468	1482	1486	1487	1486	1473	1464	1452	1446	1455	1467	1464	1453	1437	1441	1452	1448	1432	1417	1432	1460	1470	1474	1458	1439	1424	1423	1438	1454	1437	1435	1454	1481	1487	1487	1481	1488	1491	1487	1470	1466	1462	1461	1450	1429	1421	1419	1318	1106	0	0	0	0	0	0	0	0	0	0	0	0	0	0	0	0	0	0	0	0	0	0	0	0	0	0	0	0	0	1033	1050	1060	1072	0	0	0	1119	1117	1117	1104	0	0	0	0	0	0	0	0	0	0	0	0	0	0	0	0	0	0	0	0	0	0	0	0	0	0	0	0	0	0	0	905	902	922	0	0	0	0	0	1209	1444	1488	1493	1492	1485	1474	1469	1469	1466	1473	1476	1483	1455	1443	1430	1439	1456	1475	1484	1493	1498	1490	1495	1490	1488	1490	1491	1492	1491	1491	1484	1474	1473	1467	1472	1475	1488	1495	1501	1517	1521	1512	1498	1483	1487	1502	1507	1502	1492	1485	1491	1500	1503	1481	1474	1487	1486	1483	1485	1488	1490	1485	1496	1511	1510	1494	1487	1498	1500	1505	1511	1517	1522	1520	1521	1520	1513	1507	1497	1486	1481	1489	1502	1513	1499	1477	1466	1481	1494	1506	1523	1527	1519	1503	1490	1479	1485	1489	1494	1485	1478	1482	1480	1481	1481	1496	1500	1497	1492	1495	1501	1509	1508	1499	1496	1492	1494	1500	1510	1508	1510	1504	1486	1486	1489	1497	1501	1502	1500	1495	1488	1489	1497	1505	1504	1510	1511	1511	1499	1486	1494	1497	1491	1492	1494	1499	1492	1482	1482	1497	1507	1519	1520	1520	1525	1527	1521	1505	1477	1468	1469	1475	1481	1482	1519	1552	0	0	0	0	0	0	0	0	0	0	0	0	0	0	0	0	0	791	767	750	740	726	723	728	740	752	757	754	752	755	760	772	779	793	792	786	783	792	798	790	773	753	752	754	756	763	764	765	756	742	755	768	777	767	753	747	751	750	748	742	740	742	744	749	754	763	753	749	749	751	761	759	758	757	754	755	756	755	754	745	746	772	811	849	889	954	1026	1108	1229	1313	1399	1417	1441	1453	1468	1481	1475	1472	1464	1447	1439	1431	1438	1448	1465	1474	1484	1496	1488	1461	1439	1422	1419	1433	1461	1469	1460	1441	1433	1448	1465	1474	1464	1440	1425	1433	1448	1456	1454	1447	1448	1464	1484	1510	1515	1522	1520	1506	1483	1464	1457	1456	1454	1454	1443	1452	1458	1475	1488	1486	1485	1475	1464	1456	1454	1462	1467	1471	1476	1475	1472	1458	1450	1444	1442	1448	1456	1486	1509	1512	1489	1470	1459	1456	1444	1449	1461	1471	1478	1467	1459	1457	1459	1465	1463	1460	1444	1443	1469	1469	1475	1484	1483	1477	1474	1473	1482	1494	1491	1479	1464	1465	1474	1480	1472	1472	1459	1447	1444	1436	1432	1427	1427	1428	1437	1445	1445	0	0	0	0	0	0
0	0	0	0	0	0	0	0	0	0	0	0	0	0	0	0	0	0	0	0	0	0	0	0	0	0	0	0	0	0	0	0	0	0	0	0	0	0	0	0	0	0	0	0	0	0	0	0	0	0	0	0	0	0	0	0	0	0	0	0	0	0	0	0	0	0	0	0	0	0	0	0	0	0	0	0	0	0	0	0	0	0	0	0	0	0	0	0	0	0	0	0	0	0	1491	1469	1457	1451	1467	1486	1489	1471	1473	1475	1482	1485	1474	1458	1448	1443	1463	1479	1465	1465	1466	1473	1469	1465	1469	1464	1461	1464	1470	1476	1487	1489	1495	1481	1468	1457	1452	1451	1455	1459	1462	1460	1457	1461	1447	1420	1406	1419	1441	1456	1465	1463	1458	1449	1441	1462	1456	1444	1446	1473	1491	1499	1497	1496	1488	1485	1475	1464	1463	1456	1432	1409	1352	1265	1087	0	0	0	0	0	0	0	0	0	0	0	0	0	0	0	0	0	0	0	0	0	0	0	0	0	0	0	0	0	0	0	1030	1035	1040	1045	0	0	0	1066	1066	1061	1067	1047	0	0	0	0	0	0	0	0	0	0	0	0	0	0	0	0	0	0	0	0	0	0	0	0	0	0	0	0	0	0	899	902	925	0	0	0	0	0	1338	1468	1485	1490	1491	1483	1472	1462	1462	1464	1471	1480	1485	1464	1446	1438	1444	1463	1483	1495	1505	1508	1509	1502	1492	1486	1493	1499	1500	1502	1505	1504	1492	1474	1457	1452	1453	1472	1487	1507	1511	1509	1500	1486	1480	1489	1507	1515	1506	1494	1480	1483	1496	1499	1484	1475	1480	1482	1481	1479	1484	1486	1485	1494	1518	1518	1508	1492	1491	1496	1507	1510	1515	1513	1513	1521	1518	1510	1497	1488	1487	1481	1497	1509	1516	1495	1465	1463	1476	1503	1514	1531	1525	1504	1506	1497	1490	1491	1493	1489	1484	1474	1479	1481	1483	1482	1491	1498	1495	1492	1497	1499	1511	1510	1503	1493	1490	1501	1507	1511	1508	1504	1493	1483	1478	1486	1499	1509	1517	1510	1501	1491	1489	1498	1500	1502	1509	1499	1502	1481	1485	1495	1497	1492	1487	1499	1496	1488	1471	1467	1469	1488	1504	1513	1518	1524	1526	1515	1493	1480	1477	1471	1466	1469	1469	1468	1536	0	0	0	0	0	0	0	0	0	0	0	0	0	0	0	0	0	0	803	772	745	722	715	715	719	728	729	733	733	732	736	745	757	763	768	763	759	767	771	762	747	734	728	736	747	750	756	756	744	747	757	770	774	764	749	741	736	735	729	723	721	722	727	728	735	742	738	738	741	744	746	749	751	749	742	739	740	735	734	728	725	737	757	775	795	821	856	916	986	1060	1215	1296	1347	1384	1424	1462	1471	1475	1480	1469	1458	1451	1445	1464	1472	1490	1504	1510	1494	1468	1444	1427	1420	1441	1459	1465	1452	1428	1420	1422	1444	1459	1456	1443	1429	1437	1453	1456	1451	1449	1459	1470	1485	1509	1517	1516	1507	1495	1478	1464	1458	1457	1455	1444	1438	1443	1463	1474	1485	1485	1476	1472	1467	1456	1454	1457	1463	1466	1468	1464	1453	1439	1434	1435	1446	1455	1470	1492	1513	1520	1508	1474	1458	1446	1434	1444	1452	1457	1453	1453	1453	1467	1475	1476	1468	1446	1430	1424	1424	1446	1458	1474	1477	1480	1474	1468	1484	1488	1493	1478	1458	1461	1468	1478	1477	1469	1452	1448	1441	1444	1436	1432	1426	1424	1433	1446	1446	0	0	0	0	0	0
0	0	0	0	0	0	0	0	0	0	0	0	0	0	0	0	0	0	0	0	0	0	0	0	0	0	0	0	0	0	0	0	0	0	0	0	0	0	0	0	0	0	0	0	0	0	0	0	0	0	0	0	0	0	0	0	0	0	0	0	0	0	0	0	0	0	0	0	0	0	0	0	0	0	0	0	0	0	0	0	0	0	0	0	0	0	0	0	0	0	0	0	0	0	1500	1489	1456	1449	1460	1472	1476	1475	1482	1482	1485	1478	1467	1459	1450	1455	1460	1462	1471	1473	1477	1462	1460	1451	1461	1467	1478	1477	1476	1476	1481	1485	1484	1481	1473	1469	1462	1456	1451	1454	1470	1475	1477	1465	1445	1417	1410	1416	1429	1447	1464	1470	1476	1475	1480	1479	1475	1438	1439	1469	1489	1497	1507	1506	1493	1479	1467	1460	1460	1428	1382	1324	1083	0	0	0	0	0	0	0	0	0	0	0	0	0	0	0	0	0	0	0	0	0	0	0	0	0	0	0	0	0	0	0	0	0	0	0	0	0	0	0	0	0	0	0	0	0	0	0	0	0	0	0	0	0	0	0	0	0	0	0	0	0	0	0	0	0	0	0	0	0	0	0	0	0	0	0	897	905	939	0	0	0	0	1334	1452	1480	1485	1500	1504	1502	1498	1497	1494	1476	1450	1444	1448	1475	1486	1494	1493	1501	1507	1501	1505	1511	1509	1503	1509	1512	1515	1518	1510	1503	1502	1497	1492	1486	1484	1479	1478	1476	1477	1490	1485	1491	1473	1457	1459	1478	1497	1499	1495	1490	1488	1487	1490	1490	1471	1466	1462	1461	1459	1448	1459	1466	1487	1493	1499	1509	1510	1503	1492	1491	1492	1499	1501	1507	1507	1517	1519	1504	1490	1483	1480	1479	1488	1500	1501	1477	1466	1461	1477	1500	1513	1522	1512	1496	1493	1495	1497	1495	1489	1484	1477	1479	1480	1480	1488	1497	1498	1498	1499	1491	1491	1496	1505	1516	1510	1505	1499	1511	1519	1517	1507	1499	1479	1469	1469	1485	1500	1511	1520	1513	1500	1491	1487	1485	1488	1487	1489	1494	1490	1480	1485	1490	1490	1484	1485	1490	1488	1472	1462	1449	1451	1470	1494	1503	1507	1510	1507	1502	1496	1489	1481	1465	1460	1455	1455	1459	1485	1512	0	0	0	0	0	0	0	0	0	0	0	0	0	0	0	0	0	0	0	0	758	725	715	712	711	714	717	716	711	708	717	732	736	741	736	730	729	735	736	730	723	724	731	741	745	746	744	734	736	742	755	761	757	747	735	726	718	714	711	713	713	719	714	725	731	728	729	727	727	735	738	740	741	735	732	728	727	724	720	727	734	737	738	738	751	775	812	846	892	936	1033	1192	1284	1334	1407	1440	1463	1484	1486	1481	1470	1464	1474	1484	1497	1510	1514	1497	1468	1447	1433	1434	1447	1468	1471	1452	1427	1412	1415	1431	1455	1459	1460	1457	1450	1457	1462	1459	1465	1471	1482	1496	1517	1520	1508	1498	1490	1474	1463	1463	1468	1451	1436	1432	1442	1464	1490	1488	1482	1472	1469	1469	1463	1461	1454	1454	1453	1449	1447	1432	1432	1445	1453	1457	1462	1469	1478	1506	1510	1504	1485	1459	1444	1432	1432	1438	1442	1432	1434	1447	1472	1477	1475	1459	1441	1428	1426	1426	1431	1450	1463	1468	1469	1461	1454	1462	1477	1481	1480	1467	1462	1469	1474	1478	1478	1456	1448	1445	1446	1437	1434	1426	1422	1432	1449	1449	0	0	0	0	0	0
0	0	0	0	0	0	0	0	0	0	0	0	0	0	0	0	0	0	0	0	0	0	0	0	0	0	0	0	0	0	0	0	0	0	0	0	0	0	0	0	0	0	0	0	0	0	0	0	0	0	0	0	0	0	0	0	0	0	0	0	0	0	0	0	0	0	0	0	0	0	0	0	0	0	0	0	0	0	0	0	0	0	0	0	0	0	0	0	0	0	0	0	0	0	1492	1494	1473	1451	1446	1453	1463	1470	1487	1478	1470	1457	1449	1446	1451	1461	1460	1469	1465	1459	1461	1445	1440	1439	1452	1468	1480	1486	1483	1469	1471	1474	1479	1475	1474	1478	1475	1471	1454	1446	1461	1474	1475	1462	1442	1425	1415	1418	1433	1449	1466	1469	1476	1473	1473	1472	1469	1446	1446	1459	1471	1477	1495	1506	1490	1471	1452	1433	1413	1334	1157	0	0	0	0	0	0	0	0	0	0	0	0	0	0	0	0	0	0	0	0	0	0	0	0	0	0	0	0	0	0	0	0	0	0	0	0	0	0	0	0	0	0	0	0	0	0	0	0	0	0	0	0	0	0	0	0	0	0	0	0	0	0	0	0	0	0	0	0	0	0	0	0	0	0	0	0	0	904	919	0	0	0	1172	1329	1457	1477	1483	1492	1501	1504	1502	1501	1503	1498	1479	1451	1438	1451	1472	1490	1502	1510	1514	1509	1504	1504	1513	1511	1507	1511	1517	1524	1517	1514	1507	1499	1496	1492	1491	1486	1477	1476	1477	1477	1483	1479	1471	1467	1461	1475	1493	1505	1508	1496	1485	1478	1480	1484	1482	1474	1464	1464	1465	1458	1449	1457	1460	1481	1488	1495	1501	1503	1497	1487	1483	1485	1490	1495	1506	1514	1516	1510	1495	1481	1474	1471	1461	1469	1480	1487	1484	1475	1474	1484	1501	1520	1518	1508	1490	1491	1492	1491	1492	1489	1481	1477	1476	1479	1488	1502	1501	1498	1493	1495	1485	1483	1480	1488	1505	1516	1517	1513	1515	1512	1518	1515	1498	1477	1469	1461	1476	1497	1504	1508	1505	1498	1485	1453	1429	1441	1469	1486	1491	1475	1469	1470	1468	1467	1471	1468	1467	1462	1453	1442	1439	1448	1471	1491	1495	1499	1500	1492	1487	1490	1494	1487	1464	1451	1450	1443	1466	1491	1492	1471	0	0	0	0	0	0	0	0	0	0	0	0	0	0	0	0	0	0	0	0	784	719	708	703	704	704	705	698	697	708	716	720	717	717	710	708	709	713	718	719	726	733	738	729	722	719	723	724	728	737	745	745	737	725	715	704	697	702	708	713	715	711	723	730	726	714	708	710	717	724	730	731	730	724	719	718	716	719	724	730	732	725	720	719	727	739	751	764	784	832	879	994	1098	1250	1302	1372	1433	1453	1468	1466	1479	1483	1488	1499	1506	1508	1490	1464	1448	1450	1468	1469	1473	1475	1464	1442	1436	1446	1466	1480	1482	1487	1500	1500	1488	1483	1480	1486	1488	1492	1510	1518	1509	1498	1494	1497	1511	1523	1513	1488	1456	1431	1429	1445	1467	1486	1492	1498	1479	1462	1460	1480	1506	1510	1487	1460	1446	1458	1466	1469	1469	1463	1454	1445	1439	1444	1461	1475	1484	1475	1464	1462	1471	1469	1452	1436	1417	1423	1437	1462	1457	1444	1434	1439	1451	1459	1459	1465	1464	1461	1468	1466	1458	1466	1462	1476	1484	1488	1490	1491	1487	1483	1483	1481	1474	1470	1449	1437	1436	1425	1428	1425	1436	1444	1444	0	0	0	0	0	0
0	0	0	0	0	0	0	0	0	0	0	0	0	0	0	0	0	0	0	0	0	0	0	0	0	0	0	0	0	0	0	0	0	0	0	0	0	0	0	0	0	0	0	0	0	0	0	0	0	0	0	0	0	0	0	0	0	0	0	0	0	0	0	0	0	0	0	0	0	0	0	0	0	0	0	0	0	0	0	0	0	0	0	0	0	0	0	0	0	0	0	0	0	0	1476	1476	1456	1447	1438	1445	1454	1480	1485	1470	1455	1446	1435	1444	1448	1458	1460	1476	1463	1462	1449	1444	1445	1445	1456	1467	1474	1479	1470	1466	1465	1467	1479	1479	1472	1474	1486	1478	1459	1443	1451	1459	1460	1447	1446	1435	1429	1432	1438	1453	1465	1467	1458	1448	1440	1449	1446	1448	1448	1455	1455	1462	1473	1480	1408	1377	1330	1214	0	0	0	0	0	0	0	0	0	0	0	0	0	0	0	0	0	0	0	0	0	0	0	0	0	0	0	0	0	0	0	0	0	0	0	0	0	0	0	0	0	0	0	0	0	0	0	0	0	0	0	0	0	0	0	0	0	0	0	0	0	0	0	0	0	0	0	0	0	0	0	0	0	0	0	0	0	0	0	0	906	927	969	0	1123	1322	1449	1474	1486	1489	1496	1501	1504	1507	1502	1504	1496	1483	1454	1446	1459	1483	1495	1508	1514	1517	1515	1502	1504	1514	1518	1510	1512	1520	1524	1524	1515	1505	1495	1486	1485	1486	1482	1472	1460	1472	1480	1476	1476	1472	1472	1482	1494	1497	1508	1515	1499	1484	1469	1470	1479	1482	1476	1466	1461	1465	1463	1457	1463	1468	1480	1486	1488	1488	1493	1494	1488	1482	1486	1492	1496	1502	1514	1512	1508	1488	1475	1455	1455	1452	1455	1464	1479	1489	1489	1500	1509	1514	1514	1513	1504	1493	1492	1493	1492	1482	1485	1469	1467	1474	1483	1500	1507	1500	1495	1491	1484	1481	1468	1459	1467	1497	1520	1527	1517	1508	1508	1514	1515	1502	1481	1472	1472	1482	1497	1498	1502	1502	1454	1428	1413	1410	1426	1456	1492	1505	1490	1474	1469	1464	1464	1464	1466	1472	1464	1468	1486	1504	1501	1498	1491	1491	1497	1496	1497	1491	1487	1484	1466	1458	1451	1468	1489	1497	1499	1489	1464	1447	0	0	0	0	0	0	0	0	0	0	0	0	0	0	0	0	0	0	0	0	791	726	707	706	704	704	703	702	704	710	710	704	703	702	701	699	696	701	711	723	713	721	717	715	716	719	716	716	723	725	727	723	714	703	696	688	689	705	712	712	706	719	720	716	707	701	700	709	715	718	719	717	714	706	704	702	710	716	719	720	716	710	703	695	708	710	716	722	744	782	819	873	1000	1107	1197	1271	1330	1384	1410	1443	1448	1456	1453	1455	1460	1455	1452	1452	1466	1481	1476	1475	1478	1472	1456	1445	1445	1457	1468	1491	1503	1506	1499	1491	1487	1490	1481	1476	1480	1498	1504	1487	1479	1475	1491	1508	1507	1496	1473	1446	1427	1428	1443	1458	1480	1495	1496	1483	1469	1470	1487	1504	1518	1493	1478	1462	1470	1472	1475	1475	1470	1456	1434	1429	1434	1454	1473	1481	1475	1464	1471	1485	1483	1469	1445	1422	1431	1446	1461	1455	1441	1438	1443	1453	1453	1467	1474	1480	1477	1474	1475	1465	1473	1463	1463	1467	1497	1493	1492	1490	1493	1493	1497	1492	1487	1482	1455	1445	1432	1426	1431	1441	1450	1450	0	0	0	0	0	0
0	0	0	0	0	0	0	0	0	0	0	0	0	0	0	0	0	0	0	0	0	0	0	0	0	0	0	0	0	0	0	0	0	0	0	0	0	0	0	0	0	0	0	0	0	0	0	0	0	0	0	0	0	0	0	0	0	0	0	0	0	0	0	0	0	0	0	0	0	0	0	0	0	0	0	0	0	0	0	0	0	0	0	0	0	0	0	0	0	0	0	0	0	0	1457	1459	1456	1453	1438	1443	1451	1477	1475	1466	1457	1444	1444	1448	1449	1442	1448	1466	1467	1466	1457	1456	1455	1454	1463	1456	1459	1460	1457	1454	1459	1470	1484	1480	1475	1468	1485	1479	1468	1448	1444	1443	1445	1438	1446	1443	1439	1437	1448	1450	1453	1450	1446	1427	1416	1421	1435	1444	1446	1446	1443	1444	1447	1371	1179	0	0	0	0	0	0	0	0	0	0	0	0	0	0	0	0	0	0	0	0	0	0	0	0	0	0	0	0	0	0	0	0	0	0	0	0	0	0	0	0	0	0	0	0	0	0	0	0	0	0	0	0	0	0	0	0	0	0	0	0	0	0	0	0	0	0	0	0	0	0	0	0	0	0	0	0	0	0	0	0	0	0	0	910	940	990	1063	1245	1392	1441	1485	1496	1485	1470	1477	1500	1507	1508	1505	1486	1471	1469	1476	1491	1504	1518	1521	1521	1513	1497	1488	1473	1460	1462	1460	1470	1491	1503	1503	1498	1496	1502	1503	1488	1485	1485	1479	1470	1450	1436	1461	1480	1485	1488	1496	1496	1483	1475	1475	1504	1485	1468	1485	1484	1476	1465	1456	1453	1462	1465	1471	1464	1461	1462	1467	1462	1471	1476	1485	1483	1474	1476	1477	1480	1482	1490	1492	1477	1460	1450	1442	1443	1448	1454	1481	1502	1490	1483	1494	1511	1518	1516	1507	1505	1497	1502	1495	1471	1453	1455	1451	1447	1453	1460	1471	1485	1487	1472	1477	1466	1464	1454	1452	1458	1482	1506	1512	1504	1497	1501	1509	1511	1497	1490	1472	1466	1480	1499	1489	1483	1466	1442	1425	1417	1420	1430	1456	1480	1500	1493	1473	1466	1470	1475	1477	1470	1476	1478	1486	1505	1519	1514	1498	1493	1483	1482	1476	1473	1479	1473	1472	1463	1458	1448	1476	1497	1511	1511	1490	1462	1443	0	0	0	0	0	0	0	0	0	0	0	0	0	0	0	0	0	0	0	0	0	783	735	718	708	709	708	707	703	701	699	694	694	698	697	692	687	686	683	687	690	699	706	712	719	716	713	709	707	711	709	702	697	693	686	678	678	689	693	687	687	698	703	701	695	691	695	703	707	709	710	707	699	692	686	685	696	698	699	702	707	702	686	684	685	695	697	698	706	725	742	768	864	946	1030	1113	1202	1280	1337	1372	1401	1423	1437	1438	1446	1443	1445	1447	1467	1482	1480	1478	1478	1477	1464	1446	1438	1453	1471	1486	1503	1508	1495	1477	1478	1479	1481	1477	1481	1497	1493	1477	1467	1472	1479	1494	1490	1476	1456	1435	1418	1420	1437	1464	1479	1491	1490	1489	1478	1475	1486	1501	1514	1510	1490	1480	1479	1491	1495	1497	1488	1467	1445	1435	1441	1465	1482	1484	1475	1472	1485	1498	1500	1486	1467	1450	1455	1469	1487	1489	1472	1452	1456	1459	1459	1478	1492	1493	1494	1486	1486	1476	1466	1454	1454	1454	1460	1459	1463	1475	1491	1491	1508	1514	1511	1505	1486	1466	1442	1434	1441	1456	1456	1468	0	0	0	0	0	0
0	0	0	0	0	0	0	0	0	0	0	0	0	0	0	0	0	0	0	0	0	0	0	0	0	0	0	0	0	0	0	0	0	0	0	0	0	0	0	0	0	0	0	0	0	0	0	0	0	0	0	0	0	0	0	0	0	0	0	0	0	0	0	0	0	0	0	0	0	0	0	0	0	0	0	0	0	0	0	0	0	0	0	0	0	0	0	0	0	0	0	0	0	0	1435	1451	1461	1460	1455	1452	1461	1461	1461	1466	1461	1452	1451	1458	1457	1442	1447	1453	1465	1476	1476	1480	1475	1474	1475	1460	1456	1451	1451	1448	1454	1472	1498	1495	1481	1467	1479	1479	1474	1449	1448	1449	1451	1450	1448	1455	1453	1460	1450	1445	1439	1437	1443	1442	1422	1418	1419	1438	1440	1438	1432	1391	0	0	0	0	0	0	0	0	0	0	0	0	0	0	0	0	0	0	0	0	0	0	0	0	0	0	0	0	0	0	0	0	0	0	0	0	0	0	0	0	0	0	0	0	0	0	0	0	0	0	0	0	0	0	0	0	0	0	0	0	0	0	0	0	0	0	0	0	0	0	0	0	0	0	0	0	0	0	0	0	0	0	0	0	0	0	937	972	1030	1208	1392	1424	1456	1481	1497	1493	1479	1484	1497	1506	1506	1496	1478	1465	1473	1488	1501	1508	1517	1519	1516	1510	1498	1486	1463	1451	1453	1453	1463	1481	1497	1498	1494	1498	1499	1501	1500	1490	1487	1482	1470	1449	1436	1463	1479	1487	1490	1493	1487	1480	1470	1470	1471	1478	1485	1507	1509	1488	1457	1443	1445	1463	1479	1475	1463	1446	1447	1455	1460	1468	1478	1481	1484	1480	1481	1487	1481	1484	1482	1481	1468	1454	1454	1459	1463	1465	1465	1484	1488	1481	1477	1492	1508	1514	1507	1506	1497	1499	1494	1482	1469	1454	1464	1459	1459	1458	1460	1466	1485	1489	1494	1492	1484	1469	1465	1468	1467	1472	1494	1503	1498	1501	1500	1509	1508	1498	1494	1470	1468	1473	1472	1466	1464	1468	1475	1463	1460	1446	1448	1449	1464	1494	1491	1477	1479	1485	1494	1497	1494	1489	1493	1506	1521	1528	1523	1498	1478	1470	1456	1448	1450	1455	1467	1470	1466	1468	1473	1477	1501	1516	1515	1499	1489	1474	0	0	0	0	0	0	0	0	0	0	0	0	0	0	0	0	0	0	0	0	0	0	781	742	717	709	702	690	683	685	685	684	689	693	692	686	677	678	684	686	689	695	701	705	711	714	707	704	701	696	690	684	685	684	680	666	657	664	670	667	670	678	684	683	682	680	686	693	694	698	691	687	679	673	667	667	680	681	684	680	687	690	683	675	681	690	687	680	679	686	697	709	747	786	838	890	923	980	1078	1164	1255	1316	1370	1419	1435	1437	1431	1442	1447	1467	1462	1465	1466	1473	1463	1444	1444	1452	1477	1493	1494	1486	1468	1457	1463	1475	1490	1505	1518	1531	1504	1493	1490	1492	1503	1487	1478	1454	1439	1434	1434	1439	1460	1481	1497	1490	1472	1460	1451	1458	1476	1494	1511	1521	1510	1496	1490	1499	1513	1512	1498	1472	1453	1450	1457	1471	1469	1460	1459	1469	1489	1499	1498	1475	1462	1454	1452	1471	1487	1492	1474	1464	1462	1472	1472	1488	1511	1512	1511	1497	1486	1482	1464	1456	1463	1464	1462	1456	1453	1465	1489	1489	1505	1519	1515	1506	1486	1464	1450	1448	1453	1464	1464	1469	0	0	0	0	0	0
0	0	0	0	0	0	0	0	0	0	0	0	0	0	0	0	0	0	0	0	0	0	0	0	0	0	0	0	0	0	0	0	0	0	0	0	0	0	0	0	0	0	0	0	0	0	0	0	0	0	0	0	0	0	0	0	0	0	0	0	0	0	0	0	0	0	0	0	0	0	0	0	0	0	0	0	0	0	0	0	0	0	0	0	0	0	0	0	0	0	0	0	0	0	1444	1463	1474	1467	1459	1465	1459	1453	1456	1468	1463	1458	1459	1467	1465	1459	1462	1466	1472	1475	1482	1486	1490	1487	1488	1478	1457	1456	1454	1449	1454	1476	1502	1507	1483	1462	1469	1478	1480	1451	1450	1454	1461	1458	1460	1458	1460	1469	1461	1447	1427	1418	1427	1438	1446	1435	1425	1380	0	0	0	0	0	0	0	0	0	0	0	0	0	0	0	0	0	0	0	0	0	0	0	0	0	0	0	0	0	0	0	0	0	0	0	0	0	0	0	0	0	0	0	0	0	0	0	0	0	0	0	0	0	0	0	0	0	0	0	0	0	0	0	0	0	0	0	0	0	0	0	0	0	0	0	0	0	0	0	0	0	0	0	0	0	0	0	0	0	931	971	1014	1185	1374	1420	1445	1471	1491	1504	1496	1487	1489	1498	1506	1504	1488	1481	1477	1480	1492	1501	1507	1517	1519	1518	1508	1493	1485	1474	1463	1453	1450	1448	1446	1454	1468	1483	1493	1497	1499	1499	1489	1461	1450	1451	1462	1471	1477	1478	1480	1480	1478	1463	1459	1456	1455	1457	1460	1469	1478	1485	1485	1464	1447	1446	1463	1484	1483	1467	1448	1447	1455	1462	1472	1472	1478	1480	1484	1487	1490	1489	1485	1477	1469	1461	1456	1465	1477	1481	1483	1479	1472	1471	1474	1487	1496	1510	1513	1504	1486	1472	1468	1460	1454	1455	1479	1498	1517	1514	1500	1495	1495	1503	1509	1514	1523	1528	1512	1500	1495	1485	1469	1473	1486	1502	1504	1503	1498	1493	1499	1499	1510	1503	1490	1474	1466	1467	1475	1485	1485	1481	1468	1465	1464	1468	1487	1499	1499	1494	1491	1496	1498	1480	1456	1469	1495	1521	1522	1506	1480	1457	1440	1437	1444	1462	1477	1485	1483	1476	1473	1478	1486	1499	1511	1510	1506	1507	1506	1514	0	0	0	0	0	0	0	0	0	0	0	0	0	0	0	0	0	0	0	0	0	0	771	726	703	680	671	658	664	675	677	686	685	680	674	676	679	687	691	696	697	696	696	700	699	700	695	691	684	678	671	674	674	666	653	648	651	654	656	660	666	669	670	668	671	674	680	679	672	676	672	665	662	659	661	672	673	671	671	676	680	676	665	671	676	675	666	659	662	670	685	691	708	733	758	811	866	947	1029	1099	1163	1229	1298	1370	1417	1435	1442	1445	1467	1468	1459	1450	1453	1453	1452	1447	1460	1476	1478	1476	1469	1454	1451	1457	1480	1495	1508	1522	1529	1502	1495	1501	1506	1510	1494	1479	1456	1445	1445	1444	1446	1465	1489	1498	1482	1461	1445	1445	1450	1469	1487	1511	1522	1509	1490	1496	1508	1514	1515	1496	1473	1453	1452	1459	1471	1463	1456	1458	1467	1486	1492	1486	1465	1448	1435	1441	1462	1478	1476	1470	1455	1460	1460	1476	1499	1512	1525	1507	1493	1485	1476	1468	1464	1466	1472	1462	1455	1446	1457	1457	1488	1512	1516	1512	1496	1474	1454	1450	1449	1457	1468	1468	1467	0	0	0	0	0	0
0	0	0	0	0	0	0	0	0	0	0	0	0	0	0	0	0	0	0	0	0	0	0	0	0	0	0	0	0	0	0	0	0	0	0	0	0	0	0	0	0	0	0	0	0	0	0	0	0	0	0	0	0	0	0	0	0	0	0	0	0	0	0	0	0	0	0	0	0	0	0	0	0	0	0	0	0	0	0	0	0	0	0	0	0	0	0	0	0	0	0	0	0	0	1453	1474	1478	1471	1478	1482	1474	1469	1475	1485	1485	1472	1477	1477	1478	1476	1488	1485	1476	1467	1465	1484	1505	1501	1494	1470	1469	1483	1485	1466	1458	1463	1470	1462	1456	1463	1477	1489	1484	1456	1445	1450	1463	1466	1456	1443	1454	1460	1475	1461	1427	1404	1398	1416	1431	1420	1388	0	0	0	0	0	0	0	0	0	0	0	0	0	0	0	0	0	0	0	0	0	0	0	0	0	0	0	0	0	0	0	0	0	0	0	0	0	0	0	0	0	0	0	0	0	0	0	0	0	0	0	0	0	0	0	0	0	0	0	0	0	0	0	0	0	0	0	0	0	0	0	0	0	0	0	0	0	0	0	0	0	0	0	0	0	0	0	0	0	0	973	1015	1207	1409	1440	1450	1469	1492	1504	1511	1500	1493	1470	1479	1482	1487	1486	1488	1489	1490	1474	1468	1476	1478	1483	1484	1485	1493	1496	1491	1483	1472	1465	1456	1446	1441	1444	1467	1487	1499	1504	1500	1489	1468	1462	1462	1471	1475	1477	1473	1473	1466	1460	1460	1458	1459	1460	1465	1463	1474	1485	1488	1487	1487	1479	1477	1484	1489	1488	1478	1460	1457	1469	1479	1490	1491	1493	1501	1501	1501	1495	1500	1496	1491	1484	1477	1466	1469	1483	1491	1486	1485	1481	1482	1489	1504	1513	1513	1515	1497	1474	1466	1472	1475	1473	1447	1465	1500	1519	1519	1514	1511	1513	1521	1524	1528	1538	1537	1529	1520	1516	1498	1476	1463	1472	1492	1502	1495	1498	1495	1502	1507	1510	1509	1502	1486	1476	1472	1469	1477	1487	1482	1471	1473	1469	1471	1487	1507	1503	1494	1488	1490	1493	1475	1454	1464	1485	1510	1516	1503	1475	1453	1442	1442	1458	1477	1491	1486	1478	1466	1460	1471	1487	1502	1505	1502	1494	1490	1511	1523	1524	0	0	0	0	0	0	0	0	0	0	0	0	0	0	0	0	0	0	0	0	0	0	757	684	663	651	651	653	663	662	667	672	675	672	672	674	679	692	698	699	692	687	682	685	686	686	676	671	667	666	667	668	659	646	642	645	648	647	653	655	658	655	655	655	652	655	658	660	664	664	659	658	657	661	667	666	661	659	662	663	653	645	645	655	666	664	657	653	657	671	671	667	669	680	714	767	821	882	953	1026	1113	1189	1265	1353	1414	1446	1472	1471	1459	1450	1440	1444	1456	1458	1458	1476	1486	1475	1464	1455	1450	1464	1467	1483	1500	1507	1518	1526	1512	1495	1507	1516	1505	1491	1472	1461	1446	1453	1459	1470	1488	1497	1494	1477	1454	1438	1437	1448	1461	1479	1503	1522	1513	1502	1512	1514	1518	1510	1499	1469	1455	1457	1471	1477	1463	1454	1463	1480	1494	1487	1463	1436	1418	1420	1435	1457	1470	1468	1458	1447	1459	1459	1471	1482	1494	1489	1485	1479	1484	1481	1464	1467	1484	1501	1479	1450	1424	0	0	0	0	0	0	0	0	0	0	1456	1469	1458	1458	1446	0	0	0	0	0	0
