636	629	629	630	629	632	639	639	638	640	633	636	637	637	630	632	636	641	641	650	653	649	645	644	644	633	630	626	627	627	631	631	628	637	638	636	629	627	619	619	625	614	617	619	619	619	620	620	620	620	624	627	633	631	629	626	627	627	630	626	622	621	620	620	617	611	609	610	617	615	615	612	612	612	617	615	614	610	604	605	607	611	614	613	606	599	597	604	612	616	619	620	616	611	611	608	607	603	604	601	610	613	613	610	608	608	603	595	601	602	603	604	599	590	589	593	596	602	600	598	594	597	599	603	604	602	598	597	594	591	591	593	591	592	592	590	590	593	596	594	589	580	582	581	581	585	600	603	600	598	599	594	595	589	587	586	583	584	592	594	594	593	597	600	594	589	587	585	584	577	577	571	570	572	577	573	568	573	576	579	574	577	552	558	565	563	562	566	577	578	558	559	559	561	558	561	560	560	563	570	572	573	572	563	565	560	561	562	563	564	565	563	559	561	571	570	566	569	568	571	565	566	571	571	568	566	565	569	571	569	560	558	562	558	559	565	560	560	564	566	565	561	559	555	552	550	554	556	557	556	558	558	557	552	548	549	550	550	550	549	542	539	536	537	551	551	551	550	548	544	547	543	550	551	548	543	540	539	540	540	541	539	535	534	546	547	542	540	536	533	536	539	545	540	535	531	538	539	537	538	538	540	539	541	547	546	544	538	540	543	548	534	534	537	534	531	530	531	532	532	534	534	533	532	529	530	525	528	535	536	533	532	538	530	531	531	521	524	524	522	519	522	522	521	517	520	518	520	519	523	518	515	515	516	518	512	526	528	527	522	521	525	528	524	525	527	525	526	525	524	526	527	523	522	526	523	521	518	514	518	521	522	521	521	524	520	519	519	517	517	516	517	510	503	515	514	530	535	525	525	521	517	512	507	506	506	528	534	536	534	527	515	512	515	519	517	514	508	509	510	508	508	508	510	511	510	506	506	505	507	512	511	509	509	508	514	507	504	513	517	513	511	507	511	515	515	512	514	515	517	522	513	503	502	501	498	501	509	508	506	503	502	502	500	493	494	493	494	502	497	495	496	497	497	500	498	498	499	500	502	492	499	494	493	498	494	494	497	497	498	499	496	492	492	496	496	497	498	500	500	503	499	496	493	493	492	484	484	481	481	482	485	493	497	491	491	491	491	493	495	495	494	493	490	488	489	485	482	484	487	486	484	481	481	473	472	473	483	483	485	481	478	475	470	477	477	473	469	470	473	479	481	481	484	478	477	475	478	478	477	476	475	474	470	472	472	472	475	475	479	476	478	477	472	472	475	476	476	474	474	476	477	471	465	464	463	463	465	468	473	474	472	463	465	466	465	462	465	465	467	467	467	469	467	463	463	461	465	467	472	468	469	469	470	468	468	466	463	463	465	468	470	471	471	476	475	471	466	466	466	465	465	463	0	0	0	0	0	0	0
630	624	624	623	625	634	629	629	632	636	636	629	629	629	627	626	632	634	643	643	643	640	639	631	622	622	622	621	618	615	621	621	625	632	632	629	626	617	612	612	613	612	612	612	612	617	613	613	613	616	619	627	631	632	627	623	621	621	621	622	623	621	618	615	608	607	608	604	600	614	607	607	607	603	601	605	601	601	599	601	606	611	614	611	604	598	600	600	603	610	612	600	601	600	596	596	596	593	592	590	594	603	608	610	611	601	597	594	596	598	590	589	590	588	586	585	588	592	596	599	598	601	601	600	600	598	597	590	589	584	584	583	587	585	587	587	590	595	599	595	586	580	577	580	579	582	584	591	602	597	589	588	589	585	576	572	570	579	583	581	585	588	599	597	593	585	582	580	578	576	573	570	570	572	574	570	567	564	560	561	573	566	563	562	562	561	555	560	566	568	566	556	558	554	557	561	562	560	563	568	573	572	568	566	554	553	555	556	553	552	554	558	556	556	554	558	566	562	563	555	554	550	555	552	552	557	558	556	564	564	558	558	558	556	564	555	552	554	556	561	563	556	547	547	545	548	550	550	552	552	552	552	538	534	541	543	544	548	545	529	526	526	528	543	535	529	531	544	542	539	540	545	548	535	530	535	535	536	535	527	525	520	521	541	539	540	537	536	533	531	532	535	536	542	539	536	532	530	531	532	533	537	537	534	531	533	539	537	534	534	533	532	532	532	532	530	527	529	525	522	525	531	527	525	524	522	527	529	528	532	528	527	525	531	525	521	516	514	511	517	514	521	520	522	514	510	512	513	516	518	517	515	516	519	516	514	511	516	520	522	521	520	519	524	524	526	526	523	523	524	524	523	522	520	520	523	519	516	518	517	518	519	517	525	521	520	518	516	517	518	516	507	506	506	505	508	518	521	524	520	518	516	508	515	512	515	516	515	518	519	519	513	511	512	511	516	513	504	504	507	508	508	506	509	505	502	503	504	504	506	506	509	505	506	505	504	503	502	500	503	503	502	499	493	498	497	503	511	510	511	513	501	498	497	498	490	490	503	501	504	502	500	499	496	495	493	491	491	495	495	492	491	493	494	498	494	493	493	491	491	505	500	498	492	483	474	478	483	492	491	491	487	490	489	489	493	491	495	496	493	497	494	491	491	489	487	483	480	481	482	482	485	486	486	485	484	489	486	486	491	486	486	478	486	486	486	484	481	482	487	487	485	480	477	475	470	473	473	471	471	471	470	470	470	478	481	470	471	473	475	478	482	482	481	483	478	477	476	475	474	473	474	468	470	469	470	472	472	472	469	476	481	482	475	469	473	475	473	474	472	474	477	477	473	473	464	463	463	464	466	471	464	469	466	464	461	461	462	466	466	466	466	466	465	460	458	461	463	462	463	464	466	467	466	465	465	463	461	460	461	463	462	467	461	461	457	463	463	463	460	460	463	459	0	0	0	0	0	0	0
622	626	622	622	621	622	621	625	625	635	632	618	613	613	618	625	626	620	620	620	624	623	622	613	622	622	625	625	615	606	612	616	616	620	616	616	616	613	609	609	606	609	609	608	609	614	614	616	616	618	622	625	616	609	603	605	612	620	620	626	625	618	607	596	597	604	603	599	599	595	597	597	597	595	595	590	590	602	605	604	601	613	614	612	599	602	600	598	597	595	595	595	595	596	591	586	586	587	589	589	590	591	591	593	594	594	592	590	592	588	585	585	586	587	584	581	579	582	588	600	600	601	602	597	593	594	592	588	581	574	572	566	570	575	581	582	586	594	594	586	578	573	574	574	579	580	579	581	585	584	586	588	586	578	575	572	570	571	575	582	583	584	582	578	576	580	578	578	576	576	576	571	570	571	573	569	568	568	556	557	556	556	553	550	550	556	559	561	566	567	566	564	558	551	553	558	560	561	563	566	571	563	549	547	549	549	554	552	551	549	549	549	553	546	549	552	559	559	555	555	552	551	551	548	546	549	547	550	548	545	548	547	542	544	545	550	548	551	553	556	560	554	546	543	543	548	547	537	546	535	535	528	525	526	528	535	533	535	532	524	521	521	528	534	531	526	527	536	539	532	539	537	537	534	528	529	534	532	532	528	517	510	512	534	531	531	533	528	526	529	529	527	537	532	535	534	535	532	532	531	532	534	535	530	528	530	536	533	531	530	531	531	534	530	527	529	528	527	516	520	512	516	520	520	526	526	527	529	526	525	523	525	526	531	523	519	513	508	507	510	512	512	516	515	511	510	512	514	517	519	519	516	518	519	515	511	514	514	517	519	516	515	516	520	520	517	518	514	513	513	516	520	517	514	516	514	514	513	516	518	514	505	504	506	513	513	512	509	518	518	512	509	506	491	501	500	505	506	510	514	519	509	512	510	510	513	511	507	506	505	496	501	504	510	508	515	509	505	505	503	503	503	499	497	493	490	491	494	500	500	500	506	501	506	503	502	501	500	499	499	500	499	494	489	487	488	488	492	507	508	499	498	497	497	497	499	503	502	502	492	493	494	491	491	492	491	490	489	493	492	490	488	488	485	487	493	491	487	487	485	487	488	483	482	482	476	475	480	485	488	487	486	479	475	474	477	481	489	487	484	483	479	479	477	481	482	480	477	476	486	493	492	488	483	481	479	481	481	480	481	484	482	475	471	483	479	479	481	483	487	487	481	479	474	470	470	471	469	466	467	471	470	470	470	480	481	471	476	476	475	478	478	475	483	478	479	474	476	474	471	470	469	466	468	468	468	468	469	470	470	473	477	480	479	468	467	462	462	470	469	467	466	466	465	464	461	456	457	460	459	460	470	469	468	460	461	462	462	461	466	467	467	466	461	458	456	456	460	464	463	466	462	461	465	465	463	462	459	459	458	458	456	459	461	459	452	452	463	463	464	463	463	457	0	0	0	0	0	0	0
621	630	629	629	619	614	615	608	608	608	609	606	608	608	606	615	616	620	611	611	610	609	597	602	609	609	622	620	611	607	603	608	608	607	603	610	612	613	607	606	602	606	608	609	612	616	618	617	617	618	622	619	610	600	598	598	602	606	608	608	610	603	596	591	592	597	603	602	600	594	589	591	591	589	589	587	588	587	596	599	603	591	587	589	597	594	596	596	594	591	589	590	591	588	580	582	582	585	586	584	584	585	588	589	590	591	588	586	584	581	580	581	583	586	584	582	581	583	587	595	595	597	597	593	588	583	572	562	560	563	565	571	573	573	572	578	583	580	579	575	568	567	556	566	575	577	574	571	558	556	563	565	570	576	572	574	568	573	577	574	576	575	574	573	571	573	575	575	573	566	562	559	558	559	568	571	563	560	544	545	552	554	545	544	545	547	553	559	561	559	560	560	552	557	556	555	552	546	549	549	546	546	545	545	545	548	549	549	545	536	541	541	547	544	547	547	550	560	554	553	554	553	548	544	543	546	547	544	545	534	538	537	537	538	545	545	545	547	546	550	536	540	543	549	547	530	530	532	538	538	529	523	517	517	524	530	532	530	525	522	524	525	527	531	533	534	524	525	532	515	528	527	524	528	523	524	531	530	525	515	515	522	525	528	530	530	529	530	533	533	529	525	525	528	530	534	536	538	536	533	533	532	532	526	520	522	526	528	522	523	526	527	529	525	526	527	524	526	513	511	515	516	516	513	519	520	521	522	526	525	520	520	521	519	519	514	511	505	506	509	510	511	511	509	510	510	510	512	511	508	509	517	519	511	515	510	508	510	516	520	518	513	516	513	511	514	510	511	507	507	506	505	508	499	504	507	508	513	517	517	514	503	503	502	500	496	502	507	505	505	502	498	489	489	490	500	504	505	507	508	506	505	503	507	504	509	508	499	497	495	498	497	495	495	498	502	498	492	495	497	496	496	497	500	494	490	489	492	496	499	497	497	493	494	491	494	499	495	493	493	492	492	490	487	484	488	487	494	488	498	497	490	497	497	497	499	494	493	487	489	489	491	488	488	489	489	487	485	490	490	487	483	483	482	482	485	482	484	484	479	474	478	474	482	483	480	471	474	484	486	486	485	478	469	470	472	479	485	481	480	478	476	478	476	476	476	476	474	474	483	492	484	484	477	468	468	470	478	479	480	482	477	472	471	469	480	477	476	476	478	479	478	476	473	469	466	467	475	473	471	463	468	469	469	470	468	467	459	458	464	471	477	472	473	472	473	474	476	471	469	468	466	466	466	466	464	463	466	463	469	474	474	469	467	468	464	465	457	457	460	461	465	464	457	456	455	455	454	455	456	458	470	470	469	463	459	461	460	456	455	466	466	465	458	456	453	456	460	463	462	463	460	461	456	456	461	459	456	453	455	453	453	456	459	457	453	452	461	461	463	463	458	455	0	0	0	0	0	0	0
623	629	620	620	620	612	606	600	600	599	604	604	605	599	599	603	609	610	608	608	606	602	591	594	596	605	605	608	604	600	604	605	605	603	600	606	610	609	606	602	598	601	606	609	613	616	613	618	621	621	622	609	598	595	594	595	598	601	601	601	602	603	600	586	586	592	597	597	589	583	588	592	592	594	591	589	588	587	592	594	592	585	582	586	590	593	594	597	589	588	589	588	585	584	578	578	582	582	581	580	577	578	583	585	587	587	585	582	583	584	579	580	581	585	585	584	581	584	585	587	576	577	582	586	583	576	568	562	559	559	562	568	573	573	571	574	573	573	575	573	568	558	558	556	570	572	571	563	558	559	562	562	562	561	570	569	563	559	558	557	567	556	559	564	568	570	573	574	571	565	561	560	559	558	557	552	547	547	543	544	546	545	544	543	544	542	546	547	557	555	551	549	545	551	562	561	540	538	538	537	533	543	543	544	545	545	546	543	533	532	542	541	545	539	541	542	543	546	541	537	540	536	538	533	538	538	540	539	538	533	536	533	534	533	537	534	533	533	530	535	532	533	534	533	525	537	527	530	533	535	526	512	500	504	517	521	524	526	524	522	525	524	526	526	525	527	525	521	513	520	523	523	516	522	519	522	523	522	515	512	513	520	525	531	530	519	518	524	535	532	530	525	517	515	513	527	535	539	540	537	534	527	519	519	521	519	525	526	514	515	518	518	517	524	524	523	523	513	518	514	514	515	515	515	511	516	516	518	518	521	518	515	515	516	514	512	508	507	502	505	509	510	510	509	510	509	515	515	516	520	514	512	509	509	507	503	504	508	513	514	515	516	515	514	510	509	506	502	501	502	501	502	496	498	502	497	503	509	511	514	504	504	501	502	501	500	500	500	501	498	500	494	497	488	488	491	501	506	506	506	506	499	496	495	494	499	496	493	491	496	494	494	486	484	486	492	487	492	487	487	493	495	496	495	493	493	493	495	494	490	489	491	490	489	490	492	491	493	495	490	490	490	490	486	486	488	490	496	494	488	493	496	496	496	490	489	488	488	486	487	484	488	482	483	485	481	485	483	483	484	480	480	485	477	477	475	478	478	477	479	476	478	478	480	483	479	475	469	481	486	484	484	480	476	474	477	484	481	477	477	474	471	472	474	474	474	475	475	472	474	476	477	477	476	473	471	471	472	475	477	480	476	472	470	468	464	465	465	470	471	470	464	462	457	457	457	464	465	460	459	460	463	466	470	469	465	463	462	455	455	462	462	463	465	469	472	474	463	461	464	464	464	466	466	465	463	463	461	463	465	472	467	465	464	464	464	462	457	455	457	459	460	458	457	457	455	454	455	461	461	462	462	468	466	463	457	460	458	456	453	452	454	457	456	454	451	448	456	457	449	459	455	455	455	454	455	454	454	450	445	447	452	454	455	456	454	456	456	459	460	447	445	448	0	0	0	0	0	0	0
603	603	611	611	603	596	595	597	600	600	597	598	593	593	593	603	606	607	606	603	603	596	590	593	594	595	595	591	593	594	595	599	598	598	598	605	607	607	596	598	594	596	595	604	611	613	608	596	598	598	602	598	594	593	593	594	595	597	600	600	601	603	593	583	582	587	591	593	587	582	581	593	594	594	589	587	585	585	585	581	578	578	580	584	588	590	594	591	588	582	586	587	582	577	576	575	579	580	580	576	575	570	576	579	581	584	582	581	581	578	577	577	579	578	567	565	561	559	577	574	574	574	575	571	571	572	567	562	559	559	559	554	560	565	563	563	563	565	567	566	561	559	558	558	557	569	567	567	558	554	556	557	555	555	561	555	545	542	540	538	538	553	552	542	537	543	569	568	565	565	562	559	558	556	549	545	541	539	540	540	540	538	536	536	548	541	543	542	544	545	545	540	537	541	550	549	544	536	538	536	530	529	535	537	539	543	542	541	527	530	531	542	539	538	537	537	535	529	524	522	523	532	533	528	532	531	536	537	537	537	532	530	528	528	530	530	528	527	526	526	519	524	524	526	525	522	523	531	531	535	516	523	519	520	525	524	523	519	519	518	522	521	521	522	522	522	524	524	523	518	522	515	514	514	521	524	525	514	523	527	534	535	535	533	528	519	520	526	534	534	526	522	516	509	509	512	524	523	537	536	536	529	524	516	512	516	518	509	502	502	511	516	513	511	520	525	523	523	518	525	524	519	519	511	513	509	514	515	516	515	513	511	511	512	510	511	511	504	504	504	503	504	505	503	510	512	512	510	508	511	511	507	506	505	500	501	499	497	496	505	512	510	514	508	507	501	502	502	504	497	499	501	501	502	502	502	501	501	500	497	495	501	501	502	503	499	498	500	496	497	498	497	489	488	488	485	496	492	494	502	495	491	490	487	488	480	481	486	486	487	483	482	478	478	488	490	486	492	492	490	493	494	492	492	491	492	492	490	486	482	488	488	489	480	484	489	490	490	492	489	487	483	485	485	485	489	493	490	486	484	484	486	485	489	488	485	486	483	483	485	484	478	477	477	481	480	481	487	486	477	473	473	477	476	477	477	478	478	478	479	475	478	477	478	478	474	469	468	476	482	485	485	482	480	481	480	479	485	472	471	472	471	471	467	468	471	473	475	473	472	461	464	469	470	470	469	467	468	466	468	468	476	476	469	463	461	456	459	461	472	472	466	451	450	450	450	459	459	459	458	459	463	465	468	465	463	460	462	454	453	455	460	461	464	466	470	459	455	456	458	458	460	461	460	460	460	456	457	457	460	463	463	461	459	458	459	458	457	454	456	456	451	450	450	455	455	455	460	463	464	463	464	464	464	460	452	456	456	452	450	446	453	456	457	454	449	448	455	453	448	449	451	452	452	451	454	450	449	444	443	447	448	452	452	454	455	454	454	455	457	447	445	446	0	0	0	0	0	0	0
592	588	582	586	586	584	590	594	590	590	590	586	588	594	594	601	604	606	594	594	594	592	594	595	595	591	591	585	585	581	588	587	589	589	595	599	601	591	591	594	589	589	588	581	588	598	596	585	577	577	578	590	591	587	586	591	591	592	595	599	599	588	582	579	579	582	587	581	582	581	578	581	572	572	571	569	578	578	580	578	567	566	568	571	577	586	587	582	576	580	576	571	568	569	573	575	579	578	581	581	579	569	569	577	579	581	580	580	581	576	575	576	576	567	564	564	561	561	569	577	577	568	574	564	567	569	563	562	559	553	552	548	554	552	549	546	554	554	556	554	556	558	557	557	551	558	553	549	549	551	553	554	553	551	551	548	539	537	537	537	537	538	539	542	545	547	547	541	538	537	545	547	547	548	541	541	539	540	536	533	535	534	534	535	548	535	539	540	539	537	538	538	539	537	534	534	531	532	531	531	529	528	525	535	538	537	540	538	534	533	534	539	539	536	538	536	532	527	523	520	521	524	520	525	529	531	534	533	532	535	527	522	527	523	527	522	524	516	525	520	519	519	520	518	520	522	524	526	523	526	523	527	526	525	522	521	519	519	514	515	512	509	510	517	520	521	523	524	523	520	515	513	513	508	515	519	520	510	516	517	525	517	534	530	528	524	521	522	532	520	519	512	507	511	509	509	509	512	518	527	526	525	522	518	517	516	513	513	508	510	517	507	506	504	508	511	516	517	521	518	518	518	518	508	504	504	509	514	515	508	507	511	512	509	506	502	501	499	499	502	499	499	502	502	501	504	503	501	510	498	495	496	496	495	496	500	496	497	495	495	498	504	503	504	500	501	501	494	495	500	501	498	501	500	494	494	489	486	484	486	490	491	491	490	492	492	499	494	492	494	495	494	486	487	485	486	494	491	491	492	491	489	483	488	493	491	483	482	477	478	476	476	476	479	484	485	491	491	490	487	488	489	489	487	489	481	481	479	481	482	484	485	482	480	482	487	488	488	489	487	488	483	483	483	484	485	485	487	484	481	480	478	482	484	483	474	470	470	479	484	484	482	474	473	476	477	476	481	480	475	474	478	478	477	478	477	476	478	478	475	473	474	477	466	462	464	468	470	475	478	480	480	479	472	468	477	478	475	469	465	464	468	467	466	466	468	469	464	459	456	457	460	466	468	467	467	462	462	460	460	460	462	459	457	454	456	459	461	458	461	465	463	456	449	448	458	458	455	458	456	458	463	465	466	462	457	457	460	457	453	454	456	460	462	464	463	456	451	451	451	456	455	456	455	453	453	450	452	455	460	460	460	457	453	453	453	452	455	453	452	451	447	442	445	450	453	454	459	463	463	465	463	463	450	448	453	452	450	447	456	454	453	454	459	455	451	447	446	445	445	446	448	448	449	449	445	448	446	446	445	446	445	448	450	449	452	452	454	452	454	454	452	447	0	0	0	0	0	0	0
578	590	584	584	584	584	583	581	579	579	580	588	588	592	592	585	585	585	573	576	576	590	596	598	595	590	590	585	581	579	577	582	588	588	594	595	591	589	590	589	579	579	578	578	592	591	584	582	574	575	575	572	578	579	578	577	574	573	578	583	583	583	580	578	578	580	582	580	581	579	582	575	569	567	567	565	568	573	563	567	567	566	567	569	570	571	574	573	577	572	569	570	571	565	561	567	570	579	577	572	572	569	570	576	576	577	578	579	576	575	563	566	568	556	552	552	552	554	559	559	558	561	559	555	565	563	561	559	557	554	554	551	548	548	545	541	542	538	543	547	553	555	554	550	543	546	548	546	546	544	550	546	551	548	541	543	533	534	536	537	539	539	540	543	545	545	530	528	528	531	539	542	540	535	535	538	542	539	540	531	532	534	535	533	534	532	537	538	534	532	534	536	538	536	535	532	532	527	529	530	529	529	525	522	526	534	539	537	533	532	537	538	537	533	535	539	539	540	532	521	520	520	519	523	526	529	521	519	517	517	513	512	515	508	514	513	509	509	510	514	514	513	514	514	518	518	518	521	522	520	522	527	525	524	519	515	513	512	516	515	512	509	508	507	513	512	517	519	519	516	514	507	508	506	504	512	513	513	514	513	514	517	518	519	514	506	521	518	516	514	510	506	505	505	507	509	510	508	509	520	518	516	516	515	510	513	516	509	518	519	516	506	501	500	503	507	509	511	513	516	518	515	511	505	504	502	502	506	507	505	506	506	505	499	504	504	501	499	505	505	502	498	496	497	498	497	497	498	496	492	489	488	491	492	497	499	494	485	486	486	493	500	500	499	500	498	489	486	488	492	495	494	494	493	490	490	487	484	484	487	489	493	495	495	494	493	491	494	494	490	489	488	486	483	481	484	491	490	490	490	489	484	486	494	491	483	477	475	479	479	479	480	479	479	480	486	489	486	483	482	482	483	481	479	477	479	476	473	481	482	482	482	481	481	482	483	486	486	486	482	482	477	476	476	478	477	469	471	474	474	478	477	474	473	472	471	469	471	479	482	472	470	468	471	474	472	478	475	476	476	474	475	478	478	478	478	471	470	468	464	466	465	466	457	458	459	468	471	474	474	475	476	470	466	466	463	471	455	454	461	462	465	464	465	465	464	463	459	456	454	457	460	463	464	466	461	460	460	461	459	459	459	458	454	453	453	453	457	460	462	463	461	457	450	448	455	456	456	454	454	454	454	453	452	452	456	457	459	458	456	454	452	456	458	457	456	454	449	445	445	450	453	454	456	454	452	448	454	457	459	459	452	451	447	448	453	455	457	452	450	447	444	441	447	447	450	456	456	459	458	454	450	447	452	446	444	444	444	442	454	450	447	448	447	447	443	450	443	442	443	443	442	442	447	445	448	447	446	445	445	445	444	443	442	442	445	445	444	444	449	449	446	439	0	0	0	0	0	0	0
585	591	592	587	587	581	584	587	588	588	583	582	582	583	585	585	579	578	573	576	587	587	598	603	596	591	580	580	575	572	572	576	585	593	593	590	585	582	581	581	585	585	573	584	586	588	580	580	575	575	575	577	577	577	574	573	571	568	574	578	584	584	580	579	579	576	573	573	572	572	570	570	573	574	574	574	563	556	564	563	563	563	564	566	567	575	575	576	572	567	566	568	573	559	554	551	553	553	557	566	566	566	561	571	570	563	559	554	555	556	556	558	554	546	547	554	555	548	545	544	550	556	548	548	560	557	555	553	555	552	551	548	546	543	542	541	540	538	540	546	549	552	551	547	540	537	529	536	541	544	548	550	544	538	537	537	528	531	532	534	538	539	541	544	541	530	531	528	528	527	527	529	530	531	532	529	522	522	539	538	531	534	535	534	533	532	535	534	534	528	529	532	536	539	533	530	528	524	523	525	526	527	527	525	529	532	535	532	529	531	535	536	526	527	530	539	539	538	537	530	524	518	514	512	507	512	516	516	514	511	513	516	514	514	508	507	508	507	508	510	512	510	510	512	514	512	519	519	516	516	525	520	521	510	512	514	517	518	516	515	515	513	508	507	508	509	504	506	506	507	507	508	507	505	502	504	505	505	504	509	510	515	515	509	510	510	501	506	520	510	506	503	503	504	507	508	514	512	508	507	514	511	509	511	504	506	507	517	516	509	503	499	498	499	496	506	505	506	507	496	499	506	507	507	502	500	498	497	498	496	496	499	496	493	503	502	502	503	502	508	495	491	488	488	496	495	496	496	495	493	494	488	488	490	493	488	480	479	486	488	486	491	497	494	492	486	482	485	484	489	490	489	488	489	484	476	478	479	479	482	485	496	496	495	489	489	490	489	493	489	488	483	484	481	481	481	483	482	483	483	480	477	488	483	476	475	477	475	480	478	477	477	482	481	485	486	489	485	482	475	477	481	477	475	473	472	472	469	476	476	479	482	482	481	484	485	476	473	476	477	475	473	474	474	470	470	464	476	471	470	469	468	468	469	467	465	465	469	470	469	472	464	467	467	476	472	473	471	469	472	465	466	470	478	477	472	470	469	468	469	471	468	464	455	457	462	468	471	471	473	473	468	468	461	463	468	463	458	454	461	461	461	460	462	464	463	462	458	456	455	459	463	462	461	458	459	462	465	463	461	457	458	456	452	452	453	453	453	455	457	460	460	459	457	457	454	454	453	454	452	453	452	451	450	452	453	457	458	462	447	453	445	453	453	452	451	449	443	446	446	447	446	448	452	456	451	451	454	456	459	459	450	448	444	443	447	454	454	447	440	440	438	440	444	450	455	441	443	442	453	453	448	445	451	460	444	442	440	438	438	444	444	445	445	443	446	448	446	441	442	442	442	441	441	445	447	435	434	434	444	444	439	435	432	432	435	444	444	444	444	441	439	437	0	0	0	0	0	0	0
566	568	571	572	573	573	578	583	587	581	581	580	579	584	576	576	569	567	570	579	579	579	579	581	580	579	574	574	576	575	570	572	581	583	583	581	573	573	574	580	577	580	580	582	585	583	573	575	576	580	580	579	583	583	581	576	577	573	571	574	577	577	581	579	576	573	560	561	562	559	558	560	563	564	563	563	551	546	544	547	559	558	559	561	564	572	572	573	572	562	562	558	552	553	549	546	545	548	549	556	565	559	547	547	549	548	549	550	557	557	552	549	548	543	545	551	550	546	542	542	543	547	541	542	536	533	536	543	546	550	547	546	543	541	538	541	542	541	539	542	546	548	543	544	538	531	525	527	528	532	529	524	525	528	535	531	526	526	528	532	536	535	539	542	538	531	529	528	528	529	527	525	525	527	527	525	522	520	527	535	531	532	532	534	530	527	524	531	533	533	527	527	527	532	534	524	520	519	520	520	522	522	522	522	524	526	531	531	528	526	532	534	524	527	516	531	524	522	536	526	515	511	507	505	505	509	514	510	510	508	511	513	513	510	509	505	502	500	507	507	510	508	509	509	514	515	518	518	515	513	516	516	507	504	506	509	516	518	516	514	513	512	512	507	504	500	502	503	504	507	506	507	508	504	500	500	499	500	501	505	513	515	513	507	503	500	503	511	509	507	506	507	509	504	506	508	515	511	507	506	505	503	502	499	501	502	505	508	510	506	502	498	495	492	494	498	503	501	501	495	499	503	503	502	499	496	496	497	496	496	496	496	491	490	489	490	490	491	495	497	493	482	485	487	491	490	490	488	490	491	492	490	488	489	484	480	480	484	486	487	489	488	492	490	487	485	483	484	484	486	488	486	487	486	481	479	477	477	478	479	484	483	480	480	483	483	478	481	480	479	479	478	476	476	476	475	477	477	475	475	480	482	479	468	467	470	469	474	474	474	472	469	475	478	478	476	480	485	479	475	476	479	476	475	472	472	468	473	477	475	478	482	477	472	468	468	461	470	471	471	470	464	463	467	469	472	478	479	476	467	467	466	467	467	465	464	462	462	465	465	464	462	462	463	467	469	465	464	464	468	463	465	468	470	471	474	472	471	470	470	471	467	460	456	456	460	466	468	468	469	466	465	466	462	464	465	462	457	455	455	456	457	459	458	455	457	458	456	455	453	459	461	464	458	456	459	457	456	458	453	457	452	450	444	449	449	449	447	453	457	460	457	457	456	450	450	449	450	449	451	451	452	450	450	449	452	452	454	452	445	444	446	449	452	451	449	447	446	444	443	438	437	445	445	443	446	450	459	460	459	449	447	445	441	440	444	448	446	437	437	439	439	439	437	440	440	439	436	435	441	440	442	442	449	456	439	438	437	437	438	440	443	445	444	444	446	447	444	437	437	437	437	435	434	435	437	436	436	442	439	436	435	433	431	434	434	435	437	439	440	442	438	436	0	0	0	0	0	0	0
566	559	563	569	570	570	574	580	580	570	570	572	580	578	571	571	569	581	583	573	573	573	571	574	576	576	574	574	575	572	569	569	569	571	571	571	572	578	580	588	575	572	572	569	570	568	569	573	576	579	579	579	577	577	576	574	568	570	568	570	574	574	574	571	569	557	557	557	554	553	553	555	557	560	560	560	556	551	548	545	543	550	553	554	551	554	554	554	557	550	547	547	544	543	544	550	544	544	546	551	556	554	556	544	543	543	544	543	549	553	547	547	548	539	539	548	547	542	539	537	536	534	540	540	538	533	533	539	543	541	543	543	538	538	535	534	537	534	535	540	537	537	540	540	540	536	532	528	529	528	524	523	524	528	530	524	519	518	522	527	534	536	535	534	530	530	529	528	525	525	522	522	520	516	512	518	507	513	519	527	524	524	524	524	513	517	519	519	533	533	529	528	526	529	532	526	519	519	518	517	516	520	521	520	518	518	522	529	522	522	523	521	519	514	512	517	517	520	519	512	505	503	505	505	508	512	511	504	498	504	509	511	507	507	505	505	506	502	499	500	509	509	509	509	515	515	513	513	512	509	508	503	502	499	501	504	508	512	513	507	507	511	504	501	493	490	499	497	501	502	503	504	506	499	498	498	499	500	499	508	510	508	505	505	503	499	495	497	495	494	499	503	503	500	500	502	495	491	499	498	495	493	496	498	497	499	502	505	507	507	500	498	494	486	488	501	502	497	495	497	499	499	500	495	496	493	492	497	496	495	495	486	486	486	487	485	486	484	488	489	483	485	486	486	487	489	491	493	487	484	488	487	484	484	484	479	479	480	483	487	492	492	484	486	479	477	478	484	484	487	482	481	487	481	477	472	475	475	478	480	483	480	478	478	477	476	476	475	475	476	477	477	478	477	477	472	473	476	475	474	476	475	468	464	465	465	468	470	472	471	465	470	470	470	470	472	473	479	473	470	468	469	471	468	470	473	470	479	478	477	475	470	467	465	460	457	466	469	466	465	464	459	460	458	464	469	475	476	474	464	464	467	467	463	467	463	459	460	464	464	464	463	463	465	462	461	463	464	462	461	463	463	471	473	469	468	459	457	468	465	470	464	455	454	454	457	462	459	461	461	462	460	459	462	461	466	461	457	459	454	452	452	451	454	456	455	451	450	451	452	457	460	462	454	454	453	454	451	453	450	450	450	449	442	444	445	446	441	451	452	452	454	454	452	450	447	444	442	441	446	450	450	448	448	444	443	441	442	443	444	444	433	434	434	437	440	442	445	437	436	433	441	445	445	442	446	446	445	454	450	445	439	441	443	443	437	444	436	434	437	439	439	439	444	439	437	435	435	436	434	437	436	438	444	433	433	435	436	437	439	444	444	444	443	439	435	431	431	441	437	437	430	431	434	429	426	425	433	438	440	436	435	433	433	431	431	428	433	433	433	437	437	434	0	0	0	0	0	0	0
558	560	561	563	567	567	570	563	559	561	561	570	577	575	573	574	574	579	576	567	565	565	566	567	567	568	572	563	563	562	557	570	570	570	571	571	572	579	585	568	559	567	567	563	563	565	566	571	576	572	570	570	570	570	570	560	559	562	566	571	569	563	563	555	550	551	552	553	552	553	554	554	553	554	555	552	552	548	541	542	539	538	539	542	545	539	539	541	543	545	543	548	539	537	545	538	540	545	546	553	553	548	549	548	543	543	538	533	539	543	536	537	539	536	541	543	542	540	537	531	528	539	540	541	539	534	532	528	527	530	538	539	538	536	532	534	535	530	531	530	531	537	532	531	531	532	533	534	533	528	523	522	523	523	531	525	525	514	520	526	533	531	529	519	515	510	513	511	517	513	513	517	520	520	512	518	518	520	522	520	518	518	519	510	507	508	509	504	510	513	527	526	524	528	530	526	518	517	515	515	513	514	514	516	513	516	519	516	517	516	512	509	506	511	510	510	511	513	503	501	499	504	512	511	511	507	501	496	501	505	505	511	505	501	500	500	502	502	500	498	499	500	502	507	513	510	507	503	499	499	498	498	496	492	496	498	501	505	500	498	499	499	497	495	489	490	491	496	494	494	495	500	504	495	496	498	499	496	495	498	504	504	503	505	502	499	495	493	492	494	493	495	501	501	496	492	490	487	487	483	482	486	488	494	490	497	499	500	506	504	503	493	486	490	491	496	498	486	487	488	489	493	488	489	491	491	501	493	487	491	484	486	488	488	487	484	480	487	489	487	484	484	483	483	486	486	488	486	487	486	484	483	482	481	482	482	483	484	486	489	491	491	488	481	477	481	481	487	488	484	481	476	478	473	472	473	475	473	474	473	477	480	483	476	475	474	473	475	475	476	476	477	477	477	471	471	472	471	475	475	475	466	464	465	466	466	465	463	468	468	468	467	468	467	464	470	470	469	472	471	460	460	462	465	470	462	462	465	467	466	466	466	464	464	457	458	460	465	465	464	459	456	455	456	457	457	469	460	463	463	464	463	462	460	465	463	456	460	459	461	463	463	462	461	458	459	460	463	460	458	459	460	458	457	456	453	456	455	455	457	457	459	463	464	458	455	455	449	451	451	452	451	452	449	458	457	455	454	457	454	451	446	448	450	449	452	448	445	442	442	439	448	450	450	449	451	451	453	452	447	446	446	444	442	435	440	443	444	446	447	448	449	448	448	448	444	441	442	439	441	447	443	439	432	429	436	437	440	444	444	440	438	435	435	436	442	444	444	442	438	437	433	437	442	445	442	441	441	435	436	433	436	435	433	432	435	436	437	436	437	436	437	439	439	440	438	437	435	434	433	433	438	438	437	432	432	434	431	434	434	435	434	430	427	426	428	428	427	430	430	429	429	425	431	424	423	422	420	428	434	432	428	426	429	429	430	428	427	426	431	431	435	432	0	0	0	0	0	0	0
560	557	561	563	563	563	564	563	565	564	564	571	574	575	575	575	575	569	570	560	560	560	560	559	563	559	561	561	561	558	568	570	577	568	565	565	561	556	558	563	561	557	557	557	560	561	563	564	563	563	564	563	563	565	559	552	554	558	560	563	562	550	550	545	545	547	549	551	553	554	554	553	549	549	545	547	547	546	539	538	536	533	536	539	544	541	539	537	540	540	539	538	537	535	535	536	537	544	551	540	540	546	543	536	530	532	532	532	533	535	537	537	536	536	538	538	535	531	531	524	539	548	540	541	539	537	529	525	525	528	532	533	534	527	529	530	531	530	528	528	529	531	530	532	531	528	532	533	524	521	521	521	523	523	522	521	526	530	520	525	529	532	518	516	509	507	512	513	514	512	513	515	518	514	512	520	519	526	518	513	510	511	514	509	506	502	501	505	506	505	501	498	504	523	524	525	512	510	514	509	510	504	505	508	514	510	513	513	510	503	504	491	496	499	507	508	507	509	502	498	501	504	501	511	508	501	493	496	498	498	501	509	504	499	495	497	502	502	500	496	494	492	496	498	505	509	505	490	499	501	499	496	496	493	495	498	501	498	498	496	494	493	493	494	493	492	491	490	494	490	492	495	492	490	490	499	500	496	495	496	501	498	498	502	497	492	490	488	489	491	492	490	492	494	493	492	487	486	483	481	481	481	483	485	485	490	491	492	496	494	491	491	486	489	490	492	490	485	489	489	491	489	488	487	484	485	489	487	482	481	484	488	487	486	485	481	482	483	487	484	483	483	481	482	483	486	488	486	487	487	486	483	481	478	481	483	482	484	485	487	489	486	477	479	461	461	461	476	480	482	478	467	469	464	453	455	459	464	466	473	474	475	478	473	472	473	472	472	473	472	475	470	475	475	468	464	467	466	469	467	470	464	460	459	462	463	464	462	464	467	466	458	450	451	463	467	467	464	460	461	459	462	460	460	455	466	462	461	459	460	462	461	461	461	461	460	463	466	457	460	457	453	454	456	456	459	462	454	462	462	462	462	456	455	454	460	462	460	459	458	460	461	460	457	456	450	452	454	459	458	458	459	459	459	451	455	455	455	455	454	450	450	454	453	454	453	454	453	451	442	447	448	446	445	446	448	445	444	449	454	446	444	441	446	446	446	448	444	441	439	440	442	445	446	446	447	449	449	447	446	443	444	440	438	441	441	436	446	445	445	445	445	448	445	446	444	439	440	441	441	441	438	436	434	435	435	436	437	443	443	441	437	438	440	438	439	444	444	442	439	437	433	436	440	438	436	435	438	431	433	434	434	435	434	433	433	440	434	435	433	436	434	436	436	436	437	437	436	435	434	433	433	433	433	430	436	434	431	432	432	431	425	425	425	429	431	425	425	425	425	424	424	429	427	423	421	422	419	418	424	423	425	424	424	424	425	423	423	423	424	428	428	428	0	0	0	0	0	0	0
557	557	558	558	559	560	560	566	566	563	561	561	567	569	572	575	575	566	559	560	555	554	554	552	553	553	555	555	555	560	555	570	568	552	551	551	551	553	554	555	554	553	553	553	552	555	557	556	554	556	555	554	554	555	546	543	549	553	555	554	553	542	543	543	532	531	537	542	550	550	550	547	544	540	537	542	540	540	538	538	536	533	534	537	540	539	537	532	530	536	536	535	532	530	530	531	531	543	530	530	532	526	521	520	527	527	529	532	532	532	528	539	533	536	535	534	528	521	520	518	523	530	540	547	537	531	525	525	525	525	528	529	527	527	526	529	526	525	525	525	525	523	527	523	529	528	528	524	521	519	520	520	520	520	519	519	518	520	510	523	523	520	516	516	514	512	514	515	513	509	510	511	514	516	512	516	510	518	511	504	503	506	505	509	503	500	503	503	502	499	498	498	499	504	505	504	510	510	509	509	499	500	503	503	504	503	502	500	498	497	496	488	490	493	488	490	505	507	508	501	503	500	499	502	500	493	495	494	496	493	498	501	500	494	493	495	498	499	496	494	485	487	489	497	499	493	487	486	498	502	499	495	494	492	497	494	487	497	493	492	490	490	492	494	494	493	492	486	483	492	492	492	486	483	491	485	496	494	493	493	492	495	493	492	490	483	481	479	478	484	488	489	488	491	488	483	483	482	484	481	481	477	480	481	484	488	492	496	495	492	493	489	486	488	489	492	489	484	488	485	485	483	481	483	482	483	484	485	482	478	482	484	485	483	480	479	481	481	484	482	480	479	480	479	482	486	488	485	486	486	484	482	479	478	480	482	484	483	478	479	485	477	474	456	459	461	467	470	462	461	458	459	459	460	455	458	459	461	464	463	469	469	464	468	467	465	466	470	473	468	464	465	469	468	464	461	460	464	465	466	467	459	458	459	462	464	458	458	457	450	450	450	452	450	452	462	461	464	455	454	459	459	458	453	448	461	466	462	457	460	460	457	456	457	459	462	462	458	448	451	450	450	449	452	455	457	449	450	450	458	461	461	454	451	453	444	449	451	453	455	455	451	452	456	452	450	450	453	456	448	454	456	454	456	452	452	453	453	447	445	440	443	447	450	451	452	451	449	448	443	438	441	442	441	447	449	448	442	439	442	441	441	438	440	435	445	443	442	440	439	437	438	439	439	442	427	426	426	438	439	439	439	437	436	435	434	440	443	442	444	449	441	440	439	439	439	443	443	439	435	434	434	435	434	439	437	439	436	440	441	431	432	437	441	440	433	435	441	441	440	441	440	439	437	436	431	430	428	428	432	434	436	434	433	433	432	440	432	435	431	430	430	429	429	429	430	424	425	433	433	431	431	433	433	430	430	428	428	427	429	427	425	425	423	428	429	429	426	426	423	422	423	425	427	426	421	420	418	417	423	421	421	421	421	420	422	418	420	418	419	422	423	422	0	0	0	0	0	0	0
555	555	555	553	549	550	550	555	563	554	557	557	565	567	567	562	549	549	553	557	556	554	554	550	549	551	546	549	541	541	547	551	551	550	549	551	551	553	556	553	551	551	550	550	548	548	550	550	548	545	547	547	547	542	537	537	541	543	547	547	545	538	536	536	535	531	534	538	540	541	543	551	543	535	532	535	535	535	536	535	532	531	531	534	535	535	532	531	530	526	530	529	525	525	525	526	526	531	524	521	520	522	528	528	527	527	526	525	522	523	535	535	532	532	530	529	518	517	516	513	514	516	511	513	514	514	514	514	516	520	526	524	523	521	523	520	518	525	518	520	519	510	519	507	518	525	527	521	520	516	516	516	515	514	515	517	518	514	511	504	504	515	516	511	514	513	514	514	509	507	507	510	509	513	508	507	504	504	507	503	503	503	503	497	494	495	506	505	502	500	498	500	502	500	500	499	498	496	498	496	503	498	499	500	497	498	496	492	494	496	485	486	488	490	495	499	501	503	498	502	503	500	502	500	496	492	491	492	492	490	489	495	494	492	486	479	478	489	482	482	486	491	496	492	487	486	484	485	488	492	495	499	490	490	487	495	485	492	490	492	493	491	493	494	497	488	490	489	487	486	481	483	483	483	481	484	478	493	492	487	485	485	485	484	484	482	479	476	477	479	481	485	483	481	484	491	481	480	480	480	481	476	477	476	475	475	475	481	482	486	484	484	489	489	485	479	477	473	478	481	480	473	473	475	482	483	484	483	481	478	479	485	486	486	479	479	478	478	485	481	473	473	475	482	483	483	483	484	486	485	484	481	477	477	480	478	478	475	472	471	473	473	472	461	462	464	466	467	466	460	458	457	458	454	454	457	460	461	460	460	463	464	461	459	461	460	461	463	465	463	464	464	448	448	455	459	459	458	464	471	472	472	460	457	456	462	459	453	451	448	450	452	451	451	451	455	456	455	454	454	454	454	456	453	450	452	453	456	457	461	458	455	452	451	447	448	448	456	456	447	447	447	450	451	456	454	449	447	445	453	460	458	456	446	443	445	448	449	453	449	447	447	449	454	454	454	453	447	445	447	453	449	447	447	450	448	443	440	443	442	442	438	443	441	445	447	447	440	442	439	438	441	440	438	438	448	447	443	438	437	437	433	435	435	432	440	440	439	437	435	434	433	434	435	436	428	426	429	433	436	437	438	437	435	431	430	431	436	439	440	441	438	434	429	439	437	438	435	431	423	427	432	435	435	439	440	439	437	437	434	425	428	432	436	441	435	434	435	435	437	437	440	439	436	430	426	427	426	424	429	433	433	432	433	433	432	432	434	424	421	420	426	428	423	423	420	420	420	420	426	427	429	422	425	428	430	427	425	423	423	423	421	421	424	426	429	426	425	425	423	424	425	425	430	429	427	420	418	416	422	422	422	425	425	420	422	417	419	422	417	418	418	417	0	0	0	0	0	0	0
554	554	555	547	543	544	544	549	549	549	556	556	556	541	538	538	541	541	551	555	550	550	549	549	550	544	541	536	537	537	537	543	542	544	545	549	549	551	551	549	548	546	542	545	545	544	542	543	543	540	539	539	537	537	531	538	536	528	530	539	538	540	539	539	539	535	532	531	531	532	537	544	542	534	530	533	533	534	534	535	532	532	529	528	529	530	530	530	530	527	525	524	521	525	523	523	522	523	525	524	524	527	530	527	527	525	521	517	517	518	518	514	520	525	523	523	521	520	519	520	515	515	512	512	513	514	513	513	511	518	522	521	521	519	518	514	511	511	510	518	503	504	504	506	511	516	518	522	519	515	512	511	510	510	511	514	515	512	510	504	507	500	500	498	497	508	511	510	507	503	507	509	508	500	499	497	494	497	505	502	501	502	501	500	493	496	502	499	500	499	494	498	501	500	500	499	494	496	498	493	495	498	496	498	495	492	493	491	490	488	486	485	488	492	491	495	497	501	500	500	502	500	496	490	491	489	488	484	486	486	486	490	492	486	481	482	483	478	479	481	486	490	494	488	487	486	484	484	490	490	488	485	485	488	488	494	494	489	484	484	491	488	490	493	488	485	485	486	485	476	479	477	489	488	479	474	476	478	479	481	481	482	481	479	480	481	479	478	474	470	464	468	468	484	476	482	480	478	476	480	479	474	473	474	474	474	478	477	480	481	482	482	484	482	473	473	473	473	473	477	478	470	471	472	474	476	466	470	469	468	477	479	483	484	478	476	475	478	480	478	474	469	470	468	477	478	478	479	471	470	468	469	469	468	468	472	469	468	465	468	470	468	467	462	464	467	468	458	457	460	460	458	456	459	460	463	470	458	459	462	455	459	459	459	458	457	455	459	459	461	462	461	447	446	451	456	454	454	457	464	465	458	451	446	446	451	451	453	450	449	450	451	453	452	452	453	451	450	453	454	454	452	455	448	451	446	442	444	449	459	456	453	451	447	446	447	446	445	446	451	444	448	449	452	458	455	447	446	445	450	455	448	447	444	444	445	446	449	449	447	446	446	446	448	452	450	445	442	441	440	448	446	443	445	441	443	441	442	438	439	442	442	440	438	441	438	440	440	440	437	438	438	436	436	438	438	443	442	438	438	433	431	437	437	436	430	428	428	433	433	432	432	432	433	434	433	435	437	436	438	436	438	437	437	432	436	429	434	434	432	435	436	428	428	425	424	422	421	426	431	432	431	431	436	439	438	438	438	430	425	423	421	429	428	428	430	432	432	433	435	425	425	424	429	428	423	424	424	423	424	424	428	429	430	432	428	424	419	420	414	419	419	425	420	421	420	420	418	418	422	424	425	419	422	422	427	419	419	424	420	421	418	421	422	426	426	425	425	422	421	422	424	426	425	425	415	414	412	415	421	417	429	429	420	425	409	408	409	422	417	417	417	416	0	0	0	0	0	0	0
546	552	552	549	544	543	544	544	545	542	549	543	543	539	542	545	539	539	546	549	545	546	549	549	543	542	535	538	538	538	538	537	538	540	539	540	540	544	545	545	543	548	551	543	543	538	535	534	529	531	532	533	531	531	537	532	532	527	527	537	539	542	541	541	541	531	529	525	525	525	522	521	522	524	526	529	532	533	533	533	531	529	528	527	529	530	531	529	525	525	522	522	522	521	522	503	509	517	518	519	520	517	520	526	523	521	517	511	510	512	511	508	522	524	522	521	521	521	522	521	516	512	511	509	512	513	514	509	510	508	514	516	516	517	513	507	503	499	498	502	504	514	508	508	511	513	515	516	513	512	507	502	499	503	509	513	505	505	508	507	506	500	500	500	498	497	499	499	499	502	503	509	509	503	501	497	493	496	500	497	494	499	499	498	494	497	500	495	498	492	493	494	499	492	487	487	487	492	489	488	490	496	494	491	491	487	488	487	488	488	484	481	480	487	488	493	494	496	494	491	495	498	488	484	486	487	487	487	485	480	483	487	490	484	482	482	482	478	477	477	479	486	489	490	487	487	480	480	485	489	485	484	484	483	480	478	486	487	484	485	488	486	483	476	479	480	479	480	480	477	477	474	479	479	483	472	470	471	474	475	481	483	478	476	480	480	467	471	471	470	468	467	467	471	482	477	478	477	475	470	471	471	471	470	471	476	478	479	479	477	477	479	482	472	462	462	462	468	477	477	473	459	464	465	464	468	462	466	468	466	463	476	475	478	473	470	473	477	480	475	468	468	466	466	464	467	477	475	463	453	453	455	468	467	466	467	462	460	463	461	463	463	462	456	457	452	453	454	456	456	460	456	453	456	460	462	460	461	449	451	454	459	461	458	458	453	454	456	456	455	457	451	440	441	445	446	449	448	445	452	450	449	449	445	445	445	446	448	453	453	451	450	451	453	455	449	450	450	452	445	444	444	444	441	443	441	433	438	444	449	455	449	447	444	443	445	446	443	443	443	449	441	444	445	449	451	456	447	448	448	446	441	443	442	442	443	443	443	443	445	442	440	441	446	446	445	444	443	441	439	438	440	439	438	444	443	445	440	440	433	443	442	439	436	439	436	441	442	440	438	435	438	435	438	438	438	440	443	437	437	437	437	437	436	436	430	428	429	428	434	430	430	429	430	431	431	434	437	437	436	439	439	440	436	435	432	431	431	428	429	426	434	430	425	425	419	418	417	429	433	433	432	430	431	431	433	434	433	434	429	431	422	427	423	420	424	426	427	428	420	425	425	425	423	424	425	423	424	429	424	424	425	427	427	430	426	422	422	420	420	413	413	422	423	416	415	417	412	413	414	407	407	402	406	418	418	418	417	417	419	420	417	416	422	423	424	422	422	420	420	419	420	423	421	418	413	412	407	405	416	429	421	421	417	416	410	408	409	416	416	416	414	413	413	0	0	0	0	0	0
545	550	550	544	536	534	535	535	537	545	543	540	540	537	547	542	541	541	540	542	545	540	541	541	542	536	542	538	539	540	540	538	538	539	536	536	536	536	537	539	544	547	549	541	533	533	535	530	526	525	528	532	532	531	531	530	531	532	531	531	535	543	543	542	527	527	525	524	522	519	516	516	519	522	520	516	518	519	519	519	524	520	524	526	530	530	530	529	525	523	522	522	516	510	507	502	504	506	515	513	513	513	508	515	516	513	510	507	503	503	504	505	517	522	515	518	518	512	517	517	509	508	506	510	512	512	512	505	506	508	503	514	514	507	510	508	506	502	501	503	507	508	513	510	510	511	509	509	506	506	499	499	500	505	508	505	503	503	504	506	498	496	499	497	496	495	495	496	499	502	502	502	503	505	503	499	496	495	496	490	490	493	494	496	496	497	497	497	492	491	492	488	481	482	485	484	488	490	488	486	483	480	482	487	487	484	484	483	483	483	483	482	482	484	485	487	485	480	482	486	491	485	477	478	482	485	481	478	478	480	481	486	489	489	482	479	473	472	473	474	478	483	485	487	484	483	482	478	479	486	488	477	478	476	477	478	480	485	487	487	489	486	482	475	478	478	478	480	486	479	479	479	477	478	477	476	469	468	469	472	473	476	479	477	475	465	470	470	470	470	468	463	462	466	470	475	477	478	478	470	470	473	473	475	476	479	479	479	476	469	468	472	470	465	460	462	463	468	477	476	474	454	455	458	459	460	459	463	465	465	465	459	458	455	457	456	460	461	459	461	460	460	466	463	460	459	461	463	453	449	449	453	456	459	465	464	460	461	461	460	459	459	459	456	456	449	448	453	456	457	455	456	457	459	458	455	454	454	453	453	454	455	460	460	454	452	450	455	454	455	455	456	451	452	447	442	445	448	443	446	447	447	447	445	446	449	447	448	448	445	445	449	451	450	448	447	449	448	444	441	438	437	437	438	430	433	435	440	442	445	447	439	440	441	443	443	441	439	438	439	444	444	439	437	439	445	448	449	448	445	440	442	442	441	440	437	442	442	444	441	440	437	437	436	440	441	440	437	432	434	438	440	440	439	444	442	440	435	432	442	433	431	434	433	432	438	441	441	440	430	433	439	432	432	440	440	438	443	436	437	438	438	439	433	428	428	427	427	427	429	429	429	427	428	428	429	431	431	434	437	436	435	435	435	431	429	430	429	424	424	420	424	429	426	423	422	420	420	427	433	432	430	429	428	429	429	429	429	431	429	430	422	426	427	423	417	416	414	411	417	424	424	423	420	421	421	425	425	423	422	422	417	419	419	424	422	426	423	420	419	417	416	415	421	418	415	409	406	412	414	415	401	401	410	421	421	420	411	406	404	417	415	416	416	423	423	423	421	419	417	417	419	419	419	417	414	407	406	403	412	412	412	422	415	414	412	409	412	415	415	414	410	408	408	0	0	0	0	0	0
547	548	548	544	534	536	534	534	537	540	539	537	537	540	548	544	542	538	538	539	541	530	532	535	535	539	535	536	538	539	539	538	536	534	531	528	530	530	534	538	542	542	535	532	530	530	529	527	525	527	528	530	527	528	528	530	530	526	525	519	522	535	542	522	521	521	521	521	520	516	515	515	516	517	514	513	516	518	518	519	519	523	511	519	524	525	527	526	522	519	516	514	512	506	502	501	502	501	506	507	508	502	502	503	507	507	503	502	503	503	502	501	501	509	507	507	501	496	496	502	504	506	503	509	512	512	500	500	498	507	502	498	499	508	498	507	505	501	502	504	507	508	506	507	508	505	499	500	501	499	497	499	502	504	504	498	501	501	499	490	490	490	496	496	495	493	494	495	497	499	499	502	501	502	501	498	492	491	492	485	486	487	493	495	495	494	495	497	492	490	485	485	475	478	482	481	486	485	479	475	474	480	479	481	481	480	480	483	481	481	480	477	482	485	483	483	474	476	471	475	476	475	474	473	476	477	477	477	477	479	480	488	487	486	480	477	469	468	469	477	477	479	482	482	485	480	479	477	478	481	468	472	474	475	474	477	476	481	482	477	475	477	484	482	479	473	478	478	475	475	484	477	477	468	469	474	473	471	469	472	473	473	469	473	464	469	469	471	471	465	463	462	464	465	469	471	473	476	474	470	474	476	476	475	475	475	476	474	467	468	467	466	465	460	459	459	461	465	463	477	474	453	452	451	455	458	459	462	462	464	463	461	461	460	460	459	458	453	455	457	455	456	460	466	466	465	460	457	456	449	451	449	452	455	461	463	461	460	460	459	458	458	453	459	451	452	453	454	455	455	452	457	456	459	458	456	451	448	448	447	455	458	450	448	445	446	449	450	453	454	458	449	454	449	446	437	437	440	442	446	446	446	441	445	448	451	453	449	447	444	445	448	454	451	450	441	442	442	440	438	0	0	0	430	428	427	433	440	440	434	438	438	442	444	446	444	440	438	440	443	444	439	438	439	438	433	434	440	439	438	435	436	441	437	441	440	437	437	440	439	431	430	432	433	428	428	432	432	433	433	441	444	441	441	441	439	432	433	430	426	430	431	431	430	432	433	432	428	428	430	434	432	430	430	435	439	438	431	431	432	436	437	437	433	428	427	426	424	424	423	423	424	424	426	426	427	430	431	429	432	432	430	429	430	428	428	429	426	421	418	417	417	419	423	423	424	427	416	426	431	425	419	424	422	422	426	425	426	426	425	426	418	420	425	423	417	413	410	414	421	420	418	418	417	420	420	418	418	415	412	412	411	415	416	421	421	418	420	416	417	413	405	409	410	406	406	411	411	410	411	0	0	0	402	409	403	409	408	406	400	409	412	413	421	422	422	420	417	412	415	414	414	414	414	413	411	408	406	408	404	409	409	405	405	408	404	405	408	407	413	413	410	410	408	0	0	0	0	0	0
535	535	534	534	537	529	526	526	526	526	527	531	544	544	542	534	532	530	530	531	527	530	532	533	533	530	530	532	534	535	535	535	535	530	528	527	524	524	524	539	527	526	523	522	520	520	522	522	523	527	529	525	525	524	524	523	519	523	523	519	516	533	523	519	519	519	519	520	518	519	521	521	519	517	511	514	514	509	513	515	515	511	508	513	516	520	522	522	520	516	511	508	505	504	501	502	501	502	502	503	504	500	499	499	498	499	499	500	500	500	500	500	501	500	496	494	493	494	497	501	502	501	500	500	507	501	498	494	505	500	499	494	494	495	495	491	505	504	503	504	506	506	504	505	506	497	495	500	504	490	489	487	493	493	490	492	496	499	499	494	489	488	495	495	493	489	488	492	491	494	497	497	492	492	488	485	486	486	480	489	486	486	486	487	489	489	486	491	492	487	484	473	470	478	481	480	485	481	478	479	476	475	469	471	472	472	473	479	480	483	482	476	476	479	480	481	472	470	471	472	475	476	475	472	472	472	475	474	476	480	480	485	484	485	479	478	474	467	475	477	478	479	479	487	484	483	479	469	466	463	463	465	469	463	464	463	471	469	463	464	472	476	477	471	470	469	479	478	475	474	483	462	468	470	470	469	474	470	471	474	466	459	460	464	464	465	461	460	460	461	461	462	465	470	470	468	468	472	467	468	467	466	467	472	471	471	469	466	466	467	467	464	461	459	459	458	465	462	458	462	471	455	452	452	454	455	458	461	461	463	462	461	450	459	459	459	458	448	452	451	454	452	457	457	456	455	456	459	452	450	447	449	454	455	458	458	461	459	458	453	457	455	451	450	456	451	452	454	452	450	450	452	453	461	456	452	452	448	447	447	445	445	446	444	444	443	443	448	449	454	457	447	446	446	443	439	437	440	436	433	445	438	437	441	450	448	454	446	444	443	442	448	449	439	443	444	440	437	433	432	0	0	0	431	429	426	430	438	440	437	438	436	440	436	440	439	441	440	439	441	440	439	437	438	438	436	432	434	433	435	436	432	437	437	435	435	434	433	432	433	429	426	431	432	431	426	426	428	432	431	428	436	444	441	440	426	423	420	420	425	429	431	429	428	432	428	427	423	424	424	429	428	423	420	430	431	420	418	420	421	431	425	431	428	426	428	426	424	422	419	418	420	421	421	422	425	428	431	431	429	427	427	430	429	428	432	431	418	416	418	418	418	417	416	417	419	420	419	416	415	415	416	420	419	421	423	423	423	424	419	411	413	415	422	422	416	411	409	409	418	417	417	418	414	417	419	418	417	415	412	409	410	415	416	418	418	417	418	415	408	409	411	412	412	415	412	405	403	409	410	0	0	0	403	400	402	407	406	402	399	400	408	416	418	416	416	406	406	405	406	411	410	411	414	414	410	405	409	410	409	409	407	408	407	405	404	403	404	406	414	412	409	409	408	0	0	0	0	0	0
524	529	537	537	537	527	523	521	521	516	519	530	537	537	532	526	524	523	523	525	527	527	529	529	529	527	524	523	529	529	531	531	531	526	525	524	524	525	525	524	521	515	512	511	510	510	510	510	509	514	519	524	523	519	521	521	520	521	524	529	534	530	520	518	515	513	513	513	510	516	520	524	522	518	515	511	511	505	505	499	499	499	506	507	508	510	515	519	517	513	511	504	505	508	511	509	503	500	500	503	504	503	503	500	495	495	501	504	497	495	494	496	497	498	494	493	495	496	497	499	498	497	500	498	499	498	492	482	491	484	483	490	491	491	489	498	497	505	502	501	496	491	492	492	487	498	492	493	500	493	490	486	486	483	484	489	490	496	498	498	498	489	490	490	490	487	483	484	483	488	491	490	492	491	487	484	481	481	476	470	469	477	481	483	485	485	489	481	492	473	471	472	474	477	476	477	476	476	478	476	475	469	473	475	478	478	476	471	474	471	468	470	472	472	469	470	471	471	467	471	472	472	473	472	469	476	478	485	486	481	478	477	477	476	470	473	474	467	469	478	479	479	480	485	484	483	478	465	464	462	461	461	462	460	454	453	456	468	464	464	468	468	463	460	460	460	460	461	461	460	459	456	453	467	471	470	471	471	473	466	461	456	460	461	461	459	455	457	458	457	459	459	459	463	467	469	468	464	464	465	465	464	470	464	470	467	466	465	465	463	459	456	455	457	458	463	456	462	457	461	460	461	459	459	455	455	460	460	461	460	459	456	456	454	458	457	455	446	448	449	450	454	453	454	455	457	457	456	452	452	446	446	453	457	455	462	453	454	456	453	453	447	450	450	450	448	447	447	445	445	445	446	444	445	446	448	448	440	438	437	442	443	442	440	441	436	440	444	445	446	445	444	441	440	440	438	437	436	436	434	429	438	434	438	441	447	444	445	443	437	441	434	427	427	430	433	431	427	431	431	427	423	429	434	426	428	432	436	432	430	433	436	439	436	437	437	437	433	438	439	436	432	430	436	435	433	431	430	433	433	433	431	429	425	425	425	428	430	421	423	419	419	423	423	421	422	423	417	429	426	430	430	435	435	434	431	428	421	415	425	429	430	429	424	417	427	424	421	420	422	424	426	420	420	420	425	420	419	419	420	423	425	429	422	418	418	420	424	422	421	421	418	421	422	420	422	426	428	429	428	426	422	422	424	427	431	421	424	417	417	415	414	415	418	419	419	417	416	419	418	412	412	417	418	419	418	420	420	418	409	414	411	410	415	419	414	410	413	410	411	410	411	416	417	415	418	418	415	413	412	409	409	415	415	415	417	412	408	406	409	409	409	412	413	415	412	405	407	404	405	406	411	405	402	402	406	406	402	402	401	397	401	413	411	411	405	402	402	403	401	400	405	409	413	412	407	399	404	404	404	404	409	405	405	402	402	402	402	399	405	403	403	404	408	0	0	0	0	0	0
521	528	535	535	534	525	521	514	514	512	516	518	527	527	526	523	521	520	522	522	525	527	523	522	521	521	519	515	517	523	529	529	528	522	520	520	521	521	521	521	521	518	516	509	507	507	507	509	512	517	518	518	520	516	518	518	518	522	526	529	530	527	515	509	505	503	503	506	510	514	515	512	516	520	515	513	510	505	505	503	500	500	494	493	499	501	505	514	515	510	504	509	509	508	509	504	497	496	499	498	500	495	497	493	492	492	492	501	504	504	496	493	488	495	493	494	498	499	500	497	493	495	497	498	500	497	492	483	488	481	483	487	489	486	483	482	495	505	496	493	485	481	483	485	479	484	484	492	493	493	490	487	486	484	481	484	486	487	491	492	489	482	479	478	482	483	482	483	480	480	488	487	488	482	483	483	482	478	473	469	468	469	468	470	472	475	481	481	477	473	472	472	476	476	474	476	472	470	465	465	469	473	472	474	477	478	478	469	474	470	468	465	465	466	465	464	471	477	472	471	469	471	471	470	469	471	478	483	485	485	481	478	480	473	474	467	470	470	476	478	479	479	477	483	478	469	468	472	471	470	469	460	460	456	455	456	457	453	472	473	464	459	454	456	454	459	460	461	459	458	460	455	458	462	466	470	468	466	463	458	458	461	465	462	463	458	452	454	456	457	457	461	461	461	462	464	464	463	464	462	462	460	459	457	466	463	464	462	461	456	457	458	457	456	457	456	456	458	456	457	457	456	459	457	457	453	451	445	451	454	455	453	452	452	452	453	453	451	446	446	446	449	452	454	454	455	455	454	443	449	446	446	447	447	447	450	451	450	447	445	444	447	447	448	446	445	445	445	435	432	432	433	437	444	450	445	438	440	438	438	438	444	444	442	437	434	437	442	442	444	443	441	441	440	440	437	436	436	433	434	429	436	434	438	434	430	432	436	437	431	429	432	426	427	432	432	430	427	429	423	417	422	426	426	424	427	431	427	425	425	425	423	430	430	422	434	425	430	431	431	436	431	422	429	426	431	427	428	429	430	429	428	426	427	425	421	420	421	420	420	422	422	420	420	421	423	422	420	417	426	431	420	420	426	427	428	429	421	420	424	426	431	426	421	419	414	422	421	419	419	423	424	423	419	425	425	420	419	420	421	423	425	423	419	417	416	417	422	423	423	422	422	421	421	419	420	420	419	417	416	414	416	416	414	418	419	423	425	418	422	420	417	417	418	418	421	415	414	414	418	415	412	410	412	415	414	413	413	411	418	408	412	415	420	411	412	408	408	409	410	408	409	407	411	407	412	413	413	408	410	411	413	416	410	413	407	410	407	406	402	408	410	409	410	410	409	410	405	405	405	409	409	406	401	399	401	401	404	403	399	399	393	393	405	399	403	398	398	402	402	400	401	400	405	410	403	395	400	400	400	401	401	397	404	403	398	397	397	395	399	401	401	410	410	0	0	0	0	0	0
519	524	530	530	529	517	517	510	510	510	511	508	513	518	518	516	515	515	515	515	519	521	517	516	516	516	517	514	517	523	527	519	519	518	517	517	516	517	521	521	513	520	527	525	521	513	512	512	515	516	515	508	509	511	516	517	517	523	524	524	521	521	510	506	503	502	505	505	499	497	500	501	503	514	502	502	496	496	499	503	502	491	491	489	493	496	498	499	502	502	500	492	489	491	495	498	499	496	495	497	496	489	487	488	484	487	488	489	500	491	482	479	474	484	484	487	491	495	492	488	490	492	495	495	497	497	489	485	486	488	489	489	487	484	480	477	481	486	484	479	479	475	481	489	481	481	480	487	491	488	489	485	486	481	478	480	482	485	486	489	486	479	476	477	478	482	483	480	479	479	476	473	478	482	482	483	478	467	471	471	469	468	466	468	468	471	474	475	474	471	470	471	473	473	474	473	472	471	467	460	468	470	470	469	470	468	468	473	472	467	465	462	463	463	463	463	466	472	472	469	470	470	470	470	472	470	475	479	480	479	476	475	474	473	474	466	460	460	462	471	472	476	473	465	463	465	465	465	466	464	457	462	467	464	462	456	459	459	473	472	465	449	453	455	457	453	454	458	460	457	461	455	456	455	449	453	454	459	464	455	456	461	462	457	462	451	450	450	457	457	457	456	459	459	458	460	462	462	465	462	458	457	455	457	462	459	459	459	456	454	455	457	457	457	450	454	455	451	448	450	449	453	455	450	448	441	440	442	446	448	451	452	447	449	454	447	450	446	435	442	443	447	453	454	454	454	452	453	449	440	442	442	443	452	452	451	439	444	445	445	442	437	444	446	444	446	448	446	434	431	428	431	437	439	448	437	435	437	442	442	441	446	447	438	436	434	435	442	444	440	434	441	441	440	439	436	437	431	432	431	434	434	426	429	436	438	438	435	430	429	429	429	423	419	429	431	428	430	432	429	421	425	424	429	432	430	428	428	425	424	424	423	428	426	421	419	425	425	426	428	426	425	427	417	421	422	426	427	429	430	428	428	427	427	425	425	423	427	425	424	423	424	421	421	423	424	422	416	413	415	418	419	421	418	425	427	426	422	421	422	430	431	428	425	421	418	414	413	415	417	422	421	426	424	426	423	418	416	419	417	418	423	423	414	413	413	414	420	425	426	424	421	420	419	416	418	420	419	417	415	411	411	409	412	416	417	420	423	423	422	421	416	416	417	418	417	414	413	413	418	408	408	408	408	410	411	412	411	409	410	409	410	410	413	407	405	403	400	407	409	407	407	408	403	406	408	407	403	406	409	406	407	408	410	405	405	407	403	402	403	399	395	394	405	401	404	402	405	404	403	403	402	401	402	403	401	401	397	398	401	395	392	394	393	397	402	400	400	402	399	397	398	399	400	399	397	400	400	398	398	399	399	400	395	393	393	400	400	397	400	399	399	405	405	0	0	0	0	0	0
518	518	524	524	524	517	510	505	508	508	501	502	505	510	510	504	506	507	511	511	514	515	507	511	517	517	520	522	526	530	520	512	512	509	506	510	513	516	517	517	496	506	512	514	512	506	508	508	512	512	507	507	503	505	517	517	517	511	510	511	514	512	504	500	502	500	500	500	499	495	495	501	503	499	498	496	493	490	493	497	497	487	491	491	497	500	493	491	494	492	492	488	490	486	496	498	500	492	489	487	485	482	481	481	482	483	485	485	483	483	479	475	470	471	477	482	487	485	486	485	480	484	492	495	493	491	485	482	484	486	487	486	486	482	477	476	475	480	481	476	479	475	480	483	480	478	478	478	480	483	485	483	484	480	473	469	467	472	486	484	479	474	472	475	471	475	478	475	474	478	471	468	469	471	475	478	466	466	467	468	467	462	464	464	465	468	469	469	465	464	466	469	473	473	468	468	470	470	468	459	468	468	466	471	472	473	471	472	472	469	466	462	459	461	461	463	464	468	465	466	468	469	468	463	465	468	468	477	478	478	474	474	473	470	465	464	459	459	461	463	465	463	463	464	462	464	464	465	461	459	457	458	459	463	462	458	456	459	459	461	449	447	447	450	455	453	452	450	458	459	464	464	461	452	448	452	456	457	456	454	452	451	452	454	461	454	448	448	443	449	449	449	455	456	454	455	459	462	452	453	453	449	452	458	457	456	456	455	454	450	452	448	452	452	441	447	445	441	443	447	446	446	450	443	444	445	440	440	441	446	447	449	445	448	446	451	445	443	440	431	433	432	437	445	451	452	452	442	446	442	442	442	442	442	443	445	444	444	443	439	437	433	445	446	442	443	447	445	432	431	432	440	428	437	447	435	435	431	434	437	440	438	435	438	436	437	439	441	436	437	437	440	436	437	434	435	432	437	431	432	437	426	428	429	433	436	438	435	429	429	428	430	426	424	421	432	427	431	429	421	424	425	426	430	432	428	430	428	426	426	427	422	418	418	418	424	426	426	426	425	426	428	428	424	421	421	422	428	429	430	426	425	423	425	425	428	431	429	426	423	423	421	421	419	423	423	417	413	410	413	415	417	415	414	415	418	424	422	422	426	428	429	427	427	422	420	418	417	416	412	412	422	426	423	424	420	417	417	415	411	413	414	414	413	411	408	410	416	421	424	424	422	415	411	414	409	411	414	415	415	406	407	408	411	413	417	416	413	412	412	410	411	414	414	417	415	416	411	409	405	402	403	407	408	405	408	410	410	407	407	407	409	409	408	409	406	401	398	406	408	405	407	408	403	408	405	402	398	396	398	400	399	400	399	402	405	406	406	403	404	400	398	401	401	400	399	393	392	396	397	399	399	398	398	403	403	396	393	396	392	393	393	393	394	392	398	401	396	393	394	395	396	396	398	397	399	404	400	400	400	397	398	400	395	395	398	399	397	391	398	398	397	403	400	0	0	0	0	0	0
514	514	516	516	516	510	494	499	504	504	514	514	513	506	506	506	502	500	501	507	507	511	505	513	519	524	524	521	520	518	516	507	507	509	508	505	505	503	504	504	499	503	505	501	497	494	496	496	502	505	506	507	509	511	513	508	506	506	503	504	505	501	498	496	495	494	496	496	496	495	495	497	503	497	496	493	489	491	493	493	490	487	491	491	494	493	493	491	489	481	479	490	491	487	489	496	494	485	483	485	481	480	478	477	478	480	480	480	481	481	477	473	468	470	474	480	482	485	484	482	476	474	484	485	487	485	480	481	483	483	473	470	475	482	482	474	475	476	477	477	479	479	477	479	480	476	474	476	470	468	469	472	478	475	473	461	467	468	464	465	471	471	473	470	469	466	472	473	474	468	468	468	467	469	471	463	462	465	466	467	462	462	465	466	467	467	467	468	470	469	459	456	455	464	467	467	466	465	463	466	463	464	466	468	470	470	470	458	454	452	451	450	456	455	459	459	457	459	465	465	465	468	459	461	463	463	464	462	461	457	462	461	464	462	462	461	458	458	458	460	459	462	460	461	459	456	455	463	460	455	453	456	457	459	459	456	456	450	448	449	446	446	446	450	455	452	450	451	448	447	453	451	449	448	447	449	454	454	448	437	446	451	451	443	442	441	440	448	448	452	443	447	448	446	443	451	453	451	452	453	449	449	447	451	453	454	450	452	451	448	446	450	449	448	442	442	436	437	438	448	447	447	445	444	444	439	439	438	437	442	443	446	445	442	440	440	446	445	435	432	433	433	436	446	450	447	439	439	435	436	440	440	439	441	442	444	444	443	441	439	431	448	446	438	439	439	440	439	431	431	434	440	428	435	428	435	431	430	430	431	434	431	436	432	430	434	438	441	441	430	431	437	435	439	438	431	428	428	428	429	431	433	430	432	434	436	438	436	429	427	426	427	424	424	425	423	429	429	427	425	425	422	425	429	430	425	426	429	428	429	426	424	424	425	424	425	428	428	427	425	424	426	426	422	424	422	421	427	425	423	423	421	421	414	417	424	428	425	422	420	420	417	416	416	422	420	413	412	409	408	414	413	413	414	413	413	415	415	414	423	426	420	419	423	422	419	415	413	411	411	404	416	417	422	420	416	416	413	411	408	410	412	412	412	407	405	409	413	417	422	417	415	412	410	408	408	412	415	411	411	403	403	405	407	415	416	411	406	406	406	405	407	410	412	416	416	414	410	400	400	404	405	407	406	407	408	402	406	406	406	405	406	407	408	409	406	401	398	399	401	396	406	407	406	404	395	397	396	394	390	395	398	400	395	395	394	404	401	402	403	400	398	399	395	400	389	395	396	397	399	399	400	398	396	397	395	392	396	398	392	392	392	391	392	398	399	404	399	392	393	394	394	393	397	398	395	397	401	401	399	398	400	398	397	397	394	398	394	391	391	394	395	398	395	0	0	0	0	0	0
512	510	505	503	503	491	494	499	513	513	515	514	511	495	504	504	501	499	500	502	502	503	505	509	516	513	513	511	514	511	500	498	504	504	504	503	496	493	496	499	498	498	494	492	494	494	497	499	499	501	501	503	505	508	503	502	500	500	498	497	496	493	495	495	491	492	493	493	493	494	495	497	500	493	493	493	489	489	492	492	489	487	487	490	490	490	489	487	480	471	471	482	486	483	489	481	488	480	474	474	477	479	475	473	474	476	478	481	481	480	476	472	470	472	474	479	477	480	477	474	476	477	475	476	483	484	475	471	472	472	472	470	471	475	478	477	468	468	474	474	480	480	475	475	475	472	471	470	471	471	470	470	475	475	471	465	465	466	467	468	467	466	468	468	465	464	464	465	468	469	471	470	469	468	460	461	460	462	464	464	461	464	467	467	468	467	468	473	468	467	459	457	451	458	464	466	467	467	465	472	471	471	466	462	463	462	456	450	452	446	446	444	443	451	451	452	447	452	454	456	461	459	453	455	460	463	462	462	457	448	448	455	451	452	453	457	456	453	457	459	458	458	458	460	458	451	449	451	458	451	452	448	455	458	453	456	450	448	448	448	450	447	448	450	452	458	457	446	444	446	452	452	450	445	446	448	449	449	443	435	443	442	448	444	445	444	0	0	0	448	446	0	0	0	447	442	442	446	449	449	448	446	445	441	444	448	448	446	449	449	448	445	445	445	440	439	438	439	442	440	447	446	443	444	441	439	437	436	435	437	440	443	439	440	436	436	444	446	446	441	438	432	434	445	449	444	437	437	438	436	439	439	439	439	441	444	442	439	439	435	430	429	432	435	436	438	436	434	425	422	423	425	425	423	425	424	424	427	428	428	429	430	428	427	430	429	432	436	436	431	428	428	429	429	427	425	426	427	427	427	424	423	424	434	435	436	439	437	421	427	426	425	425	422	423	420	419	420	420	422	427	424	425	424	423	419	421	423	424	423	422	419	420	418	416	417	418	428	422	426	419	420	419	419	418	420	425	425	425	422	420	419	420	414	410	410	416	407	417	418	417	416	415	415	417	416	415	412	415	416	415	414	412	412	413	412	411	409	413	416	417	413	406	407	410	410	408	410	406	405	405	406	405	406	406	410	411	408	406	407	403	402	401	403	403	408	411	414	413	417	416	414	411	406	406	410	412	412	411	406	403	401	399	397	398	401	403	403	403	404	405	406	408	412	415	410	398	399	399	399	400	404	404	404	407	407	399	400	400	401	397	404	404	402	403	403	404	405	398	393	395	397	395	392	392	395	398	394	395	394	394	393	394	393	395	395	395	396	399	399	398	395	392	390	391	389	397	396	398	394	395	401	398	398	394	394	392	388	389	393	392	392	394	393	393	397	400	398	397	388	384	391	398	398	397	393	396	396	395	401	398	394	395	396	394	392	394	395	391	391	391	391	395	394	0	0	0	0	0	0
499	496	491	488	491	491	493	508	512	505	505	499	499	504	505	505	502	488	489	498	499	499	504	504	502	503	504	504	503	499	495	499	500	500	499	499	497	493	495	498	498	492	489	488	489	492	496	500	500	501	499	495	495	497	501	502	499	496	496	493	491	488	492	492	489	489	486	488	489	489	489	485	486	489	490	491	487	487	489	491	490	485	484	486	486	486	485	478	474	473	469	470	475	486	486	476	472	474	474	475	476	477	476	473	473	475	483	484	483	479	472	473	473	472	473	471	472	473	477	472	472	472	475	480	483	478	472	466	469	476	477	475	470	471	473	475	462	460	461	463	478	467	467	467	465	462	461	461	461	460	459	471	467	468	467	460	461	466	467	460	457	461	462	461	466	469	465	468	467	470	470	471	470	460	460	460	460	460	460	457	455	460	465	466	463	460	459	463	462	458	456	450	452	452	454	461	461	461	461	461	469	471	461	460	460	455	452	448	450	442	443	441	442	443	447	448	447	452	454	454	448	452	451	453	454	459	460	452	444	442	445	447	444	447	447	446	449	451	455	452	457	456	455	453	451	448	448	450	459	455	447	445	455	450	451	449	450	450	445	446	449	447	445	449	453	458	447	443	441	442	446	452	449	443	445	443	446	445	441	441	446	446	443	441	443	436	0	0	0	439	436	437	447	447	447	438	440	441	445	443	443	443	444	441	443	443	444	443	444	447	442	442	438	438	439	441	440	439	442	446	443	443	444	443	439	438	428	436	435	435	434	431	439	438	437	436	436	445	445	436	433	433	433	436	439	431	434	431	430	428	429	430	430	429	436	435	434	429	430	430	429	434	432	434	435	435	428	428	426	427	0	0	0	430	430	426	425	422	426	426	425	428	428	432	427	0	0	0	426	426	423	424	425	427	419	423	425	428	425	424	422	421	422	429	430	432	437	433	421	424	425	425	421	419	418	417	415	417	414	420	420	416	415	415	412	412	411	0	0	0	418	412	417	418	417	415	416	421	421	422	422	417	416	410	411	418	421	421	421	418	417	418	417	414	412	410	406	415	413	416	413	410	414	416	416	412	407	406	406	408	408	398	410	412	412	413	406	415	413	414	416	414	407	409	408	409	407	411	405	404	404	404	405	407	407	408	409	410	408	406	403	402	402	404	405	406	406	412	416	414	410	411	410	403	395	394	404	408	407	404	402	401	404	402	395	395	396	402	401	402	405	406	407	408	409	406	398	398	399	402	406	407	403	406	399	398	396	392	392	394	395	399	399	407	408	404	399	399	398	392	390	391	391	396	392	392	396	395	395	394	394	390	389	390	395	395	394	395	394	401	398	396	396	396	395	393	391	399	398	397	397	392	393	393	392	387	389	389	392	392	392	391	395	391	393	393	392	390	384	384	385	386	389	391	397	392	394	394	394	393	393	393	395	393	392	391	390	390	387	387	390	390	386	390	0	0	0	0	0	0
491	485	483	492	495	495	498	507	504	500	500	491	492	496	497	497	499	499	489	492	497	497	503	488	489	493	497	497	497	494	498	497	497	497	498	497	494	493	491	493	492	487	488	484	485	488	493	497	500	500	497	494	494	497	502	499	496	492	492	488	485	483	488	487	488	485	485	485	486	486	484	482	479	478	480	481	478	483	485	484	484	485	485	486	483	483	482	475	472	470	467	472	476	480	479	472	471	472	475	476	477	478	479	477	472	477	478	476	474	470	470	468	470	472	467	466	468	473	477	473	468	467	469	474	475	470	466	466	466	467	474	476	472	469	467	463	459	461	460	461	463	459	457	465	464	463	461	460	461	458	455	454	457	461	460	460	465	455	463	454	455	455	459	462	464	468	459	461	452	454	458	458	450	448	450	452	452	457	456	456	452	461	462	456	452	447	448	452	456	456	451	448	446	446	456	451	450	448	446	455	464	463	458	457	454	454	449	444	441	442	445	440	440	445	447	444	450	444	445	447	449	449	450	452	453	454	453	447	442	446	448	447	441	439	437	446	453	451	451	450	449	449	448	449	444	442	443	447	448	444	442	447	448	445	441	435	438	445	444	441	445	442	443	440	443	444	445	444	443	441	442	443	443	442	443	441	441	441	441	443	447	443	438	442	436	437	0	0	441	436	438	438	443	436	433	432	436	436	435	442	445	443	442	439	443	443	442	438	437	438	434	436	436	437	436	438	438	440	441	441	440	439	437	439	435	435	434	432	433	433	433	434	432	434	436	437	436	435	434	432	433	433	431	433	429	429	425	424	424	428	427	428	427	429	429	429	424	424	424	424	431	431	430	430	427	433	423	426	428	0	0	0	0	0	430	429	422	418	420	421	0	0	0	0	0	0	0	0	422	425	425	422	425	418	418	423	423	420	425	421	418	417	416	419	422	424	431	425	420	424	424	424	419	419	419	417	413	412	416	419	414	415	0	0	0	0	0	0	0	0	0	0	0	415	417	415	419	418	414	414	421	416	414	410	410	415	416	415	414	417	415	415	418	413	413	412	408	406	412	414	410	412	411	412	405	405	403	400	400	395	397	398	398	410	413	414	411	404	419	411	411	409	407	414	412	412	411	410	404	400	406	399	400	404	404	407	407	408	407	404	403	402	404	404	406	407	407	407	408	415	410	409	408	395	392	399	400	402	406	406	406	407	408	406	403	399	394	399	395	400	400	403	406	408	396	406	395	394	392	404	403	403	402	398	391	394	396	397	398	395	397	392	393	395	398	399	399	396	397	394	0	0	0	383	389	392	392	393	394	394	392	388	388	388	385	389	394	391	394	393	392	392	392	397	397	399	391	392	394	393	392	393	389	389	385	382	388	388	386	386	386	387	392	389	391	392	388	390	383	382	384	385	395	393	397	391	391	390	390	387	384	383	385	383	381	381	380	378	378	380	389	386	386	386	0	0	0	0	0	0
485	485	489	495	497	497	505	507	499	494	494	489	492	497	494	491	491	492	495	491	491	491	488	478	484	487	490	490	495	498	498	497	497	498	498	497	494	492	488	490	487	487	486	484	483	488	491	493	495	495	493	492	494	501	499	482	483	483	484	484	483	482	482	482	483	483	480	481	480	478	478	480	479	475	477	479	476	476	479	480	482	482	485	484	482	479	477	475	476	475	473	471	474	476	476	468	470	472	476	476	478	478	477	469	472	472	471	474	472	469	466	467	467	469	473	469	476	471	472	472	469	469	469	469	471	469	468	463	463	463	465	466	463	462	461	460	456	454	455	459	461	460	457	457	462	462	461	460	460	460	456	453	456	460	458	459	453	451	451	450	450	449	455	458	465	459	460	463	462	451	452	448	447	445	451	444	451	454	456	451	452	452	447	449	447	446	450	448	448	448	446	447	447	445	446	445	451	448	446	450	452	453	452	451	446	436	437	437	442	444	441	443	440	446	447	445	443	445	447	447	446	448	448	449	449	452	450	443	445	444	445	445	439	436	436	447	449	442	449	438	437	445	448	443	439	442	441	441	438	433	436	445	446	445	441	440	434	440	439	439	436	432	436	438	438	439	439	443	444	444	446	442	441	438	441	440	441	442	443	446	439	438	434	433	436	435	436	441	439	434	436	437	443	434	433	433	430	435	435	433	429	433	431	432	434	436	439	431	431	428	432	434	432	432	435	434	434	435	438	441	438	437	434	433	428	425	424	428	428	436	435	435	431	434	436	436	435	434	433	431	430	429	429	431	430	426	427	424	419	423	425	427	429	426	424	425	425	423	422	432	429	428	426	424	421	424	424	423	425	0	0	0	0	0	0	0	0	0	0	0	0	0	0	0	0	414	415	414	417	417	422	419	422	423	415	420	423	417	419	414	413	415	415	415	415	417	424	423	421	421	424	422	418	422	421	420	415	412	409	403	413	0	0	0	0	0	0	0	0	0	0	0	0	419	421	416	411	413	411	411	416	416	417	410	409	409	409	408	408	409	415	414	419	415	414	412	407	407	410	411	412	412	411	409	406	403	401	400	400	396	394	397	401	407	412	413	412	407	405	418	406	405	404	411	410	410	409	409	401	399	398	398	402	404	402	402	402	399	395	398	400	401	406	407	406	404	405	402	407	399	398	395	394	400	400	399	399	400	403	403	403	405	401	401	400	400	398	397	394	395	397	394	389	403	391	397	397	399	392	404	403	400	396	393	392	394	395	395	397	396	392	386	385	392	395	398	395	394	393	394	0	0	0	382	386	386	389	388	387	391	392	392	388	383	385	386	391	390	392	389	387	385	0	0	0	0	0	0	0	397	393	391	389	386	387	387	386	385	385	382	381	382	388	388	392	390	381	381	384	386	389	391	393	393	394	391	391	389	389	385	384	383	380	384	385	383	380	380	380	380	380	384	383	382	0	0	0	0	0	0
487	487	493	486	501	503	503	506	492	491	485	485	489	494	490	486	486	486	490	489	482	476	476	478	483	485	490	494	494	496	498	490	487	486	486	486	486	486	487	488	487	487	488	481	483	489	489	492	488	488	488	486	491	496	475	477	482	482	484	484	485	479	478	478	480	482	478	478	479	480	479	479	476	475	474	475	475	473	472	475	476	484	487	486	481	477	475	475	474	472	468	464	472	471	470	470	471	470	476	477	480	473	468	468	469	462	460	464	469	468	467	456	465	466	466	467	469	472	465	466	469	471	470	473	474	472	470	467	466	459	459	463	461	461	458	457	455	452	450	452	453	455	457	457	456	458	459	457	460	459	453	450	456	456	454	458	455	450	447	447	448	453	453	446	447	447	447	452	453	450	452	449	446	445	451	444	452	452	455	447	448	446	445	447	450	442	444	445	446	445	445	441	446	440	440	444	446	446	442	445	445	447	447	445	442	436	436	436	442	443	449	438	443	440	443	444	444	446	446	448	448	449	451	450	446	444	444	442	443	444	445	442	438	436	436	437	439	441	443	436	433	433	436	439	440	437	441	441	440	438	442	434	446	449	446	440	433	438	437	436	433	432	432	433	435	435	437	439	445	444	442	441	437	435	433	433	434	433	431	434	439	437	435	434	430	439	442	439	437	437	436	434	447	448	433	433	435	437	431	431	431	429	429	429	430	431	432	432	431	428	423	424	429	430	431	434	434	434	432	440	434	427	422	429	426	426	425	427	428	431	435	435	431	432	432	433	431	432	431	430	428	430	429	430	428	428	427	423	423	422	425	426	427	427	425	426	424	424	422	430	427	426	422	418	421	421	422	421	420	420	421	422	0	0	0	0	0	0	0	0	0	414	414	415	415	414	414	414	415	416	416	416	413	421	417	416	414	415	413	412	412	413	415	415	415	0	0	0	415	419	418	417	419	422	422	422	418	413	406	404	405	0	0	0	0	0	405	408	409	410	411	414	420	422	416	417	411	412	409	410	410	415	411	412	411	408	408	407	406	405	406	408	413	414	408	406	407	408	409	410	410	411	411	407	405	404	403	404	400	395	395	395	397	404	410	411	409	401	404	402	401	400	401	400	392	393	395	401	399	401	401	398	396	395	401	400	395	396	398	399	398	403	402	401	404	402	400	404	404	396	395	395	394	399	400	398	398	398	399	401	401	398	398	398	397	399	398	397	398	395	397	395	393	390	385	395	398	399	398	396	396	395	393	394	392	393	393	391	392	394	388	383	384	389	393	394	394	392	390	387	389	387	385	384	385	385	384	383	0	0	0	381	383	383	383	384	385	387	387	386	387	386	0	0	0	0	0	0	0	397	392	392	387	386	388	386	385	382	382	381	379	378	384	386	380	371	379	380	387	391	392	389	387	387	390	390	390	388	388	393	384	381	380	385	386	385	380	380	381	381	381	380	377	379	0	0	0	0	0	0
486	486	481	494	495	501	501	494	492	487	481	481	482	483	485	482	482	477	476	473	472	474	474	481	482	482	485	489	489	491	487	484	484	484	480	480	479	478	486	487	487	480	480	480	481	486	487	487	484	483	483	481	484	478	471	471	474	481	482	482	482	477	477	476	476	477	477	476	484	479	475	475	474	467	466	463	463	462	463	471	479	484	487	487	482	473	473	473	472	469	462	460	459	463	468	472	473	478	481	481	470	466	465	460	459	466	459	458	458	464	453	452	452	455	456	457	460	462	461	461	467	469	471	471	469	468	453	450	455	453	455	461	459	457	455	453	452	449	450	451	451	452	454	456	455	454	451	450	458	454	450	453	452	449	449	454	449	452	445	445	444	447	448	449	449	443	442	451	453	454	452	451	445	441	439	441	450	448	446	443	442	446	445	444	444	446	445	443	443	444	444	440	441	438	440	443	443	446	445	446	446	442	441	441	442	442	443	441	445	440	446	440	443	443	438	440	440	443	447	448	449	449	450	448	443	440	439	440	441	442	441	438	433	433	434	435	434	436	436	436	432	432	433	434	436	437	435	432	433	437	438	438	440	443	442	441	437	437	438	434	436	430	426	425	432	432	435	442	436	441	442	440	430	431	428	434	433	424	430	434	434	434	432	427	430	438	428	440	435	432	431	430	434	437	436	431	432	433	433	434	432	429	428	428	428	424	427	430	428	427	421	421	420	419	420	434	426	425	423	422	420	425	426	430	431	426	422	426	426	430	436	434	433	428	429	425	429	430	429	429	434	428	423	424	425	429	429	425	422	421	422	421	425	426	426	426	423	425	423	423	422	418	416	419	416	418	420	419	419	419	419	421	0	0	0	0	0	0	0	0	0	0	415	415	416	412	411	413	414	416	417	416	413	416	417	414	415	412	412	412	413	414	413	417	415	0	0	0	414	414	415	417	417	419	420	420	417	412	407	406	404	410	406	405	402	402	406	409	409	410	410	411	416	421	411	410	408	407	405	403	406	409	410	411	413	408	404	403	402	403	403	406	405	405	402	404	406	407	409	409	406	403	401	404	405	406	404	404	403	398	398	398	395	406	407	403	402	403	403	402	402	399	396	394	395	395	392	392	396	399	397	397	399	397	395	398	396	395	395	405	400	395	391	389	396	397	394	392	390	393	395	395	393	399	398	399	399	398	396	400	396	395	396	395	395	395	396	394	395	394	396	394	393	392	393	393	393	396	397	393	386	386	388	387	389	391	389	388	388	393	389	386	383	386	389	390	383	383	386	386	386	384	384	380	380	384	383	383	0	0	0	381	381	381	381	382	382	385	383	383	385	386	385	384	383	383	381	380	380	382	392	383	385	386	388	386	383	383	382	381	382	379	379	379	378	372	371	377	381	389	389	387	378	375	385	385	385	384	385	384	391	380	381	378	381	382	382	382	378	377	381	380	379	380	0	0	0	0	0	0
483	482	482	483	487	486	486	489	484	478	478	478	474	480	484	482	477	477	473	472	473	476	476	480	478	478	478	480	480	483	480	482	483	481	480	480	479	477	483	488	484	476	476	473	475	478	483	486	482	481	481	482	480	475	468	468	467	470	475	477	477	475	471	471	470	470	470	472	474	470	474	467	467	461	460	460	462	463	466	467	473	476	479	485	481	464	462	469	469	464	461	459	453	457	462	466	469	470	469	468	464	467	465	460	462	458	457	455	453	454	452	451	453	452	453	456	460	460	460	459	460	465	467	467	456	451	450	450	452	456	456	461	452	448	443	443	446	446	446	453	454	448	446	446	444	445	454	454	446	442	443	442	443	444	446	447	449	448	447	445	443	446	448	449	448	444	441	438	450	452	447	447	443	441	441	442	446	445	435	443	443	445	444	444	442	436	445	442	441	441	437	437	437	439	440	442	440	445	445	446	450	441	439	440	438	438	438	439	440	443	435	435	435	436	435	436	437	440	443	445	449	447	448	445	447	438	438	438	442	442	440	440	430	430	431	435	433	434	434	433	433	429	430	431	436	435	433	434	431	432	435	439	438	438	438	429	439	440	439	433	433	428	426	426	426	423	425	427	429	430	418	425	428	425	428	433	431	424	428	431	433	432	427	428	427	428	427	426	427	430	430	431	431	435	431	426	422	424	428	427	427	431	427	426	422	421	420	419	424	419	417	419	420	420	420	424	426	427	422	425	421	423	425	424	423	415	416	421	422	425	430	435	430	425	415	420	421	421	417	417	419	423	423	421	421	422	419	417	420	417	413	409	414	417	420	420	422	422	421	417	417	421	419	417	0	0	0	416	415	416	416	416	417	413	410	0	0	0	0	0	0	0	0	0	0	414	412	412	413	415	416	415	416	419	416	414	414	413	411	412	414	413	415	416	415	415	411	410	413	413	412	407	401	401	407	413	413	410	409	406	402	407	405	404	401	0	0	0	0	0	0	0	0	0	410	406	402	400	399	401	403	402	399	398	406	407	406	402	400	402	401	404	401	401	400	399	401	404	400	399	400	400	401	401	404	404	399	400	403	398	397	400	400	402	406	403	403	399	403	403	401	399	395	395	395	395	393	392	393	394	395	396	399	393	392	392	396	395	397	405	402	391	390	388	391	393	393	390	390	390	391	391	390	393	399	400	400	394	393	396	397	397	393	395	395	395	390	390	392	393	394	393	389	392	390	396	394	394	393	388	385	384	385	385	386	388	386	385	388	390	386	385	386	384	382	383	388	384	384	380	382	382	381	384	384	382	385	384	383	378	377	380	383	383	380	381	377	381	384	383	389	388	385	380	378	374	379	379	379	378	379	382	383	388	389	389	389	380	376	375	381	380	380	379	378	375	370	377	380	384	388	381	378	378	378	381	381	380	381	381	382	380	376	375	378	374	374	376	376	375	376	372	369	371	0	0	0	0	0	0
481	477	477	480	481	481	483	483	480	469	473	475	475	469	470	471	470	470	471	471	468	476	477	477	478	472	470	471	472	472	479	482	479	479	479	479	477	476	484	482	480	474	474	474	474	479	478	480	479	480	477	477	480	472	468	465	465	467	472	473	473	468	466	464	463	461	462	464	474	471	469	466	466	461	459	459	460	463	461	459	460	465	477	473	468	463	461	458	463	463	461	457	455	456	458	462	464	464	462	459	465	467	462	460	459	460	461	455	453	454	451	449	450	451	452	453	457	458	456	455	457	460	452	452	449	448	456	452	454	456	455	455	457	449	441	441	443	443	442	442	447	439	435	436	436	445	444	442	441	441	436	438	440	443	444	447	446	447	443	442	439	441	441	442	439	435	435	443	448	450	448	448	446	435	436	440	438	441	434	444	444	440	444	443	442	439	434	434	436	430	434	434	434	438	439	439	438	436	434	444	446	438	434	435	433	428	429	431	432	438	440	441	443	436	434	430	437	435	438	441	446	446	444	433	433	432	434	437	440	441	441	441	440	432	431	435	432	430	430	429	433	431	429	429	428	431	430	428	429	432	435	438	443	441	437	437	436	436	434	426	425	426	428	430	423	423	422	424	422	430	419	423	425	428	428	422	418	420	417	424	425	425	418	419	425	424	426	421	424	428	428	0	0	0	0	0	415	415	424	427	429	428	427	421	422	422	421	419	418	415	415	417	420	422	421	422	425	424	420	421	422	428	423	423	421	419	418	419	417	424	425	428	418	421	420	421	421	420	415	415	417	420	423	419	417	413	0	0	0	412	409	410	0	0	0	416	416	416	417	415	417	420	421	0	0	0	0	0	407	413	413	416	413	412	409	409	408	0	0	0	0	0	0	0	0	0	408	408	410	411	412	415	413	412	410	413	412	413	411	411	411	404	401	403	412	412	411	408	412	408	405	404	399	398	401	408	410	407	403	403	402	404	403	0	0	0	0	0	0	0	0	0	0	0	0	0	0	0	0	0	0	0	0	0	0	0	395	395	396	397	400	401	400	400	399	399	399	400	399	399	400	399	400	401	402	406	0	0	0	404	404	396	394	395	395	391	390	390	401	403	402	390	386	390	392	395	390	391	392	392	393	390	392	389	392	392	392	394	393	401	395	391	389	387	388	392	391	392	392	393	390	388	386	386	391	396	398	395	391	390	395	395	394	395	393	391	386	387	388	387	388	392	385	386	389	385	383	387	384	391	389	386	386	385	385	384	383	381	384	384	384	387	388	378	379	382	387	379	381	380	381	381	381	384	383	382	384	382	383	378	378	381	383	385	386	382	380	381	385	385	387	385	381	378	378	381	375	375	380	379	381	381	382	385	389	389	380	379	375	374	373	378	377	378	377	376	370	376	379	381	384	385	382	382	380	377	376	376	380	379	373	374	378	378	378	375	375	377	373	370	373	370	368	371	0	0	0	0	0	0
472	473	473	475	476	475	473	473	468	469	469	465	465	466	468	472	470	470	468	465	467	471	474	474	476	469	470	467	468	468	470	474	475	475	474	473	473	481	479	481	477	474	478	478	478	477	475	471	473	478	480	480	477	469	466	464	464	467	470	473	468	464	463	464	463	461	462	463	465	466	465	463	463	463	461	460	461	462	460	457	459	463	469	471	462	460	457	453	450	457	457	456	453	454	456	459	458	459	458	460	465	467	462	459	456	455	456	456	453	452	450	449	451	452	452	451	452	455	455	453	454	458	453	450	447	447	456	458	456	455	455	448	444	448	448	438	435	434	436	441	436	436	435	436	436	445	442	441	438	436	440	440	440	443	443	447	446	445	441	438	438	436	439	440	438	435	436	441	445	450	447	445	442	435	435	438	439	439	441	443	440	440	443	444	444	438	433	424	427	429	432	434	435	436	436	436	432	431	431	431	434	437	436	436	432	432	425	428	433	435	436	435	431	424	426	428	430	429	434	435	435	437	434	432	430	429	429	429	432	436	439	440	433	432	432	429	427	426	427	428	433	430	429	428	427	420	426	421	419	418	423	428	436	434	423	0	0	0	422	416	420	422	427	422	423	422	421	420	422	411	411	412	417	417	419	418	417	420	415	422	423	423	418	419	419	420	417	421	425	423	0	0	0	0	0	0	0	413	419	425	429	430	424	421	422	422	420	419	418	412	415	421	418	421	418	419	0	0	0	422	423	426	422	421	420	416	418	418	417	417	416	417	418	421	420	420	414	413	411	410	413	420	418	419	415	412	0	0	0	410	410	410	0	0	0	0	0	0	412	414	0	0	0	0	0	0	0	0	404	409	413	415	414	413	408	403	405	408	0	0	0	0	0	0	0	0	0	0	0	0	0	0	0	0	0	0	0	0	411	408	402	399	397	395	400	398	406	402	402	401	403	404	404	399	402	409	408	406	0	0	0	405	403	404	0	0	0	0	0	0	0	0	0	0	0	0	0	0	0	0	0	0	0	0	0	0	393	390	396	399	398	400	399	398	395	399	399	394	393	397	398	395	398	398	399	0	0	0	0	0	0	386	387	388	396	391	390	390	390	397	400	389	386	388	390	391	391	387	388	389	389	389	387	388	392	392	391	390	390	391	390	388	388	389	389	390	391	393	393	393	392	387	383	388	390	392	393	393	378	387	381	393	392	392	391	390	383	382	381	380	382	383	381	385	386	382	383	385	385	385	388	389	391	390	388	382	379	379	380	381	383	382	381	380	377	377	377	377	379	381	380	381	380	379	381	384	383	379	378	377	377	381	385	387	383	383	384	384	384	387	386	383	379	377	378	374	375	372	378	377	379	380	383	384	384	383	382	379	376	373	369	370	375	379	372	374	368	373	378	378	377	375	371	371	371	370	368	368	368	369	371	374	376	378	379	379	377	373	371	371	366	366	366	370	0	0	0	0	0	0
467	471	473	473	467	462	461	461	461	466	461	459	459	462	472	473	464	463	463	464	467	468	472	472	471	470	471	472	467	468	468	474	477	465	466	468	468	471	471	471	473	474	473	478	478	476	474	470	472	476	479	471	471	464	462	463	463	464	465	469	464	464	463	462	458	453	452	454	458	462	463	463	464	464	465	460	462	462	459	458	457	460	465	463	449	457	454	447	445	445	445	445	444	444	446	449	451	456	458	462	469	461	459	458	453	452	448	451	451	451	448	446	459	460	453	452	447	452	455	454	455	452	447	448	446	446	449	451	450	447	448	444	442	442	442	438	437	438	442	441	440	436	434	435	435	435	440	440	433	435	438	439	437	440	442	442	441	437	436	434	433	433	438	439	438	434	433	439	443	447	442	442	445	436	435	439	433	440	433	432	430	429	432	433	433	432	431	422	423	427	429	431	433	434	434	431	430	430	427	430	432	428	432	429	428	422	418	426	432	433	434	427	423	419	422	424	425	431	431	430	428	425	431	431	430	430	425	425	427	434	438	432	432	429	421	422	422	419	432	424	424	426	427	424	423	417	418	417	418	422	0	0	0	0	0	0	0	0	422	421	419	421	421	421	422	422	418	421	420	420	415	418	419	422	421	419	417	416	411	416	424	425	414	413	414	413	414	415	416	411	0	0	0	0	0	0	0	418	420	423	429	429	419	419	420	420	420	419	414	413	419	417	423	421	416	413	0	0	0	0	426	422	421	419	415	418	416	415	414	411	412	414	415	414	414	412	410	411	409	410	409	410	414	415	410	410	406	407	408	409	408	410	416	0	0	0	0	0	412	0	0	0	0	0	0	0	0	0	405	406	410	414	416	412	407	402	404	0	0	0	0	0	0	0	0	0	0	0	0	0	0	0	0	0	0	0	0	0	0	0	0	0	0	402	401	402	400	403	401	406	406	403	404	396	407	405	398	396	395	400	406	405	404	401	391	0	0	0	0	0	0	0	0	0	0	0	0	0	0	0	0	0	0	0	0	396	392	389	389	398	399	396	393	395	400	397	395	393	393	396	393	394	0	0	0	0	0	0	0	0	0	0	0	0	391	392	390	389	389	391	398	394	389	388	390	390	389	388	388	388	387	387	385	391	390	391	391	391	389	391	386	386	384	386	384	388	389	390	390	390	388	383	383	384	386	388	392	387	386	378	382	385	388	391	386	383	381	380	381	381	381	381	380	381	382	384	382	381	380	382	387	387	388	394	383	377	376	378	381	378	380	378	374	374	373	376	378	377	377	375	374	380	379	378	377	380	379	377	377	377	378	375	371	378	378	377	377	380	383	383	385	382	378	378	373	373	372	370	369	374	376	373	377	377	377	381	377	382	377	376	367	368	370	373	373	370	367	368	373	376	376	374	374	371	370	368	370	364	365	368	370	372	377	378	377	377	373	371	372	372	369	363	367	367	0	0	0	0	0	0
464	473	472	472	469	466	461	462	462	461	461	456	461	461	468	464	457	461	461	464	467	467	468	469	469	470	477	469	469	472	472	473	467	468	467	468	467	467	467	467	467	469	466	472	472	467	470	469	470	473	474	466	466	465	464	465	468	466	467	462	464	457	457	452	451	447	448	453	456	459	461	459	461	461	461	463	463	462	459	456	455	458	458	450	446	454	445	444	447	445	444	444	444	446	449	453	454	455	456	456	456	450	455	455	454	452	444	445	443	440	436	441	441	446	449	444	448	448	446	450	452	449	441	439	440	442	445	446	445	443	438	446	439	438	439	440	439	440	444	440	438	440	440	436	437	430	434	433	435	433	435	436	431	430	435	437	435	433	430	429	431	433	438	440	436	433	433	433	434	439	441	441	432	436	436	434	433	433	432	431	431	430	429	429	432	433	430	427	423	427	428	429	430	430	429	429	429	429	428	431	432	427	431	428	425	418	417	417	423	427	427	423	418	417	414	420	425	430	430	428	427	426	423	425	425	425	422	423	422	426	427	424	423	420	423	419	416	419	427	421	422	425	423	422	418	419	418	418	418	422	0	0	0	0	0	413	415	413	409	416	416	415	417	420	420	418	403	421	421	421	418	419	418	423	420	423	411	405	409	0	0	0	0	0	415	417	417	415	413	0	0	0	415	413	413	415	413	419	421	424	427	420	413	414	414	414	413	412	421	417	0	0	0	0	0	404	404	0	0	0	424	420	419	415	414	414	413	413	410	408	406	409	412	414	411	413	411	412	407	404	404	408	410	407	404	399	407	407	404	405	410	411	416	0	0	403	402	400	397	0	0	0	408	407	406	402	0	0	0	0	0	0	0	0	0	0	0	0	0	0	0	0	0	0	0	0	0	0	0	0	0	0	0	0	0	0	0	0	0	0	0	0	0	0	0	0	0	0	400	0	0	0	0	395	395	394	395	391	392	393	396	403	391	389	389	391	0	0	0	0	0	0	0	0	0	0	0	0	0	0	0	0	0	0	396	396	389	388	388	390	396	394	391	389	397	396	396	394	393	394	390	391	0	388	390	0	0	0	0	0	0	0	0	0	391	392	391	389	390	391	393	391	390	385	385	385	388	0	0	0	382	384	388	388	0	0	0	383	390	384	383	380	381	382	384	384	386	387	386	384	381	379	380	383	384	386	392	385	382	380	382	384	386	386	384	380	382	383	383	383	382	381	381	380	381	383	383	385	378	376	377	381	383	383	378	371	371	376	376	378	375	371	371	371	373	371	373	371	370	369	369	371	378	375	377	375	380	377	374	377	377	375	370	372	370	370	373	375	377	377	375	372	369	372	369	370	369	369	368	368	366	374	370	370	369	375	381	381	376	375	368	368	370	372	372	370	368	370	369	370	372	373	373	373	371	371	369	368	363	367	368	378	377	367	367	362	372	370	369	366	371	373	369	372	372	0	0	0	0	0
472	471	474	474	473	465	465	460	460	461	458	455	459	459	460	460	466	469	469	467	467	467	467	466	466	473	461	463	468	467	467	464	463	466	471	469	466	466	465	464	465	466	464	462	462	464	466	466	469	470	463	461	460	460	460	460	459	458	459	459	458	450	450	449	447	442	447	454	458	459	454	455	449	454	456	456	461	461	456	455	451	451	457	443	441	441	446	444	444	445	447	445	445	446	449	451	449	444	444	446	452	452	447	451	451	440	439	439	441	438	438	440	441	445	446	438	432	434	441	447	446	446	437	437	436	438	442	442	440	438	435	432	435	438	437	439	435	438	442	441	438	435	437	437	438	432	433	426	427	434	431	433	431	428	430	430	429	431	431	429	431	435	437	438	437	437	433	433	434	433	431	432	434	435	435	427	428	430	427	427	429	427	427	427	429	431	424	429	429	433	434	431	430	428	427	425	424	430	426	427	434	437	431	425	422	419	426	424	426	417	419	417	415	421	426	426	428	427	426	425	425	425	421	419	424	423	425	421	422	423	425	424	419	416	414	416	416	420	419	413	424	423	423	420	419	419	418	417	418	422	421	418	416	416	417	414	411	420	409	414	414	414	416	420	420	416	421	401	402	408	409	417	419	417	426	411	408	409	406	0	0	0	0	0	0	417	416	415	413	0	0	412	413	413	414	413	413	413	419	420	422	420	414	407	410	406	404	411	412	0	0	0	0	0	0	0	404	404	410	413	415	418	410	415	415	411	413	410	409	408	406	406	409	410	410	408	403	402	408	404	399	398	399	400	398	397	0	0	0	0	0	0	0	0	0	402	402	399	394	0	0	403	404	405	403	404	0	0	0	0	0	0	0	0	0	0	0	0	0	0	0	0	0	0	0	0	0	0	0	405	403	0	0	0	0	0	0	0	0	0	0	0	0	0	0	0	0	0	0	0	0	0	0	0	0	0	0	393	391	395	396	390	385	385	387	390	0	0	0	388	385	386	389	393	392	391	388	388	398	0	0	0	0	0	396	390	387	389	388	390	393	0	0	0	0	0	395	394	393	392	388	388	388	387	390	0	0	396	390	387	0	0	0	0	390	389	387	388	388	390	390	389	384	383	389	390	394	0	0	0	382	385	387	386	0	0	0	382	380	0	0	0	382	383	382	382	383	384	382	379	377	376	380	383	382	381	380	380	378	381	379	383	381	382	384	382	381	381	384	387	383	380	379	378	380	382	383	382	382	382	381	380	377	378	372	372	382	377	376	375	371	372	368	0	0	0	0	0	372	366	367	368	370	374	373	372	374	376	375	0	0	0	374	376	365	367	367	373	374	377	375	373	370	369	370	370	368	368	368	367	366	369	369	370	371	371	372	366	367	366	371	371	374	375	375	373	371	366	365	369	364	364	362	370	372	371	369	367	367	365	368	368	363	365	365	365	362	360	358	360	365	365	366	366	366	0	0	0	0	0
463	464	464	465	465	465	457	448	448	450	452	455	454	456	456	461	462	465	465	465	465	464	462	467	468	468	459	464	465	461	459	459	462	465	465	467	460	460	459	459	464	463	458	456	456	456	460	465	461	460	461	459	461	461	458	457	457	454	454	456	455	453	453	453	451	448	447	445	444	449	450	451	449	451	452	452	448	447	447	447	447	445	446	442	439	444	441	444	445	446	446	444	447	447	448	444	444	442	439	440	446	445	442	440	439	435	433	436	439	436	438	439	439	437	434	429	429	429	430	439	442	432	430	429	434	438	439	441	440	433	427	431	433	424	429	430	433	436	439	439	437	436	437	440	434	432	430	428	426	429	429	429	427	427	428	430	429	432	432	431	432	433	435	437	436	431	438	430	425	423	428	429	431	429	427	425	424	427	426	427	425	425	422	422	421	422	422	427	428	428	431	433	429	424	418	419	424	424	430	427	434	435	434	423	421	421	422	415	425	416	418	417	415	412	412	411	416	418	428	429	423	423	419	415	419	426	423	421	420	422	423	422	422	411	416	418	420	420	419	414	420	414	414	421	422	420	417	418	416	416	413	411	413	412	413	413	416	410	415	410	410	414	415	417	416	412	404	400	399	399	399	403	403	403	409	408	407	406	413	0	0	0	0	0	0	412	413	412	413	410	411	409	412	412	413	408	407	415	417	420	0	0	0	409	406	404	0	0	0	0	0	0	0	0	0	0	0	408	406	410	411	414	409	413	409	410	411	410	409	407	406	406	408	409	408	405	401	401	400	0	0	0	0	0	0	0	0	0	0	0	0	0	0	0	0	0	0	0	0	0	0	0	0	0	0	400	401	0	0	0	0	0	0	0	0	0	0	0	0	0	0	0	0	0	0	0	0	0	0	0	0	0	0	0	0	0	0	0	0	0	0	0	0	0	0	0	0	0	0	0	0	0	0	0	0	0	0	0	391	389	388	390	390	0	0	0	0	0	0	0	384	384	384	389	390	391	382	384	388	0	0	0	0	0	391	390	387	388	389	392	0	0	0	0	0	0	386	387	388	389	387	387	0	0	0	0	0	392	390	387	376	376	378	384	387	0	0	0	0	0	0	0	0	0	0	0	387	386	387	386	384	388	387	386	386	384	381	381	380	0	0	0	379	382	381	381	381	382	379	379	378	376	375	382	381	378	377	379	377	376	374	378	380	379	380	380	380	377	382	392	378	378	376	376	375	375	376	378	381	380	380	378	375	371	372	378	373	374	375	375	374	371	368	0	0	0	0	0	0	0	0	0	0	0	0	0	0	0	0	0	0	0	375	375	364	365	363	363	0	0	370	368	365	370	370	370	368	368	368	368	367	367	366	369	370	367	0	0	0	367	0	0	0	0	0	363	365	365	364	366	366	364	361	361	367	369	369	366	365	360	359	354	355	355	359	0	0	0	0	0	361	364	364	364	364	0	0	0	0	0
