1142	1135	1128	1123	1123	1121	1120	1111	1113	1113	1135	1147	1145	1137	1132	1132	1130	1137	1133	1127	1121	1110	1110	1103	1098	1105	1111	1104	1084	1084	1080	1085	1099	1099	1100	1103	1103	1097	1072	1070	1076	1085	1097	1103	1102	1098	1098	1094	1091	1095	1100	1091	1091	1092	1099	1109	1116	1116	1118	1108	1086	1061	1062	1074	1087	1091	1089	1092	1088	1086	1089	1100	1102	1098	1098	1090	1088	1086	1079	1070	1047	1038	1040	1052	1064	1073	1065	1046	1037	1044	1051	1058	1053	1051	1054	1058	1024	1033	1036	1035	1038	1040	1034	1030	1029	1030	1033	1032	1017	1010	1008	1013	1014	1014	1004	997	1001	1006	1015	1011	1010	1012	1019	1021	1022	1020	1011	997	988	982	979	1002	1031	1042	1047	1045	1017	1011	1005	1003	999	1002	1011	1025	1027	1030	1025	1017	999	999	1003	999	994	992	993	996	1000	1004	1005	988	980	976	974	981	997	1017	994	978	980	976	972	972	972	969	968	972	977	975	969	959	959	969	968	965	964	964	959	949	945	946	946	942	942	959	966	964	941	924	919	918	918	921	921	926	929	928	925	922	923	930	937	946	934	906	904	914	915	913	913	906	903	916	924	920	925	931	938	942	952	957	946	936	933	933	930	920	916	919	927	939	952	934	920	914	917	923	925	923	916	917	908	899	900	901	891	898	910	922	925	918	907	896	894	902	907	912	910	909	906	903	900	894	896	898	885	888	888	887	888	889	885	881	886	887	891	881	876	877	881	874	870	870	880	875	867	871	868	871	875	890	894	859	861	868	871	876	883	891	892	887	868	857	850	854	859	862	865	864	866	865	855	849	851	857	871	872	857	844	836	841	845	848	849	855	861	847	843	842	841	850	854	853	848	848	847	847	838	840	838	847	851	854	848	830	819	818	835	839	842	848	845	843	835	828	830	839	846	847	841	833	830	821	823	832	829	829	828	824	821	819	815	823	835	820	814	815	817	818	819	823	832	823	819	818	808	789	787	791	795	804	799	789	785	786	808	806	810	802	801	799	803	798	779	773	773	776	785	780	779	780	777	771	769	770	770	772	777	775	771	770	769	771	772	772	767	772	778	782	794	798	796	782	780	772	771	778	772	771	775	764	769	771	769	770	776	779	782	786	782	760	747	750	752	763	769	774	754	753	756	766	769	773	768	763	758	753	754	761	765	766	758	749	763	763	752	746	751	756	757	758	759	749	747	743	740	745	747	752	756	747	746	742	744	745	743	740	735	734	722	733	723	746	749	750	753	759	750	755	756	755	743	735	754	758	754	747	736	737	743	749	750	755	758	758	756	735	734	736	738	731	730	737	740	739	742	723	727	724	737	736	730	726	721	722	727	713	708	707	708	723	734	734	721	717	718	726	747	740	719	716	717	721	724	710	710	709	713	716	722	711	707	712	720	721	720	716	718	718	719	719	715	710	709	711	710	711	706	706	706	701	705	726	723	712	714	713	716	725	731	736	730	730	714	713	719	721	723	721	718	717	714	722	726	720	715	701	700	699	694	694	697	696	0	0	0	0	0	0	0	0
1129	1133	1124	1118	1118	1113	1104	1099	1088	1088	1105	1119	1126	1133	1137	1137	1139	1134	1133	1121	1110	1097	1097	1088	1089	1088	1096	1093	1078	1078	1071	1064	1073	1078	1072	1070	1057	1057	1056	1063	1071	1081	1096	1099	1095	1087	1087	1083	1079	1081	1077	1077	1078	1081	1087	1100	1111	1111	1112	1096	1062	1048	1055	1067	1078	1079	1076	1081	1084	1082	1083	1089	1087	1066	1054	1054	1050	1043	1041	1042	1036	1041	1044	1048	1047	1046	1046	1045	1035	1023	1017	1018	1020	1017	1012	998	1005	1012	1015	1012	1010	1012	1013	1013	1018	1022	1023	1020	1005	997	1005	1011	1007	1003	993	981	980	982	981	984	985	993	997	1002	1002	1004	1000	999	988	982	977	971	971	973	980	975	968	972	967	967	982	982	988	1005	1015	1022	1016	1011	992	988	984	982	986	986	982	981	983	987	973	976	974	972	969	972	992	988	971	965	967	952	950	953	955	954	958	967	971	969	964	960	967	972	961	952	951	947	945	941	945	945	940	933	935	947	954	954	946	921	913	908	911	911	913	912	915	919	920	920	915	917	925	935	924	902	904	910	914	911	914	909	903	907	909	913	915	926	931	940	935	924	924	902	901	900	904	908	913	923	930	939	910	901	899	899	900	909	911	902	894	891	877	878	884	892	880	881	892	900	907	899	891	871	893	909	911	906	891	897	892	891	882	861	854	858	874	880	883	877	876	875	874	873	876	880	878	880	877	865	860	861	859	852	852	854	850	855	852	848	852	844	844	848	842	853	858	863	865	865	857	854	849	849	849	849	844	839	843	850	855	860	860	854	848	852	858	860	859	819	813	812	831	839	843	851	860	862	843	838	839	846	851	831	819	815	811	817	823	829	836	840	829	828	824	821	815	810	808	811	819	825	828	831	830	829	827	829	824	834	822	815	812	813	815	820	819	820	816	814	810	810	806	799	802	808	810	812	815	817	821	820	798	787	769	782	782	785	784	786	785	781	786	781	774	783	787	795	788	784	774	776	793	776	770	765	766	769	767	769	770	769	759	758	753	753	762	770	771	768	768	768	767	767	770	761	751	751	755	758	785	785	785	761	762	763	761	765	770	767	768	766	763	761	755	761	767	768	772	766	744	740	745	744	745	749	741	748	752	756	759	763	765	762	759	752	750	746	743	744	752	754	745	737	741	747	749	742	733	732	735	745	751	745	734	733	732	739	741	735	738	743	743	740	742	740	736	736	729	724	720	717	719	738	742	740	741	745	755	752	751	743	735	728	729	735	738	735	730	731	732	740	741	742	726	725	717	718	727	734	732	726	730	730	729	730	724	730	716	718	723	733	730	727	724	718	713	700	703	704	709	713	729	724	713	703	716	737	712	706	723	713	712	706	703	699	690	699	712	718	721	720	712	705	708	704	696	703	708	711	714	717	716	712	711	712	711	709	704	703	701	702	702	706	702	704	706	711	696	697	698	687	686	702	700	704	722	727	727	722	702	699	699	704	711	706	706	701	698	690	692	692	687	683	0	0	0	0	0	0	0	0
1107	1110	1115	1105	1105	1092	1089	1076	1068	1069	1069	1098	1111	1118	1126	1126	1126	1121	1101	1098	1088	1076	1076	1075	1076	1078	1086	1086	1077	1077	1060	1053	1049	1052	1057	1055	1049	1049	1051	1057	1068	1082	1092	1088	1078	1072	1072	1074	1076	1072	1065	1066	1068	1067	1055	1069	1072	1069	1069	1058	1048	1046	1052	1057	1059	1054	1052	1049	1047	1042	1033	1031	1029	1024	1021	1021	1025	1027	1021	1027	1035	1042	1047	1038	1024	1026	1026	1021	1012	1006	1007	1004	1005	1000	985	990	997	998	992	985	984	991	995	1002	1008	1013	1015	1008	996	990	999	1002	1000	995	989	977	976	984	987	986	987	988	994	994	995	991	989	986	985	985	979	968	960	959	961	959	955	959	966	970	967	967	961	951	950	953	980	983	983	979	982	989	985	979	963	953	949	953	975	974	968	958	945	928	937	940	935	927	920	930	940	946	942	937	933	943	947	954	946	935	930	949	943	933	929	931	921	928	928	934	934	928	929	934	940	942	935	919	919	917	911	913	916	914	912	914	915	913	892	881	894	892	893	899	904	909	912	908	911	900	898	893	895	896	911	919	928	929	918	905	901	893	878	879	887	895	896	906	916	899	892	893	883	874	878	875	883	889	883	877	860	856	862	883	883	877	879	883	890	895	885	875	873	882	902	901	892	881	872	873	868	854	857	857	864	872	873	872	868	864	865	863	841	825	820	819	823	833	856	861	849	842	846	846	843	837	838	842	850	849	842	843	849	855	857	852	843	837	835	842	848	852	851	844	838	833	840	840	842	844	843	851	847	849	849	837	806	797	796	797	811	835	840	842	849	855	855	824	817	819	821	822	816	811	803	806	823	828	834	834	830	822	818	816	812	805	799	800	798	808	816	828	846	840	835	830	826	821	824	825	825	816	810	807	807	805	815	813	783	778	776	781	791	795	790	783	784	785	786	799	782	775	776	769	769	784	790	777	763	758	756	785	763	770	780	778	779	770	769	767	760	767	760	760	763	761	758	755	754	764	763	756	753	754	762	765	756	756	762	761	759	754	753	745	750	751	757	768	776	775	769	765	759	757	755	761	767	762	760	757	745	748	753	756	758	761	749	742	740	741	740	738	734	731	732	739	744	750	754	747	749	746	753	748	749	744	739	736	743	751	741	733	738	748	745	737	729	727	732	733	726	719	725	723	723	723	723	727	733	737	738	736	736	735	731	730	728	721	722	719	722	731	737	741	738	732	729	729	725	732	724	720	725	733	736	730	723	728	729	725	725	719	710	710	714	718	717	714	715	720	726	728	721	715	709	705	710	714	714	713	705	703	697	696	693	703	700	704	707	713	715	721	711	709	717	705	708	709	707	709	708	709	703	693	697	695	691	699	709	717	715	713	705	693	698	702	702	698	695	697	701	707	714	714	713	706	703	702	711	712	709	702	698	700	703	698	681	679	683	681	681	678	680	679	711	713	710	703	695	692	692	693	697	696	693	695	692	688	680	680	677	685	0	0	0	0	0	0	0	0
1079	1080	1079	1073	1073	1071	1058	1054	1051	1064	1064	1087	1099	1106	1103	1106	1106	1105	1067	1067	1064	1063	1063	1064	1064	1064	1074	1067	1054	1054	1039	1031	1032	1040	1053	1052	1048	1048	1050	1054	1053	1080	1079	1063	1046	1034	1034	1032	1037	1039	1033	1031	1031	1034	1032	1041	1038	1043	1043	1037	1037	1040	1044	1046	1040	1038	1028	1032	1030	1025	1017	1005	998	996	1001	1001	1009	1011	1006	1003	978	979	987	994	1008	1009	1007	999	990	979	980	982	987	978	978	983	989	974	968	959	961	965	977	988	984	991	1005	999	989	978	977	968	967	993	979	957	963	974	982	978	976	973	981	987	981	979	973	982	976	979	974	968	957	950	947	932	919	924	935	950	966	966	956	948	930	929	938	945	948	938	930	909	964	967	968	963	961	961	965	966	957	944	922	905	907	911	907	905	911	923	938	939	932	918	916	920	934	923	912	911	912	914	919	916	910	911	909	913	911	919	924	923	913	903	902	908	904	918	919	895	888	893	891	898	901	907	906	894	873	874	879	882	884	889	894	909	907	906	898	887	883	874	867	869	881	889	905	888	879	879	870	876	874	880	880	884	890	889	881	866	865	866	863	846	839	846	860	872	873	859	850	850	860	865	868	860	864	848	863	869	863	871	866	876	885	889	863	867	862	852	845	845	846	848	852	860	853	849	845	845	843	840	825	823	811	808	808	813	818	826	829	834	839	838	831	834	840	843	844	845	839	835	839	845	840	840	832	829	826	824	827	845	845	839	833	825	827	835	833	831	835	838	834	829	825	807	800	800	798	789	795	801	811	819	824	829	831	825	810	808	810	814	811	810	809	807	811	816	821	822	816	811	813	814	809	803	794	791	786	788	791	799	807	809	807	807	811	812	819	810	810	793	791	787	801	796	789	762	764	766	774	774	778	779	772	765	765	766	770	781	773	770	774	782	786	787	777	760	745	748	764	760	760	760	770	778	768	763	761	761	760	758	762	763	764	760	757	756	752	759	747	743	736	733	740	736	736	745	745	744	747	744	742	743	749	750	756	765	767	766	761	756	753	748	746	747	756	756	743	739	737	731	732	734	737	731	726	728	731	733	732	727	725	721	726	733	740	725	736	737	739	737	734	736	741	739	733	730	732	734	737	733	723	717	710	712	720	725	735	733	725	718	714	717	719	720	711	711	718	728	729	726	722	720	714	717	719	728	726	724	724	735	739	738	733	722	722	722	717	711	710	713	718	720	728	731	720	733	734	732	727	701	698	693	710	715	715	717	715	708	698	699	692	692	696	699	701	699	706	707	706	695	692	691	690	689	694	698	698	696	706	706	705	704	702	699	702	703	705	704	703	701	698	700	699	690	690	694	703	708	707	712	706	699	692	691	682	685	686	690	696	705	709	708	698	693	689	691	697	697	698	690	696	689	674	672	676	671	675	679	679	681	680	678	679	682	683	693	690	689	689	690	689	688	690	689	684	679	674	674	673	682	0	0	0	0	0	0	0	0
1051	1058	1060	1056	1056	1043	1039	1044	1054	1062	1062	1067	1083	1089	1087	1078	1078	1072	1051	1052	1049	1047	1047	1046	1043	1046	1053	1050	1039	1039	1027	1018	1018	1017	1015	1011	1015	1015	1026	1038	1061	1061	1046	1030	1023	1013	1013	1009	1017	1026	1026	1022	1015	1017	1017	1017	1024	1014	1014	1024	1031	1037	1033	1029	1023	1012	1005	1005	1003	1009	1008	997	988	976	983	983	988	988	985	979	974	974	975	974	973	983	975	973	976	976	971	975	962	965	968	968	958	949	948	948	948	956	960	972	973	970	978	986	979	973	967	953	944	944	943	945	951	967	976	966	959	960	955	963	949	928	917	952	965	959	960	952	945	931	919	914	913	912	918	928	933	939	935	929	915	922	939	940	946	922	904	902	906	905	905	910	935	942	936	926	917	912	905	900	902	907	919	924	926	925	920	916	911	906	904	906	908	902	900	899	902	903	898	894	898	899	889	892	900	905	908	901	895	894	895	899	899	899	894	878	869	875	880	879	878	876	881	879	873	872	872	875	871	873	883	876	867	869	873	876	875	866	862	864	867	872	877	871	875	871	871	870	867	871	869	865	862	859	859	860	855	863	864	856	843	842	855	861	860	849	845	851	854	852	856	854	840	835	830	830	843	844	845	846	851	855	864	845	836	823	821	830	837	846	854	857	856	847	833	827	823	825	823	821	825	832	825	814	814	817	808	807	815	818	825	829	829	836	836	834	832	831	818	834	835	835	830	811	818	819	819	826	838	835	828	823	820	824	822	821	818	820	819	806	812	809	799	797	798	785	789	797	801	800	800	812	824	827	821	812	810	808	805	805	808	811	815	821	822	821	815	810	811	798	796	795	788	775	777	770	771	775	781	785	780	778	792	788	790	787	788	781	764	757	756	753	742	746	757	763	766	770	769	765	765	763	757	756	759	764	764	758	754	765	770	771	755	750	751	752	755	761	750	756	763	767	751	755	757	759	755	757	757	757	761	759	752	747	744	737	733	734	734	733	731	734	734	733	739	742	738	737	738	741	747	747	744	751	755	756	752	747	747	748	747	747	750	751	734	731	731	730	731	737	740	737	723	722	725	728	727	725	719	717	717	720	720	723	726	731	732	730	736	737	733	730	726	724	730	733	738	718	712	706	699	694	691	700	698	711	711	695	705	709	711	715	711	710	716	718	715	705	695	698	708	718	721	722	722	724	719	722	726	731	724	718	712	709	707	707	708	711	711	703	712	710	703	701	700	698	698	696	683	679	685	701	713	709	703	698	696	696	693	695	695	695	694	699	708	711	708	696	688	687	686	682	682	688	686	692	695	696	698	694	687	696	697	697	695	692	689	695	695	698	693	693	691	691	691	691	693	694	690	680	675	675	679	681	682	694	696	685	680	678	683	682	683	690	695	689	684	682	685	675	667	665	662	669	671	676	676	676	673	674	675	673	673	677	678	679	685	683	671	660	665	663	675	680	680	675	672	672	0	0	0	0	0	0	0	0
1027	1036	1051	1048	1038	1038	1035	1040	1038	1031	1031	1033	1045	1056	1051	1047	1047	1054	1036	1038	1034	1023	1023	1016	1022	1031	1038	1033	1019	1019	1012	1011	1019	1026	1021	1010	1013	1013	1025	1027	1022	1018	1010	1006	1004	1001	998	998	1013	1024	1028	1023	1010	994	969	966	984	994	994	1010	1012	997	996	991	990	994	994	994	988	984	983	972	964	970	976	983	983	984	981	977	973	971	967	955	955	960	958	955	957	966	971	958	957	957	947	941	941	947	953	946	944	945	944	939	962	962	956	964	970	966	954	940	938	937	939	940	940	936	936	934	926	921	917	917	919	915	906	906	913	912	909	908	913	906	905	904	904	905	907	916	925	930	933	924	909	911	931	940	934	902	905	915	914	907	899	897	893	894	896	892	882	884	886	894	904	911	909	901	905	909	902	897	900	899	902	903	903	899	894	892	894	893	885	881	877	883	880	874	881	889	888	884	884	874	876	885	887	894	877	861	858	860	860	860	857	865	871	871	870	870	875	867	870	870	853	846	848	852	859	874	870	866	862	864	865	866	860	853	851	842	864	867	861	858	852	855	856	834	840	845	852	860	868	867	857	845	841	853	854	849	850	845	846	845	849	850	833	827	821	817	820	826	834	839	833	837	846	848	829	816	815	813	823	832	833	837	832	828	823	817	815	814	817	819	825	830	831	814	813	805	804	800	799	806	815	814	814	811	803	803	813	816	812	832	834	831	806	790	786	783	778	771	817	825	824	817	821	811	808	811	808	802	809	815	813	803	799	799	794	776	777	783	795	796	796	794	791	801	795	790	796	795	791	792	793	794	783	785	790	797	796	795	792	788	788	790	778	775	775	771	772	774	776	775	770	774	780	780	777	772	767	761	755	750	745	735	737	742	747	757	761	764	762	758	757	756	754	755	760	758	754	750	743	744	747	753	745	746	752	755	756	760	760	748	746	737	733	740	745	751	755	756	753	750	746	748	744	737	732	722	722	724	729	729	730	733	735	734	728	727	730	732	736	742	745	746	743	743	744	743	742	737	736	725	726	743	745	745	733	729	726	728	730	733	738	738	734	725	725	726	725	716	713	713	715	716	718	719	722	723	729	728	711	697	698	705	709	715	723	736	739	715	709	699	694	690	697	697	705	703	695	695	693	697	703	704	707	704	704	708	705	699	700	704	712	719	724	720	713	710	700	706	706	712	709	706	701	702	702	701	701	698	703	700	696	691	689	689	687	689	694	686	681	676	681	686	690	698	698	700	698	693	694	690	692	692	691	689	703	690	697	687	686	688	687	684	689	690	686	686	684	686	688	685	679	692	690	686	686	683	681	679	679	681	684	686	684	688	686	688	689	689	683	675	669	667	671	671	686	686	678	677	678	677	674	677	687	686	685	673	682	676	673	670	663	657	665	668	664	650	650	662	664	665	667	669	666	666	671	671	670	666	662	662	662	660	655	668	668	670	665	661	0	0	0	0	0	0	0	0
1009	1018	1038	1035	1026	1026	1018	1017	1016	1009	1009	1016	1021	1031	1033	1036	1036	1014	1001	994	999	1002	1002	1002	1007	1011	1004	1000	999	999	996	1006	1024	1026	1021	1020	1021	1021	1016	1010	1007	999	990	991	989	986	990	990	997	1005	1010	1004	983	967	963	968	974	984	984	990	983	978	976	978	980	983	985	981	978	972	966	953	958	963	961	970	970	974	975	967	962	957	952	948	951	953	946	944	949	963	963	956	938	927	927	934	940	945	946	941	940	936	932	934	935	940	939	944	942	943	929	927	928	926	923	924	931	930	926	918	918	920	916	911	908	911	906	897	909	917	917	903	908	901	899	896	896	895	897	908	914	903	899	870	863	877	902	896	884	879	892	907	911	903	882	874	872	875	881	882	870	869	868	867	872	897	889	888	891	898	897	891	881	893	896	903	897	883	876	865	863	874	879	879	874	869	867	863	862	864	869	875	882	882	870	871	880	886	875	859	853	849	840	839	846	855	854	853	847	845	848	854	850	845	834	838	844	854	857	857	866	867	861	851	850	848	842	837	829	829	834	833	852	845	833	825	819	825	835	844	847	849	853	839	835	827	823	830	839	850	842	828	823	825	844	848	829	816	814	814	819	830	842	837	833	826	827	827	794	810	800	796	797	813	807	810	818	821	818	807	805	812	816	819	822	823	824	813	812	802	796	798	794	785	788	800	800	796	794	793	798	807	814	814	811	795	785	780	778	773	765	766	769	778	781	807	811	807	780	777	777	780	790	795	794	780	772	777	777	776	771	773	785	790	789	789	801	796	789	784	777	779	776	773	773	775	777	767	756	756	769	781	784	781	782	783	784	771	769	772	776	771	773	762	761	747	761	777	773	762	756	754	745	742	733	728	735	747	749	753	756	757	759	755	745	750	753	755	753	749	747	744	734	736	742	749	740	736	741	748	752	755	756	730	721	721	727	732	742	746	745	746	746	732	725	723	729	727	722	715	714	717	720	725	733	735	733	726	719	717	716	723	725	731	734	732	727	722	732	735	732	730	720	722	714	728	744	743	727	719	714	710	712	717	719	720	716	715	723	720	715	710	716	720	721	712	718	719	722	722	720	707	694	690	698	704	705	704	713	724	726	714	707	696	690	699	700	700	698	694	696	694	693	687	687	696	707	708	705	701	688	679	681	711	717	704	701	699	708	702	675	675	680	687	691	692	698	701	698	695	690	685	685	680	688	673	685	685	676	674	675	677	677	678	679	677	684	691	692	690	692	693	692	688	684	689	686	687	688	686	682	677	681	680	678	676	686	691	692	686	682	680	680	679	675	687	681	680	678	677	675	671	671	674	678	681	685	686	683	683	683	682	670	666	655	658	661	662	679	669	673	674	676	674	668	673	677	682	679	674	661	659	655	657	660	662	660	665	666	666	660	643	642	653	655	661	662	660	657	658	660	658	656	659	663	658	656	654	654	652	654	651	0	0	0	0	0	0	0	0
995	1001	1010	1009	1009	1009	1007	1007	1007	994	994	992	1004	1019	1022	1024	1024	987	972	979	984	989	991	991	992	981	972	977	987	998	998	1005	1019	1015	1005	996	997	1004	1004	1001	989	973	967	962	966	977	982	982	973	969	969	969	964	963	967	968	972	976	975	975	974	972	967	968	971	976	978	977	971	957	954	948	949	953	950	948	948	954	961	962	957	946	933	934	924	914	917	922	934	942	945	937	926	917	922	929	938	938	933	928	924	921	921	924	921	915	914	918	917	922	922	923	917	905	905	910	913	913	912	907	909	916	911	906	903	901	900	907	907	907	882	872	874	879	886	894	887	882	888	904	899	872	862	851	849	847	873	880	885	871	878	893	898	873	862	858	853	864	870	874	877	876	872	872	862	857	851	857	873	882	885	880	870	871	877	888	892	881	857	849	844	857	891	889	877	864	848	842	841	849	864	846	857	865	863	862	857	853	842	838	833	830	831	839	845	849	842	837	829	825	830	840	843	841	833	835	844	846	844	840	841	846	844	831	830	827	821	817	819	830	832	833	835	834	837	826	824	834	844	843	837	832	827	829	826	820	821	826	837	830	824	817	817	814	814	835	816	815	812	816	822	839	838	834	821	813	810	807	784	791	799	796	792	793	799	805	810	811	817	806	807	809	813	811	809	795	794	810	804	773	792	793	788	783	785	789	789	791	787	780	779	779	791	790	789	780	776	776	773	766	762	763	776	782	778	776	769	764	759	762	769	775	782	785	782	775	772	770	768	767	765	765	775	786	787	786	793	785	784	784	778	766	764	762	765	768	767	753	753	753	756	763	774	774	775	773	773	776	767	772	776	760	742	738	733	741	744	744	748	751	751	742	731	728	731	730	742	745	747	744	742	753	749	744	740	747	748	748	746	743	740	737	730	735	739	736	731	728	732	735	742	744	738	727	718	714	713	719	725	724	719	708	705	702	700	705	716	709	709	711	712	713	716	719	723	725	721	715	702	710	708	709	713	731	735	736	730	728	720	726	729	713	714	709	715	717	717	716	719	722	717	711	705	703	709	712	713	707	702	702	704	698	700	705	715	708	719	725	727	713	699	688	687	690	695	699	699	696	695	696	706	708	703	693	693	694	689	690	692	695	696	692	683	684	683	686	696	698	695	690	683	682	677	695	699	697	690	694	692	681	675	677	681	685	683	682	686	688	688	682	676	672	676	674	667	677	680	680	677	673	672	671	674	681	683	673	678	683	689	680	681	682	685	684	686	682	686	684	682	679	669	671	673	676	674	676	677	691	689	669	674	675	675	675	673	680	674	669	661	666	672	671	668	668	659	662	667	678	677	678	660	659	656	654	652	652	654	648	656	658	667	672	674	673	672	671	671	676	673	666	658	657	656	655	656	659	660	659	658	658	655	647	644	646	651	655	647	646	648	645	641	637	631	642	644	648	656	654	654	646	644	641	0	0	0	0	0	0	0	0
961	973	981	988	992	992	993	995	984	982	982	985	991	1002	1010	1008	1008	967	964	969	973	979	977	977	963	966	969	977	986	997	997	1002	1005	993	985	984	979	984	984	978	966	958	952	950	958	970	960	960	954	958	958	958	951	949	953	952	947	945	953	953	954	954	956	953	956	961	970	940	946	940	940	940	944	944	937	933	933	927	920	920	919	914	917	908	906	901	895	906	926	933	937	929	923	919	919	916	907	895	888	883	890	904	905	903	894	888	881	889	895	896	898	903	897	896	888	886	886	891	892	899	908	908	902	898	896	893	884	892	888	876	866	862	872	873	882	886	888	882	878	875	878	867	856	844	830	830	837	870	874	869	869	873	864	847	841	840	842	843	850	857	865	868	866	859	850	844	842	841	846	851	855	854	863	856	858	865	868	865	852	848	843	839	844	856	856	855	844	845	833	829	827	827	831	835	843	848	849	836	834	832	834	830	832	836	842	838	830	822	821	820	826	833	832	833	825	829	837	838	837	833	825	827	825	823	818	817	813	815	823	836	842	838	829	806	810	810	830	838	838	838	831	822	815	807	809	811	810	819	808	797	800	815	814	809	812	811	809	801	805	802	794	796	803	805	808	807	800	793	793	788	777	779	774	771	775	781	803	805	807	808	805	809	805	789	785	785	784	781	782	782	778	785	782	774	772	771	772	773	774	762	761	761	776	776	770	768	770	771	772	765	763	770	774	773	775	775	769	759	753	757	759	756	761	766	767	772	770	770	768	764	759	768	773	779	781	781	777	777	778	776	773	760	754	754	761	762	755	745	747	751	755	757	760	768	767	736	737	736	740	746	747	742	734	731	728	738	738	740	741	730	731	725	709	710	716	733	740	745	737	736	736	740	743	740	736	732	727	725	724	733	734	736	737	736	727	723	718	723	726	728	728	723	714	717	709	707	709	721	725	723	721	704	696	695	697	705	714	711	707	700	699	703	709	713	715	711	710	701	699	706	716	721	725	724	720	717	720	716	719	727	715	711	704	705	706	712	712	711	709	706	700	688	690	697	695	701	705	700	683	685	688	683	680	681	687	691	711	714	712	703	698	692	693	695	695	692	690	693	699	699	684	695	700	706	692	694	690	691	699	705	691	683	679	681	682	683	690	692	691	686	683	682	683	688	670	674	672	674	673	674	679	680	685	684	678	672	669	666	668	667	671	667	660	665	663	670	673	673	670	668	668	671	673	669	668	663	667	674	680	686	684	675	675	673	671	672	675	681	678	677	663	664	667	670	670	670	671	684	678	668	668	670	670	668	668	669	663	655	650	660	665	667	663	658	655	657	658	659	662	651	654	651	650	650	649	652	654	657	659	661	662	662	668	673	672	670	670	671	656	647	644	646	647	645	656	659	658	655	653	653	648	644	644	643	643	646	643	646	646	644	639	632	632	636	642	645	641	645	645	637	642	636	0	0	0	0	0	0	0	0
964	959	965	968	967	967	967	963	966	973	975	975	975	980	976	975	975	954	961	961	964	967	961	961	952	950	957	966	976	983	983	988	987	983	964	961	961	962	962	957	951	948	952	953	955	955	950	950	947	939	934	931	931	932	936	940	938	932	932	932	933	926	927	919	923	909	894	894	901	905	912	921	928	909	894	892	890	890	887	893	896	896	897	896	894	890	889	887	912	927	927	913	914	921	918	893	872	871	873	877	880	879	884	895	893	889	877	864	864	865	867	873	875	879	879	876	876	883	883	884	892	899	896	893	889	881	879	873	868	858	856	860	862	862	863	856	849	867	874	864	868	864	858	842	823	825	831	841	850	857	870	865	860	848	844	846	842	841	844	844	846	843	844	831	830	834	836	831	831	838	843	845	845	842	824	847	857	852	848	847	844	839	838	843	838	834	838	838	824	830	830	829	827	827	833	839	834	829	830	823	817	807	810	812	830	833	823	820	816	807	811	820	826	822	816	811	816	829	829	820	818	809	799	795	807	809	809	810	831	826	818	810	800	798	810	819	822	826	831	826	817	814	805	800	799	804	805	784	776	778	777	793	801	804	800	795	792	798	793	787	786	792	792	800	803	799	786	789	790	782	780	774	772	772	770	771	777	783	789	793	798	794	785	778	781	777	782	780	772	770	771	778	775	765	764	765	762	757	759	755	747	749	754	765	771	766	768	771	768	765	764	764	766	771	773	772	763	754	744	741	744	753	761	762	762	761	758	753	744	748	749	748	747	743	741	741	754	756	748	737	742	748	744	745	750	734	732	732	735	746	752	750	740	729	725	722	714	718	722	731	734	732	727	725	727	731	735	725	728	727	722	709	705	707	713	729	733	732	728	728	734	735	720	728	725	723	718	720	716	714	715	716	721	719	716	710	711	721	723	723	724	714	712	711	708	710	711	714	720	718	715	699	694	691	696	703	712	709	706	698	694	699	703	708	703	698	693	697	695	709	716	721	724	720	713	706	703	698	702	703	699	696	701	706	707	702	709	709	707	698	687	679	682	686	693	695	692	687	685	680	672	672	672	674	678	685	690	695	699	701	699	698	697	696	683	685	683	683	685	685	677	681	686	690	688	686	685	687	695	698	686	679	674	681	681	678	681	681	686	681	680	676	671	669	669	669	665	665	671	672	674	683	682	677	672	672	668	665	664	668	666	666	661	659	662	670	664	658	655	657	667	667	668	667	659	663	671	676	683	683	671	671	663	661	658	656	654	652	654	655	656	654	645	649	652	659	663	666	669	668	661	651	651	655	663	662	655	643	642	646	658	658	657	655	658	659	650	646	641	646	648	648	648	646	644	649	650	654	658	658	658	649	655	660	669	668	668	651	642	642	639	637	642	637	648	658	651	653	653	647	648	648	642	640	643	643	643	641	644	639	633	631	632	634	638	638	637	637	633	641	641	640	0	0	0	0	0	0	0	0
943	938	939	942	944	944	943	944	954	958	955	955	954	958	958	951	933	933	940	953	960	967	953	953	944	941	948	956	967	972	972	969	958	958	958	955	951	944	944	941	935	931	927	932	939	943	945	945	937	930	919	916	917	921	921	926	928	926	930	930	924	923	918	899	894	889	884	887	890	894	895	895	896	889	878	880	883	883	888	893	895	893	893	892	891	888	885	887	891	901	907	905	902	901	888	874	868	866	872	873	872	880	885	884	882	879	874	874	872	874	871	867	867	870	872	869	866	871	881	876	877	874	874	868	864	862	860	852	852	848	843	843	858	863	858	849	849	845	839	842	843	860	855	845	835	832	834	829	843	849	864	865	856	850	844	842	844	842	840	838	832	829	818	822	822	825	831	825	823	827	831	836	835	816	814	809	814	833	846	850	844	837	824	812	812	816	814	802	819	823	825	819	817	818	820	828	832	827	824	811	807	802	805	804	810	822	812	803	801	804	808	817	813	808	804	807	802	798	799	815	810	799	788	789	793	795	803	819	815	816	804	798	796	797	810	813	810	795	779	772	796	803	793	792	796	793	783	771	773	772	771	781	788	795	790	789	785	785	780	784	782	787	793	796	791	782	781	779	779	776	769	767	766	767	767	766	769	775	776	780	782	776	772	774	770	770	765	766	768	765	765	767	764	755	759	751	749	749	754	749	736	735	744	747	754	748	747	752	760	760	757	755	760	764	765	767	757	745	725	734	749	756	758	754	750	741	740	739	740	740	739	741	742	744	743	742	739	729	733	731	731	722	719	721	721	721	723	726	728	733	732	731	729	722	714	712	706	719	720	722	734	730	725	721	726	725	724	722	711	707	709	707	706	707	713	714	715	716	722	727	727	711	705	716	717	714	712	712	713	712	711	712	713	711	710	704	714	717	717	723	723	715	710	708	710	719	720	710	708	702	696	701	695	691	692	706	710	707	702	694	687	690	700	706	698	694	692	692	699	700	708	718	715	708	703	697	690	690	691	694	692	693	695	705	705	700	700	689	683	685	681	670	672	669	688	691	686	683	680	675	669	665	663	663	672	677	684	688	694	701	694	674	664	670	665	675	677	681	681	685	676	677	675	672	669	668	674	680	681	665	663	665	663	674	676	677	678	676	675	674	670	666	664	667	668	664	663	663	661	659	660	666	669	670	671	667	666	663	659	669	669	668	664	660	669	660	658	656	656	660	660	659	662	653	656	660	665	675	670	663	661	664	661	657	656	655	658	654	650	647	648	646	643	647	648	654	647	653	659	654	657	653	652	652	652	648	637	637	637	637	645	651	648	656	656	657	649	640	640	645	645	641	641	637	633	630	634	647	654	654	644	645	646	650	651	639	637	639	636	636	639	639	631	632	636	646	651	650	650	652	649	645	640	637	637	637	636	635	635	628	626	629	630	633	636	638	631	631	623	633	635	634	0	0	0	0	0	0	0	0
931	938	938	940	936	936	935	934	938	938	937	937	942	944	939	936	927	927	931	941	954	957	939	939	932	928	933	946	949	936	936	940	943	950	949	940	937	931	931	924	922	908	906	905	906	904	897	898	898	907	910	910	911	916	921	919	915	913	918	918	928	922	891	899	902	904	905	903	900	896	891	888	888	880	885	889	891	891	893	896	889	884	880	879	880	884	885	883	883	890	896	892	883	874	872	866	863	872	875	869	868	868	870	870	866	869	868	870	868	867	862	857	852	854	858	859	855	844	850	858	854	855	857	858	860	859	853	854	848	839	829	830	836	844	845	836	826	823	824	829	829	826	827	831	839	838	831	823	828	838	854	852	848	844	836	828	823	826	828	828	814	815	818	816	821	824	825	812	818	822	821	821	814	809	802	786	784	787	809	816	821	823	819	804	793	788	783	792	812	814	813	810	797	807	812	835	819	816	817	797	792	791	793	800	806	807	795	786	784	799	797	801	800	801	798	797	806	791	810	809	803	791	795	798	799	798	799	799	804	801	793	792	790	792	782	776	772	772	776	772	767	767	764	763	784	782	770	777	774	771	769	772	777	771	766	765	775	776	776	778	779	789	793	796	781	781	780	770	768	770	765	762	762	763	763	774	761	758	758	761	753	748	746	752	753	757	747	742	738	738	741	743	739	733	742	761	751	752	744	734	724	726	731	740	741	735	735	730	734	735	736	737	746	749	738	725	722	722	740	753	754	748	750	745	740	739	736	737	736	734	733	731	737	741	744	741	730	726	734	733	728	708	707	706	708	713	718	719	724	722	716	703	709	711	710	706	717	715	714	713	713	724	724	726	720	716	715	713	711	704	708	710	709	704	707	710	710	707	703	701	700	703	713	715	714	707	707	710	715	713	709	710	709	707	706	699	707	710	714	714	717	713	709	698	705	709	711	696	690	692	694	698	692	691	694	697	707	706	696	688	681	682	686	702	696	690	689	689	692	694	700	696	697	692	689	668	673	680	678	681	689	689	697	695	700	697	682	672	675	678	676	675	672	669	671	679	684	686	681	678	668	661	662	664	671	676	682	689	690	683	676	665	661	666	658	661	665	671	679	680	673	672	672	666	666	670	675	674	674	663	662	664	661	662	667	667	666	670	674	672	669	664	663	668	663	659	665	661	654	648	650	654	662	665	665	656	654	645	655	664	668	666	667	667	660	657	655	654	657	660	656	655	650	644	652	654	647	643	646	648	655	654	659	657	658	655	653	657	651	639	639	641	637	634	640	641	644	647	651	657	665	666	660	644	647	636	632	633	633	628	632	630	628	630	638	640	631	633	634	639	641	639	637	633	625	623	632	639	648	646	637	641	642	647	637	635	634	633	632	633	636	638	633	631	639	641	646	647	647	644	647	641	637	635	632	632	632	628	628	625	619	622	626	627	631	634	628	628	620	617	618	615	0	0	0	0	0	0	0	0
924	933	938	938	935	930	930	926	919	920	921	921	928	931	928	927	912	912	911	917	922	918	908	908	902	894	897	902	902	901	901	905	909	914	928	929	924	921	912	912	901	904	908	913	908	898	892	891	891	893	896	900	902	907	911	910	892	886	876	873	871	880	892	886	885	886	884	886	892	896	898	899	894	870	860	855	849	848	848	852	875	876	874	871	877	877	872	867	866	880	885	880	867	861	855	852	848	855	863	871	860	838	822	822	846	858	856	856	857	850	845	837	824	823	842	843	821	821	824	837	838	838	841	847	850	852	848	830	830	826	828	825	819	816	815	816	814	812	807	814	820	819	821	825	826	806	804	812	808	824	834	835	839	833	826	815	805	803	806	809	812	811	810	808	811	813	820	828	826	817	814	810	807	802	796	784	777	775	781	792	801	806	805	798	791	780	780	789	802	792	798	801	806	812	817	806	801	804	808	784	779	779	789	798	804	800	776	780	776	781	789	796	796	795	794	793	788	798	782	784	790	789	793	796	793	787	786	786	780	779	789	780	784	788	785	770	768	769	770	763	765	767	763	766	774	773	776	776	777	769	766	754	754	746	753	760	764	767	772	775	775	770	782	788	783	767	755	753	753	748	746	752	757	752	748	749	747	738	733	727	722	720	725	735	743	748	748	725	720	719	726	730	733	717	741	739	755	758	745	733	724	721	729	734	734	730	728	732	733	732	732	729	730	726	723	726	727	729	732	730	728	720	716	714	721	735	736	734	732	729	728	722	718	720	725	729	724	710	708	716	718	715	708	704	706	709	710	719	719	712	710	709	703	708	704	702	708	708	708	704	707	709	719	706	701	693	701	705	704	700	702	706	713	704	701	698	700	702	702	702	700	700	708	709	702	700	694	708	716	713	711	708	707	705	700	697	702	705	700	699	705	707	706	691	691	697	691	686	688	680	678	680	682	683	694	696	699	697	686	679	665	670	681	683	672	670	674	679	673	666	669	674	666	663	659	660	658	662	672	678	679	686	688	684	680	672	667	664	668	673	676	675	674	673	672	674	678	676	675	673	665	666	665	661	665	674	679	683	678	677	671	661	658	656	656	654	652	663	675	677	668	667	661	664	669	675	674	670	659	659	657	658	659	659	679	681	672	668	667	668	660	653	648	647	655	659	660	654	647	638	642	648	654	659	660	655	651	645	649	659	664	661	657	644	646	652	651	652	654	656	656	649	641	639	642	642	635	637	637	639	644	648	648	651	657	656	655	652	640	638	637	633	631	628	636	638	640	644	647	649	646	661	639	640	640	632	627	630	631	633	630	625	628	628	634	635	632	629	632	632	633	623	625	631	627	627	628	639	641	629	633	636	641	642	633	631	629	628	628	629	628	629	632	637	633	634	638	638	635	633	630	632	628	627	626	624	622	621	621	618	616	620	622	622	620	621	622	622	618	614	613	605	0	0	0	0	0	0	0	0
920	920	929	928	926	922	922	918	912	909	914	914	924	929	925	916	901	901	906	908	910	901	898	893	893	891	892	894	895	895	897	897	898	902	902	897	904	903	898	898	892	896	899	905	902	898	888	882	882	883	886	891	897	894	892	887	879	880	877	880	880	883	867	855	854	861	876	878	876	877	888	890	873	860	848	842	840	842	842	849	855	859	864	869	866	866	864	855	849	853	858	873	857	847	837	838	838	825	825	827	838	835	827	823	831	833	823	828	837	843	837	825	815	814	814	811	809	801	804	811	821	822	829	834	840	834	819	815	816	814	816	816	811	809	808	807	806	802	799	805	811	815	815	811	802	793	798	802	806	797	807	811	811	806	798	789	780	784	791	795	796	794	799	799	801	805	806	807	804	809	813	815	812	804	787	781	777	777	780	783	775	775	795	792	779	781	783	785	791	780	776	781	786	787	791	790	790	793	799	799	778	777	788	785	783	771	772	772	778	774	794	791	789	776	775	780	781	772	778	775	764	771	779	785	782	774	769	769	766	770	772	774	775	778	771	763	757	757	762	759	746	750	762	764	764	760	760	781	778	772	751	731	736	740	748	753	753	764	768	765	764	753	747	743	744	740	742	744	747	747	746	727	736	736	743	738	738	738	731	732	726	727	731	739	744	737	728	725	713	707	707	709	713	730	736	739	735	747	741	725	715	714	722	722	723	724	730	730	729	727	716	714	716	720	720	720	715	709	700	710	715	719	715	708	700	709	708	709	711	713	715	718	714	715	715	713	707	706	708	713	715	714	709	702	701	703	707	698	706	708	709	706	702	697	701	699	700	707	705	702	699	707	690	679	673	681	684	695	692	691	695	697	701	700	686	691	693	694	688	686	688	689	698	702	694	690	688	691	707	713	709	684	671	670	678	684	686	687	680	692	689	690	696	699	691	691	689	685	676	675	666	672	682	687	688	670	668	663	659	659	667	668	671	673	673	674	672	668	668	664	662	666	668	663	658	656	657	664	670	672	677	679	681	678	668	653	650	650	668	675	677	676	672	671	670	669	672	671	671	670	664	668	671	662	659	670	671	671	670	670	671	670	654	656	665	659	651	658	667	669	660	656	655	662	666	672	670	660	659	656	654	648	644	634	642	648	669	668	664	662	665	651	640	635	636	653	656	656	640	635	640	643	649	655	654	649	640	631	628	630	634	636	636	637	644	646	646	638	640	642	640	636	635	636	638	638	626	630	633	634	634	635	633	638	642	639	635	637	641	636	635	632	631	627	636	641	641	642	642	642	643	657	634	631	632	629	626	627	632	634	635	625	625	625	628	628	631	632	630	629	626	623	623	620	628	626	624	622	623	626	628	631	638	635	631	628	626	624	620	618	617	618	619	625	628	630	629	629	625	625	625	622	618	613	610	613	616	615	615	614	615	612	606	609	612	618	618	620	621	611	607	605	0	0	0	0	0	0	0	0
915	915	920	920	913	910	910	904	900	898	902	902	912	920	922	911	891	891	887	890	894	875	871	870	870	881	886	888	886	882	878	878	867	870	872	878	880	881	880	880	877	868	888	895	888	885	880	871	871	854	863	873	874	866	866	868	872	858	855	861	861	861	859	852	853	851	861	866	872	879	882	878	870	859	844	832	837	844	844	854	854	854	858	860	858	855	841	834	827	826	831	845	845	841	841	840	834	821	818	819	830	834	829	825	821	817	819	815	819	831	836	831	823	817	817	813	803	803	804	811	818	825	828	819	816	799	798	805	805	803	803	802	806	807	804	800	791	795	796	801	805	801	798	792	786	788	793	794	797	802	786	787	786	780	778	766	766	779	786	792	794	792	787	783	792	795	801	802	799	796	801	799	796	792	783	778	778	778	777	769	752	764	770	782	774	775	760	770	768	767	775	775	779	780	781	771	776	780	787	789	791	800	795	768	762	761	768	777	783	786	788	764	765	767	769	764	764	766	768	762	762	764	767	753	753	754	757	760	764	766	767	762	759	752	758	757	753	751	757	745	737	734	743	755	762	756	749	740	747	740	729	730	719	723	731	743	750	761	766	753	752	743	743	738	737	741	745	744	741	736	731	727	734	735	729	733	730	731	728	728	731	735	740	736	724	724	724	718	713	704	704	705	717	724	730	734	736	727	736	723	715	710	716	715	709	704	705	705	704	707	711	711	710	711	715	711	708	698	695	693	700	707	708	701	693	688	683	680	681	683	696	697	688	697	704	706	705	705	705	706	710	710	708	693	682	686	690	697	699	697	699	700	700	697	692	692	700	709	706	703	697	699	685	676	667	668	678	688	682	687	689	692	696	684	679	680	686	685	680	677	677	683	676	685	684	679	685	685	688	675	665	661	664	671	676	678	680	676	672	669	677	684	692	694	694	684	683	670	667	661	657	662	667	665	664	664	664	659	657	657	653	658	663	672	681	681	679	671	659	657	668	667	656	654	654	653	660	662	660	658	658	661	662	663	662	653	648	649	650	665	672	672	664	661	659	659	662	659	660	662	664	666	665	660	655	665	665	665	664	666	669	667	650	660	661	654	651	651	663	661	654	651	652	658	663	664	661	651	650	647	646	642	637	634	634	636	639	639	639	641	644	639	634	630	649	643	659	655	637	636	639	643	647	653	645	638	635	628	629	635	639	639	639	636	636	636	635	630	625	624	625	627	629	627	626	622	624	623	627	623	624	620	628	633	638	635	628	622	622	628	631	633	634	633	629	632	623	626	629	637	638	633	624	624	626	625	622	624	627	631	630	620	621	621	623	623	628	629	628	626	618	617	618	618	619	622	620	619	619	615	611	616	621	625	626	626	622	618	612	610	608	611	612	620	620	612	613	613	612	617	618	617	613	612	610	606	606	607	608	609	601	603	602	605	613	618	618	617	613	613	606	601	0	0	0	0	0	0	0	0
887	887	892	895	895	895	895	896	892	887	889	899	899	905	897	887	862	862	867	866	869	866	865	860	860	856	851	848	852	848	854	854	850	860	866	868	870	874	881	881	880	863	851	843	843	847	846	834	840	840	849	854	855	851	853	854	832	833	843	853	853	855	854	850	846	847	850	856	858	857	852	845	841	835	829	826	832	838	843	843	843	854	855	846	837	827	824	812	812	812	817	826	828	831	832	837	838	831	817	816	822	818	816	814	812	808	806	807	815	814	811	810	809	810	811	805	800	796	799	804	814	825	824	816	802	798	785	781	789	796	799	803	802	800	797	795	802	807	807	804	782	786	788	786	786	802	803	804	801	791	781	779	773	770	764	756	757	769	783	791	784	778	777	781	777	782	794	794	777	778	778	778	777	774	773	774	776	777	768	750	744	749	765	773	769	755	754	760	757	760	764	761	755	761	758	756	754	754	754	756	765	775	775	771	765	766	768	748	752	760	758	761	760	757	756	756	755	759	763	763	761	755	749	746	745	747	750	755	760	761	757	753	746	746	748	745	747	746	739	732	731	732	737	749	756	750	738	733	726	726	723	722	722	721	720	730	751	755	761	752	740	736	735	734	738	745	745	744	735	727	722	722	731	728	724	716	708	710	713	722	727	729	723	720	718	719	718	712	708	702	704	705	715	721	726	722	714	708	714	719	716	710	711	710	704	704	706	719	720	714	707	704	707	706	703	701	698	688	685	689	693	696	697	697	691	687	675	670	669	682	681	682	682	692	699	711	704	695	686	682	680	679	679	670	680	680	680	683	684	691	694	693	692	690	686	682	688	701	705	698	689	683	678	673	666	669	686	684	674	681	682	684	680	674	677	679	680	682	681	676	670	672	672	675	674	674	677	673	669	661	660	663	664	668	673	672	672	669	668	666	670	676	674	671	671	671	676	670	654	652	652	660	661	659	658	657	655	650	653	652	643	645	663	669	661	658	658	654	647	650	649	646	646	649	649	651	657	657	654	652	653	658	660	661	652	654	649	645	648	652	657	660	648	639	643	645	657	661	661	665	655	649	658	654	651	653	664	663	664	650	641	640	646	660	657	646	643	646	658	655	650	649	649	653	655	645	644	644	640	635	638	637	634	629	630	634	636	637	637	639	638	637	634	630	644	647	653	645	641	640	641	645	646	642	639	638	627	619	622	629	637	639	637	637	633	637	634	628	623	623	624	625	629	630	632	632	624	621	619	619	619	619	620	623	628	630	622	620	619	622	624	627	628	621	627	623	619	618	622	627	625	622	620	621	626	629	628	624	619	621	614	618	618	618	618	617	619	622	614	613	616	609	614	614	615	614	615	614	610	607	609	613	617	617	618	623	618	615	609	605	607	607	605	606	607	606	606	609	608	608	609	609	610	606	606	602	603	604	602	594	595	599	602	607	611	616	616	615	610	601	591	589	0	0	0	0	0	0	0	0
856	856	863	866	876	884	884	880	866	870	879	884	884	884	882	868	844	845	845	853	856	860	858	852	852	848	845	840	838	835	832	832	847	861	872	873	874	874	875	875	873	870	858	847	842	839	835	831	846	846	849	850	849	845	842	818	818	830	839	849	849	849	844	839	832	834	840	841	841	840	830	820	819	810	806	810	808	831	834	834	831	825	818	819	815	810	807	810	803	797	790	790	793	798	807	818	820	818	807	799	794	808	810	802	789	782	778	778	787	794	805	809	810	806	802	801	801	800	802	803	804	800	791	789	787	786	770	777	783	793	797	797	797	768	771	775	781	778	775	765	759	769	771	772	778	783	788	785	782	773	769	771	767	765	760	751	754	758	757	755	758	763	763	753	753	770	769	769	764	765	763	761	763	765	764	767	765	748	744	739	736	744	759	757	753	750	757	749	746	758	757	752	749	744	739	750	747	746	750	750	756	763	769	766	769	766	746	745	747	754	754	756	753	752	745	746	747	740	750	753	750	748	743	741	741	742	742	748	754	755	750	744	737	735	737	745	747	734	720	716	717	718	719	725	732	736	730	724	717	717	717	715	727	724	716	720	733	755	752	747	728	728	728	726	736	740	743	740	732	722	716	716	713	709	711	711	711	711	715	717	718	716	712	712	714	715	712	709	709	703	705	709	714	719	716	708	707	704	697	708	713	715	714	709	703	706	708	710	708	705	702	699	692	688	689	694	687	680	683	685	687	688	692	692	691	688	682	682	674	673	679	681	679	688	691	707	707	699	683	677	667	665	664	672	672	676	676	676	675	673	676	682	681	667	668	666	669	672	695	689	682	677	673	672	670	671	674	681	672	671	677	675	675	676	674	675	677	676	673	676	678	677	672	667	671	668	671	667	662	660	660	663	660	666	669	670	669	665	663	657	664	669	670	666	659	656	662	664	656	649	651	654	650	650	654	653	653	650	650	641	640	638	641	645	647	651	654	652	649	646	643	639	640	641	645	649	650	650	648	649	650	653	656	651	650	653	648	646	648	649	645	646	641	638	638	643	653	660	663	650	649	648	640	646	649	649	649	650	648	644	633	630	634	635	633	630	626	629	646	650	645	643	637	634	635	637	637	633	632	633	637	634	631	625	626	631	634	632	630	634	634	630	625	622	626	635	638	640	643	641	643	639	626	622	624	624	618	617	618	623	633	635	635	633	633	628	624	618	613	616	621	622	625	628	631	632	623	622	620	614	614	620	624	617	618	621	619	619	615	619	620	621	621	621	627	622	618	611	615	618	619	619	622	623	624	619	619	621	617	610	606	613	615	615	615	613	613	613	611	614	612	606	603	610	609	609	599	608	605	606	609	610	611	614	614	613	615	615	612	611	608	602	607	606	607	607	607	604	603	602	602	605	606	600	597	592	592	593	592	589	591	595	599	602	608	611	611	608	601	595	586	580	0	0	0	0	0	0	0	0
861	861	864	869	874	865	865	850	847	850	858	867	867	868	854	842	828	836	836	842	848	845	840	839	839	838	835	833	830	821	817	817	834	854	866	871	872	872	843	848	848	863	860	854	845	835	830	835	845	845	850	848	843	826	810	805	809	816	820	834	836	836	834	821	820	816	824	829	833	827	812	808	797	799	803	807	805	799	798	798	798	801	803	801	799	792	793	787	783	779	772	771	779	779	791	795	801	786	793	794	795	793	791	786	787	778	775	772	775	789	797	806	805	798	796	797	802	803	801	797	783	783	784	782	781	771	770	778	779	782	785	785	757	761	766	767	770	766	773	762	757	757	762	766	766	773	775	774	771	768	759	762	761	762	754	750	751	753	754	750	747	752	751	751	750	753	758	760	758	750	747	754	759	761	764	754	736	739	733	734	731	731	747	752	749	746	744	746	741	737	740	750	741	734	730	741	741	727	744	743	743	752	759	757	763	749	741	742	745	750	751	750	748	738	738	741	742	733	722	723	722	742	741	738	738	740	749	747	736	722	714	717	719	722	726	726	729	712	708	708	709	711	712	710	709	709	715	712	712	713	709	709	699	711	714	717	724	731	732	725	714	713	711	706	709	709	711	709	709	709	708	709	705	700	702	709	710	710	710	715	714	712	711	700	698	705	704	706	704	700	699	707	711	712	715	716	709	704	702	694	693	697	698	701	704	700	679	678	693	697	697	690	688	684	696	695	692	691	694	687	685	689	683	680	686	684	674	678	686	682	681	682	680	682	691	693	687	679	671	668	663	657	661	664	668	671	670	666	665	662	660	671	669	662	660	665	667	669	668	678	678	676	673	670	669	667	670	666	652	648	666	671	672	669	670	672	668	665	661	660	656	661	666	664	666	668	666	665	659	658	660	656	654	652	662	664	663	661	654	654	659	658	652	645	655	657	654	651	649	649	649	651	648	643	646	644	648	642	637	635	636	635	636	640	641	643	648	648	643	637	638	637	636	635	639	645	644	643	650	645	647	651	651	647	649	649	649	642	639	640	636	636	640	636	637	646	652	648	648	649	644	627	627	630	635	637	636	637	635	628	630	634	636	637	636	631	625	623	633	634	643	645	648	636	615	618	622	626	628	630	631	627	631	625	622	626	629	630	629	631	632	623	622	622	621	630	633	628	622	622	622	618	615	625	624	615	617	615	617	620	629	630	625	611	611	610	609	609	613	605	608	616	619	624	627	629	623	622	621	613	618	622	621	619	613	613	617	617	613	614	616	618	620	627	623	610	596	606	610	611	606	610	618	615	608	602	611	614	610	607	606	610	614	615	613	611	604	603	602	601	600	600	600	604	600	593	595	599	604	604	600	596	595	597	603	608	610	608	607	607	597	597	596	596	606	606	605	603	598	600	598	595	603	602	600	598	592	589	586	580	585	594	595	585	579	579	583	587	593	590	586	583	0	0	0	0	0	0	0	0
857	857	858	861	861	844	840	840	845	846	846	843	843	833	824	824	826	840	840	844	845	843	836	838	837	837	836	829	819	804	806	831	831	843	855	861	862	828	828	831	831	836	840	843	837	825	812	822	831	831	843	841	832	820	814	810	815	803	802	801	812	812	814	806	797	797	795	803	817	801	794	787	787	793	798	798	796	792	791	792	792	791	791	791	786	783	783	782	778	770	763	762	768	775	775	775	773	784	784	790	791	792	789	780	773	773	768	765	768	781	792	795	791	783	796	787	780	780	785	781	777	768	764	764	768	772	772	773	775	769	768	751	750	753	754	759	763	758	762	765	756	755	756	759	757	759	763	767	776	767	767	760	760	761	749	748	749	750	753	750	748	750	752	748	747	745	752	752	752	743	741	752	759	763	747	733	729	729	732	724	720	726	732	729	724	730	735	738	726	727	730	727	722	719	745	743	733	721	717	717	737	739	736	746	739	715	734	742	743	749	749	740	731	737	744	744	737	724	720	721	720	726	730	722	721	722	712	709	707	709	713	713	708	714	716	717	722	713	708	707	705	707	711	711	713	713	707	704	709	710	705	697	697	696	707	716	728	731	729	708	707	707	702	700	702	704	709	710	709	710	713	698	689	695	700	705	708	708	707	701	694	694	705	692	692	688	686	692	690	690	687	699	699	701	709	708	710	703	700	693	693	695	696	697	700	686	680	679	677	676	687	685	674	687	694	691	694	697	686	695	683	684	677	675	674	673	673	674	680	687	680	673	670	670	674	671	675	674	670	665	660	656	656	658	666	668	668	664	657	644	638	634	636	643	651	658	662	662	661	666	672	675	672	669	666	665	658	655	647	644	651	656	662	666	671	666	661	660	658	658	655	655	655	655	650	648	649	652	650	650	649	639	636	637	641	645	649	656	650	647	646	650	646	644	645	646	645	645	642	643	643	650	645	639	635	643	640	636	635	634	635	636	636	634	637	639	636	633	628	627	631	630	627	631	631	636	646	646	644	642	644	647	647	650	655	650	649	644	624	620	617	618	634	635	631	628	631	637	638	643	630	617	612	618	624	627	629	630	635	632	634	637	636	636	633	630	620	614	622	622	624	625	625	624	623	620	617	623	625	624	619	614	621	622	615	612	612	613	625	628	624	622	618	612	617	621	616	615	618	620	618	615	612	621	620	615	617	617	616	615	610	608	605	604	606	610	608	607	607	605	603	600	605	617	619	623	622	618	615	613	614	620	620	616	611	599	596	596	611	622	627	631	632	625	615	594	590	589	606	609	612	618	617	614	607	602	604	606	608	606	609	609	611	612	611	600	597	597	594	593	592	597	597	595	594	592	589	589	590	598	594	588	588	590	596	600	604	605	606	592	597	595	594	592	597	597	600	602	604	601	600	595	603	602	595	592	592	583	577	578	584	589	581	579	573	573	578	580	588	588	587	585	0	0	0	0	0	0	0	0
842	845	845	844	837	832	837	837	842	844	842	837	837	827	819	816	834	836	836	829	830	820	817	817	833	833	827	812	799	795	800	818	818	834	844	839	832	812	813	812	812	815	815	814	809	802	812	825	831	831	835	838	837	833	820	812	800	799	797	796	800	800	791	792	792	788	787	787	790	785	782	785	785	784	780	774	774	778	783	785	785	783	782	784	779	780	778	776	773	770	765	758	757	764	766	765	767	768	783	784	785	786	781	777	770	767	762	762	764	767	762	759	762	790	784	765	758	759	775	768	762	758	758	755	752	751	765	766	765	761	750	746	748	750	750	752	753	757	762	765	757	753	753	754	753	747	746	757	760	762	757	763	760	748	744	745	744	745	743	739	743	745	751	744	741	737	738	742	745	740	740	749	758	755	741	728	738	733	726	714	714	721	723	725	725	728	717	714	716	718	719	713	713	718	725	726	721	717	714	719	713	715	720	719	715	718	728	735	737	735	730	728	731	738	745	722	725	723	710	713	720	725	718	705	709	713	711	707	707	708	709	714	709	708	707	711	717	711	712	709	703	701	711	709	713	698	702	704	705	701	698	691	690	690	690	706	708	703	708	701	702	703	699	695	696	698	704	707	706	695	686	685	683	690	694	698	704	705	703	697	690	692	692	686	685	683	682	683	682	680	678	678	680	681	696	699	698	703	697	690	680	681	692	694	687	683	680	675	677	674	667	658	667	681	667	670	670	672	678	676	688	679	670	669	672	672	671	672	679	681	673	666	661	656	658	673	677	673	672	648	642	645	650	656	657	655	651	638	638	640	641	638	639	643	653	658	664	660	655	656	673	674	669	662	658	654	652	654	650	639	643	642	645	647	646	649	653	658	658	655	649	651	653	642	640	643	645	646	645	648	640	641	636	635	635	640	643	643	639	637	641	646	646	646	646	646	643	638	639	637	637	630	630	640	633	629	631	627	629	636	624	629	625	623	624	627	627	627	621	620	620	622	618	616	619	636	642	646	649	636	627	622	630	633	640	638	634	630	626	614	611	614	627	629	623	623	624	626	627	628	628	610	611	610	610	613	613	618	628	631	633	634	628	632	630	608	610	616	613	616	622	623	618	616	619	617	615	615	613	611	613	612	613	612	611	608	608	607	613	627	626	620	618	609	611	615	613	614	615	620	618	615	607	604	607	611	615	614	616	610	614	613	610	603	597	599	603	605	603	600	603	603	596	596	598	604	610	611	608	606	592	598	602	614	614	604	601	605	616	622	622	622	624	620	607	588	586	590	596	609	613	614	606	600	597	598	601	606	615	611	608	606	606	606	605	602	598	597	585	582	585	590	592	591	589	586	582	579	579	582	579	573	573	581	590	595	599	601	586	578	591	594	593	583	583	583	588	594	598	598	588	590	592	587	584	580	588	585	580	578	579	578	577	572	574	574	578	580	582	585	587	589	0	0	0	0	0	0	0	0
822	827	827	830	829	831	829	829	834	839	835	829	829	821	817	825	823	821	821	815	810	801	794	796	797	797	805	809	804	801	800	805	805	807	813	818	809	799	795	799	799	807	811	810	804	803	812	815	820	826	826	799	807	806	796	794	796	794	791	788	785	786	786	786	787	782	778	778	782	785	784	792	792	787	776	768	764	761	761	764	764	762	765	767	769	770	772	775	776	775	770	762	755	757	757	759	757	760	770	773	774	773	776	773	771	767	761	757	766	764	760	756	759	756	753	750	755	755	756	758	756	753	750	747	745	740	739	751	755	754	750	748	752	752	751	751	752	757	758	756	749	750	748	748	743	741	745	750	755	751	752	732	737	740	740	734	730	730	730	730	733	746	746	746	739	734	730	732	735	722	726	736	736	736	732	734	728	723	719	709	717	718	720	719	723	715	714	712	708	708	708	705	707	715	712	718	722	719	718	709	708	707	715	715	713	720	723	727	728	728	725	717	701	702	709	714	717	716	715	713	708	705	700	694	697	702	710	713	707	705	713	709	708	705	694	698	703	711	700	698	700	699	698	706	708	691	693	696	699	696	695	690	673	682	684	688	691	695	697	693	696	701	696	690	689	691	699	702	693	690	688	685	688	694	697	693	692	691	691	686	689	687	683	681	677	670	678	680	678	677	675	673	669	676	688	690	689	686	682	677	673	665	663	667	678	679	672	682	679	659	657	647	650	662	664	663	662	665	665	660	656	655	661	662	659	665	668	665	672	673	671	668	657	653	653	657	664	666	667	650	646	648	651	651	654	657	654	649	643	640	644	646	647	651	652	651	660	661	648	655	654	650	649	648	648	647	647	647	646	636	632	630	631	636	642	646	648	649	646	631	637	639	633	634	635	638	643	640	643	646	642	636	637	637	638	639	639	631	629	628	635	644	645	646	650	641	637	633	636	633	630	622	623	628	631	630	615	620	632	627	625	616	609	607	612	613	623	627	626	621	619	615	613	615	623	627	628	631	615	616	618	616	617	619	621	612	612	616	619	617	617	616	615	613	611	612	608	616	618	625	620	602	604	606	608	609	607	611	612	623	618	613	613	613	611	610	608	610	610	612	613	616	610	609	610	613	611	611	611	608	608	611	607	608	608	609	607	607	608	612	616	616	614	607	608	615	608	601	612	617	617	614	609	601	603	608	612	609	606	610	608	609	609	593	592	595	599	601	599	596	604	604	597	590	589	593	597	607	606	596	591	590	591	594	594	592	595	594	603	609	608	603	605	591	588	585	587	588	590	592	598	597	597	592	591	595	592	584	569	567	603	600	594	597	599	599	598	591	586	579	580	584	588	590	589	585	583	579	583	585	584	582	580	576	575	578	578	577	567	583	569	566	573	575	575	573	578	580	579	578	577	578	581	579	577	576	584	583	578	573	566	571	570	571	571	572	576	578	578	575	573	571	0	0	0	0	0	0	0	0
813	817	817	822	820	810	813	813	816	819	820	818	823	823	826	811	815	811	806	806	803	796	788	785	784	784	783	799	803	804	798	797	797	800	805	808	804	796	791	795	795	805	812	810	804	801	805	807	807	802	773	774	776	772	779	776	780	780	780	781	782	789	789	794	793	785	784	779	781	779	779	778	774	767	762	760	758	758	758	757	763	763	764	758	759	761	766	770	774	776	773	768	756	745	746	752	753	756	759	755	756	761	766	775	774	769	763	768	770	770	767	765	748	745	743	746	749	754	747	744	746	745	743	741	737	726	722	728	751	752	747	741	750	750	751	752	741	742	745	742	722	721	723	724	735	741	744	750	750	747	740	720	721	725	722	723	726	729	728	732	732	733	736	741	739	733	729	724	721	720	721	724	727	735	726	723	721	718	714	714	712	719	716	716	712	724	713	713	705	703	702	700	694	692	698	713	726	722	722	711	705	698	703	701	698	689	685	688	706	719	717	704	695	690	702	706	708	708	705	700	698	696	698	695	688	687	697	696	701	706	701	697	695	694	690	686	682	679	679	682	688	693	689	682	682	686	688	693	694	691	687	665	664	669	678	683	682	680	684	690	695	700	695	692	680	663	670	679	688	686	688	676	682	691	696	688	681	677	679	680	682	680	678	672	666	670	676	681	680	677	673	668	663	672	673	667	657	655	655	666	663	658	656	652	656	657	665	665	652	643	646	650	651	659	661	657	652	649	645	644	643	643	644	646	651	659	662	660	658	663	665	661	649	640	637	640	642	646	644	642	642	652	648	643	644	651	653	654	644	644	643	637	639	639	636	632	637	647	652	638	635	635	635	634	635	641	643	642	640	631	625	625	629	632	638	642	644	648	632	633	636	634	631	630	629	629	634	637	634	637	636	632	630	628	626	625	622	622	618	621	628	632	638	644	643	636	628	622	624	625	624	620	618	625	625	629	618	628	624	620	617	613	609	607	609	610	627	628	627	624	619	613	615	617	612	617	604	602	609	614	612	609	614	613	613	609	612	612	612	608	607	604	603	606	606	601	597	603	604	608	603	601	605	605	605	604	610	610	612	613	618	612	610	608	610	610	607	606	609	607	606	608	601	600	599	603	608	607	606	603	606	610	603	603	603	606	609	610	605	610	609	614	602	602	601	613	607	594	607	613	613	612	603	599	599	607	603	604	602	601	604	601	595	591	589	591	597	596	597	589	596	597	594	588	589	594	596	593	589	586	580	573	571	572	574	580	584	583	582	580	574	576	580	586	585	579	577	581	583	587	588	588	591	588	587	585	581	571	573	571	572	573	568	570	572	572	574	566	564	581	575	579	582	588	589	585	584	578	577	583	590	590	586	586	576	574	576	576	573	571	569	567	566	569	569	570	570	569	573	570	570	572	580	582	581	579	576	573	569	568	565	566	568	567	567	566	570	574	573	571	565	560	0	0	0	0	0	0	0	0
807	809	809	803	801	800	801	801	809	810	814	798	799	799	803	790	795	794	798	798	799	793	786	782	776	776	774	770	775	791	787	789	795	795	800	809	805	796	793	799	808	808	805	803	796	787	776	784	788	773	750	750	756	760	764	776	774	771	767	768	774	782	782	789	789	786	775	771	769	767	769	772	770	765	759	755	750	750	751	752	758	758	758	758	754	757	756	763	768	768	765	762	757	752	753	759	758	756	747	746	747	754	762	773	778	776	770	766	763	752	750	753	749	744	742	739	744	747	738	736	739	739	739	732	719	716	714	712	725	730	735	734	746	755	745	739	735	734	730	730	720	720	717	718	729	729	739	747	745	721	730	714	715	721	718	721	722	723	721	727	730	728	734	724	717	713	712	719	719	718	722	719	716	712	715	721	716	714	712	712	711	716	717	713	707	713	717	706	696	698	698	695	699	683	689	702	720	722	720	710	701	695	699	695	688	689	689	693	704	702	699	695	691	690	694	694	698	688	687	688	687	695	695	698	697	690	679	676	676	679	686	683	685	690	688	682	675	676	677	679	687	688	686	682	678	679	680	684	679	673	667	664	664	667	674	676	672	669	664	677	682	682	673	666	661	659	663	669	675	676	673	673	673	686	688	686	680	674	670	669	677	674	660	663	662	666	673	681	681	678	660	663	669	669	665	663	658	655	653	647	645	645	646	644	649	652	650	649	638	642	648	651	651	654	657	654	633	632	642	640	638	638	639	640	643	652	653	652	636	636	643	642	638	636	635	636	645	639	638	639	640	650	645	641	639	637	634	629	621	630	634	634	637	636	636	633	633	635	644	641	629	628	625	626	628	629	633	637	634	625	625	629	631	635	636	639	642	629	625	630	627	624	624	623	628	630	633	640	634	633	629	628	628	631	626	620	617	615	618	621	624	626	630	629	637	631	622	611	615	617	615	616	619	619	622	614	611	624	616	613	606	604	602	607	605	613	619	627	623	623	620	614	619	617	612	613	604	601	601	605	608	607	611	611	606	606	607	609	606	597	599	600	603	603	596	595	591	593	597	597	604	598	599	598	596	599	605	606	610	609	607	589	605	604	607	606	602	592	595	598	601	603	596	593	593	592	594	594	593	603	607	605	599	602	600	605	609	607	604	605	607	610	603	603	600	599	597	584	591	598	605	601	593	593	596	602	607	606	598	594	593	593	593	591	589	594	596	597	598	595	597	597	591	583	585	593	583	578	582	583	585	574	573	571	571	575	576	580	580	575	571	574	578	584	586	574	573	573	569	573	572	580	576	576	577	570	564	573	573	572	575	574	570	575	567	567	567	564	561	559	559	570	573	573	573	580	579	570	570	576	580	578	578	576	578	576	575	571	568	570	568	567	565	565	565	566	567	566	565	570	564	569	575	579	578	565	557	555	555	559	562	559	560	561	561	562	565	565	569	565	551	547	0	0	0	0	0	0	0	0
798	794	794	780	776	778	789	802	802	798	790	787	783	783	786	785	792	792	789	789	785	782	776	771	768	759	759	760	757	764	775	781	789	789	801	808	806	800	797	797	790	790	788	786	778	767	757	761	756	743	746	746	753	755	758	764	750	742	747	753	759	752	756	756	759	762	760	759	762	760	759	762	761	754	749	744	741	739	740	736	738	745	745	743	746	744	749	754	755	752	745	736	740	741	748	755	754	744	737	730	730	733	738	752	755	761	761	751	750	744	736	738	738	735	733	733	735	739	734	728	731	734	725	720	717	711	707	704	723	731	733	736	737	742	733	721	711	712	710	721	722	719	717	719	723	729	719	710	703	724	711	707	710	713	716	718	719	715	716	716	722	728	727	716	716	710	702	708	715	719	722	722	721	714	707	710	717	716	712	710	712	716	718	718	714	711	700	690	690	691	694	695	691	685	698	704	707	705	699	696	695	697	690	682	683	685	689	690	690	689	689	689	694	695	695	697	690	686	689	685	688	688	690	692	691	685	681	676	670	676	674	671	673	682	681	679	678	670	672	673	677	684	682	679	679	679	680	679	676	672	667	665	667	671	674	670	665	658	653	651	646	642	642	652	652	650	654	658	665	669	666	662	664	668	682	679	675	669	658	659	668	666	662	656	657	657	653	651	652	646	646	649	647	642	647	652	652	650	643	640	638	635	642	640	643	646	647	643	637	640	644	649	649	648	641	634	631	635	637	637	633	643	644	647	647	648	641	634	626	624	626	631	636	636	635	635	633	637	634	634	637	638	638	637	636	631	626	625	623	619	628	631	636	636	634	632	631	630	626	629	629	626	626	623	624	626	615	622	622	618	623	625	626	629	630	628	623	618	622	621	622	622	620	622	626	629	629	632	631	634	627	621	620	621	616	616	613	609	617	621	621	621	622	626	627	624	609	608	608	611	614	614	616	612	613	613	615	609	608	603	598	599	598	601	599	605	615	625	619	622	622	619	622	618	611	602	598	600	599	598	597	601	611	608	609	607	604	598	594	590	593	595	597	596	594	592	591	594	594	590	593	592	594	594	595	599	598	597	599	599	589	586	588	594	597	602	588	589	591	594	597	596	590	582	585	602	602	592	589	588	589	591	591	597	601	602	606	605	602	600	602	606	612	610	602	592	586	596	604	606	603	598	587	589	593	594	594	591	587	587	584	586	589	597	597	597	592	594	598	592	572	573	574	575	578	578	574	572	572	577	580	576	570	569	569	575	575	575	571	568	569	571	579	578	580	575	571	571	572	571	568	567	570	570	571	561	565	570	569	570	578	573	575	575	572	568	566	555	554	556	560	559	564	563	566	563	563	567	566	572	572	575	576	576	578	576	575	569	565	563	563	566	570	570	562	556	554	554	563	561	562	556	542	551	550	548	547	545	551	553	557	564	562	562	559	557	556	550	553	548	544	544	0	0	0	0	0	0	0	0
790	783	776	776	771	771	767	768	768	775	777	773	779	779	779	786	771	761	758	758	757	761	764	762	760	753	753	745	754	766	774	780	783	783	785	789	790	785	780	774	769	769	763	758	757	757	759	757	744	745	746	746	751	749	747	740	740	736	739	743	733	725	726	726	732	744	754	756	751	753	752	750	747	742	738	731	732	730	724	727	729	732	732	738	738	742	743	745	732	731	731	716	714	723	743	742	740	736	733	728	722	721	725	726	730	743	748	751	755	736	717	714	709	711	708	715	727	727	724	719	710	708	710	710	700	693	686	689	703	710	705	697	706	706	705	702	703	701	703	699	701	709	718	722	727	728	725	726	710	700	703	704	709	714	727	727	715	714	713	707	708	715	707	709	712	710	703	704	710	717	718	706	706	706	703	711	717	716	711	706	701	704	713	712	705	702	689	685	687	688	684	686	684	680	678	679	681	685	687	689	685	681	679	680	681	679	681	686	684	687	684	683	684	686	686	690	686	686	687	687	684	683	681	682	691	693	688	676	672	670	669	665	669	677	678	675	676	672	669	669	666	666	667	675	674	678	679	679	656	648	646	652	669	674	674	668	660	649	642	639	636	639	641	647	649	649	648	651	650	646	650	656	658	661	661	662	664	666	656	656	663	665	663	656	653	639	635	632	639	642	633	634	634	636	638	642	642	644	642	639	636	634	636	642	644	646	649	640	637	635	634	646	645	646	631	631	624	640	641	629	638	641	642	644	640	631	627	612	613	620	621	625	632	633	633	635	630	630	631	628	625	620	619	628	633	624	621	618	617	617	615	631	634	635	631	629	629	627	623	621	620	619	620	617	622	609	617	618	614	619	621	622	624	622	616	616	623	621	617	616	616	619	617	615	612	612	611	617	610	615	618	619	613	616	615	613	603	603	613	617	616	617	616	615	609	605	603	597	605	604	598	596	590	594	598	603	613	605	605	604	595	594	594	594	604	604	604	609	605	609	611	619	616	607	606	602	601	595	594	596	595	593	600	595	593	591	588	584	584	586	589	593	596	591	591	589	590	592	590	589	588	588	590	592	590	589	593	593	593	592	586	585	586	591	590	589	588	584	586	594	594	591	584	586	587	588	584	586	581	581	578	583	578	579	598	603	602	591	585	584	580	595	611	616	607	596	595	599	598	587	586	585	585	587	586	581	580	584	586	578	578	580	587	593	591	585	588	583	582	574	568	570	575	578	578	576	569	562	562	568	573	572	566	554	553	556	576	567	562	561	565	568	575	573	568	557	555	559	568	563	559	561	569	571	571	561	560	564	566	569	569	569	568	569	568	567	555	552	553	553	559	559	557	559	558	560	559	561	563	563	563	565	566	572	576	572	570	564	557	557	561	563	563	567	559	555	553	554	558	560	556	545	550	538	544	543	543	543	542	546	557	557	556	556	556	552	548	544	537	536	540	544	0	0	0	0	0	0	0	0
769	770	763	763	764	762	764	766	766	769	764	767	774	774	784	769	746	743	740	740	747	761	751	743	737	731	731	745	750	748	753	754	758	758	750	755	752	750	747	746	745	745	750	755	758	764	757	750	751	747	747	747	750	744	733	734	731	735	733	734	727	721	717	717	716	732	737	746	743	743	746	742	736	734	730	725	717	716	715	721	724	732	732	733	740	743	738	723	722	724	722	712	712	712	711	708	708	715	720	712	712	719	723	726	729	717	713	713	712	708	710	706	700	701	704	710	715	721	725	718	715	709	709	704	694	691	690	686	694	693	690	689	692	703	703	701	697	696	692	687	680	684	699	700	711	709	719	713	710	698	697	696	702	703	706	705	696	704	704	705	706	705	702	700	697	699	700	700	704	690	692	695	700	698	699	704	707	703	690	685	688	687	687	682	684	688	691	677	682	682	680	680	678	674	673	674	675	680	681	683	681	679	683	676	676	673	672	670	677	680	681	679	675	671	674	681	680	681	682	683	679	679	681	675	684	687	686	682	675	670	667	661	655	659	664	664	664	659	648	655	660	660	662	664	656	653	656	654	645	645	645	647	655	659	671	658	652	640	639	637	637	636	634	639	645	647	648	646	641	636	640	642	651	646	649	646	648	653	659	670	661	647	646	650	647	639	624	631	637	641	631	631	630	631	632	632	626	622	623	626	626	625	627	635	638	637	638	637	632	630	621	622	624	626	628	629	625	637	637	628	628	634	639	639	635	630	626	624	608	610	620	625	623	626	630	628	627	627	627	622	621	613	618	623	618	620	613	613	617	617	622	622	621	620	614	622	621	622	617	614	618	614	616	616	610	612	613	613	615	617	618	619	617	612	614	614	613	614	616	614	607	607	605	606	603	600	597	599	603	605	609	614	614	615	609	601	599	599	599	610	609	610	610	605	600	596	595	597	599	600	601	599	593	594	597	599	607	605	601	595	589	594	597	596	596	593	601	606	599	597	597	599	596	592	593	596	591	590	595	598	588	581	580	581	579	574	572	574	578	585	586	579	581	582	583	581	586	587	585	583	579	588	588	587	588	591	591	590	584	583	583	582	584	587	589	585	583	582	586	594	591	587	584	585	584	589	584	584	581	577	575	578	578	572	579	582	575	576	580	580	568	575	581	587	588	581	574	574	574	574	572	574	576	574	575	579	578	578	582	583	577	577	578	573	570	568	571	571	565	564	563	565	576	574	568	563	560	563	561	566	568	562	556	548	545	551	551	562	558	556	563	564	565	564	556	555	561	568	555	558	557	558	562	564	563	560	558	557	563	567	566	561	559	561	561	566	555	551	548	549	553	561	557	557	556	556	559	559	560	560	562	562	560	563	562	571	570	562	553	556	561	562	562	560	559	559	558	559	553	552	547	544	539	540	539	540	541	538	541	544	543	554	551	551	551	550	547	540	539	541	538	543	0	0	0	0	0	0	0	0
739	747	760	760	761	763	767	770	770	763	750	759	781	786	786	747	738	731	739	744	744	750	752	748	748	748	748	747	747	739	734	736	740	740	744	745	741	731	733	738	740	746	746	753	757	759	756	742	742	741	736	736	733	734	732	723	720	721	730	730	729	721	716	715	715	717	727	723	706	701	711	721	727	727	729	725	712	708	707	715	716	717	717	717	718	722	720	718	720	720	716	711	709	710	709	703	701	698	704	701	705	714	721	725	725	713	708	704	703	704	702	699	698	698	700	692	690	714	717	711	711	711	705	699	691	687	687	688	691	686	684	682	683	698	701	697	692	691	685	682	679	682	690	691	692	682	698	704	703	693	682	679	675	687	689	693	701	700	699	700	705	701	701	695	694	693	693	685	685	685	688	685	689	693	695	700	701	692	687	683	687	689	688	683	684	687	681	672	676	675	678	677	676	672	669	669	669	671	678	679	678	670	672	672	669	668	666	669	674	672	669	673	665	667	677	671	665	663	661	674	662	669	674	671	666	663	670	668	665	667	656	650	652	657	656	653	652	649	648	645	647	657	648	649	649	654	649	646	646	647	644	640	651	657	658	653	640	630	631	632	636	633	634	635	640	643	643	643	641	637	634	633	633	629	639	638	636	631	637	642	642	642	641	640	626	621	620	628	627	626	626	626	626	628	631	626	610	620	621	622	621	621	619	619	625	630	631	628	626	623	617	614	612	621	625	620	625	627	628	626	625	619	631	630	628	625	625	624	614	611	613	617	617	611	611	609	608	607	607	604	603	604	622	622	618	614	607	607	614	617	614	613	610	612	612	616	623	627	616	617	613	615	618	616	616	614	614	614	613	615	616	614	609	607	611	611	613	605	603	600	602	600	600	599	593	596	595	596	601	602	609	605	603	602	599	599	598	598	595	598	598	603	604	599	595	593	591	595	600	599	598	593	592	591	595	599	599	601	599	594	598	599	597	596	593	596	593	597	591	591	591	585	587	587	586	583	579	581	583	586	585	580	580	580	580	576	574	571	577	582	579	578	577	577	577	580	582	584	583	583	587	590	592	592	582	585	586	579	576	572	578	580	582	591	591	579	573	568	580	586	588	580	575	584	583	584	583	583	582	578	575	576	576	570	568	566	568	571	574	572	570	571	579	583	584	579	574	572	573	571	572	570	569	568	562	558	561	555	571	572	569	566	563	558	559	558	557	560	562	562	564	562	566	568	566	562	560	556	561	566	565	563	564	554	550	551	551	550	550	549	546	548	562	558	558	557	561	567	568	552	553	553	546	542	542	559	556	555	564	566	562	557	553	553	553	551	543	542	544	543	545	552	559	558	548	542	550	552	562	560	558	558	559	562	557	557	539	540	545	546	550	550	554	556	557	555	554	546	543	538	541	541	540	536	541	543	544	544	539	539	543	543	543	549	551	550	542	546	549	546	543	545	0	0	0	0	0	0	0	0
739	749	758	758	763	764	751	756	756	746	749	741	749	750	750	728	724	719	721	725	725	736	739	740	737	737	737	738	734	721	727	731	735	738	738	730	722	724	727	730	731	740	740	749	753	747	747	717	710	712	713	715	715	718	719	713	700	698	708	722	729	728	723	713	713	717	716	707	703	702	704	703	707	719	725	719	717	710	711	712	712	707	705	705	703	702	700	698	702	711	713	711	710	710	704	690	686	688	685	686	689	685	701	702	707	702	700	699	699	682	685	695	698	699	694	688	686	687	705	703	703	701	678	688	684	684	684	684	684	679	679	678	680	692	696	684	684	685	680	683	675	678	687	687	680	680	681	688	691	688	677	677	675	675	681	680	677	680	687	689	687	681	682	681	679	682	686	692	690	694	694	686	684	691	693	695	691	681	675	673	686	693	693	691	691	691	680	668	670	664	668	673	674	671	667	666	669	666	670	676	675	665	667	670	663	665	664	652	642	646	653	659	658	655	656	657	676	663	654	655	655	664	660	655	652	653	647	649	669	654	650	647	652	653	646	647	648	650	644	645	645	645	647	649	650	652	653	651	642	640	639	637	643	637	634	638	635	629	625	629	627	635	636	639	636	645	641	641	641	640	628	619	618	619	619	623	616	620	628	628	625	629	629	619	617	615	615	613	620	622	621	619	621	629	625	611	610	614	616	621	620	618	616	615	616	621	623	626	623	620	615	611	611	614	625	621	625	627	627	626	614	612	611	610	622	621	622	623	623	613	611	606	604	602	605	604	604	607	611	609	612	616	621	624	621	614	606	607	611	613	609	608	608	610	611	617	622	622	618	614	606	604	602	606	608	609	614	615	615	613	609	605	601	601	606	608	603	592	583	597	596	597	598	599	599	599	591	591	598	600	602	605	605	598	596	595	588	589	593	596	595	598	598	595	594	591	594	596	598	598	596	590	587	589	592	596	597	597	593	588	587	593	596	596	595	595	589	588	590	590	585	585	584	584	584	582	578	581	581	584	584	583	576	576	577	574	571	568	579	580	577	576	571	575	578	582	584	587	580	570	572	574	576	575	575	579	581	578	574	572	568	571	573	571	571	565	564	567	574	582	585	573	571	571	579	582	583	582	582	578	570	571	573	569	564	562	565	569	569	568	568	567	575	581	583	578	572	572	570	570	571	566	563	559	552	552	556	551	555	566	566	560	556	555	553	554	556	558	558	559	559	558	557	567	564	561	556	560	559	564	558	563	564	562	556	552	548	547	546	545	543	545	559	560	558	560	561	561	566	552	553	551	542	539	538	548	556	570	568	565	560	551	551	556	555	553	547	543	544	546	542	544	549	546	539	541	542	552	552	550	552	556	552	556	556	539	539	540	542	543	544	544	545	539	536	536	536	534	535	543	538	537	540	541	542	540	539	537	534	535	538	538	538	549	550	546	533	535	540	538	537	538	0	0	0	0	0	0	0	0
740	749	750	750	748	742	740	742	725	725	730	737	743	744	744	719	715	711	710	716	716	726	725	720	707	706	710	710	711	712	718	722	728	726	726	716	718	720	723	721	718	719	719	720	719	724	711	711	704	696	699	699	699	698	699	701	699	698	703	712	718	718	715	709	709	705	717	721	710	704	705	700	701	698	697	690	706	707	707	705	705	706	703	701	701	699	696	694	697	701	704	715	714	697	686	681	680	677	676	679	682	692	688	687	696	686	681	676	674	672	676	683	698	697	695	690	685	682	680	692	687	671	680	680	681	676	679	680	680	677	674	674	679	680	673	679	683	682	682	684	678	680	685	683	678	681	684	683	678	675	677	679	679	675	675	667	669	677	675	671	673	667	672	670	669	674	679	680	681	686	683	667	664	663	661	664	664	659	658	663	671	678	677	674	672	666	663	662	657	647	654	668	671	673	671	667	668	669	670	670	669	648	649	653	661	663	653	648	637	642	645	650	652	648	648	647	650	636	636	635	642	646	638	635	640	639	639	640	639	637	638	637	636	635	630	632	641	645	641	639	637	637	633	634	638	647	649	642	640	636	631	630	635	631	629	634	629	623	622	623	628	628	632	633	630	633	639	639	630	632	622	624	622	617	613	618	615	616	611	606	616	614	609	612	614	612	609	610	614	620	617	616	617	614	603	600	599	604	608	616	617	616	612	610	609	610	608	614	616	615	610	606	607	610	615	622	623	619	621	611	609	605	605	603	602	605	606	615	617	613	608	599	595	600	600	599	596	597	604	598	604	608	611	614	605	602	600	598	601	606	606	603	603	606	611	617	611	609	603	596	594	595	598	606	606	606	606	603	594	600	602	598	593	601	605	602	585	584	589	587	588	597	597	601	600	600	599	594	593	597	598	599	598	593	592	587	584	584	584	589	588	591	591	590	585	583	583	595	596	595	590	587	585	586	590	590	590	591	576	580	575	584	584	581	578	579	580	585	586	587	583	581	582	584	583	581	580	581	579	577	577	573	573	571	567	564	561	558	573	575	576	575	571	573	574	576	582	585	568	571	569	574	574	573	573	574	577	575	574	567	567	559	562	562	565	565	563	565	571	574	571	568	567	566	570	576	581	579	575	572	565	568	570	569	567	565	566	563	563	559	556	556	569	574	582	573	571	569	564	565	557	558	556	556	551	551	554	549	549	560	562	559	553	550	550	551	553	551	558	557	556	555	553	555	563	558	557	558	559	561	557	563	566	554	552	544	541	537	538	536	536	534	542	550	564	564	557	557	554	555	555	554	548	539	539	539	553	546	555	559	557	550	554	556	555	550	545	528	528	532	537	542	536	529	528	532	533	535	550	549	549	548	549	552	545	542	536	536	537	539	539	535	536	538	543	545	536	533	531	540	540	538	537	537	541	540	536	535	529	530	534	535	535	537	536	529	530	532	533	532	530	531	0	0	0	0	0	0	0	0
732	733	734	730	730	723	710	714	719	719	726	727	731	724	724	719	709	702	702	704	704	714	723	717	706	705	709	709	707	717	709	709	713	718	718	714	717	723	726	730	731	718	718	710	706	704	708	709	697	691	693	694	694	706	709	712	706	702	701	706	713	717	712	705	703	703	698	703	712	698	693	692	696	695	687	682	685	697	704	707	706	704	703	705	705	708	705	702	707	705	702	696	689	675	675	676	672	669	668	674	678	681	685	686	686	683	680	675	673	672	676	679	685	696	694	688	685	678	678	668	664	663	673	678	680	680	675	675	674	674	675	678	678	677	667	671	669	670	678	679	685	687	685	677	679	672	674	675	671	669	669	669	686	679	674	666	665	667	672	668	667	667	657	658	661	660	670	671	674	672	662	663	660	654	645	643	641	641	640	654	658	658	658	655	656	649	647	650	642	641	649	660	665	671	670	669	658	657	657	657	649	640	639	642	660	662	649	637	637	643	641	641	642	642	641	640	635	620	624	636	636	639	633	631	623	623	632	633	629	632	634	631	632	629	624	625	631	639	636	635	634	629	626	624	622	629	633	637	634	633	628	632	630	625	623	619	621	624	622	620	619	617	613	616	619	622	619	618	617	615	618	608	608	609	603	600	606	606	599	593	603	603	594	599	611	611	617	616	617	615	617	613	610	599	593	594	593	601	603	615	616	612	609	605	601	600	602	607	611	610	605	591	592	606	606	612	612	605	605	608	605	601	599	599	598	598	597	599	598	599	594	592	593	593	590	589	595	594	593	596	603	604	608	609	605	598	595	591	590	595	601	599	600	603	602	605	606	601	590	594	591	592	599	600	601	601	595	590	588	585	583	583	589	598	599	593	583	583	585	587	594	598	602	600	599	600	594	590	587	587	593	596	597	595	592	581	581	585	580	581	580	579	575	571	566	566	570	580	581	579	577	581	581	582	588	587	586	588	576	569	573	577	578	573	576	576	576	579	579	577	577	583	582	584	581	578	574	577	575	572	573	573	572	568	566	565	558	555	557	566	573	567	565	562	569	575	581	573	567	567	573	572	570	569	569	574	575	573	571	562	559	559	558	556	561	562	564	566	568	567	563	562	560	561	563	564	572	572	563	562	563	564	567	568	566	564	562	563	562	550	544	545	550	561	571	574	569	559	558	560	562	557	557	554	551	544	548	551	551	550	557	561	551	546	546	546	545	548	547	548	552	552	552	551	549	546	559	553	551	548	544	545	548	544	546	540	544	544	543	537	535	535	538	543	551	555	554	555	544	549	548	554	550	541	542	537	537	546	543	548	552	552	552	552	556	550	544	527	524	526	532	541	541	526	523	527	527	525	524	523	528	532	543	546	544	535	536	537	534	527	527	525	523	524	539	535	542	529	529	527	538	538	534	538	538	537	535	533	528	525	526	526	532	526	531	530	530	530	530	530	529	534	0	0	0	0	0	0	0	0
722	727	727	719	719	703	704	698	712	712	718	716	711	715	716	716	701	700	698	697	693	693	698	703	703	706	710	710	716	710	712	707	710	711	711	710	705	709	706	707	707	705	702	702	701	693	693	688	685	687	691	704	704	710	712	709	703	698	696	694	699	704	706	693	691	691	692	695	695	693	676	677	685	689	693	693	686	691	700	704	700	690	689	691	705	705	699	694	696	698	688	689	678	676	666	665	661	662	664	669	673	679	683	683	682	677	673	673	673	676	677	678	679	682	683	680	680	673	667	665	662	668	671	676	677	680	675	667	662	661	664	672	675	668	659	660	663	666	669	666	666	669	668	665	666	662	662	662	663	665	666	667	664	660	662	654	660	663	662	662	668	661	663	657	655	645	644	647	645	648	653	663	660	652	644	641	640	639	637	652	655	656	653	650	641	636	638	643	640	635	637	640	659	656	643	645	639	635	633	638	637	637	636	632	628	639	636	632	634	636	636	630	626	622	621	619	617	612	618	623	633	629	630	628	620	614	613	616	624	625	626	626	624	620	618	620	621	633	635	632	630	624	623	623	618	622	623	629	626	624	626	614	615	615	617	612	615	620	621	618	615	599	601	600	604	611	611	602	597	600	599	598	599	599	587	606	598	595	587	599	602	604	603	600	599	608	613	617	620	621	617	608	600	590	588	592	596	601	604	612	611	608	605	602	595	594	596	596	611	610	598	597	597	593	597	602	602	602	608	613	609	605	597	597	596	596	594	594	592	591	590	588	590	593	591	594	592	589	590	591	594	592	599	606	602	594	591	587	586	586	593	596	605	605	603	601	586	581	583	589	589	594	597	597	596	593	590	585	582	580	578	581	588	592	592	590	585	585	586	594	591	589	590	591	595	590	588	584	586	581	583	588	592	593	584	579	588	586	580	571	571	564	560	565	565	568	574	579	580	575	576	576	577	578	582	587	585	579	562	563	570	574	576	571	573	569	571	575	577	574	572	574	577	577	578	575	564	563	564	561	565	566	565	567	567	566	565	557	558	557	559	552	556	561	566	567	571	570	567	565	567	568	566	565	565	569	569	570	568	563	560	560	558	555	557	558	565	565	562	561	556	559	555	552	547	547	554	563	567	562	562	561	561	560	561	561	557	553	556	547	544	545	550	551	556	549	562	561	562	563	563	561	551	553	548	548	548	548	554	555	547	547	544	545	539	539	538	536	537	537	547	549	549	547	546	543	541	537	543	550	549	546	542	539	538	538	542	546	545	537	534	535	536	538	544	549	557	552	548	541	546	545	546	543	542	536	536	533	543	554	553	547	540	539	544	550	530	525	521	520	524	534	534	531	525	523	520	519	513	511	511	521	530	536	533	532	532	531	527	527	525	524	521	522	524	527	534	536	522	532	534	536	537	535	533	534	531	523	530	516	520	520	525	532	531	530	527	526	526	525	529	531	0	0	0	0	0	0	0	0
717	718	722	716	716	697	697	697	700	700	700	700	703	708	706	706	697	696	689	689	688	688	692	695	700	709	716	716	712	705	701	699	705	709	704	704	699	698	698	699	698	697	694	694	695	689	667	670	680	686	689	700	705	705	706	700	679	677	676	676	675	676	678	680	681	681	681	679	677	688	689	689	691	694	696	698	688	689	688	687	678	676	677	683	683	683	684	685	680	681	681	671	669	667	662	659	657	658	662	667	670	669	667	672	676	673	672	672	672	677	675	676	674	671	668	669	671	666	661	661	664	669	679	681	681	685	681	660	647	651	652	657	652	651	649	644	651	658	660	660	644	646	647	649	654	653	657	658	660	662	663	661	655	648	646	644	648	655	655	651	649	638	636	637	634	635	638	638	642	644	642	653	654	643	640	640	636	635	637	646	650	649	649	641	633	628	632	637	639	635	635	639	633	618	618	637	639	639	637	635	636	639	637	626	622	629	630	630	632	630	627	627	620	621	620	618	615	608	605	614	621	618	625	618	628	621	607	614	617	617	619	617	616	616	615	610	609	611	611	612	614	614	621	616	618	622	616	618	622	616	617	612	609	612	612	608	613	619	618	602	600	597	595	595	600	600	607	595	596	597	596	592	594	591	592	581	581	585	594	597	596	601	600	596	594	593	594	592	613	609	609	604	591	591	589	592	598	601	601	598	592	593	592	595	595	594	599	601	597	598	602	599	596	593	587	580	577	577	590	592	590	583	570	567	573	586	590	590	591	589	586	584	590	593	594	594	586	588	593	592	589	593	589	596	596	591	590	587	586	592	596	596	599	598	590	585	579	577	578	585	585	591	597	597	594	589	585	582	580	576	576	577	581	572	581	584	586	579	588	592	592	588	585	587	590	586	579	579	578	576	577	577	564	572	574	585	584	583	578	568	561	562	566	569	566	570	578	579	579	578	571	573	576	579	581	586	582	560	559	562	566	568	566	563	563	563	564	568	572	569	569	570	572	574	573	561	556	549	553	548	554	558	562	564	566	566	558	558	555	551	548	549	555	551	546	544	546	555	560	563	561	562	563	563	562	555	553	556	556	557	558	560	558	556	549	556	558	562	555	554	554	552	551	548	546	550	551	550	547	546	546	544	544	544	560	552	549	551	545	545	543	541	545	553	552	544	547	551	555	557	556	552	555	548	543	540	542	541	547	551	544	536	536	533	533	532	532	529	531	533	538	540	542	545	543	540	537	536	528	533	530	532	536	537	540	534	535	541	544	537	531	530	532	538	545	551	546	548	552	545	542	541	541	547	545	537	530	529	533	542	530	530	525	531	528	531	524	515	515	514	515	525	528	529	530	526	519	516	509	510	517	523	529	528	528	526	524	528	528	524	521	520	521	520	526	528	528	531	529	530	531	530	529	528	528	521	521	522	526	528	526	526	531	534	533	530	526	520	520	519	523	525	0	0	0	0	0	0	0	0
714	719	711	712	712	701	702	705	700	700	694	687	690	695	697	697	687	681	676	675	675	675	683	690	695	701	704	701	701	693	689	692	692	694	694	694	694	692	695	694	693	693	691	691	668	665	667	675	683	690	690	690	697	697	697	681	675	669	668	667	666	670	676	677	679	678	678	667	672	675	694	694	692	688	683	689	687	685	671	672	670	671	668	676	678	680	680	679	678	679	671	666	663	655	656	655	654	649	649	657	667	666	662	662	665	662	662	661	661	669	669	669	669	664	662	660	658	658	655	652	646	645	647	648	652	651	661	667	654	652	651	648	648	640	640	649	655	653	648	641	642	643	645	649	648	650	653	652	654	652	652	645	637	634	632	634	641	646	639	643	642	635	632	632	636	633	636	637	640	641	635	639	644	638	629	630	630	636	636	640	643	645	635	634	631	626	628	634	637	632	635	626	616	622	619	631	636	638	635	634	637	637	636	628	621	626	628	618	616	621	616	625	620	621	619	616	618	612	610	609	607	607	612	613	614	617	616	609	611	609	609	608	598	611	613	612	608	597	596	602	607	614	615	616	618	622	613	608	614	611	614	606	614	608	606	607	613	615	604	591	591	590	590	595	587	585	580	587	593	596	595	592	591	584	585	585	585	586	588	591	594	595	595	588	588	583	579	578	580	595	602	597	596	594	596	596	598	594	593	590	587	592	593	591	592	596	596	590	596	598	595	596	597	590	584	577	571	571	582	588	584	579	572	567	569	579	586	587	587	586	586	583	588	589	589	586	587	591	592	589	588	590	589	587	587	577	584	589	586	590	595	589	591	589	583	579	576	578	579	583	584	587	587	585	589	588	582	578	575	572	574	576	575	570	571	571	579	575	572	583	583	584	581	582	571	580	576	578	577	568	565	562	559	555	562	574	576	577	573	558	562	562	568	565	566	573	579	579	580	570	569	569	576	577	573	576	564	561	559	559	563	564	562	559	561	558	561	565	570	567	566	557	562	566	563	557	548	546	549	541	541	553	551	551	551	551	541	544	544	543	542	549	552	556	557	556	541	540	548	551	553	552	543	547	546	539	542	550	553	557	555	557	554	541	540	550	552	553	545	543	547	548	547	544	544	546	551	549	546	541	541	545	544	543	543	541	535	534	537	540	543	544	541	548	535	544	542	547	548	546	542	541	540	540	536	533	536	536	547	547	542	536	535	531	529	528	525	527	529	537	532	534	548	546	545	541	533	530	525	521	518	523	532	532	536	531	529	530	533	528	525	529	532	536	545	543	542	543	543	542	536	538	539	542	550	539	532	528	523	522	526	531	530	530	530	516	513	515	508	511	511	518	522	528	529	527	520	515	510	508	512	522	524	521	519	520	520	523	523	518	524	525	519	518	526	522	520	523	525	527	524	524	521	522	521	519	523	522	522	527	527	529	532	529	523	527	520	519	519	519	521	519	0	0	0	0	0	0	0	0
702	706	701	690	690	698	700	699	696	688	688	687	689	690	688	688	678	679	672	678	675	675	680	686	691	680	681	680	680	677	682	684	684	686	687	687	688	688	684	682	689	674	672	668	656	660	666	677	681	689	689	689	690	690	685	676	666	653	652	661	661	664	671	674	668	657	657	655	661	664	686	694	692	678	673	667	671	671	667	670	673	670	671	672	673	672	672	671	671	672	662	660	657	652	650	652	651	654	659	664	667	667	665	665	662	660	658	659	658	655	654	658	657	659	656	654	650	651	650	647	644	644	646	648	650	649	658	662	669	659	644	640	637	633	634	647	647	647	643	642	634	652	655	647	645	641	643	642	643	648	646	634	633	629	632	637	640	641	633	633	634	632	633	633	636	637	636	634	633	634	633	635	630	628	630	624	628	624	624	622	616	628	631	632	628	626	626	627	629	634	619	611	612	621	629	634	637	636	633	632	635	635	632	619	624	624	622	616	615	614	615	613	615	616	617	614	618	613	607	605	606	605	604	610	609	609	616	614	607	606	604	594	597	599	605	612	600	594	598	598	603	609	601	599	618	607	606	606	605	604	599	607	610	611	611	608	601	600	599	592	588	587	588	591	587	585	585	586	588	586	584	582	581	583	585	585	583	582	584	585	584	589	583	582	579	577	578	575	575	584	589	591	590	590	596	590	579	578	579	583	588	590	594	595	596	598	591	589	590	593	596	594	591	583	580	577	572	572	573	580	574	573	570	569	568	573	582	584	586	585	584	583	583	582	581	585	585	587	584	582	587	589	583	581	573	574	576	583	583	584	585	581	580	580	577	577	575	577	579	584	586	580	577	573	571	569	560	558	562	569	573	576	575	572	574	572	578	577	579	581	583	581	574	568	571	563	562	570	566	568	567	564	561	556	558	566	570	569	569	562	562	562	559	561	562	563	574	581	573	574	574	566	564	563	555	564	561	559	559	561	564	563	561	556	559	562	561	564	568	565	562	557	554	557	556	543	538	545	545	544	544	548	537	540	537	539	539	539	533	539	542	541	552	558	559	558	541	540	542	549	549	541	543	542	541	543	534	540	541	538	539	548	547	544	528	535	537	537	537	540	542	547	546	544	540	545	547	547	545	542	546	547	552	543	536	532	532	535	536	539	541	544	543	540	535	534	533	532	532	535	538	537	529	535	535	533	533	536	542	543	536	537	533	526	525	524	523	525	526	534	530	527	532	524	518	524	532	533	531	525	520	518	518	529	532	531	529	526	523	521	522	520	522	535	537	540	540	536	523	526	525	527	529	532	536	534	527	523	521	521	521	524	526	529	519	516	515	516	511	509	510	515	519	528	529	524	519	513	509	505	508	511	521	518	514	512	510	510	514	516	523	524	517	514	513	516	513	511	519	519	514	517	518	518	520	518	516	516	521	520	520	525	528	515	513	511	519	518	519	519	513	513	0	0	0	0	0	0	0	0
692	680	674	681	692	692	693	685	681	682	682	684	682	682	680	680	670	673	676	676	667	664	664	665	672	673	671	669	669	670	675	677	677	678	681	681	683	681	678	669	664	649	651	666	666	668	664	667	669	671	679	688	686	674	674	665	651	645	647	652	655	656	650	647	654	658	658	651	648	656	665	689	685	664	664	661	661	661	665	670	681	682	669	662	661	665	671	671	663	660	660	659	655	650	650	654	662	667	667	662	663	662	659	663	664	658	656	654	650	647	648	651	656	656	653	648	644	647	646	644	643	644	645	646	645	648	652	653	654	643	634	635	641	642	642	636	629	629	632	637	650	654	644	635	628	628	629	632	635	635	631	630	631	623	624	627	629	626	626	626	626	627	634	638	638	637	634	629	624	617	615	610	620	620	624	625	617	621	623	621	616	613	613	618	627	621	623	624	624	618	613	612	612	614	629	633	636	636	613	612	611	616	615	618	623	621	620	614	611	609	609	608	609	612	614	614	611	609	608	594	598	606	598	595	610	604	599	603	603	602	592	595	600	600	597	594	595	599	597	597	597	600	599	596	598	604	604	601	600	600	600	607	604	605	609	606	596	596	596	588	585	583	582	580	573	580	586	581	580	586	584	578	581	585	586	585	580	577	578	581	580	577	578	577	576	572	571	568	573	580	585	585	578	576	574	570	568	567	568	574	583	586	590	593	594	591	590	586	589	592	582	576	581	584	579	578	577	574	573	573	569	568	566	563	560	575	578	587	586	589	584	582	581	580	579	581	580	580	578	578	582	586	582	576	574	570	566	578	582	582	582	577	577	577	577	576	572	574	578	577	579	578	569	566	561	559	559	562	567	574	577	576	575	569	571	575	569	571	573	570	565	564	563	562	562	559	561	563	562	568	568	565	561	556	554	559	564	566	566	559	553	555	555	556	555	556	559	560	554	551	553	551	548	552	554	555	559	558	558	563	563	554	551	550	549	552	550	555	563	564	562	557	555	550	548	542	543	547	548	548	548	547	543	536	535	536	536	534	534	538	536	540	542	549	551	551	543	540	544	544	546	547	536	539	539	532	531	535	536	533	532	536	539	532	537	534	534	527	530	536	540	546	546	542	539	540	539	546	543	544	546	553	539	540	538	534	529	535	536	539	539	537	535	532	536	535	533	530	530	532	532	525	524	522	532	535	536	536	541	541	534	530	526	522	519	520	519	522	523	523	527	525	528	522	516	522	523	525	524	515	521	518	519	521	528	530	528	524	522	522	518	518	519	525	530	532	533	519	517	517	519	519	520	524	529	530	525	523	522	521	519	519	519	513	512	511	515	519	517	510	509	512	514	525	527	523	518	514	510	507	506	509	517	514	512	511	511	509	509	513	515	515	513	510	511	509	508	508	510	510	511	503	510	512	515	515	512	509	509	519	519	516	520	511	508	504	502	504	505	508	504	502	0	0	0	0	0	0	0	0
684	672	664	676	676	676	669	674	676	674	674	675	673	669	669	670	663	668	670	665	659	662	662	661	666	670	668	665	665	669	669	672	665	653	659	663	663	657	649	651	649	651	659	673	673	674	672	657	658	656	656	664	666	660	660	651	647	645	644	647	651	652	648	651	656	648	645	645	642	645	654	664	662	659	660	657	656	650	655	664	676	648	649	654	656	661	656	656	652	652	654	651	653	646	649	655	656	657	658	659	657	654	651	650	642	646	646	643	641	646	652	656	660	664	665	645	641	644	642	638	640	641	643	644	642	641	644	647	640	632	627	626	631	634	633	625	623	628	631	636	643	645	630	630	633	628	629	631	632	630	628	627	627	618	620	624	627	622	620	618	622	628	631	636	633	631	634	630	626	620	608	606	608	614	618	609	607	613	615	611	614	617	617	613	613	609	612	611	608	609	614	619	615	609	606	606	607	609	606	603	604	609	607	605	614	618	614	608	605	606	603	608	604	604	610	616	614	608	594	607	610	609	599	597	591	587	584	585	593	591	589	591	595	596	594	593	592	587	590	592	594	598	598	595	593	596	591	588	581	599	599	594	599	597	595	598	598	593	592	584	584	578	574	577	574	572	582	580	580	582	577	573	571	566	570	573	570	574	576	574	575	576	575	575	575	569	562	561	576	578	582	583	575	573	572	571	569	571	574	578	576	578	574	573	572	575	574	563	575	567	568	572	577	579	579	587	584	575	572	569	565	564	563	562	562	564	568	578	588	582	579	579	577	579	575	576	570	570	570	572	576	577	580	575	563	562	563	565	565	564	560	562	572	572	573	572	568	568	569	568	567	568	569	567	565	560	564	569	571	571	573	575	571	566	569	570	571	568	560	564	566	562	560	547	554	558	561	560	555	555	560	561	559	556	551	552	552	558	561	554	547	545	550	553	555	554	552	554	555	554	553	550	552	551	554	554	557	553	547	541	542	543	544	543	541	546	547	547	556	556	554	554	552	551	545	539	543	547	551	551	548	545	539	536	537	537	537	541	539	535	540	541	544	545	550	546	543	540	540	540	539	541	540	532	530	529	528	530	532	533	531	533	529	542	536	534	534	539	539	537	536	543	535	539	535	528	535	529	531	534	534	535	535	530	534	529	529	521	523	523	525	529	534	535	534	533	531	522	520	519	521	521	523	519	516	527	529	534	535	539	522	521	520	519	514	518	519	519	521	520	522	527	527	519	517	518	521	524	521	515	516	519	520	520	525	527	526	524	522	521	519	518	519	523	524	524	520	518	516	515	517	518	523	523	523	522	526	523	523	520	517	509	510	506	507	506	513	514	517	511	507	509	510	511	513	510	509	502	502	502	503	507	511	513	511	512	512	511	513	503	504	510	509	509	508	510	504	503	507	510	502	501	502	500	513	513	509	508	507	507	508	515	510	509	504	501	496	495	504	502	501	502	502	0	0	0	0	0	0	0
675	671	663	659	657	657	662	669	674	671	671	665	654	655	659	663	657	664	663	659	662	658	658	656	656	666	665	665	665	665	668	665	655	643	644	649	649	647	641	651	658	661	670	662	662	665	664	665	666	661	657	652	652	643	643	641	646	653	654	646	649	649	647	652	657	650	646	646	640	640	640	653	657	659	658	653	649	646	638	646	636	630	636	644	646	647	645	643	643	640	645	646	641	646	647	646	650	651	653	653	651	646	642	638	631	637	641	641	635	634	646	650	651	646	643	637	629	623	623	638	640	643	644	646	649	649	647	647	628	622	619	620	626	629	623	623	625	626	629	634	635	635	618	624	628	630	631	631	632	629	625	622	622	614	619	622	624	620	617	614	618	627	630	630	627	623	629	624	618	599	606	607	602	604	605	598	588	591	601	608	612	616	620	618	609	608	607	607	605	604	611	619	616	609	603	605	605	606	604	602	602	606	607	602	595	598	608	604	600	599	595	594	594	594	605	609	608	600	593	605	608	609	603	597	584	585	590	588	584	583	584	585	586	594	593	591	584	584	592	591	589	587	589	589	591	601	590	588	576	583	583	592	592	591	593	593	594	588	590	583	581	579	564	563	574	567	571	577	579	579	578	575	574	574	575	571	571	571	574	573	571	569	566	562	565	564	564	564	567	568	568	568	571	569	567	567	569	570	569	575	574	572	569	567	562	562	569	561	556	562	564	568	574	574	575	583	581	577	575	565	565	564	562	564	564	560	558	562	575	574	571	570	569	570	571	570	570	572	573	573	569	574	574	573	564	558	562	564	564	562	559	558	558	559	563	562	558	558	563	561	562	565	568	568	567	564	558	565	564	563	565	565	569	563	552	555	548	547	548	549	550	548	548	547	546	548	555	551	551	548	550	552	554	553	547	550	544	551	550	545	542	541	544	546	552	552	551	556	555	549	549	552	553	551	553	553	556	547	539	534	538	540	541	541	541	544	541	543	549	550	549	549	552	550	545	533	540	535	537	538	539	540	534	534	536	537	537	538	536	535	538	539	540	544	537	547	539	536	536	535	537	538	541	529	529	527	527	528	529	530	531	533	538	537	533	533	538	540	539	534	531	530	526	525	524	526	527	527	527	533	535	536	534	526	528	526	521	514	518	522	524	526	525	532	532	529	526	523	519	520	522	525	537	536	524	519	518	520	524	527	519	521	522	518	518	515	511	511	517	518	520	529	529	518	516	516	519	523	521	516	513	511	516	521	523	527	527	524	514	509	511	516	520	521	515	508	510	514	510	516	516	514	518	515	517	516	519	518	518	517	514	513	505	504	502	506	507	510	507	505	506	508	508	508	507	504	499	501	488	494	503	510	512	514	511	511	503	505	507	500	499	493	499	500	505	508	501	498	495	503	499	502	499	498	502	500	499	497	495	495	496	494	493	494	503	500	498	498	501	499	499	498	498	0	0	0	0	0	0	0
