0	0	0	0	0	0	0	0	0	0	0	0	0	0	0	0	0	0	0	0	0	0	0	0	0	0	0	0	0	0	0	0	0	0	0	0	0	0	0	0	0	0	0	0	0	0	0	0	0	0	0	0	0	0	0	0	0	0	0	0	0	0	0	0	0	0	0	0	0	0	0	0	0	0	0	0	0	0	0	0	0	0	0	0	0	0	0	0	0	0	0	0	0	0	0	0	0	0	0	0	0	0	0	0	0	0	0	0	0	0	0	0	0	0	0	0	0	0	0	0	0	0	0	0	0	0	0	0	0	0	0	0	0	0	0	0	0	0	0	0	0	0	0	0	0	0	0	0	0	0	0	0	0	0	0	0	0	0	0	0	0	0	0	0	0	0	0	0	0	0	0	0	0	0	0	0	0	0	0	0	0	0	0	0	0	0	0	0	0	0	0	0	0	0	0	0	0	0	0	0	0	0	0	0	0	0	0	0	0	0	0	0	0	0	0	0	0	0	0	0	0	0	0	0	0	0	0	0	0	0	0	0	0	0	0	0	0	0	0	0	0	0	0	0	0	0	0	0	0	0	0	0	0	0	0	0	0	0	0	0	0	0	0	0	0	0	0	0	0	0	0	0	0	0	0	0	0	0	0	0	0	0	0	0	0	0	0	0	0	0	0	0	0	0	0	0	0	0	0	0	0	0	0	0	0	0	0	0	0	0	0	0	0	0	0	0	0	0	0	0	0	0	0	0	0	0	1409	1482	1655	1655	1644	1629	1617	1592	1559	1578	1574	1574	1564	1550	1557	1545	1561	1572	1578	1563	1577	1602	1603	1603	1605	1614	1617	1621	1620	1614	1608	1600	1604	1616	1621	1615	1623	1625	1621	1610	1611	1624	1631	1636	1621	1623	1618	1613	1611	1612	1624	1632	1635	1639	1638	1636	1626	1627	1639	1650	1667	1663	1662	1657	1643	1641	1647	1645	1657	1659	1655	1640	1636	1627	1630	1663	1665	1662	1663	1669	1663	1641	1632	1633	1640	1641	1638	1632	1646	1660	1658	1664	1662	1634	1630	1645	1659	1654	1652	1651	1648	1662	1680	1694	1709	1701	1702	1704	1698	1703	1726	1738	1737	1744	0	0	0	0	0	0	0	0	0	0	0	0	0	0	2783	2877	2907	2932	2988	2999	2963	2815	0	0	0	0	0	0	0	0	2737	2778	2848	2841	2859	2828	2810	2798	2792	2780	2787	2784	2779	2777	2769	2781	2807	2827	2803	2778	2752	2721	2716	2752	2776	2794	2764	2744	2735	2714	2726	2737	2751	2763	2750	2722	2688	2656	2650	2668	2710	2736	2746	2735	2719	2689	2661	2584	2589	2584	2576	2528	2505	2514	2531	2511	2483	2472	2487	2505	2533	2559	2556	2606	2652	2651	2633	2623	2601	2566	2537	2484	2347	2245	2209	2175	2160	2143	2131	2136	2113	2105	2111	2108	2092	2082	2066	2069	2081	2082	2064	2047	2029	2016	2009	1996	2000	1971	1949	1963	1975	1977	1955	1925	1949	1961	1949	1942	1954	1951	1945	1938	1928	1920	1911	1910	1910	1902	1871	1845	1831	1821	1832	1852	1869	1886	1882	1877	1865	1855	1851	1851	1846	1831	1809	1789	1781	1783	1783	1786	1782	1774	1762	1752	1741	1727	1717	1702	1704	1705	1700	1695	1697	1707	1701	1701	1703	1717	1729	1723	1702	1684	0	0	0	0	0	0	0	0
0	0	0	0	0	0	0	0	0	0	0	0	0	0	0	0	0	0	0	0	0	0	0	0	0	0	0	0	0	0	0	0	0	0	0	0	0	0	0	0	0	0	0	0	0	0	0	0	0	0	0	0	0	0	0	0	0	0	0	0	0	0	0	0	0	0	0	0	0	0	0	0	0	0	0	0	0	0	0	0	0	0	0	0	0	0	0	0	0	0	0	0	0	0	0	0	0	0	0	0	0	0	0	0	0	0	0	0	0	0	0	0	0	0	0	0	0	0	0	0	0	0	0	0	0	0	0	0	0	0	0	0	0	0	0	0	0	0	0	0	0	0	0	0	0	0	0	0	0	0	0	0	0	0	0	0	0	0	0	0	0	0	0	0	0	0	0	0	0	0	0	0	0	0	0	0	0	0	0	0	0	0	0	0	0	0	0	0	0	0	0	0	0	0	0	0	0	0	0	0	0	0	0	0	0	0	0	0	0	0	0	0	0	0	0	0	0	0	0	0	0	0	0	0	0	0	0	0	0	0	0	0	0	0	0	0	0	0	0	0	0	0	0	0	0	0	0	0	0	0	0	0	0	0	0	0	0	0	0	0	0	0	0	0	0	0	0	0	0	0	0	0	0	0	0	0	0	0	0	0	0	0	0	0	0	0	0	0	0	0	0	0	0	0	0	0	0	0	0	0	0	0	0	0	0	0	0	0	0	0	0	0	0	0	0	0	0	0	0	0	0	0	0	0	0	1355	1427	1514	1643	1681	1664	1654	1698	1614	1588	1583	1602	1608	1571	1548	1550	1550	1568	1581	1568	1581	1579	1589	1596	1599	1600	1613	1617	1625	1626	1631	1613	1609	1611	1627	1646	1654	1623	1621	1617	1612	1611	1619	1637	1642	1628	1628	1615	1618	1614	1616	1615	1622	1629	1635	1637	1635	1630	1638	1653	1668	1681	1677	1671	1668	1660	1641	1645	1656	1671	1667	1655	1642	1637	1632	1635	1666	1670	1667	1674	1676	1670	1652	1643	1639	1653	1673	1670	1670	1670	1666	1661	1656	1662	1653	1631	1640	1648	1649	1647	1649	1650	1657	1671	1685	1693	1687	1689	1693	1697	1700	1710	1700	1688	1675	0	0	0	0	0	0	0	0	0	0	0	0	2668	2827	2917	2952	2960	2988	3015	3035	3060	2897	0	0	0	0	0	0	0	2674	2716	2772	2812	2782	2780	2767	2778	2779	2773	2783	2813	2805	2788	2775	2753	2751	2771	2804	2794	2780	2745	2730	2731	2766	2782	2794	2769	2750	2743	2759	2774	2753	2734	2738	2739	2713	2690	2657	2640	2668	2710	2725	2706	2692	2679	2667	2629	2568	2572	2574	2559	2515	2502	2519	2535	2538	2506	2481	2495	2513	2543	2559	2549	2597	2660	2652	2650	2666	2648	2615	2583	2529	2353	2217	2208	2201	2175	2144	2117	2107	2094	2087	2094	2093	2080	2061	2054	2061	2067	2066	2054	2040	2027	2026	2012	1998	1999	1999	1981	1971	1973	1968	1963	1939	1963	1974	1966	1953	1951	1949	1937	1921	1917	1913	1907	1909	1904	1898	1868	1852	1839	1825	1825	1836	1859	1883	1888	1878	1859	1845	1842	1842	1842	1831	1815	1793	1789	1779	1776	1776	1778	1779	1771	1753	1739	1719	1701	1698	1705	1724	1718	1714	1707	1701	1698	1706	1706	1723	1733	1727	1703	1689	0	0	0	0	0	0	0	0
0	0	0	0	0	0	0	0	0	0	0	0	0	0	0	0	0	0	0	0	0	0	0	0	0	0	0	0	0	0	0	0	0	0	0	0	0	0	0	0	0	0	0	0	0	0	0	0	0	0	0	0	0	0	0	0	0	0	0	0	0	0	0	0	0	0	0	0	0	0	0	0	0	0	0	0	0	0	0	0	0	0	0	0	0	0	0	0	0	0	0	0	0	0	0	0	0	0	0	0	0	0	0	0	0	0	0	0	0	0	0	0	0	0	0	0	0	0	0	0	0	0	0	0	0	0	0	0	0	0	0	0	0	0	0	0	0	0	0	0	0	0	0	0	0	0	0	0	0	0	0	0	0	0	0	0	0	0	0	0	0	0	0	0	0	0	0	0	0	0	0	0	0	0	0	0	0	0	0	0	0	0	0	0	0	0	0	0	0	0	0	0	0	0	0	0	0	0	0	0	0	0	0	0	0	0	0	0	0	0	0	0	0	0	0	0	0	0	0	0	0	0	0	0	0	0	0	0	0	0	0	0	0	0	0	0	0	0	0	0	0	0	0	0	0	0	0	0	0	0	0	0	0	0	0	0	0	0	0	0	0	0	0	0	0	0	0	0	0	0	0	0	0	0	0	0	0	0	0	0	0	0	0	0	0	0	0	0	0	0	0	0	0	0	0	0	0	0	0	0	0	0	0	0	0	0	0	0	0	0	0	0	0	0	0	0	0	0	0	0	0	0	0	0	0	0	1432	1501	1608	1680	1713	1755	1716	1659	1610	1593	1610	1616	1608	1563	1576	1564	1570	1588	1594	1586	1581	1567	1584	1596	1603	1616	1612	1603	1596	1594	1612	1622	1625	1641	1656	1658	1649	1642	1629	1622	1614	1613	1627	1639	1640	1626	1628	1621	1620	1618	1611	1617	1623	1634	1644	1649	1649	1656	1664	1676	1680	1678	1671	1667	1669	1670	1651	1670	1676	1674	1660	1656	1641	1637	1650	1661	1664	1665	1673	1676	1663	1663	1656	1653	1661	1665	1657	1670	1668	1662	1654	1658	1660	1638	1621	1624	1629	1641	1646	1650	1656	1672	1678	1683	1687	1689	1695	1685	1700	1695	1692	1687	1673	1642	0	0	0	0	0	0	0	0	0	0	0	2427	2831	2952	3006	3016	2995	3011	3049	3052	3091	3047	2770	0	0	0	0	0	2600	2646	2700	2751	2796	2743	2733	2731	2740	2759	2768	2790	2814	2832	2826	2786	2747	2716	2726	2775	2791	2773	2738	2717	2728	2756	2776	2783	2773	2747	2736	2764	2790	2772	2719	2737	2754	2744	2720	2679	2657	2676	2706	2704	2682	2664	2663	2660	2637	2562	2552	2561	2553	2534	2508	2527	2560	2559	2541	2503	2505	2522	2543	2558	2588	2629	2674	2696	2710	2721	2716	2671	2679	2622	2370	2231	2209	2192	2141	2112	2089	2076	2078	2082	2091	2086	2060	2040	2038	2054	2057	2057	2058	2058	2053	2034	2023	1994	1994	1996	1991	1992	1991	1981	1978	1963	1972	1991	1986	1959	1949	1938	1929	1917	1916	1916	1914	1907	1903	1899	1883	1873	1861	1843	1830	1834	1855	1880	1892	1880	1859	1843	1837	1831	1831	1825	1814	1802	1795	1783	1778	1780	1783	1778	1769	1748	1738	1721	1714	1740	1739	1735	1729	1716	1708	1699	1698	1706	1706	1727	1725	1708	1694	1679	0	0	0	0	0	0	0	0
0	0	0	0	0	0	0	0	0	0	0	0	0	0	0	0	0	0	0	0	0	0	0	0	0	0	0	0	0	0	0	0	0	0	0	0	0	0	0	0	0	0	0	0	0	0	0	0	0	0	0	0	0	0	0	0	0	0	0	0	0	0	0	0	0	0	0	0	0	0	0	0	0	0	0	0	0	0	0	0	0	0	0	0	0	0	0	0	0	0	0	0	0	0	0	0	0	0	0	0	0	0	0	0	0	0	0	0	0	0	0	0	0	0	0	0	0	0	0	0	0	0	0	0	0	0	0	0	0	0	0	0	0	0	0	0	0	0	0	0	0	0	0	0	0	0	0	0	0	0	0	0	0	0	0	0	0	0	0	0	0	0	0	0	0	0	0	0	0	0	0	0	0	0	0	0	0	0	0	0	0	0	0	0	0	0	0	0	0	0	0	0	0	0	0	0	0	0	0	0	0	0	0	0	0	0	0	0	0	0	0	0	0	0	0	0	0	0	0	0	0	0	0	0	0	0	0	0	0	0	0	0	0	0	0	0	0	0	0	0	0	0	0	0	0	0	0	0	0	0	0	0	0	0	0	0	0	0	0	0	0	0	0	0	0	0	0	0	0	0	0	0	0	0	0	0	0	0	0	0	0	0	0	0	0	0	0	0	0	0	0	0	0	0	0	0	0	0	0	0	0	0	0	0	0	0	0	0	0	0	0	0	0	0	0	0	0	0	0	0	0	0	0	0	0	0	1412	1481	1575	1676	1777	1761	1724	1685	1609	1583	1618	1612	1613	1568	1562	1576	1565	1586	1595	1585	1569	1561	1583	1598	1617	1620	1611	1593	1584	1585	1604	1614	1626	1630	1624	1630	1641	1634	1633	1618	1598	1604	1604	1603	1632	1635	1625	1625	1618	1616	1619	1618	1617	1619	1624	1642	1653	1661	1664	1670	1675	1669	1664	1666	1664	1664	1655	1673	1679	1678	1665	1657	1650	1652	1654	1659	1655	1655	1661	1664	1662	1660	1667	1664	1663	1657	1665	1672	1672	1665	1655	1650	1654	1635	1629	1632	1634	1638	1642	1656	1669	1684	1688	1686	1703	1706	1710	1710	1697	1700	1709	1685	1657	1569	0	0	0	0	0	0	0	0	0	0	2065	2629	2809	2989	3036	3054	3031	3031	3056	3073	3094	3095	2977	2792	0	0	0	2702	2683	2654	2691	2727	2764	2769	2729	2736	2738	2740	2761	2767	2783	2810	2816	2790	2751	2707	2712	2749	2802	2768	2733	2710	2702	2722	2754	2779	2776	2760	2741	2750	2762	2741	2723	2739	2771	2757	2743	2740	2741	2733	2713	2686	2658	2649	2664	2676	2657	2553	2531	2546	2553	2550	2543	2543	2558	2574	2550	2529	2529	2535	2534	2553	2614	2641	2674	2738	2745	2786	2784	2776	2741	2675	2413	2238	2207	2174	2140	2087	2085	2082	2082	2090	2093	2087	2068	2039	2027	2039	2045	2050	2066	2062	2056	2052	2025	1986	1983	1985	1982	1986	1995	1998	1993	1979	1985	2006	1997	1983	1963	1938	1911	1910	1925	1925	1925	1930	1914	1909	1907	1892	1874	1861	1839	1842	1854	1875	1883	1873	1859	1846	1841	1834	1826	1826	1818	1809	1805	1796	1789	1786	1785	1779	1768	1748	1739	1748	1752	1752	1746	1727	1718	1711	1709	1705	1710	1709	1709	1711	1705	1694	1679	1670	0	0	0	0	0	0	0	0
0	0	0	0	0	0	0	0	0	0	0	0	0	0	0	0	0	0	0	0	0	0	0	0	0	0	0	0	0	0	0	0	0	0	0	0	0	0	0	0	0	0	0	0	0	0	0	0	0	0	0	0	0	0	0	0	0	0	0	0	0	0	0	0	0	0	0	0	0	0	0	0	0	0	0	0	0	0	0	0	0	0	0	0	0	0	0	0	0	0	0	0	0	0	0	0	0	0	0	0	0	0	0	0	0	0	0	0	0	0	0	0	0	0	0	0	0	0	0	0	0	0	0	0	0	0	0	0	0	0	0	0	0	0	0	0	0	0	0	0	0	0	0	0	0	0	0	0	0	0	0	0	0	0	0	0	0	0	0	0	0	0	0	0	0	0	0	0	0	0	0	0	0	0	0	0	0	0	0	0	0	0	0	0	0	0	0	0	0	0	0	0	0	0	0	0	0	0	0	0	0	0	0	0	0	0	0	0	0	0	0	0	0	0	0	0	0	0	0	0	0	0	0	0	0	0	0	0	0	0	0	0	0	0	0	0	0	0	0	0	0	0	0	0	0	0	0	0	0	0	0	0	0	0	0	0	0	0	0	0	0	0	0	0	0	0	0	0	0	0	0	0	0	0	0	0	0	0	0	0	0	0	0	0	0	0	0	0	0	0	0	0	0	0	0	0	0	0	0	0	0	0	0	0	0	0	0	0	0	0	0	0	0	0	0	0	0	0	0	0	0	0	0	0	0	0	1437	1463	1568	1676	1754	1758	1719	1692	1651	1615	1582	1619	1612	1592	1574	1582	1591	1587	1589	1568	1570	1558	1581	1598	1610	1617	1611	1599	1593	1593	1609	1615	1620	1628	1617	1623	1640	1644	1634	1616	1603	1602	1599	1603	1631	1635	1631	1624	1622	1609	1610	1614	1615	1612	1616	1640	1649	1658	1663	1668	1665	1662	1652	1649	1658	1658	1663	1676	1678	1681	1676	1663	1646	1649	1656	1648	1644	1641	1653	1672	1669	1676	1671	1664	1657	1671	1684	1688	1684	1669	1644	1643	1633	1625	1631	1638	1641	1639	1645	1663	1680	1689	1689	1712	1720	1712	1715	1705	1709	1709	1725	1715	1710	1557	0	0	0	0	0	0	0	0	0	0	2019	2596	2922	2989	3045	3057	3036	3041	3056	3070	3089	3099	3029	2904	2780	2771	2777	2782	2756	2722	2707	2712	2746	2799	2799	2761	2756	2754	2760	2754	2768	2793	2816	2809	2774	2725	2716	2749	2775	2735	2702	2684	2684	2694	2725	2757	2780	2767	2753	2742	2729	2711	2713	2756	2782	2754	2718	2741	2750	2750	2714	2678	2645	2643	2651	2653	2634	2533	2516	2528	2569	2566	2570	2560	2555	2548	2545	2545	2547	2538	2521	2516	2613	2627	2658	2740	2772	2787	2797	2782	2733	2691	2366	2250	2206	2170	2122	2100	2095	2101	2101	2097	2099	2083	2070	2039	2021	2016	2029	2049	2057	2054	2051	2048	2013	1988	1983	1973	1962	1971	1979	1986	1987	1969	1972	2000	2006	1998	1980	1949	1917	1913	1926	1929	1930	1937	1929	1909	1901	1894	1876	1862	1854	1853	1860	1872	1871	1861	1847	1844	1844	1846	1836	1836	1832	1817	1815	1813	1801	1790	1783	1775	1763	1763	1755	1757	1750	1750	1740	1721	1705	1709	1708	1707	1713	1708	1708	1702	1689	1676	1665	1664	0	0	0	0	0	0	0	0
0	0	0	0	0	0	0	0	0	0	0	0	0	0	0	0	0	0	0	0	0	0	0	0	0	0	0	0	0	0	0	0	0	0	0	0	0	0	0	0	0	0	0	0	0	0	0	0	0	0	0	0	0	0	0	0	0	0	0	0	0	0	0	0	0	0	0	0	0	0	0	0	0	0	0	0	0	0	0	0	0	0	0	0	0	0	0	0	0	0	0	0	0	0	0	0	0	0	0	0	0	0	0	0	0	0	0	0	0	0	0	0	0	0	0	0	0	0	0	0	0	0	0	0	0	0	0	0	0	0	0	0	0	0	0	0	0	0	0	0	0	0	0	0	0	0	0	0	0	0	0	0	0	0	0	0	0	0	0	0	0	0	0	0	0	0	0	0	0	0	0	0	0	0	0	0	0	0	0	0	0	0	0	0	0	0	0	0	0	0	0	0	0	0	0	0	0	0	0	0	0	0	0	0	0	0	0	0	0	0	0	0	0	0	0	0	0	0	0	0	0	0	0	0	0	0	0	0	0	0	0	0	0	0	0	0	0	0	0	0	0	0	0	0	0	0	0	0	0	0	0	0	0	0	0	0	0	0	0	0	0	0	0	0	0	0	0	0	0	0	0	0	0	0	0	0	0	0	0	0	0	0	0	0	0	0	0	0	0	0	0	0	0	0	0	0	0	0	0	0	0	0	0	0	0	0	0	0	0	0	0	0	0	0	0	0	0	0	0	0	0	0	0	0	0	0	1457	1494	1526	1663	1696	1743	1715	1685	1655	1627	1618	1600	1494	1455	1450	1518	1530	1524	1513	1516	1539	1574	1586	1599	1605	1612	1610	1606	1603	1602	1609	1617	1621	1626	1628	1634	1643	1646	1634	1626	1623	1616	1610	1606	1608	1618	1629	1624	1611	1603	1604	1612	1612	1614	1616	1620	1635	1650	1667	1667	1666	1638	1628	1625	1623	1634	1662	1679	1684	1678	1660	1654	1643	1654	1645	1655	1641	1635	1656	1669	1694	1684	1679	1667	1669	1690	1703	1705	1704	1657	1625	1624	1637	1647	1649	1645	1642	1638	1654	1678	1696	1706	1710	1720	1711	1675	1677	1686	1701	1718	1707	1676	1618	0	0	0	0	0	0	0	0	0	0	0	1963	2583	2926	3004	3048	3037	3022	3038	3058	3085	3095	3110	3088	2971	2847	2781	2774	2801	2792	2749	2710	2728	2781	2854	2851	2816	2799	2781	2758	2763	2761	2804	2821	2823	2796	2774	2804	2834	2776	2706	2652	2614	2623	2652	2683	2717	2720	2713	2716	2722	2692	2676	2691	2748	2727	2652	2674	2705	2735	2726	2696	2650	2630	2620	2630	2609	2590	2512	2500	2525	2561	2580	2575	2558	2529	2526	2518	2510	2512	2509	2505	2510	2546	2618	2649	2728	2761	2776	2781	2769	2726	2675	2404	2246	2200	2156	2121	2102	2105	2117	2122	2105	2092	2081	2068	2056	2038	2033	2031	2038	2044	2052	2053	2048	2016	1994	1982	1980	1984	1980	1979	1974	1974	1963	1959	1983	2000	1985	1980	1961	1942	1922	1919	1924	1937	1927	1925	1921	1900	1893	1876	1863	1871	1876	1874	1873	1864	1851	1841	1842	1854	1865	1865	1856	1856	1842	1837	1825	1809	1777	1749	1745	1749	1752	1755	1754	1742	1736	1736	1736	1729	1709	1693	1690	1695	1697	1692	1692	1677	1654	1643	1644	0	0	0	0	0	0	0	0
0	0	0	0	0	0	0	0	0	0	0	0	0	0	0	0	0	0	0	0	0	0	0	0	0	0	0	0	0	0	0	0	0	0	0	0	0	0	0	0	0	0	0	0	0	0	0	0	0	0	0	0	0	0	0	0	0	0	0	0	0	0	0	0	0	0	0	0	0	0	0	0	0	0	0	0	0	0	0	0	0	0	0	0	0	0	0	0	0	0	0	0	0	0	0	0	0	0	0	0	0	0	0	0	0	0	0	0	0	0	0	0	0	0	0	0	0	0	0	0	0	0	0	0	0	0	0	0	0	0	0	0	0	0	0	0	0	0	0	0	0	0	0	0	0	0	0	0	0	0	0	0	0	0	0	0	0	0	0	0	0	0	0	0	0	0	0	0	0	0	0	0	0	0	0	0	0	0	0	0	0	0	0	0	0	0	0	0	0	0	0	0	0	0	0	0	0	0	0	0	0	0	0	0	0	0	0	0	0	0	0	0	0	0	0	0	0	0	0	0	0	0	0	0	0	0	0	0	0	0	0	0	0	0	0	0	0	0	0	0	0	0	0	0	0	0	0	0	0	0	0	0	0	0	0	0	0	0	0	0	0	0	0	0	0	0	0	0	0	0	0	0	0	0	0	0	0	0	0	0	0	0	0	0	0	0	0	0	0	0	0	0	0	0	0	0	0	0	0	0	0	0	0	0	0	0	0	0	0	0	0	0	0	0	0	0	0	0	0	0	0	0	0	0	0	0	1419	1512	1564	1659	1646	1644	1688	1671	1644	1553	1473	1405	1403	1389	1368	1351	1374	1395	1382	1423	1582	1541	1589	1601	1599	1611	1612	1611	1599	1602	1610	1626	1627	1629	1630	1634	1645	1651	1646	1644	1642	1637	1619	1606	1605	1606	1614	1612	1618	1612	1614	1616	1617	1643	1639	1640	1650	1663	1658	1657	1647	1614	1604	1601	1605	1619	1640	1654	1664	1661	1653	1649	1646	1641	1649	1683	1683	1658	1656	1657	1677	1680	1665	1637	1640	1653	1668	1678	1687	1674	1656	1647	1646	1644	1643	1641	1641	1643	1646	1666	1673	1675	1672	1660	1647	1647	1653	1668	1695	1714	1698	1695	1647	0	0	0	0	0	0	0	0	0	0	0	1982	2543	2910	2999	3019	3010	2978	3006	3058	3102	3117	3115	3090	3022	2856	2754	2755	2768	2763	2726	2726	2757	2833	2884	2882	2852	2825	2789	2760	2742	2745	2776	2803	2820	2785	2779	2784	2822	2764	2690	2607	2556	2511	2493	2491	2406	2380	2304	2281	2241	2222	2202	2212	2333	2400	2540	2597	2666	2698	2680	2656	2631	2632	2612	2622	2589	2566	2519	2517	2544	2568	2583	2566	2533	2510	2494	2480	2484	2498	2498	2500	2501	2532	2573	2639	2729	2752	2781	2781	2756	2704	2647	2421	2254	2198	2148	2124	2116	2119	2118	2114	2101	2088	2072	2059	2050	2040	2033	2030	2027	2026	2039	2049	2047	2011	1995	1987	1999	1999	1994	1989	1975	1967	1946	1943	1965	1985	1979	1971	1964	1950	1932	1928	1928	1918	1914	1910	1911	1896	1881	1880	1885	1887	1891	1890	1884	1867	1850	1838	1845	1860	1867	1859	1846	1846	1828	1831	1821	1817	1793	1766	1754	1758	1764	1761	1747	1737	1740	1742	1751	1751	1741	1721	1704	1692	1681	1681	1681	1670	1660	1638	1636	0	0	0	0	0	0	0	0
0	0	0	0	0	0	0	0	0	0	0	0	0	0	0	0	0	0	0	0	0	0	0	0	0	0	0	0	0	0	0	0	0	0	0	0	0	0	0	0	0	0	0	0	0	0	0	0	0	0	0	0	0	0	0	0	0	0	0	0	0	0	0	0	0	0	0	0	0	0	0	0	0	0	0	0	0	0	0	0	0	0	0	0	0	0	0	0	0	0	0	0	0	0	0	0	0	0	0	0	0	0	0	0	0	0	0	0	0	0	0	0	0	0	0	0	0	0	0	0	0	0	0	0	0	0	0	0	0	0	0	0	0	0	0	0	0	0	0	0	0	0	0	0	0	0	0	0	0	0	0	0	0	0	0	0	0	0	0	0	0	0	0	0	0	0	0	0	0	0	0	0	0	0	0	0	0	0	0	0	0	0	0	0	0	0	0	0	0	0	0	0	0	0	0	0	0	0	0	0	0	0	0	0	0	0	0	0	0	0	0	0	0	0	0	0	0	0	0	0	0	0	0	0	0	0	0	0	0	0	0	0	0	0	0	0	0	0	0	0	0	0	0	0	0	0	0	0	0	0	0	0	0	0	0	0	0	0	0	0	0	0	0	0	0	0	0	0	0	0	0	0	0	0	0	0	0	0	0	0	0	0	0	0	0	0	0	0	0	0	0	0	0	0	0	0	0	0	0	0	0	0	0	0	0	0	0	0	0	0	0	0	0	0	0	0	0	0	0	0	0	0	0	0	0	0	0	1533	1512	1613	1579	1561	1547	1578	1513	1373	1302	1274	1304	1317	1308	1282	1300	1329	1341	1358	1459	1587	1579	1581	1597	1612	1613	1613	1605	1610	1608	1607	1606	1629	1628	1635	1641	1648	1653	1653	1657	1644	1625	1607	1595	1596	1603	1620	1623	1646	1647	1642	1659	1659	1649	1644	1648	1649	1647	1641	1628	1604	1590	1597	1616	1625	1634	1639	1636	1633	1627	1625	1631	1637	1651	1648	1652	1658	1651	1639	1630	1622	1621	1621	1627	1642	1650	1636	1633	1633	1632	1637	1647	1652	1650	1653	1647	1662	1669	1671	1690	1672	1653	1634	1623	1622	1627	1644	1705	1764	1718	1615	0	0	0	0	0	0	0	0	0	0	0	0	2021	2540	2862	2958	2959	2947	2914	2963	3042	3102	3119	3103	3053	2990	2817	2677	2670	2680	2674	2688	2701	2775	2871	2906	2873	2843	2804	2764	2706	2646	2593	2582	2568	2536	2449	2402	2341	2169	2151	2132	2080	2012	1976	1936	1850	1762	1699	1698	1687	1668	1644	1646	1701	2026	2293	2394	2558	2625	2648	2642	2608	2609	2630	2645	2626	2614	2579	2537	2542	2558	2579	2582	2562	2527	2491	2463	2458	2472	2495	2501	2498	2489	2500	2568	2642	2743	2784	2793	2780	2745	2703	2629	2429	2261	2202	2156	2129	2122	2117	2113	2116	2106	2098	2078	2057	2036	2022	2016	2019	2025	2026	2023	2033	2049	2014	1991	1986	2013	2012	2014	2006	1987	1972	1956	1926	1958	1978	1970	1959	1951	1944	1933	1923	1911	1901	1894	1882	1878	1880	1876	1880	1884	1892	1894	1893	1884	1873	1852	1836	1848	1862	1868	1855	1839	1827	1827	1805	1806	1799	1790	1774	1760	1762	1761	1754	1747	1744	1744	1747	1752	1743	1730	1720	1702	1689	1674	1673	1673	1670	1661	1645	1642	0	0	0	0	0	0	0	0
0	0	0	0	0	0	0	0	0	0	0	0	0	0	0	0	0	0	0	0	0	0	0	0	0	0	0	0	0	0	0	0	0	0	0	0	0	0	0	0	0	0	0	0	0	0	0	0	0	0	0	0	0	0	0	0	0	0	0	0	0	0	0	0	0	0	0	0	0	0	0	0	0	0	0	0	0	0	0	0	0	0	0	0	0	0	0	0	0	0	0	0	0	0	0	0	0	0	0	0	0	0	0	0	0	0	0	0	0	0	0	0	0	0	0	0	0	0	0	0	0	0	0	0	0	0	0	0	0	0	0	0	0	0	0	0	0	0	0	0	0	0	0	0	0	0	0	0	0	0	0	0	0	0	0	0	0	0	0	0	0	0	0	0	0	0	0	0	0	0	0	0	0	0	0	0	0	0	0	0	0	0	0	0	0	0	0	0	0	0	0	0	0	0	0	0	0	0	0	0	0	0	0	0	0	0	0	0	0	0	0	0	0	0	0	0	0	0	0	0	0	0	0	0	0	0	0	0	0	0	0	0	0	0	0	0	0	0	0	0	0	0	0	0	0	0	0	0	0	0	0	0	0	0	0	0	0	0	0	0	0	0	0	0	0	0	0	0	0	0	0	0	0	0	0	0	0	0	0	0	0	0	0	0	0	0	0	0	0	0	0	0	0	0	0	0	0	0	0	0	0	0	0	0	0	0	0	0	0	0	0	0	0	0	0	0	0	0	0	0	0	0	0	0	0	0	0	1469	1354	1535	1523	1493	1478	1422	1157	1185	1191	1222	1219	0	0	1214	1254	1330	1380	1390	1390	1516	1546	1541	1591	1613	1615	1618	1614	1609	1603	1600	1604	1606	1620	1634	1636	1645	1655	1658	1657	1661	1652	1607	1578	1583	1596	1612	1626	1653	1657	1675	1669	1662	1663	1669	1665	1649	1624	1627	1628	1630	1633	1634	1632	1623	1619	1620	1617	1609	1603	1607	1619	1631	1638	1646	1652	1663	1663	1657	1648	1644	1627	1623	1627	1657	1643	1644	1655	1658	1657	1651	1651	1650	1658	1664	1658	1676	1677	1688	1688	1695	1677	1637	1583	1562	1612	1656	1658	1614	1453	1439	1469	0	0	0	0	0	0	0	0	0	1717	2195	2345	2628	2761	2828	2869	2878	2831	2878	2998	3073	3099	3037	2952	2888	2822	2638	2442	2402	2347	2214	2156	2147	2112	1993	1960	1935	1924	1907	1867	1821	1783	1775	1785	1785	1755	1698	1615	1594	1650	1668	1652	1597	1567	1542	1523	1502	1490	1491	1489	1476	1447	1463	1536	1721	1960	2373	2524	2602	2631	2627	2618	2623	2644	2654	2655	2634	2611	2582	2579	2582	2587	2592	2572	2545	2500	2457	2442	2459	2492	2506	2506	2485	2502	2569	2644	2746	2783	2794	2779	2750	2712	2625	2487	2272	2218	2169	2135	2120	2106	2093	2121	2120	2105	2089	2059	2034	2010	2003	2012	2012	2030	2040	2046	2047	2011	1983	1991	2023	2033	2029	2016	2000	1983	1952	1950	1988	1977	1966	1955	1942	1932	1924	1917	1909	1894	1889	1885	1881	1878	1865	1865	1862	1858	1858	1871	1886	1882	1872	1877	1877	1873	1856	1831	1819	1804	1804	1798	1798	1799	1795	1789	1775	1763	1762	1755	1749	1750	1751	1750	1745	1729	1713	1707	1692	1680	1672	1672	1672	1674	1671	1664	1653	0	0	0	0	0	0	0	0
0	0	0	0	0	0	0	0	0	0	0	0	0	0	0	0	0	0	0	0	0	0	0	0	0	0	0	0	0	0	0	0	0	0	0	0	0	0	0	0	0	0	0	0	0	0	0	0	0	0	0	0	0	0	0	0	0	0	0	0	0	0	0	0	0	0	0	0	0	0	0	0	0	0	0	0	0	0	0	0	0	0	0	0	0	0	0	0	0	0	0	0	0	0	0	0	0	0	0	0	0	0	0	0	0	0	0	0	0	0	0	0	0	0	0	0	0	0	0	0	0	0	0	0	0	0	0	0	0	0	0	0	0	0	0	0	0	0	0	0	0	0	0	0	0	0	0	0	0	0	0	0	0	0	0	0	0	0	0	0	0	0	0	0	0	0	0	0	0	0	0	0	0	0	0	0	0	0	0	0	0	0	0	0	0	0	0	0	0	0	0	0	0	0	0	0	0	0	0	0	0	0	0	0	0	0	0	0	0	0	0	0	0	0	0	0	0	0	0	0	0	0	0	0	0	0	0	0	0	0	0	0	0	0	0	0	0	0	0	0	0	0	0	0	0	0	0	0	0	0	0	0	0	0	0	0	0	0	0	0	0	0	0	0	0	0	0	0	0	0	0	0	0	0	0	0	0	0	0	0	0	0	0	0	0	0	0	0	0	0	0	0	0	0	0	0	0	0	0	0	0	0	0	0	0	0	0	0	0	0	0	0	0	0	0	0	0	0	0	0	0	0	0	0	0	0	1313	1296	1250	1143	1080	1023	989	1019	1067	1071	1099	1131	1164	0	0	0	1203	1301	1370	1391	1385	1382	1453	1523	1590	1595	1623	1622	1612	1601	1597	1588	1587	1602	1606	1602	1611	1645	1651	1652	1635	1636	1620	1592	1593	1595	1602	1616	1631	1640	1666	1658	1658	1646	1643	1639	1628	1621	1609	1623	1621	1626	1626	1634	1629	1623	1621	1628	1628	1614	1608	1611	1623	1636	1644	1650	1659	1670	1671	1663	1661	1656	1646	1639	1649	1654	1648	1655	1652	1651	1654	1667	1676	1674	1687	1669	1647	1614	1627	1659	1643	1610	1680	1613	1558	1543	1550	1534	1545	1557	1414	1415	1414	1392	1362	1366	1395	1436	1463	1489	1460	1461	1533	1715	1780	1798	1799	2485	2398	2385	2326	2296	2323	2341	2355	2307	2252	2210	2123	1933	1760	1674	1614	1554	1556	1553	1545	1517	1514	1518	1551	1540	1538	1527	1529	1527	1527	1529	1528	1512	1502	1495	1509	1511	1481	1454	1435	1443	1459	1461	1469	1474	1478	1460	1445	1429	1454	1680	1944	2450	2539	2629	2669	2679	2650	2647	2672	2680	2678	2659	2642	2622	2620	2611	2598	2599	2593	2576	2519	2458	2415	2444	2495	2513	2505	2490	2492	2558	2639	2745	2767	2785	2784	2764	2726	2668	2521	2313	2239	2164	2113	2097	2084	2085	2115	2124	2119	2107	2081	2049	2025	2019	2024	2029	2046	2057	2065	2056	2027	1997	2006	2040	2049	2042	2028	2011	1997	1975	1971	1990	1988	1967	1935	1908	1902	1908	1917	1914	1900	1903	1914	1922	1918	1895	1863	1849	1847	1859	1868	1878	1879	1876	1875	1874	1860	1852	1837	1817	1799	1791	1791	1793	1794	1794	1792	1783	1763	1755	1756	1758	1757	1757	1753	1741	1721	1704	1693	1683	1674	1670	1670	1673	1673	1673	1666	1660	0	0	0	0	0	0	0	0
0	0	0	0	0	0	0	0	0	0	0	0	0	0	0	0	0	0	0	0	0	0	0	0	0	0	0	0	0	0	0	0	0	0	0	0	0	0	0	0	0	0	0	0	0	0	0	0	0	0	0	0	0	0	0	0	0	0	0	0	0	0	0	0	0	0	0	0	0	0	0	0	0	0	0	0	0	0	0	0	0	0	0	0	0	0	0	0	0	0	0	0	0	0	0	0	0	0	0	0	0	0	0	0	0	0	0	0	0	0	0	0	0	0	0	0	0	0	0	0	0	0	0	0	0	0	0	0	0	0	0	0	0	0	0	0	0	0	0	0	0	0	0	0	0	0	0	0	0	0	0	0	0	0	0	0	0	0	0	0	0	0	0	0	0	0	0	0	0	0	0	0	0	0	0	0	0	0	0	0	0	0	0	0	0	0	0	0	0	0	0	0	0	0	0	0	0	0	0	0	0	0	0	0	0	0	0	0	0	0	0	0	0	0	0	0	0	0	0	0	0	0	0	0	0	0	0	0	0	0	0	0	0	0	0	0	0	0	0	0	0	0	0	0	0	0	0	0	0	0	0	0	0	0	0	0	0	0	0	0	0	0	0	0	0	0	0	0	0	0	0	0	0	0	0	0	0	0	0	0	0	0	0	0	0	0	0	0	0	0	0	0	0	0	0	0	0	0	0	0	0	0	0	0	0	0	0	0	0	0	0	0	0	0	0	0	0	0	0	0	0	0	0	0	0	0	1296	1262	1186	1074	1001	977	987	999	1009	1001	1032	1081	1134	0	0	0	0	1277	1315	1340	1344	1358	1393	1532	1542	1592	1626	1624	1621	1610	1610	1610	1608	1587	1586	1590	1594	1618	1634	1640	1639	1638	1637	1611	1594	1592	1598	1614	1631	1640	1657	1653	1645	1639	1637	1634	1622	1605	1594	1592	1603	1618	1631	1633	1629	1624	1630	1641	1640	1628	1617	1619	1626	1639	1641	1651	1663	1671	1679	1685	1718	1677	1642	1625	1610	1552	1587	1603	1588	1580	1582	1583	1596	1594	1580	1593	1587	1566	1552	1539	1541	1549	1673	1617	1554	1528	1528	1518	1520	1506	1435	1407	1416	1400	1409	1422	1454	1473	1480	1471	1422	1413	1430	1459	1507	1516	1531	1545	1547	1539	1513	1688	1673	1669	1678	1667	1676	1680	1659	1605	1510	1447	1422	1414	1407	1427	1486	1503	1494	1510	1513	1505	1499	1467	1462	1461	1445	1432	1419	1412	1418	1444	1458	1434	1429	1433	1440	1445	1470	1470	1469	1469	1457	1445	1430	1412	1437	1662	1940	2463	2589	2699	2736	2742	2707	2703	2726	2718	2711	2690	2664	2646	2634	2629	2607	2616	2607	2596	2542	2487	2453	2477	2498	2517	2507	2489	2505	2576	2673	2742	2753	2768	2781	2780	2750	2685	2534	2357	2220	2131	2090	2067	2069	2076	2117	2123	2125	2117	2098	2079	2052	2048	2051	2064	2065	2082	2081	2070	2034	2012	2020	2048	2053	2040	2025	2019	2010	2005	1998	1972	1964	1958	1941	1920	1911	1910	1913	1888	1883	1905	1918	1929	1927	1905	1874	1858	1856	1857	1869	1872	1882	1877	1864	1865	1854	1848	1830	1807	1788	1780	1780	1781	1781	1783	1789	1779	1767	1756	1757	1750	1740	1741	1747	1750	1741	1722	1698	1678	1666	1669	1673	1677	1677	1677	1671	1668	0	0	0	0	0	0	0	0
0	0	0	0	0	0	0	0	0	0	0	0	0	0	0	0	0	0	0	0	0	0	0	0	0	0	0	0	0	0	0	0	0	0	0	0	0	0	0	0	0	0	0	0	0	0	0	0	0	0	0	0	0	0	0	0	0	0	0	0	0	0	0	0	0	0	0	0	0	0	0	0	0	0	0	0	0	0	0	0	0	0	0	0	0	0	0	0	0	0	0	0	0	0	0	0	0	0	0	0	0	0	0	0	0	0	0	0	0	0	0	0	0	0	0	0	0	0	0	0	0	0	0	0	0	0	0	0	0	0	0	0	0	0	0	0	0	0	0	0	0	0	0	0	0	0	0	0	0	0	0	0	0	0	0	0	0	0	0	0	0	0	0	0	0	0	0	0	0	0	0	0	0	0	0	0	0	0	0	0	0	0	0	0	0	0	0	0	0	0	0	0	0	0	0	0	0	0	0	0	0	0	0	0	0	0	0	0	0	0	0	0	0	0	0	0	0	0	0	0	0	0	0	0	0	0	0	0	0	0	0	0	0	0	0	0	0	0	0	0	0	0	0	0	0	0	0	0	0	0	0	0	0	0	0	0	0	0	0	0	0	0	0	0	0	0	0	0	0	0	0	0	0	0	0	0	0	0	0	0	0	0	0	0	0	0	0	0	0	0	0	0	0	0	0	0	0	0	0	0	0	0	0	0	0	0	0	0	0	0	0	0	0	0	0	0	0	0	0	0	0	0	0	0	0	0	1301	1256	1205	1138	1103	1055	1009	1000	986	991	1017	1082	1146	1193	1195	0	1199	1245	1296	1303	1312	1312	1370	1481	1546	1560	1621	1639	1643	1631	1624	1627	1629	1627	1627	1603	1608	1620	1634	1642	1645	1644	1636	1617	1601	1602	1604	1620	1631	1638	1641	1632	1624	1623	1628	1631	1617	1602	1590	1590	1607	1615	1619	1631	1632	1625	1632	1651	1652	1638	1627	1636	1634	1630	1619	1613	1609	1600	1577	1599	1585	1549	1514	1497	1501	1508	1552	1566	1545	1530	1540	1546	1542	1546	1539	1576	1577	1558	1534	1519	1511	1503	1486	1461	1440	1426	1429	1456	1460	1458	1433	1413	1388	1388	1397	1415	1433	1435	1429	1421	1409	1399	1402	1413	1427	1436	1443	1450	1461	1468	1475	1437	1428	1433	1433	1460	1458	1449	1448	1452	1454	1432	1418	1403	1395	1405	1421	1455	1403	1420	1441	1470	1447	1455	1456	1452	1444	1434	1425	1418	1418	1441	1449	1442	1432	1434	1442	1450	1433	1425	1426	1439	1448	1439	1420	1403	1426	1674	1941	2369	2665	2745	2776	2783	2739	2752	2764	2768	2744	2720	2687	2658	2642	2632	2628	2638	2642	2639	2583	2535	2495	2491	2505	2513	2507	2495	2536	2595	2707	2790	2771	2773	2773	2802	2781	2704	2545	2353	2234	2154	2105	2084	2085	2087	2116	2114	2119	2120	2113	2095	2074	2063	2066	2071	2073	2085	2084	2072	2022	2006	2008	2043	2038	2025	2014	2014	2019	2025	1983	1979	1965	1962	1950	1942	1929	1910	1899	1880	1894	1897	1913	1930	1934	1917	1888	1869	1882	1890	1888	1890	1871	1859	1869	1868	1853	1840	1823	1809	1786	1776	1772	1772	1772	1769	1758	1743	1730	1723	1730	1740	1759	1751	1748	1751	1746	1733	1706	1683	1672	1682	1684	1684	1684	1687	1684	1678	0	0	0	0	0	0	0	0
0	0	0	0	0	0	0	0	0	0	0	0	0	0	0	0	0	0	0	0	0	0	0	0	0	0	0	0	0	0	0	0	0	0	0	0	0	0	0	0	0	0	0	0	0	0	0	0	0	0	0	0	0	0	0	0	0	0	0	0	0	0	0	0	0	0	0	0	0	0	0	0	0	0	0	0	0	0	0	0	0	0	0	0	0	0	0	0	0	0	0	0	0	0	0	0	0	0	0	0	0	0	0	0	0	0	0	0	0	0	0	0	0	0	0	0	0	0	0	0	0	0	0	0	0	0	0	0	0	0	0	0	0	0	0	0	0	0	0	0	0	0	0	0	0	0	0	0	0	0	0	0	0	0	0	0	0	0	0	0	0	0	0	0	0	0	0	0	0	0	0	0	0	0	0	0	0	0	0	0	0	0	0	0	0	0	0	0	0	0	0	0	0	0	0	0	0	0	0	0	0	0	0	0	0	0	0	0	0	0	0	0	0	0	0	0	0	0	0	0	0	0	0	0	0	0	0	0	0	0	0	0	0	0	0	0	0	0	0	0	0	0	0	0	0	0	0	0	0	0	0	0	0	0	0	0	0	0	0	0	0	0	0	0	0	0	0	0	0	0	0	0	0	0	0	0	0	0	0	0	0	0	0	0	0	0	0	0	0	0	0	0	0	0	0	0	0	0	0	0	0	0	0	0	0	0	0	0	0	0	0	0	0	0	0	0	0	0	0	0	0	0	0	0	0	0	0	1272	1237	1193	1153	1118	1074	1038	1036	1032	1068	1129	1203	1248	1254	1234	1246	1272	1284	1296	1303	1298	1318	1416	1476	1542	1609	1633	1621	1605	1591	1600	1621	1621	1621	1622	1619	1623	1635	1647	1654	1652	1638	1617	1607	1607	1616	1616	1628	1638	1639	1623	1596	1598	1624	1626	1615	1617	1621	1624	1566	1523	1564	1598	1593	1583	1579	1592	1596	1581	1565	1514	1497	1484	1481	1491	1492	1503	1533	1551	1554	1521	1491	1465	1462	1458	1460	1463	1471	1468	1474	1495	1496	1498	1476	1456	1445	1431	1419	1414	1416	1418	1431	1437	1436	1443	1441	1440	1443	1445	1424	1411	1410	1419	1415	1410	1412	1421	1419	1411	1403	1398	1403	1416	1432	1441	1444	1445	1452	1457	1458	1437	1423	1419	1424	1427	1424	1407	1391	1411	1427	1437	1429	1416	1397	1397	1407	1415	1350	1340	1383	1425	1426	1431	1437	1438	1440	1444	1439	1427	1420	1429	1451	1449	1447	1443	1441	1439	1425	1420	1414	1404	1415	1443	1434	1419	1433	1673	1919	2294	2676	2739	2760	2757	2748	2757	2775	2773	2749	2716	2704	2672	2644	2640	2637	2663	2685	2682	2631	2605	2550	2528	2519	2511	2509	2530	2556	2611	2712	2796	2783	2776	2777	2789	2781	2712	2520	2348	2235	2188	2165	2129	2113	2101	2116	2123	2113	2113	2113	2103	2087	2071	2075	2084	2087	2076	2076	2058	1999	1983	1986	2030	2021	2011	2001	2006	2016	2019	2004	1986	1981	1975	1960	1951	1931	1910	1885	1878	1892	1892	1900	1910	1884	1870	1861	1870	1884	1897	1901	1900	1875	1860	1864	1868	1856	1847	1832	1816	1791	1782	1773	1773	1769	1764	1752	1735	1723	1720	1724	1740	1768	1762	1753	1752	1751	1751	1740	1730	1719	1708	1697	1691	1691	1695	1706	1705	0	0	0	0	0	0	0	0
0	0	0	0	0	0	0	0	0	0	0	0	0	0	0	0	0	0	0	0	0	0	0	0	0	0	0	0	0	0	0	0	0	0	0	0	0	0	0	0	0	0	0	0	0	0	0	0	0	0	0	0	0	0	0	0	0	0	0	0	0	0	0	0	0	0	0	0	0	0	0	0	0	0	0	0	0	0	0	0	0	0	0	0	0	0	0	0	0	0	0	0	0	0	0	0	0	0	0	0	0	0	0	0	0	0	0	0	0	0	0	0	0	0	0	0	0	0	0	0	0	0	0	0	0	0	0	0	0	0	0	0	0	0	0	0	0	0	0	0	0	0	0	0	0	0	0	0	0	0	0	0	0	0	0	0	0	0	0	0	0	0	0	0	0	0	0	0	0	0	0	0	0	0	0	0	0	0	0	0	0	0	0	0	0	0	0	0	0	0	0	0	0	0	0	0	0	0	0	0	0	0	0	0	0	0	0	0	0	0	0	0	0	0	0	0	0	0	0	0	0	0	0	0	0	0	0	0	0	0	0	0	0	0	0	0	0	0	0	0	0	0	0	0	0	0	0	0	0	0	0	0	0	0	0	0	0	0	0	0	0	0	0	0	0	0	0	0	0	0	0	0	0	0	0	0	0	0	0	0	0	0	0	0	0	0	0	0	0	0	0	0	0	0	0	0	0	0	0	0	0	0	0	0	0	0	0	0	0	0	0	0	0	0	0	0	0	0	0	0	0	0	0	0	0	0	1474	1416	1356	1306	1253	1192	1149	1109	1103	1116	1152	1189	1240	1275	1271	1273	1289	1311	1307	1318	1305	1292	1297	1317	1389	1470	1556	1627	1644	1608	1584	1590	1596	1605	1616	1628	1647	1654	1642	1616	1617	1613	1618	1618	1620	1608	1601	1596	1586	1570	1563	1558	1544	1524	1524	1530	1540	1533	1523	1478	1481	1482	1553	1581	1582	1572	1567	1578	1585	1572	1541	1497	1484	1465	1453	1467	1471	1481	1469	1438	1433	1418	1394	1385	1381	1382	1385	1389	1398	1399	1405	1420	1434	1427	1420	1426	1439	1441	1424	1417	1411	1412	1416	1405	1410	1435	1438	1438	1442	1447	1428	1418	1422	1427	1420	1413	1407	1411	1412	1409	1411	1416	1437	1479	1493	1481	1453	1426	1429	1444	1452	1451	1448	1432	1419	1424	1427	1422	1414	1425	1430	1428	1425	1414	1397	1392	1387	1386	1320	1314	1358	1390	1406	1402	1405	1415	1438	1443	1451	1445	1431	1415	1438	1457	1456	1449	1439	1431	1424	1422	1416	1410	1404	1430	1451	1442	1451	1653	1900	2263	2604	2700	2723	2715	2734	2757	2754	2743	2713	2692	2685	2672	2633	2611	2617	2639	2682	2705	2703	2669	2614	2573	2557	2546	2548	2552	2560	2647	2709	2760	2768	2774	2772	2777	2775	2705	2495	2326	2247	2211	2188	2158	2133	2104	2112	2131	2109	2105	2105	2098	2089	2083	2092	2098	2094	2079	2064	2049	1992	1973	1975	2005	2005	1997	1989	1989	2000	2011	2008	1993	1986	1978	1969	1945	1915	1881	1874	1886	1892	1891	1889	1889	1883	1866	1854	1873	1891	1898	1904	1899	1877	1852	1845	1851	1858	1849	1817	1810	1813	1813	1802	1787	1787	1770	1763	1771	1770	1770	1788	1799	1771	1744	1739	1748	1755	1753	1746	1735	1726	1716	1705	1701	1707	1707	1709	1705	0	0	0	0	0	0	0	0
0	0	0	0	0	0	0	0	0	0	0	0	0	0	0	0	0	0	0	0	0	0	0	0	0	0	0	0	0	0	0	0	0	0	0	0	0	0	0	0	0	0	0	0	0	0	0	0	0	0	0	0	0	0	0	0	0	0	0	0	0	0	0	0	0	0	0	0	0	0	0	0	0	0	0	0	0	0	0	0	0	0	0	0	0	0	0	0	0	0	0	0	0	0	0	0	0	0	0	0	0	0	0	0	0	0	0	0	0	0	0	0	0	0	0	0	0	0	0	0	0	0	0	0	0	0	0	0	0	0	0	0	0	0	0	0	0	0	0	0	0	0	0	0	0	0	0	0	0	0	0	0	0	0	0	0	0	0	0	0	0	0	0	0	0	0	0	0	0	0	0	0	0	0	0	0	0	0	0	0	0	0	0	0	0	0	0	0	0	0	0	0	0	0	0	0	0	0	0	0	0	0	0	0	0	0	0	0	0	0	0	0	0	0	0	0	0	0	0	0	0	0	0	0	0	0	0	0	0	0	0	0	0	0	0	0	0	0	0	0	0	0	0	0	0	0	0	0	0	0	0	0	0	0	0	0	0	0	0	0	0	0	0	0	0	0	0	0	0	0	0	0	0	0	0	0	0	0	0	0	0	0	0	0	0	0	0	0	0	0	0	0	0	0	0	0	0	0	0	0	0	0	0	0	0	0	0	0	0	0	0	0	0	0	0	0	0	0	0	0	0	0	0	0	0	1561	1645	1634	1611	1587	1503	1268	1216	1174	1163	1169	1189	1230	1270	1276	1299	1308	1325	1338	1342	1341	1317	1301	1283	1302	1373	1441	1532	1454	1606	1581	1564	1551	1537	1530	1526	1519	1505	1486	1501	1514	1544	1554	1561	1563	1572	1562	1559	1558	1556	1545	1551	1549	1535	1513	1507	1515	1522	1523	1506	1455	1451	1455	1464	1470	1474	1448	1443	1450	1457	1448	1432	1434	1443	1446	1441	1439	1438	1419	1415	1414	1418	1419	1401	1389	1386	1386	1390	1401	1405	1407	1410	1416	1410	1412	1422	1429	1439	1436	1422	1416	1414	1416	1417	1410	1424	1430	1436	1445	1450	1457	1445	1432	1433	1444	1445	1444	1440	1435	1438	1440	1425	1426	1440	1459	1462	1462	1431	1423	1437	1450	1435	1450	1424	1421	1424	1425	1432	1435	1434	1438	1434	1426	1416	1409	1396	1391	1402	1382	1304	1297	1355	1396	1414	1390	1390	1393	1422	1443	1446	1456	1439	1415	1417	1450	1449	1450	1444	1431	1427	1429	1431	1421	1408	1419	1445	1443	1464	1615	1860	2262	2510	2655	2692	2715	2734	2747	2718	2701	2667	2642	2641	2646	2632	2590	2586	2613	2652	2688	2701	2678	2651	2625	2596	2580	2575	2566	2562	2622	2684	2708	2728	2747	2755	2763	2758	2695	2516	2344	2271	2232	2193	2163	2124	2092	2113	2112	2093	2094	2094	2090	2089	2090	2096	2109	2105	2083	2063	2053	1975	1979	1962	1954	1965	1976	1984	1990	1991	1989	1987	1994	1988	1975	1962	1958	1949	1951	1950	1957	1951	1942	1937	1931	1927	1924	1913	1903	1903	1905	1903	1889	1867	1849	1838	1841	1850	1851	1842	1832	1824	1815	1801	1796	1796	1795	1791	1785	1780	1783	1789	1785	1768	1740	1734	1738	1746	1746	1740	1729	1718	1705	1706	1696	1707	1707	1709	1700	0	0	0	0	0	0	0	0
0	0	0	0	0	0	0	0	0	0	0	0	0	0	0	0	0	0	0	0	0	0	0	0	0	0	0	0	0	0	0	0	0	0	0	0	0	0	0	0	0	0	0	0	0	0	0	0	0	0	0	0	0	0	0	0	0	0	0	0	0	0	0	0	0	0	0	0	0	0	0	0	0	0	0	0	0	0	0	0	0	0	0	0	0	0	0	0	0	0	0	0	0	0	0	0	0	0	0	0	0	0	0	0	0	0	0	0	0	0	0	0	0	0	0	0	0	0	0	0	0	0	0	0	0	0	0	0	0	0	0	0	0	0	0	0	0	0	0	0	0	0	0	0	0	0	0	0	0	0	0	0	0	0	0	0	0	0	0	0	0	0	0	0	0	0	0	0	0	0	0	0	0	0	0	0	0	0	0	0	0	0	0	0	0	0	0	0	0	0	0	0	0	0	0	0	0	0	0	0	0	0	0	0	0	0	0	0	0	0	0	0	0	0	0	0	0	0	0	0	0	0	0	0	0	0	0	0	0	0	0	0	0	0	0	0	0	0	0	0	0	0	0	0	0	0	0	0	0	0	0	0	0	0	0	0	0	0	0	0	0	0	0	0	0	0	0	0	0	0	0	0	0	0	0	0	0	0	0	0	0	0	0	0	0	0	0	0	0	0	0	0	0	0	0	0	0	0	0	0	0	0	0	0	0	0	0	0	0	0	0	0	0	0	0	0	0	0	0	0	0	0	0	0	1596	1662	1646	1635	1646	1648	1639	1540	1279	1220	1202	1193	1203	1228	1255	1286	1310	1333	1329	1320	1313	1326	1354	1347	1342	1351	1363	1371	1495	1446	1527	1573	1558	1540	1519	1511	1507	1504	1493	1478	1480	1483	1492	1494	1498	1498	1503	1502	1499	1492	1475	1459	1470	1472	1465	1442	1427	1427	1437	1451	1459	1457	1440	1431	1417	1420	1419	1425	1427	1426	1426	1422	1420	1422	1432	1441	1447	1443	1426	1411	1410	1413	1422	1423	1408	1400	1400	1394	1399	1418	1420	1420	1425	1428	1426	1412	1423	1431	1436	1422	1416	1413	1429	1465	1461	1448	1441	1442	1447	1451	1451	1458	1451	1427	1420	1426	1444	1461	1471	1475	1469	1441	1425	1421	1435	1455	1461	1455	1429	1422	1426	1415	1416	1415	1413	1412	1415	1414	1438	1439	1446	1443	1432	1418	1407	1410	1407	1402	1414	1399	1359	1377	1390	1422	1422	1408	1405	1400	1410	1422	1445	1455	1438	1411	1410	1421	1440	1452	1450	1435	1434	1436	1434	1426	1409	1405	1439	1447	1471	1614	1846	2243	2542	2657	2687	2711	2721	2719	2695	2662	2636	2610	2602	2636	2609	2588	2586	2601	2624	2654	2651	2660	2646	2632	2623	2600	2584	2571	2590	2612	2647	2666	2692	2710	2735	2751	2747	2721	2575	2404	2312	2251	2197	2154	2102	2077	2080	2085	2083	2075	2070	2054	2066	2080	2093	2101	2110	2096	2069	2049	1982	1973	1906	1917	1930	1962	1988	1969	1961	1947	1979	1997	1994	1985	1977	1962	1958	1962	1970	1973	1968	1955	1948	1941	1934	1926	1918	1911	1906	1902	1899	1881	1863	1844	1845	1852	1861	1860	1856	1842	1833	1821	1807	1803	1803	1798	1794	1787	1782	1778	1778	1773	1763	1748	1745	1743	1744	1741	1736	1722	1704	1685	1677	1689	1694	1694	1701	1702	0	0	0	0	0	0	0	0
0	0	0	0	0	0	0	0	0	0	0	0	0	0	0	0	0	0	0	0	0	0	0	0	0	0	0	0	0	0	0	0	0	0	0	0	0	0	0	0	0	0	0	0	0	0	0	0	0	0	0	0	0	0	0	0	0	0	0	0	0	0	0	0	0	0	0	0	0	0	0	0	0	0	0	0	0	0	0	0	0	0	0	0	0	0	0	0	0	0	0	0	0	0	0	0	0	0	0	0	0	0	0	0	0	0	0	0	0	0	0	0	0	0	0	0	0	0	0	0	0	0	0	0	0	0	0	0	0	0	0	0	0	0	0	0	0	0	0	0	0	0	0	0	0	0	0	0	0	0	0	0	0	0	0	0	0	0	0	0	0	0	0	0	0	0	0	0	0	0	0	0	0	0	0	0	0	0	0	0	0	0	0	0	0	0	0	0	0	0	0	0	0	0	0	0	0	0	0	0	0	0	0	0	0	0	0	0	0	0	0	0	0	0	0	0	0	0	0	0	0	0	0	0	0	0	0	0	0	0	0	0	0	0	0	0	0	0	0	0	0	0	0	0	0	0	0	0	0	0	0	0	0	0	0	0	0	0	0	0	0	0	0	0	0	0	0	0	0	0	0	0	0	0	0	0	0	0	0	0	0	0	0	0	0	0	0	0	0	0	0	0	0	0	0	0	0	0	0	0	0	0	0	0	0	0	0	0	0	0	0	0	0	0	0	0	0	0	0	0	0	0	0	1559	1667	1658	1627	1653	1638	1663	1691	1686	1466	1351	1342	1384	1400	1405	1391	1374	1366	1383	1401	1423	1403	1384	1409	1423	1413	1412	1430	1461	1431	1431	1428	1456	1538	1437	1433	1421	1412	1424	1435	1436	1444	1446	1436	1436	1434	1433	1444	1440	1434	1438	1448	1458	1464	1443	1432	1421	1414	1415	1429	1440	1448	1449	1440	1426	1419	1413	1410	1410	1419	1423	1423	1426	1429	1432	1437	1442	1452	1450	1436	1411	1409	1415	1424	1433	1425	1415	1410	1407	1426	1431	1437	1435	1446	1446	1444	1454	1437	1443	1436	1423	1425	1443	1464	1468	1458	1445	1437	1437	1441	1445	1445	1445	1443	1415	1408	1422	1443	1464	1470	1479	1471	1445	1426	1423	1431	1447	1459	1459	1419	1416	1416	1409	1398	1416	1418	1419	1403	1403	1433	1429	1429	1422	1417	1411	1422	1424	1424	1424	1428	1387	1377	1391	1415	1402	1398	1410	1422	1423	1430	1432	1430	1436	1438	1431	1414	1407	1419	1439	1442	1441	1442	1443	1440	1429	1413	1403	1428	1445	1482	1576	1784	2231	2545	2653	2683	2701	2705	2669	2653	2635	2611	2595	2589	2622	2622	2608	2583	2609	2618	2613	2620	2619	2615	2613	2609	2597	2582	2575	2585	2595	2607	2633	2672	2695	2717	2740	2740	2719	2654	2456	2339	2262	2186	2129	2071	2052	2060	2056	2055	2045	2031	2015	2030	2060	2078	2090	2100	2083	2071	2068	2002	1903	1893	1882	1959	1971	1960	1950	1943	1970	1989	2006	2004	1984	1984	1973	1972	1975	1979	1979	1963	1959	1954	1942	1938	1923	1913	1906	1901	1895	1884	1868	1852	1845	1851	1860	1869	1870	1864	1856	1842	1826	1808	1796	1793	1793	1792	1790	1782	1780	1772	1764	1762	1765	1771	1777	1773	1759	1747	1739	1724	1707	1679	1674	1691	1691	1693	1698	0	0	0	0	0	0	0	0
0	0	0	0	0	0	0	0	0	0	0	0	0	0	0	0	0	0	0	0	0	0	0	0	0	0	0	0	0	0	0	0	0	0	0	0	0	0	0	0	0	0	0	0	0	0	0	0	0	0	0	0	0	0	0	0	0	0	0	0	0	0	0	0	0	0	0	0	0	0	0	0	0	0	0	0	0	0	0	0	0	0	0	0	0	0	0	0	0	0	0	0	0	0	0	0	0	0	0	0	0	0	0	0	0	0	0	0	0	0	0	0	0	0	0	0	0	0	0	0	0	0	0	0	0	0	0	0	0	0	0	0	0	0	0	0	0	0	0	0	0	0	0	0	0	0	0	0	0	0	0	0	0	0	0	0	0	0	0	0	0	0	0	0	0	0	0	0	0	0	0	0	0	0	0	0	0	0	0	0	0	0	0	0	0	0	0	0	0	0	0	0	0	0	0	0	0	0	0	0	0	0	0	0	0	0	0	0	0	0	0	0	0	0	0	0	0	0	0	0	0	0	0	0	0	0	0	0	0	0	0	0	0	0	0	0	0	0	0	0	0	0	0	0	0	0	0	0	0	0	0	0	0	0	0	0	0	0	0	0	0	0	0	0	0	0	0	0	0	0	0	0	0	0	0	0	0	0	0	0	0	0	0	0	0	0	0	0	0	0	0	0	0	0	0	0	0	0	0	0	0	0	0	0	0	0	0	0	0	1171	1170	1168	1198	1252	1263	1252	1239	1261	1325	1343	1369	1393	1431	1438	1469	1469	1456	1459	1470	1500	1558	1536	1495	1383	1392	1431	1449	1439	1420	1427	1441	1451	1453	1454	1457	1438	1453	1460	1464	1469	1447	1447	1459	1419	1419	1419	1419	1440	1436	1417	1431	1436	1438	1439	1441	1452	1452	1438	1440	1441	1451	1450	1450	1445	1452	1458	1454	1442	1434	1426	1421	1417	1425	1416	1412	1413	1418	1417	1421	1415	1409	1405	1412	1421	1425	1423	1440	1456	1453	1449	1451	1449	1427	1414	1419	1435	1436	1434	1432	1426	1413	1421	1428	1433	1445	1462	1463	1462	1466	1443	1425	1433	1444	1435	1435	1444	1454	1457	1452	1445	1436	1431	1433	1437	1429	1413	1426	1405	1406	1422	1439	1459	1469	1472	1471	1452	1436	1439	1457	1465	1467	1462	1418	1410	1408	1408	1417	1435	1388	1399	1426	1407	1422	1417	1405	1412	1402	1422	1433	1438	1434	1435	1439	1426	1393	1394	1379	1382	1391	1404	1420	1434	1441	1447	1453	1453	1447	1441	1429	1426	1429	1433	1432	1433	1436	1442	1443	1435	1412	1391	1385	1434	1477	1585	1788	2149	2484	2628	2672	2701	2740	2698	2645	2625	2621	2605	2592	2612	2627	2622	2625	2635	2656	2629	2599	2578	2581	2588	2604	2602	2591	2579	2562	2567	2597	2640	2672	2689	2703	2725	2739	2715	2674	2478	2320	2238	2169	2106	2053	2054	2062	2064	2064	2055	2037	2025	2030	2040	2056	2080	2115	2126	2097	2062	2005	1884	1856	1847	1922	1961	1951	1943	1951	1977	1989	2007	2005	1999	1989	1980	1980	1981	1993	1979	1958	1956	1957	1945	1927	1914	1904	1900	1896	1888	1883	1862	1852	1849	1861	1867	1873	1873	1868	1859	1844	1822	1804	1795	1793	1793	1789	1792	1790	1789	1783	1777	1781	1803	1817	1816	1809	1788	1771	1766	1762	1763	1748	1746	1754	1754	1757	1761	0	0	0	0	0	0	0	0
0	0	0	0	0	0	0	0	0	0	0	0	0	0	0	0	0	0	0	0	0	0	0	0	0	0	0	0	0	0	0	0	0	0	0	0	0	0	0	0	0	0	0	0	0	0	0	0	0	0	0	0	0	0	0	0	0	0	0	0	0	0	0	0	0	0	0	0	0	0	0	0	0	0	0	0	0	0	0	0	0	0	0	0	0	0	0	0	0	0	0	0	0	0	0	0	0	0	0	0	0	0	0	0	0	0	0	0	0	0	0	0	0	0	0	0	0	0	0	0	0	0	0	0	0	0	0	0	0	0	0	0	0	0	0	0	0	0	0	0	0	0	0	0	0	0	0	0	0	0	0	0	0	0	0	0	0	0	0	0	0	0	0	0	0	0	0	0	0	0	0	0	0	0	0	0	0	0	0	0	0	0	0	0	0	0	0	0	0	0	0	0	0	0	0	0	0	0	0	0	0	0	0	0	0	0	0	0	0	0	0	0	0	0	0	0	0	0	0	0	0	0	0	0	0	0	0	0	0	0	0	0	0	0	0	0	0	0	0	0	0	0	0	0	0	0	0	0	0	0	0	0	0	0	0	0	0	0	0	0	0	0	0	0	0	0	0	0	0	0	0	0	0	0	0	0	0	0	0	0	0	0	0	0	0	0	0	0	0	0	0	0	0	0	1204	1167	1182	1205	1254	1309	1364	1369	1366	1359	1365	1379	1394	1413	1382	1348	1345	1340	1333	1334	1381	1410	1415	1429	1450	1459	1388	1365	1361	1381	1396	1410	1403	1409	1449	1443	1441	1386	1428	1423	1423	1434	1427	1434	1435	1441	1478	1475	1454	1431	1445	1447	1447	1446	1459	1435	1439	1449	1477	1442	1436	1415	1418	1442	1435	1433	1429	1440	1438	1437	1442	1447	1453	1450	1439	1449	1461	1459	1452	1451	1452	1453	1448	1444	1437	1437	1443	1430	1428	1432	1427	1436	1445	1447	1440	1427	1426	1421	1421	1434	1448	1469	1477	1473	1468	1456	1458	1448	1432	1431	1432	1446	1448	1445	1444	1436	1427	1430	1436	1441	1450	1463	1467	1471	1460	1438	1431	1436	1440	1441	1427	1438	1447	1454	1449	1444	1433	1427	1432	1432	1429	1407	1407	1411	1416	1430	1440	1455	1458	1463	1462	1459	1455	1459	1466	1470	1473	1466	1426	1411	1406	1422	1432	1436	1432	1432	1441	1408	1402	1421	1407	1404	1404	1434	1443	1445	1441	1435	1433	1436	1421	1401	1391	1390	1395	1405	1421	1434	1442	1446	1451	1458	1453	1445	1438	1438	1439	1436	1430	1431	1429	1441	1446	1431	1414	1388	1377	1390	1439	1615	1860	2211	2488	2581	2684	2754	2776	2745	2702	2685	2669	2645	2601	2603	2649	2704	2726	2729	2719	2677	2641	2600	2575	2568	2581	2606	2608	2603	2571	2648	2682	2699	2714	2721	2739	2748	2743	2711	2657	2432	2275	2224	2182	2158	2137	2073	2072	2067	2068	2072	2056	2044	2047	2044	2049	2068	2100	2121	2107	2081	2009	1858	1807	1792	1860	1966	1956	1958	1962	1972	1979	1992	1998	1995	1990	1986	1996	2039	2029	1987	1932	1945	1958	1966	1955	1936	1932	1940	1952	1953	1953	1955	1953	1950	1935	1926	1918	1918	1904	1901	1897	1880	1846	1837	1845	1845	1860	1870	1877	1879	1874	1885	1892	1867	1872	1862	1840	1817	1801	1804	1813	1813	1808	1791	1793	1793	1788	1800	0	0	0	0	0	0	0	0
0	0	0	0	0	0	0	0	0	0	0	0	0	0	0	0	0	0	0	0	0	0	0	0	0	0	0	0	0	0	0	0	0	0	0	0	0	0	0	0	0	0	0	0	0	0	0	0	0	0	0	0	0	0	0	0	0	0	0	0	0	0	0	0	0	0	0	0	0	0	0	0	0	0	0	0	0	0	0	0	0	0	0	0	0	0	0	0	0	0	0	0	0	0	0	0	0	0	0	0	0	0	0	0	0	0	0	0	0	0	0	0	0	0	0	0	0	0	0	0	0	0	0	0	0	0	0	0	0	0	0	0	0	0	0	0	0	0	0	0	0	0	0	0	0	0	0	0	0	0	0	0	0	0	0	0	0	0	0	0	0	0	0	0	0	0	0	0	0	0	0	0	0	0	0	0	0	0	0	0	0	0	0	0	0	0	0	0	0	0	0	0	0	0	0	0	0	0	0	0	0	0	0	0	0	0	0	0	0	0	0	0	0	0	0	0	0	0	0	0	0	0	0	0	0	0	0	0	0	0	0	0	0	0	0	0	0	0	0	0	0	0	0	0	0	0	0	0	0	0	0	0	0	0	0	0	0	0	0	0	0	0	0	0	0	0	0	0	0	0	0	0	0	0	0	0	1265	1313	1306	1303	1331	1353	1356	1358	1368	1373	1354	1317	1221	1283	1328	1367	1447	1474	1478	1409	1389	1384	1394	1404	1420	1450	1445	1440	1431	1430	1440	1433	1409	1407	1403	1375	1359	1359	1423	1422	1425	1432	1436	1450	1390	1392	1397	1401	1423	1416	1414	1438	1434	1428	1423	1409	1448	1447	1432	1440	1442	1447	1457	1460	1460	1464	1469	1446	1445	1448	1447	1446	1461	1430	1445	1450	1471	1444	1432	1407	1430	1497	1439	1480	1440	1458	1456	1428	1432	1449	1450	1443	1441	1455	1471	1473	1469	1451	1437	1431	1446	1451	1449	1449	1440	1430	1439	1435	1438	1439	1452	1457	1450	1460	1455	1445	1437	1449	1474	1482	1481	1489	1481	1471	1469	1443	1434	1433	1440	1455	1455	1456	1456	1450	1441	1437	1439	1449	1454	1461	1468	1477	1445	1440	1437	1447	1449	1444	1440	1439	1454	1461	1459	1447	1437	1436	1440	1443	1443	1417	1418	1428	1433	1441	1447	1452	1446	1443	1450	1458	1462	1463	1469	1474	1474	1467	1438	1423	1411	1434	1450	1422	1422	1417	1438	1411	1404	1418	1428	1428	1424	1447	1450	1450	1440	1430	1422	1421	1408	1408	1403	1400	1404	1418	1426	1430	1431	1437	1445	1451	1451	1444	1437	1434	1424	1422	1420	1423	1426	1432	1436	1428	1413	1387	1376	1384	1441	1651	1914	2338	2531	2581	2686	2769	2793	2777	2752	2743	2713	2658	2610	2595	2644	2703	2732	2718	2694	2647	2645	2649	2642	2622	2628	2629	2625	2604	2646	2714	2730	2724	2727	2740	2762	2776	2770	2724	2663	2417	2295	2234	2202	2186	2166	2101	2078	2075	2083	2090	2087	2075	2070	2061	2067	2074	2085	2102	2102	2055	1958	1848	1786	1776	1848	1980	1984	1985	1970	1964	1962	1988	1984	1983	1978	1977	2003	2017	2009	2004	1999	1990	1996	2001	1996	1978	1975	1969	1974	1966	1988	2003	2011	1997	1976	1957	1955	1954	1958	1968	1992	1976	1962	1966	1979	1988	1988	1989	1978	1913	1910	1912	1919	1909	1905	1894	1865	1837	1821	1827	1841	1847	1843	1827	1850	1855	1855	1874	0	0	0	0	0	0	0	0
0	0	0	0	0	0	0	0	0	0	0	0	0	0	0	0	0	0	0	0	0	0	0	0	0	0	0	0	0	0	0	0	0	0	0	0	0	0	0	0	0	0	0	0	0	0	0	0	0	0	0	0	0	0	0	0	0	0	0	0	0	0	0	0	0	0	0	0	0	0	0	0	0	0	0	0	0	0	0	0	0	0	0	0	0	0	0	0	0	0	0	0	0	0	0	0	0	0	0	0	0	0	0	0	0	0	0	0	0	0	0	0	0	0	0	0	0	0	0	0	0	0	0	0	0	0	0	0	0	0	0	0	0	0	0	0	0	0	0	0	0	0	0	0	0	0	0	0	0	0	0	0	0	0	0	0	0	0	0	0	0	0	0	0	0	0	0	0	0	0	0	0	0	0	0	0	0	0	0	0	0	0	0	0	0	0	0	0	0	0	0	0	0	0	0	0	0	0	0	0	0	0	0	0	0	0	0	0	0	0	0	0	0	0	0	0	0	0	0	0	0	0	0	0	0	0	0	0	0	0	0	0	0	0	0	0	0	0	0	0	0	0	0	0	0	0	0	0	0	0	0	0	0	0	0	0	0	0	0	0	999	1077	1150	1206	1240	1232	1215	1218	1226	1252	1320	1362	1336	1318	1305	1334	1357	1373	1388	1395	1370	1362	1380	1407	1427	1428	1359	1365	1353	1324	1380	1437	1436	1456	1454	1446	1438	1434	1437	1448	1453	1432	1440	1463	1447	1437	1440	1436	1433	1433	1452	1424	1423	1421	1457	1419	1423	1426	1438	1424	1419	1423	1442	1448	1448	1445	1437	1453	1439	1448	1447	1444	1437	1451	1439	1440	1440	1461	1451	1462	1459	1453	1463	1456	1453	1448	1455	1458	1465	1462	1445	1453	1459	1443	1426	1396	1419	1442	1473	1483	1455	1459	1465	1460	1447	1446	1452	1459	1464	1424	1451	1479	1473	1478	1457	1465	1450	1463	1460	1460	1448	1423	1439	1440	1437	1448	1465	1473	1468	1456	1458	1447	1455	1469	1473	1475	1477	1469	1470	1467	1460	1441	1444	1447	1445	1455	1460	1463	1464	1458	1453	1443	1442	1447	1453	1457	1460	1463	1431	1434	1446	1458	1467	1469	1464	1463	1468	1471	1472	1453	1437	1430	1423	1447	1441	1431	1424	1433	1455	1465	1461	1452	1437	1432	1439	1454	1460	1461	1463	1466	1468	1450	1435	1427	1418	1430	1454	1424	1433	1427	1430	1417	1404	1417	1426	1434	1438	1447	1451	1447	1441	1436	1434	1424	1412	1411	1409	1409	1411	1422	1424	1424	1416	1416	1432	1445	1446	1445	1437	1426	1414	1408	1411	1424	1428	1428	1417	1419	1404	1383	1375	1389	1449	1640	1931	2531	2734	2903	3038	3104	3096	3040	2922	2849	2772	2702	2660	2648	2666	2690	2699	2677	2642	2640	2661	2703	2750	2757	2761	2761	2753	2753	2777	2791	2781	2759	2753	2754	2772	2781	2776	2753	2693	2440	2314	2273	2245	2233	2210	2146	2131	2135	2169	2184	2172	2147	2123	2098	2078	2082	2115	2133	2101	2047	2004	1917	1863	1821	1891	2034	2018	1998	1978	1950	1967	1986	1985	1975	1963	1970	2000	1999	2006	2015	2021	2019	2021	2015	2002	1991	1976	1974	1979	1986	1994	2003	2021	2025	2007	1990	1976	1967	1962	1970	1987	1999	1981	1969	1963	1980	1980	1984	1982	1955	1971	1971	1974	1948	1949	1961	1969	1869	1845	1821	1871	1897	1954	1991	2016	2032	2032	2048	0	0	0	0	0	0	0	0
0	0	0	0	0	0	0	0	0	0	0	0	0	0	0	0	0	0	0	0	0	0	0	0	0	0	0	0	0	0	0	0	0	0	0	0	0	0	0	0	0	0	0	0	0	0	0	0	0	0	0	0	0	0	0	0	0	0	0	0	0	0	0	0	0	0	0	0	0	0	0	0	0	0	0	0	0	0	0	0	0	0	0	0	0	0	0	0	0	0	0	0	0	0	0	0	0	0	0	0	0	0	0	0	0	0	0	0	0	0	0	0	0	0	0	0	0	0	0	0	0	0	0	0	0	0	0	0	0	0	0	0	0	0	0	0	0	0	0	0	0	0	0	0	0	0	0	0	0	0	0	0	0	0	0	0	0	0	0	0	0	0	0	0	0	0	0	0	0	0	0	0	0	0	0	0	0	0	0	0	0	0	0	0	0	0	0	0	0	0	0	0	0	0	0	0	0	0	0	0	0	0	0	0	0	0	0	0	0	0	0	0	0	0	0	0	0	0	0	0	0	0	0	0	0	0	0	0	0	0	0	0	0	0	0	0	0	0	0	0	0	0	0	0	0	1282	1246	1208	1201	1211	1272	1292	1285	1283	1314	1360	1356	1352	1353	1356	1405	1422	1414	1402	1398	1389	1365	1361	1360	1371	1363	1368	1378	1380	1368	1362	1387	1393	1394	1404	1394	1388	1389	1401	1417	1440	1427	1373	1362	1381	1421	1406	1434	1429	1416	1418	1422	1427	1425	1428	1416	1435	1449	1447	1435	1435	1454	1458	1452	1451	1442	1455	1454	1456	1417	1442	1438	1436	1429	1419	1432	1451	1460	1462	1461	1449	1452	1451	1430	1428	1428	1434	1429	1455	1432	1440	1460	1460	1449	1454	1447	1442	1464	1454	1459	1460	1461	1454	1458	1463	1459	1443	1420	1435	1412	1386	1416	1427	1442	1441	1457	1451	1454	1459	1470	1456	1484	1465	1435	1440	1450	1453	1460	1477	1464	1450	1457	1469	1461	1470	1433	1426	1441	1451	1448	1465	1478	1471	1456	1448	1445	1442	1464	1471	1466	1459	1450	1455	1457	1460	1444	1441	1447	1454	1442	1442	1461	1463	1466	1460	1451	1444	1434	1439	1434	1445	1447	1431	1421	1422	1448	1464	1482	1490	1483	1481	1482	1484	1478	1458	1436	1414	1424	1429	1440	1430	1424	1437	1445	1456	1455	1454	1448	1443	1447	1446	1440	1423	1417	1424	1415	1413	1417	1435	1421	1419	1417	1420	1431	1429	1429	1422	1397	1397	1409	1434	1439	1439	1439	1439	1443	1446	1445	1434	1417	1413	1413	1404	1405	1415	1419	1411	1410	1407	1411	1432	1438	1438	1433	1416	1414	1409	1420	1423	1421	1410	1413	1409	1403	1383	1366	1391	1448	1659	1999	2695	2948	3114	3221	3242	3192	3042	2952	2840	2770	2714	2697	2695	2693	2665	2656	2634	2622	2630	2667	2727	2757	2777	2786	2798	2787	2788	2786	2801	2791	2793	2769	2770	2769	2778	2784	2759	2718	2522	2366	2329	2319	2321	2302	2243	2242	2266	2303	2274	2256	2233	2214	2192	2158	2160	2224	2263	2211	2119	2086	1991	1949	1973	2217	2118	2030	2012	1969	1953	1963	1977	1983	1970	1950	1963	1990	1998	2014	2016	2015	2015	2016	2012	1999	1982	1970	1976	1987	2002	2005	2014	2025	2028	2005	1992	1969	1962	1971	1975	1989	1993	1983	1971	1963	1970	1970	1978	2003	2037	2125	2131	2137	2110	2062	2040	1988	1909	1825	1799	1879	1943	2073	2192	2277	2344	2344	2331	0	0	0	0	0	0	0	0
0	0	0	0	0	0	0	0	0	0	0	0	0	0	0	0	0	0	0	0	0	0	0	0	0	0	0	0	0	0	0	0	0	0	0	0	0	0	0	0	0	0	0	0	0	0	0	0	0	0	0	0	0	0	0	0	0	0	0	0	0	0	0	0	0	0	0	0	0	0	0	0	0	0	0	0	0	0	0	0	0	0	0	0	0	0	0	0	0	0	0	0	0	0	0	0	0	0	0	0	0	0	0	0	0	0	0	0	0	0	0	0	0	0	0	0	0	0	0	0	0	0	0	0	0	0	0	0	0	0	0	0	0	0	0	0	0	0	0	0	0	0	0	0	0	0	0	0	0	0	0	0	0	0	0	0	0	0	0	0	0	0	0	0	0	0	0	0	0	0	0	0	0	0	0	0	0	0	0	0	0	0	0	0	0	0	0	0	0	0	0	0	0	0	0	0	0	0	0	0	0	0	0	0	0	0	0	0	0	0	0	0	0	0	0	0	0	0	0	0	0	0	0	0	0	0	0	0	1378	1328	1288	1285	1305	1294	1265	1272	1283	1302	1314	1338	1319	1300	1293	1353	1400	1421	1394	1360	1345	1350	1365	1398	1383	1377	1371	1360	1354	1344	1348	1374	1435	1441	1431	1413	1396	1382	1368	1378	1385	1384	1378	1379	1388	1394	1395	1395	1414	1409	1408	1420	1432	1445	1448	1419	1410	1411	1434	1401	1386	1382	1407	1417	1433	1430	1420	1418	1421	1421	1420	1411	1405	1433	1451	1427	1426	1449	1459	1434	1438	1433	1432	1455	1424	1429	1439	1433	1434	1432	1429	1418	1444	1455	1461	1447	1418	1416	1413	1450	1439	1425	1423	1426	1438	1459	1441	1443	1459	1459	1465	1462	1449	1462	1454	1464	1454	1463	1455	1460	1440	1452	1464	1450	1422	1409	1391	1371	1382	1421	1435	1448	1441	1388	1392	1456	1486	1486	1482	1463	1484	1482	1448	1459	1448	1470	1469	1465	1464	1463	1465	1466	1427	1421	1438	1456	1455	1470	1474	1471	1462	1442	1446	1448	1455	1456	1452	1441	1440	1444	1453	1454	1445	1445	1449	1458	1445	1439	1460	1463	1461	1458	1444	1435	1429	1424	1427	1427	1421	1414	1413	1413	1433	1467	1492	1501	1482	1484	1504	1531	1504	1454	1447	1461	1455	1448	1433	1451	1454	1413	1395	1383	1395	1445	1498	1502	1472	1424	1395	1375	1355	1322	1295	1289	1395	1408	1419	1411	1401	1410	1433	1429	1427	1422	1398	1388	1404	1427	1434	1426	1422	1423	1431	1443	1446	1442	1428	1422	1414	1405	1398	1394	1406	1410	1406	1407	1411	1413	1431	1434	1429	1417	1415	1419	1422	1421	1412	1411	1418	1414	1398	1386	1366	1396	1451	1681	2061	2728	2983	3180	3274	3283	3244	3192	3004	2843	2760	2737	2735	2716	2679	2657	2642	2629	2623	2633	2666	2714	2759	2792	2816	2801	2790	2790	2786	2794	2795	2787	2781	2780	2776	2778	2780	2763	2748	2705	2522	2416	2404	2432	2421	2344	2356	2416	2472	2511	2546	2587	2551	2491	2448	2435	2466	2489	2543	2583	2619	2622	2543	2431	2309	2183	2030	2015	1973	1976	1980	1979	1980	1961	1954	1989	2001	2006	2012	2018	2012	2006	2001	1999	1990	1979	1966	1979	2000	2015	2021	2019	2023	2016	2002	1992	1985	1986	1998	1998	1996	1995	1984	1967	1963	1969	1990	1990	2069	2160	2240	2325	2363	2352	2346	2270	2146	2018	1858	1771	1857	1982	2119	2291	2435	2490	2490	2508	0	0	0	0	0	0	0	0
0	0	0	0	0	0	0	0	0	0	0	0	0	0	0	0	0	0	0	0	0	0	0	0	0	0	0	0	0	0	0	0	0	0	0	0	0	0	0	0	0	0	0	0	0	0	0	0	0	0	0	0	0	0	0	0	0	0	0	0	0	0	0	0	0	0	0	0	0	0	0	0	0	0	0	0	0	0	0	0	0	0	0	0	0	0	0	0	0	0	0	0	0	0	0	0	0	0	0	0	0	0	0	0	0	0	0	0	0	0	0	0	0	0	0	0	0	0	0	0	0	0	0	0	0	0	0	0	0	0	0	0	0	0	0	0	0	0	0	0	0	0	0	0	0	0	0	0	0	0	0	0	0	0	0	0	0	0	0	0	0	0	0	0	0	0	0	0	0	0	0	0	0	0	0	0	0	0	0	0	0	0	0	0	0	0	0	0	0	0	0	0	0	0	0	0	0	0	0	0	1205	1184	1180	1204	1243	1206	1144	0	0	0	1212	1222	1265	1286	1271	1229	1186	1215	1240	1259	1289	1311	1297	1341	1401	1409	1402	1393	1388	1384	1389	1379	1368	1381	1379	1385	1388	1394	1393	1382	1372	1362	1373	1407	1412	1416	1409	1407	1416	1430	1438	1431	1402	1384	1377	1374	1373	1373	1375	1385	1414	1426	1427	1414	1393	1381	1378	1386	1393	1396	1397	1402	1413	1414	1417	1429	1430	1431	1430	1434	1443	1446	1449	1423	1410	1404	1417	1403	1392	1383	1419	1415	1419	1418	1424	1424	1427	1428	1410	1403	1429	1452	1449	1430	1422	1446	1431	1438	1444	1436	1436	1426	1447	1449	1441	1425	1426	1415	1421	1425	1426	1448	1436	1434	1416	1414	1414	1439	1434	1439	1442	1424	1434	1459	1433	1429	1431	1442	1448	1456	1426	1440	1420	1459	1455	1465	1457	1435	1440	1446	1456	1438	1440	1407	1370	1377	1413	1422	1433	1435	1426	1396	1396	1466	1494	1491	1475	1489	1479	1454	1471	1448	1445	1448	1445	1447	1449	1446	1476	1478	1448	1428	1433	1453	1452	1457	1455	1442	1454	1446	1446	1443	1451	1443	1438	1436	1436	1445	1452	1451	1450	1452	1456	1465	1450	1447	1465	1467	1463	1466	1409	1391	1372	1395	1387	1388	1394	1413	1482	1475	1477	1492	1525	1551	1583	1654	1526	1545	1553	1581	1613	1657	1705	1735	1750	1769	1790	1747	1517	1450	1420	1423	1439	1444	1435	1406	1380	1334	1289	1268	1264	1290	1298	1395	1430	1409	1388	1406	1434	1434	1424	1415	1432	1411	1412	1418	1428	1419	1411	1413	1420	1428	1436	1443	1430	1422	1414	1403	1397	1397	1407	1411	1411	1412	1414	1417	1420	1427	1429	1424	1417	1418	1416	1411	1414	1420	1424	1408	1400	1385	1385	1415	1460	1701	2094	2696	3034	3199	3289	3312	3293	3235	3058	2873	2791	2761	2753	2709	2679	2650	2642	2644	2646	2640	2653	2689	2746	2783	2794	2781	2774	2781	2778	2774	2793	2786	2787	2786	2780	2778	2760	2741	2729	2720	2717	2721	2727	2726	2707	2696	2713	2740	2727	2712	2720	2744	2751	2741	2725	2715	2715	2727	2764	2774	2770	2724	2627	2485	2367	2198	2023	1986	1980	1983	1990	1983	1978	1958	1990	2023	2027	2019	2015	2015	2012	2007	2005	1999	1995	1990	1985	1986	2013	2030	2033	2026	2020	2020	2013	2013	2021	2017	2012	2008	2000	1995	1986	1981	1972	1989	2030	2030	2119	2286	2356	2482	2563	2554	2537	2476	2419	2290	1979	1781	1799	1904	2088	2269	2401	2482	2482	2517	0	0	0	0	0	0	0	0
0	0	0	0	0	0	0	0	0	0	0	0	0	0	0	0	0	0	0	0	0	0	0	0	0	0	0	0	0	0	0	0	0	0	0	0	0	0	0	0	0	0	0	0	0	0	0	0	0	0	0	0	0	0	0	0	0	0	0	0	0	0	0	0	0	0	0	0	0	0	0	0	0	0	0	0	0	0	0	0	0	0	0	0	0	0	0	0	0	0	0	0	0	0	0	0	0	0	0	0	0	0	0	0	0	0	0	0	0	0	0	0	0	0	0	0	0	0	0	0	0	0	0	0	0	0	0	0	0	0	0	0	0	0	0	0	0	0	0	0	0	0	0	0	0	0	0	0	0	0	0	0	0	0	0	0	0	0	0	0	0	0	0	0	0	0	0	0	0	0	0	0	0	0	0	0	0	0	0	0	0	0	0	0	0	0	0	0	0	0	0	1184	1165	1191	1216	1240	1310	1349	1353	1366	1387	1397	1390	1384	1392	1377	1368	1366	1387	1372	1329	1332	1343	1342	1334	1324	1331	1322	1318	1349	1390	1402	1407	1416	1421	1422	1410	1391	1402	1401	1403	1397	1391	1419	1434	1439	1443	1434	1419	1404	1405	1413	1435	1449	1441	1423	1407	1398	1404	1410	1422	1415	1403	1397	1399	1408	1412	1407	1397	1401	1406	1419	1418	1419	1407	1396	1389	1392	1397	1397	1397	1404	1415	1419	1424	1438	1443	1444	1445	1429	1441	1436	1426	1418	1398	1398	1410	1393	1390	1380	1414	1438	1425	1426	1426	1419	1426	1421	1401	1400	1424	1442	1448	1435	1417	1424	1439	1434	1438	1441	1447	1443	1436	1435	1450	1412	1413	1410	1429	1438	1434	1458	1438	1437	1415	1413	1413	1436	1423	1435	1439	1446	1450	1451	1433	1430	1432	1441	1437	1442	1425	1435	1433	1447	1448	1463	1433	1429	1453	1447	1454	1434	1438	1441	1439	1422	1451	1440	1434	1431	1426	1420	1420	1483	1505	1493	1494	1469	1485	1472	1455	1444	1436	1436	1441	1442	1440	1456	1475	1463	1453	1432	1431	1451	1447	1443	1459	1431	1419	1438	1451	1456	1440	1418	1427	1432	1413	1403	1383	1375	1409	1465	1472	1480	1481	1486	1484	1477	1468	1480	1425	1386	1389	1442	1452	1451	1452	1462	1520	1542	1547	1559	1651	1739	1579	1746	1604	1741	1633	1679	1693	1711	1738	1776	1796	1812	1824	1651	1580	1474	1427	1400	1398	1402	1405	1411	1378	1313	1290	1292	1298	1302	1325	1395	1448	1425	1385	1398	1421	1420	1419	1419	1439	1440	1428	1428	1429	1427	1422	1419	1418	1425	1432	1438	1425	1416	1404	1393	1393	1400	1412	1413	1414	1414	1415	1416	1416	1423	1431	1437	1422	1415	1411	1412	1414	1421	1421	1411	1396	1392	1413	1434	1464	1669	1986	2619	3056	3203	3286	3309	3297	3249	3135	2976	2814	2773	2758	2671	2657	2649	2656	2660	2659	2647	2637	2666	2729	2763	2761	2754	2756	2769	2767	2772	2753	2770	2783	2789	2781	2766	2749	2729	2717	2714	2721	2747	2770	2769	2752	2768	2767	2793	2777	2774	2775	2782	2780	2777	2759	2742	2753	2763	2793	2805	2790	2738	2665	2521	2403	2200	1989	1980	1986	1988	1991	1990	1988	1971	2008	2045	2039	2031	2025	2017	2015	2015	2014	1998	1993	2004	2003	2004	2019	2029	2032	2029	2028	2020	2023	2028	2026	2019	2015	2008	1991	1992	1993	1990	1988	1997	2030	2030	2114	2308	2556	2578	2581	2565	2535	2518	2454	2345	2158	1835	1779	1844	1966	2105	2273	2389	2389	2476	0	0	0	0	0	0	0	0
0	0	0	0	0	0	0	0	0	0	0	0	0	0	0	0	0	0	0	0	0	0	0	0	0	0	0	0	0	0	0	0	0	0	0	0	0	0	0	0	0	0	0	0	0	0	0	0	0	0	0	0	0	0	0	0	0	0	0	0	0	0	0	0	0	0	0	0	0	0	0	0	0	0	0	0	0	0	0	0	0	0	0	0	0	0	0	0	0	0	0	0	0	0	0	0	0	0	0	0	0	0	0	0	0	0	0	0	0	0	0	0	0	0	0	0	0	0	0	0	0	0	0	0	0	0	0	0	0	0	0	0	0	0	0	0	0	0	0	0	0	0	0	0	0	0	0	0	0	0	0	0	0	0	0	0	0	0	0	0	0	0	0	0	0	0	0	0	0	0	1233	1205	1167	1156	1247	1314	1316	1316	1300	1362	1381	1402	1411	1369	1320	1270	1228	1232	1281	1355	1370	1361	1348	1344	1346	1354	1364	1364	1346	1345	1351	1366	1375	1383	1411	1437	1422	1402	1382	1348	1340	1340	1340	1335	1339	1352	1361	1361	1374	1385	1391	1400	1415	1413	1414	1419	1417	1411	1405	1391	1384	1395	1414	1427	1432	1442	1439	1432	1424	1411	1412	1418	1429	1434	1429	1419	1418	1407	1409	1410	1413	1409	1406	1400	1401	1408	1413	1405	1397	1401	1399	1405	1420	1428	1421	1411	1407	1408	1399	1392	1391	1395	1412	1419	1435	1440	1445	1452	1417	1439	1419	1405	1399	1393	1393	1390	1403	1389	1383	1379	1400	1437	1443	1452	1451	1438	1414	1423	1415	1403	1415	1428	1438	1446	1439	1441	1440	1449	1453	1436	1447	1443	1434	1435	1411	1433	1422	1420	1426	1437	1433	1457	1448	1437	1453	1455	1451	1434	1451	1415	1439	1444	1421	1429	1439	1457	1462	1458	1436	1428	1432	1428	1437	1448	1452	1463	1444	1409	1431	1441	1437	1425	1468	1436	1467	1461	1421	1452	1453	1416	1421	1442	1443	1496	1477	1505	1500	1491	1484	1440	1437	1437	1438	1432	1433	1446	1443	1425	1458	1473	1458	1426	1399	1441	1442	1433	1414	1401	1417	1425	1427	1441	1424	1349	1348	1353	1363	1358	1346	1368	1461	1587	1739	2017	2064	2082	1962	1964	1880	1828	1686	1540	1505	1525	1542	1559	1570	1567	1553	1550	1560	1597	1599	1690	1749	1789	1860	1857	1818	1759	1761	1772	1798	1825	1843	1857	1867	1723	1526	1449	1419	1400	1396	1391	1383	1369	1337	1298	1290	1310	1336	1352	1374	1415	1443	1428	1397	1395	1423	1421	1420	1424	1440	1446	1437	1436	1440	1437	1435	1434	1433	1432	1429	1425	1411	1400	1387	1384	1391	1404	1413	1414	1410	1412	1410	1409	1412	1420	1430	1428	1424	1418	1411	1415	1421	1428	1423	1406	1401	1409	1427	1433	1460	1658	1996	2585	3003	3201	3282	3316	3281	3219	3158	3045	2848	2768	2722	2638	2634	2638	2652	2672	2654	2634	2622	2646	2728	2755	2742	2739	2742	2765	2769	2754	2732	2743	2765	2777	2771	2755	2731	2724	2712	2720	2730	2758	2775	2772	2767	2779	2786	2812	2807	2799	2803	2810	2808	2798	2787	2774	2768	2785	2817	2827	2799	2753	2667	2514	2374	2204	1978	1988	1997	2001	2001	1999	1993	1985	2019	2047	2045	2033	2026	2020	2018	2013	2022	2010	2017	2012	2007	2009	2013	2017	2019	2020	2023	2023	2022	2024	2021	2016	2008	2003	1997	1992	1992	1994	2002	2007	2016	2016	2110	2309	2582	2553	2537	2528	2498	2484	2437	2266	2143	1982	1761	1819	1899	2006	2122	2271	2416	2416	0	0	0	0	0	0	0	0
0	0	0	0	0	0	0	0	0	0	0	0	0	0	0	0	0	0	0	0	0	0	0	0	0	0	0	0	0	0	0	0	0	0	0	0	0	0	0	0	0	0	0	0	0	0	0	0	0	0	0	0	0	0	0	0	0	0	0	0	0	0	0	0	0	0	0	0	0	0	0	0	0	0	0	0	0	0	0	0	0	0	0	0	0	0	0	0	0	0	0	0	0	0	0	0	0	0	0	0	0	0	0	0	0	0	0	0	0	0	0	0	0	0	0	0	0	0	0	0	0	0	0	0	0	0	0	0	0	0	0	0	0	0	0	0	0	0	0	0	0	0	0	0	0	0	0	0	0	0	0	0	1322	1277	1209	1143	1132	1166	1210	1230	1233	1271	1293	1301	1304	1292	1275	1273	1296	1362	1340	1301	1289	1293	1370	1381	1383	1377	1360	1370	1384	1407	1414	1401	1373	1365	1363	1354	1345	1351	1392	1403	1402	1389	1379	1386	1393	1392	1384	1369	1369	1372	1381	1396	1407	1418	1416	1407	1400	1397	1396	1386	1380	1390	1407	1420	1425	1412	1405	1403	1403	1401	1410	1410	1415	1420	1416	1409	1400	1396	1393	1400	1415	1422	1427	1429	1436	1432	1422	1415	1414	1413	1416	1428	1428	1423	1438	1428	1420	1416	1421	1416	1411	1405	1400	1392	1382	1378	1377	1384	1389	1401	1420	1442	1437	1430	1422	1421	1419	1399	1395	1396	1409	1417	1431	1441	1440	1438	1416	1430	1418	1414	1409	1393	1394	1395	1395	1389	1388	1384	1410	1438	1446	1456	1460	1454	1430	1413	1423	1420	1424	1422	1427	1435	1434	1447	1451	1446	1459	1458	1445	1437	1432	1431	1413	1415	1418	1433	1409	1431	1412	1445	1457	1453	1447	1453	1452	1458	1434	1432	1420	1416	1418	1442	1437	1460	1460	1464	1458	1464	1429	1444	1449	1445	1458	1460	1441	1441	1418	1427	1400	1417	1438	1460	1457	1470	1452	1422	1434	1402	1422	1458	1458	1460	1501	1478	1482	1476	1467	1461	1449	1440	1441	1429	1415	1392	1380	1374	1407	1416	1405	1373	1319	1358	1369	1361	1342	1336	1349	1329	1292	1263	1238	1220	1236	1295	1371	1442	1532	1619	1744	1932	1855	1993	2106	2158	2038	1984	1968	1810	1674	1578	1540	1539	1556	1566	1578	1582	1591	1587	1597	1610	1657	1717	1755	1810	1876	1868	1853	1783	1802	1814	1836	1858	1876	1895	1902	1751	1483	1451	1415	1397	1401	1388	1381	1367	1343	1311	1308	1337	1366	1390	1426	1449	1432	1410	1388	1391	1427	1442	1442	1427	1429	1435	1426	1439	1451	1454	1450	1448	1447	1440	1430	1414	1399	1391	1384	1383	1396	1408	1414	1409	1409	1413	1420	1415	1415	1421	1433	1432	1425	1418	1424	1431	1430	1431	1430	1416	1407	1415	1423	1430	1445	1645	2003	2481	2948	3164	3289	3307	3258	3193	3079	3004	2782	2690	2650	2624	2653	2669	2663	2657	2651	2635	2620	2658	2712	2732	2728	2733	2742	2758	2764	2742	2722	2734	2745	2759	2755	2724	2727	2726	2726	2730	2721	2752	2759	2760	2765	2784	2807	2826	2823	2823	2827	2832	2823	2811	2791	2770	2771	2798	2824	2826	2799	2755	2672	2517	2387	2210	1986	2008	2017	2018	2010	1992	1992	1989	2000	1995	2026	2023	2014	2012	2009	2018	2014	2011	2011	2008	2005	2015	2017	2010	2006	2011	2015	2013	2019	2017	2013	2007	1999	1996	1993	1996	2001	2010	2009	2011	2017	2093	2093	2248	2444	2478	2479	2449	2434	2429	2384	2254	2152	2049	1870	1805	1855	1922	1994	2228	2311	2311	0	0	0	0	0	0	0	0
0	0	0	0	0	0	0	0	0	0	0	0	0	0	0	0	0	0	0	0	0	0	0	0	0	0	0	0	0	0	0	0	0	0	0	0	0	0	0	0	0	0	0	0	0	0	0	0	0	0	0	0	0	0	0	0	0	0	0	0	0	0	0	0	0	0	0	0	0	0	0	0	0	0	0	0	0	0	0	0	0	0	0	0	0	0	0	0	0	0	0	0	0	0	0	0	0	0	0	0	0	0	0	0	0	0	0	0	0	0	0	0	0	0	0	0	0	0	0	0	0	0	0	0	0	0	0	0	0	0	0	0	0	0	0	0	0	0	0	0	1131	1149	1248	1242	1193	1168	1253	1322	1391	1402	1385	1369	1355	1345	1343	1354	1348	1333	1324	1312	1339	1369	1379	1353	1344	1341	1326	1329	1364	1355	1309	1298	1311	1338	1420	1442	1451	1437	1392	1377	1373	1374	1365	1359	1363	1385	1408	1406	1394	1373	1376	1368	1360	1358	1365	1382	1394	1400	1404	1416	1427	1427	1418	1396	1389	1397	1402	1392	1386	1391	1392	1400	1406	1413	1424	1442	1440	1426	1422	1418	1415	1409	1407	1410	1418	1420	1414	1406	1404	1401	1403	1406	1412	1417	1415	1425	1432	1432	1422	1406	1391	1382	1410	1434	1449	1451	1444	1434	1427	1429	1434	1426	1437	1439	1416	1400	1383	1356	1373	1416	1412	1419	1427	1436	1441	1442	1432	1428	1426	1414	1413	1415	1418	1414	1437	1442	1437	1430	1417	1439	1448	1435	1418	1399	1400	1400	1405	1390	1404	1416	1405	1435	1442	1448	1458	1443	1423	1420	1416	1427	1423	1428	1424	1431	1431	1408	1445	1452	1458	1459	1459	1457	1428	1430	1415	1417	1424	1429	1435	1414	1439	1432	1440	1452	1456	1450	1448	1457	1449	1428	1424	1424	1429	1424	1435	1456	1462	1433	1464	1458	1451	1455	1452	1448	1461	1452	1429	1427	1439	1418	1415	1423	1463	1451	1451	1469	1452	1444	1406	1390	1427	1451	1433	1363	1386	1393	1401	1409	1412	1404	1381	1347	1323	1318	1305	1298	1285	1188	1163	1197	1209	0	0	0	0	0	0	0	0	0	0	0	0	0	0	0	0	0	0	0	1760	1855	2020	2123	2251	2291	2158	2093	2073	1899	1686	1612	1564	1557	1569	1570	1594	1605	1612	1620	1624	1644	1696	1756	1780	1812	1887	1888	1879	1810	1832	1834	1851	1875	1894	1912	1911	1760	1526	1460	1428	1411	1396	1380	1373	1369	1364	1347	1344	1357	1379	1421	1469	1458	1417	1390	1370	1386	1427	1445	1444	1432	1404	1391	1405	1420	1443	1458	1458	1456	1452	1445	1429	1420	1401	1398	1393	1388	1396	1406	1407	1409	1411	1419	1428	1428	1424	1427	1438	1428	1421	1428	1439	1445	1441	1438	1436	1434	1417	1415	1421	1423	1439	1598	1942	2499	2901	3127	3250	3253	3205	3147	3045	2856	2707	2628	2599	2680	2690	2684	2684	2678	2647	2639	2636	2657	2679	2698	2719	2731	2739	2754	2760	2752	2732	2735	2747	2749	2738	2722	2705	2720	2723	2729	2719	2741	2749	2743	2761	2788	2801	2814	2821	2820	2810	2803	2818	2803	2782	2766	2760	2789	2814	2813	2784	2741	2675	2495	2387	2278	2023	2024	2033	2026	2016	1996	1983	1974	1978	1991	2005	2010	2007	2005	2006	2009	2006	2004	2009	2010	2014	2018	2015	2006	1997	2002	2011	2012	2013	2013	2009	2002	1994	1985	1985	1994	1999	2003	2002	2007	2008	2082	2082	2191	2389	2383	2367	2377	2380	2376	2359	2293	2165	2040	1932	1816	1780	1836	1882	1977	2132	2132	0	0	0	0	0	0	0	0
0	0	0	0	0	0	0	0	0	0	0	0	0	0	0	0	0	0	0	0	0	0	0	0	0	0	0	0	0	0	0	0	0	0	0	0	0	0	0	0	0	0	0	0	0	0	0	0	0	0	0	0	0	0	0	0	0	0	0	0	0	0	0	0	0	0	0	0	0	0	0	0	0	0	0	0	0	0	0	0	0	0	0	0	0	0	0	0	0	0	0	0	0	0	0	0	0	0	0	0	0	0	0	0	0	0	0	0	0	0	0	0	0	0	0	0	0	0	0	0	0	0	0	0	0	0	0	0	0	0	0	0	0	0	0	0	1220	1286	1319	1285	1283	1303	1387	1404	1399	1328	1320	1316	1333	1345	1349	1345	1352	1378	1418	1434	1422	1390	1359	1335	1343	1351	1357	1350	1342	1336	1331	1344	1357	1310	1308	1332	1366	1383	1401	1417	1417	1410	1394	1375	1376	1386	1384	1376	1375	1376	1383	1395	1399	1376	1368	1357	1351	1351	1358	1376	1389	1395	1399	1411	1425	1432	1422	1398	1381	1393	1393	1380	1379	1381	1392	1404	1418	1428	1438	1445	1441	1436	1434	1431	1423	1413	1413	1415	1417	1416	1407	1416	1422	1419	1419	1420	1420	1417	1417	1421	1438	1448	1442	1425	1405	1381	1398	1426	1428	1423	1431	1430	1424	1414	1401	1416	1435	1451	1444	1414	1377	1364	1381	1404	1445	1439	1439	1442	1441	1441	1436	1430	1425	1431	1431	1429	1422	1421	1451	1444	1433	1426	1412	1463	1456	1450	1428	1411	1407	1409	1415	1416	1412	1401	1417	1412	1422	1428	1434	1433	1430	1425	1431	1437	1427	1424	1431	1432	1418	1403	1444	1465	1450	1461	1439	1451	1426	1424	1429	1420	1457	1449	1435	1440	1440	1427	1444	1455	1453	1454	1453	1453	1440	1446	1436	1447	1446	1430	1431	1440	1439	1452	1451	1463	1455	1454	1459	1450	1468	1449	1436	1444	1432	1442	1447	1459	1465	1451	1446	1449	1462	1452	1413	1401	1430	1426	1375	1389	1389	1360	1263	1261	1241	1209	1174	1137	0	0	0	0	0	0	0	0	0	0	0	0	0	0	0	0	0	0	0	0	0	0	0	0	0	0	0	0	0	1866	2064	2200	2307	2320	2233	2183	2142	1975	1748	1654	1626	1601	1603	1606	1620	1629	1635	1624	1637	1658	1724	1775	1797	1820	1881	1898	1930	1847	1860	1857	1867	1878	1894	1901	1911	1784	1559	1475	1431	1413	1398	1381	1365	1367	1373	1361	1355	1361	1368	1399	1470	1443	1396	1364	1351	1383	1461	1451	1458	1426	1377	1379	1386	1403	1425	1441	1443	1442	1440	1442	1434	1429	1417	1408	1405	1400	1404	1401	1404	1402	1406	1416	1425	1427	1427	1434	1446	1430	1423	1435	1446	1466	1467	1450	1441	1432	1423	1408	1410	1406	1422	1553	1862	2449	2683	2955	3059	3095	2990	2969	2899	2764	2661	2605	2585	2689	2697	2701	2713	2702	2649	2645	2652	2652	2636	2665	2679	2723	2736	2742	2762	2757	2747	2746	2757	2760	2725	2702	2704	2702	2702	2702	2706	2732	2721	2693	2637	2654	2686	2708	2758	2760	2711	2675	2674	2691	2698	2669	2627	2640	2666	2655	2619	2584	2529	2446	2369	2288	2072	2030	2027	2023	2014	1995	1966	1953	1960	2006	2007	2009	2018	2015	2012	2010	2005	2004	2003	2001	2004	2006	1998	1991	1990	1996	2008	2013	2013	2010	2005	2003	1992	1982	1975	1975	1992	1988	1986	1996	1998	2066	2066	2172	2319	2301	2305	2310	2321	2322	2315	2270	2166	2029	1910	1807	1717	1756	1801	1845	1936	1936	0	0	0	0	0	0	0	0
0	0	0	0	0	0	0	0	0	0	0	0	0	0	0	0	0	0	0	0	0	0	0	0	0	0	0	0	0	0	0	0	0	0	0	0	0	0	0	0	0	0	0	0	0	0	0	0	0	0	0	0	0	0	0	0	0	0	0	0	0	0	0	0	0	0	0	0	0	0	0	0	0	0	0	0	0	0	0	0	0	0	0	0	0	0	0	0	0	0	0	0	0	0	0	0	0	0	0	0	0	0	0	0	0	0	0	0	0	0	0	0	0	0	0	0	0	0	0	0	0	0	0	0	0	0	0	0	0	0	0	0	0	0	1174	1230	1323	1353	1360	1347	1336	1332	1369	1391	1392	1366	1341	1330	1332	1347	1367	1386	1398	1403	1414	1416	1406	1392	1385	1370	1364	1352	1343	1325	1339	1344	1337	1349	1318	1313	1341	1360	1378	1381	1388	1395	1395	1393	1390	1385	1385	1395	1401	1391	1376	1366	1371	1384	1396	1377	1370	1358	1350	1344	1354	1370	1381	1386	1391	1401	1405	1414	1415	1393	1369	1388	1397	1377	1382	1389	1396	1409	1420	1433	1439	1436	1430	1414	1415	1422	1422	1419	1417	1416	1423	1420	1417	1422	1427	1428	1429	1423	1415	1409	1393	1406	1435	1443	1442	1424	1391	1381	1376	1421	1422	1418	1419	1422	1422	1418	1403	1413	1431	1446	1444	1419	1393	1372	1381	1397	1449	1442	1447	1437	1436	1430	1425	1423	1425	1436	1440	1433	1422	1422	1464	1450	1429	1417	1423	1476	1466	1449	1436	1411	1412	1411	1451	1425	1400	1407	1415	1418	1417	1420	1427	1433	1436	1435	1435	1442	1449	1433	1433	1430	1403	1397	1424	1454	1450	1421	1441	1427	1426	1428	1432	1455	1428	1429	1448	1446	1439	1433	1447	1457	1452	1461	1453	1444	1448	1446	1447	1446	1446	1440	1463	1439	1433	1436	1463	1468	1469	1462	1440	1445	1444	1441	1441	1440	1442	1450	1457	1455	1450	1450	1447	1448	1453	1456	1406	1407	1435	1411	1384	1385	1381	1324	1337	0	0	0	0	0	0	0	0	0	0	0	0	0	0	0	0	0	0	0	0	0	0	0	0	0	0	0	0	0	0	0	0	0	0	1874	2080	2206	2298	2311	2268	2244	2176	2022	1801	1709	1690	1677	1657	1632	1632	1635	1639	1651	1654	1677	1725	1762	1806	1860	1883	1911	1921	1875	1900	1892	1890	1878	1884	1889	1892	1785	1580	1482	1431	1416	1393	1380	1369	1364	1370	1372	1357	1353	1347	1363	1443	1438	1379	1342	1339	1371	1444	1452	1450	1423	1375	1375	1380	1389	1401	1412	1423	1433	1430	1436	1434	1431	1420	1408	1398	1403	1410	1412	1412	1407	1406	1412	1418	1420	1423	1432	1442	1428	1422	1429	1448	1465	1469	1453	1436	1426	1415	1399	1392	1399	1414	1552	1753	2229	2652	2720	2755	2774	2785	2819	2774	2702	2634	2590	2575	2617	2709	2716	2710	2669	2643	2634	2635	2627	2580	2565	2625	2618	2610	2616	2651	2733	2747	2752	2741	2741	2712	2684	2626	2622	2630	2628	2637	2598	2542	2499	2480	2474	2490	2546	2571	2554	2516	2489	2495	2502	2497	2476	2465	2487	2500	2506	2470	2445	2412	2370	2295	2226	2066	2013	2012	2009	2001	1980	1950	1933	1940	1981	1999	2019	2032	2033	2026	2018	2007	1996	1997	2003	2001	2000	1991	1986	1985	1989	2001	2010	2017	2013	2013	2005	2000	1991	1991	1988	1988	1990	1986	1984	1985	2048	2048	2154	2142	2268	2257	2256	2253	2268	2256	2198	2135	2037	1898	1787	1690	1739	1757	1785	1827	1827	0	0	0	0	0	0	0	0
0	0	0	0	0	0	0	0	0	0	0	0	0	0	0	0	0	0	0	0	0	0	0	0	0	0	0	0	0	0	0	0	0	0	0	0	0	0	0	0	0	0	0	0	0	0	0	0	0	0	0	0	0	0	0	0	0	0	0	0	0	0	0	0	0	0	0	0	0	0	0	0	0	0	0	0	0	0	0	0	0	0	0	0	0	0	0	0	0	0	0	0	0	0	0	0	0	0	0	0	0	0	0	0	0	0	0	0	0	0	0	0	0	0	0	0	0	0	0	0	0	0	0	0	0	0	0	0	0	0	0	0	0	0	1214	1304	1346	1374	1373	1361	1375	1369	1372	1381	1374	1357	1357	1364	1359	1370	1384	1393	1393	1385	1387	1399	1401	1400	1394	1383	1364	1355	1334	1307	1330	1342	1331	1317	1313	1332	1365	1376	1382	1387	1386	1388	1388	1389	1391	1391	1393	1397	1401	1391	1377	1366	1363	1371	1386	1401	1400	1386	1355	1348	1351	1365	1373	1382	1384	1384	1400	1400	1390	1375	1363	1392	1409	1392	1393	1400	1399	1401	1412	1426	1432	1423	1411	1406	1409	1419	1421	1425	1407	1409	1424	1419	1415	1423	1435	1442	1435	1424	1409	1396	1389	1400	1416	1428	1433	1421	1407	1398	1392	1407	1414	1417	1418	1419	1417	1412	1409	1409	1425	1436	1439	1420	1402	1386	1386	1398	1441	1438	1423	1422	1417	1412	1412	1416	1423	1433	1437	1426	1420	1418	1451	1457	1437	1422	1416	1479	1464	1449	1437	1411	1402	1436	1429	1411	1410	1406	1468	1436	1438	1423	1432	1439	1442	1445	1449	1461	1455	1434	1435	1427	1404	1394	1405	1426	1447	1421	1448	1413	1412	1413	1415	1430	1422	1424	1445	1446	1439	1440	1449	1446	1447	1460	1457	1455	1455	1454	1451	1444	1453	1457	1458	1440	1435	1449	1460	1476	1455	1450	1424	1426	1434	1439	1446	1441	1448	1439	1458	1434	1434	1442	1441	1453	1450	1423	1391	1407	1453	1474	1408	1396	1415	1467	0	0	0	0	0	0	0	0	0	0	0	0	0	0	0	0	0	0	0	0	0	0	0	0	0	0	0	0	0	0	0	0	0	0	1807	1910	2099	2193	2287	2303	2282	2276	2261	2070	1830	1784	1752	1742	1706	1669	1645	1640	1648	1648	1664	1696	1740	1763	1808	1857	1885	1895	1898	1871	1910	1927	1907	1889	1876	1874	1875	1792	1587	1467	1433	1418	1413	1409	1383	1375	1368	1372	1357	1336	1321	1324	1416	1436	1377	1334	1345	1380	1412	1421	1417	1431	1399	1393	1393	1390	1391	1394	1401	1414	1422	1429	1425	1424	1415	1396	1390	1397	1410	1421	1418	1413	1408	1407	1407	1411	1420	1419	1426	1423	1416	1424	1434	1448	1448	1437	1434	1431	1426	1409	1410	1409	1417	1507	1672	2074	2503	2623	2667	2705	2730	2765	2718	2640	2577	2544	2537	2587	2612	2606	2618	2610	2609	2596	2577	2552	2511	2493	2492	2478	2495	2520	2503	2470	2564	2571	2486	2474	2477	2463	2472	2480	2501	2518	2512	2485	2441	2418	2400	2392	2392	2404	2420	2422	2413	2388	2408	2421	2413	2363	2349	2378	2413	2434	2405	2356	2325	2282	2217	2135	2033	1983	1991	1994	1987	1966	1942	1930	1928	1958	1989	2024	2037	2039	2034	2023	2010	1997	1994	2000	2005	2009	1997	1986	1984	1988	1994	2008	2009	2009	2008	2001	1996	1993	1998	2006	2009	2009	2004	1998	1987	2025	2069	2069	2136	2109	2099	2089	2075	2072	2071	2055	2017	1965	1894	1831	1779	1751	1743	1747	1749	1749	0	0	0	0	0	0	0	0
0	0	0	0	0	0	0	0	0	0	0	0	0	0	0	0	0	0	0	0	0	0	0	0	0	0	0	0	0	0	0	0	0	0	0	0	0	0	0	0	0	0	0	0	0	0	0	0	0	0	0	0	0	0	0	0	0	0	0	0	0	0	0	0	0	0	0	0	0	0	0	0	0	0	0	0	0	0	0	0	0	0	0	0	0	0	0	0	0	0	0	0	0	0	0	0	0	0	0	0	0	0	0	0	0	0	0	0	0	0	0	0	0	0	0	0	0	0	0	0	0	0	0	0	0	0	0	0	0	0	0	0	0	0	1218	1280	1331	1378	1391	1385	1368	1359	1363	1365	1367	1368	1380	1382	1381	1375	1379	1378	1379	1381	1383	1388	1392	1387	1389	1390	1370	1346	1340	1319	1334	1338	1334	1319	1334	1368	1380	1383	1388	1393	1389	1384	1380	1379	1380	1382	1383	1420	1423	1419	1391	1372	1371	1365	1365	1403	1413	1405	1380	1351	1347	1358	1373	1386	1385	1385	1380	1375	1369	1356	1378	1393	1405	1403	1405	1404	1398	1394	1396	1418	1421	1412	1403	1409	1421	1432	1426	1428	1403	1408	1414	1416	1416	1422	1440	1448	1441	1425	1406	1402	1398	1398	1416	1425	1428	1423	1426	1421	1416	1396	1407	1415	1419	1416	1410	1397	1396	1402	1414	1420	1430	1432	1430	1397	1387	1394	1425	1427	1414	1409	1405	1407	1405	1411	1417	1425	1431	1423	1421	1428	1436	1451	1431	1421	1468	1473	1459	1451	1439	1415	1409	1429	1442	1421	1414	1437	1431	1468	1442	1442	1444	1449	1451	1451	1451	1454	1456	1444	1411	1416	1426	1414	1420	1426	1431	1436	1428	1415	1414	1429	1457	1449	1426	1430	1438	1453	1444	1447	1435	1439	1442	1468	1433	1451	1464	1469	1458	1455	1454	1450	1456	1461	1447	1448	1448	1446	1447	1429	1433	1437	1453	1450	1437	1437	1443	1448	1438	1431	1444	1444	1442	1444	1470	1436	1388	1404	1443	1458	1430	1424	1482	1699	0	0	0	0	0	0	0	0	0	0	0	0	0	0	0	0	0	0	0	0	0	0	0	0	0	0	0	0	0	0	0	0	0	0	1847	1937	2098	2182	2268	2300	2291	2291	2276	2095	1875	1800	1793	1772	1743	1708	1667	1645	1634	1653	1682	1727	1770	1792	1816	1854	1882	1880	1881	1852	1898	1915	1913	1892	1878	1869	1872	1777	1586	1484	1443	1439	1445	1439	1402	1386	1382	1377	1364	1327	1319	1321	1379	1425	1380	1369	1400	1388	1379	1434	1435	1433	1410	1416	1406	1401	1390	1387	1386	1402	1411	1416	1413	1416	1402	1392	1383	1385	1397	1409	1410	1408	1405	1399	1400	1406	1404	1409	1409	1417	1412	1417	1430	1438	1437	1430	1433	1436	1438	1434	1430	1426	1433	1511	1646	1987	2420	2523	2585	2609	2616	2633	2630	2576	2507	2467	2493	2567	2565	2551	2536	2549	2560	2558	2522	2478	2446	2426	2415	2407	2406	2425	2412	2393	2368	2360	2372	2385	2376	2366	2379	2391	2417	2446	2453	2423	2387	2355	2326	2316	2310	2319	2334	2332	2325	2320	2335	2340	2300	2248	2241	2255	2290	2326	2342	2285	2239	2177	2127	2062	1993	1974	1984	1983	1973	1955	1941	1929	1933	1942	1975	2011	2005	2029	2034	2026	2007	1986	1980	1996	2018	2020	2014	1993	1982	1986	1992	2005	2006	2009	2005	1995	1989	1990	2000	2017	2026	2029	2024	2010	1995	1993	1971	1971	2041	2019	1999	1987	1977	1976	1976	1976	1960	1935	1908	1885	1818	1751	1727	1690	1680	1680	0	0	0	0	0	0	0	0
0	0	0	0	0	0	0	0	0	0	0	0	0	0	0	0	0	0	0	0	0	0	0	0	0	0	0	0	0	0	0	0	0	0	0	0	0	0	0	0	0	0	0	0	0	0	0	0	0	0	0	0	0	0	0	0	0	0	0	0	0	0	0	0	0	0	0	0	0	0	0	0	0	0	0	0	0	0	0	0	0	0	0	0	0	0	0	0	0	0	0	0	0	0	0	0	0	0	0	0	0	0	0	0	0	0	0	0	0	0	0	0	0	0	0	0	0	0	0	0	0	0	0	0	0	0	0	0	0	0	0	0	0	0	1201	1273	1334	1384	1393	1389	1365	1358	1362	1368	1369	1383	1392	1403	1403	1391	1380	1375	1372	1377	1381	1384	1382	1383	1391	1386	1375	1355	1356	1352	1346	1345	1341	1332	1347	1380	1389	1391	1392	1391	1393	1385	1373	1369	1373	1377	1414	1421	1449	1444	1437	1406	1377	1355	1371	1380	1402	1401	1381	1363	1353	1361	1384	1399	1406	1394	1372	1349	1346	1347	1381	1388	1370	1391	1400	1404	1397	1392	1393	1404	1406	1406	1402	1427	1441	1441	1443	1441	1410	1407	1416	1420	1422	1424	1437	1443	1437	1420	1414	1414	1414	1429	1439	1430	1431	1426	1433	1434	1427	1399	1402	1414	1419	1413	1411	1395	1392	1399	1412	1419	1428	1433	1427	1391	1388	1394	1404	1418	1419	1408	1404	1425	1432	1435	1420	1420	1414	1411	1414	1407	1396	1401	1409	1436	1411	1405	1453	1449	1440	1422	1421	1426	1441	1424	1402	1408	1433	1437	1435	1443	1447	1456	1454	1445	1447	1445	1453	1450	1416	1405	1415	1430	1432	1457	1440	1433	1437	1414	1417	1448	1444	1455	1453	1464	1444	1447	1429	1440	1445	1436	1430	1426	1430	1454	1466	1467	1457	1459	1453	1448	1453	1469	1467	1467	1456	1444	1439	1439	1442	1456	1444	1451	1433	1453	1452	1446	1442	1434	1445	1466	1468	1455	1474	1446	1403	1408	1434	1443	1439	1458	1566	2033	0	0	0	0	0	0	0	0	0	0	0	0	0	0	2743	2820	2802	0	0	0	2657	2696	2819	2903	2964	3020	3080	3081	2842	0	0	0	0	0	1840	1927	2082	2175	2289	2328	2299	2289	2281	2109	1907	1813	1802	1776	1756	1740	1690	1667	1631	1649	1692	1727	1777	1812	1823	1840	1886	1896	1900	1850	1882	1893	1895	1896	1883	1875	1865	1765	1595	1480	1461	1460	1474	1458	1418	1390	1369	1368	1357	1347	1339	1346	1377	1398	1385	1400	1424	1392	1424	1438	1439	1428	1409	1416	1408	1416	1411	1403	1397	1397	1404	1411	1413	1410	1393	1378	1375	1383	1388	1391	1389	1390	1395	1400	1403	1407	1405	1400	1403	1414	1414	1417	1427	1429	1428	1426	1430	1430	1435	1444	1448	1447	1459	1533	1622	1847	2285	2449	2509	2528	2542	2557	2536	2478	2414	2396	2436	2522	2517	2491	2471	2469	2482	2470	2458	2423	2393	2374	2353	2326	2332	2336	2324	2308	2296	2296	2299	2297	2284	2274	2288	2313	2338	2351	2363	2336	2323	2300	2253	2232	2223	2222	2250	2264	2261	2268	2272	2261	2211	2172	2171	2184	2200	2214	2197	2189	2167	2104	2030	1965	1964	1969	1981	1980	1971	1956	1941	1931	1940	1948	1969	1988	1990	2015	2021	2021	2010	1997	1989	1995	2021	2030	2016	2001	1991	1985	1987	1997	2000	2009	2005	1994	1982	1981	1999	2025	2042	2039	2034	2008	1986	1964	1939	1939	1943	1931	1922	1918	1914	1913	1914	1908	1900	1891	1874	1787	1751	1723	1652	1635	1613	1613	0	0	0	0	0	0	0	0
0	0	0	0	0	0	0	0	0	0	0	0	0	0	0	0	0	0	0	0	0	0	0	0	0	0	0	0	0	0	0	0	0	0	0	0	0	0	0	0	0	0	0	0	0	0	0	0	0	0	0	0	0	0	0	0	0	0	0	0	0	0	0	0	0	0	0	0	0	0	0	0	0	0	0	0	0	0	0	0	0	0	0	0	0	0	0	0	0	0	0	0	0	0	0	0	0	0	0	0	0	0	0	0	0	0	0	0	0	0	0	0	0	0	0	0	0	0	0	0	0	0	0	0	0	0	0	0	0	0	0	0	0	0	1195	1286	1359	1384	1383	1387	1367	1354	1368	1382	1381	1391	1403	1414	1421	1414	1399	1388	1381	1377	1378	1377	1379	1389	1404	1400	1383	1377	1368	1376	1360	1353	1352	1343	1361	1369	1389	1390	1388	1391	1397	1393	1383	1375	1372	1379	1407	1434	1430	1463	1444	1442	1419	1397	1356	1366	1391	1390	1382	1374	1369	1375	1400	1417	1417	1402	1373	1349	1340	1351	1375	1383	1374	1389	1404	1410	1408	1395	1399	1400	1400	1396	1400	1425	1440	1448	1437	1436	1415	1411	1417	1434	1430	1428	1430	1434	1428	1419	1413	1420	1419	1426	1430	1434	1428	1421	1440	1436	1433	1408	1411	1423	1433	1429	1414	1402	1392	1408	1408	1389	1410	1429	1429	1397	1415	1422	1442	1451	1448	1425	1415	1420	1423	1413	1407	1408	1400	1384	1378	1375	1356	1363	1366	1352	1320	1395	1392	1444	1441	1433	1431	1420	1412	1432	1439	1439	1424	1434	1432	1426	1439	1455	1454	1439	1432	1433	1440	1440	1421	1410	1424	1424	1435	1451	1444	1440	1440	1435	1427	1449	1444	1450	1453	1462	1446	1448	1424	1428	1429	1447	1434	1428	1421	1430	1442	1444	1465	1465	1467	1460	1467	1455	1459	1447	1454	1444	1433	1441	1450	1448	1451	1448	1447	1452	1454	1444	1453	1453	1455	1441	1442	1470	1464	1448	1426	1416	1410	1437	1478	1529	1715	2381	2567	0	0	0	0	0	0	0	0	2670	2688	2778	2872	2964	3032	3005	2955	2929	2894	2874	2847	2875	2962	2993	3013	3046	3074	3068	2963	2575	0	0	0	0	1822	1873	2049	2189	2329	2327	2294	2287	2265	2115	1912	1804	1774	1755	1742	1723	1705	1680	1668	1672	1695	1719	1735	1798	1827	1838	1886	1915	1911	1893	1876	1886	1896	1908	1901	1881	1867	1747	1598	1491	1479	1483	1488	1474	1430	1381	1353	1346	1361	1372	1376	1376	1387	1392	1385	1418	1444	1422	1433	1444	1444	1425	1406	1401	1410	1424	1433	1421	1408	1396	1399	1404	1411	1408	1397	1380	1386	1387	1383	1378	1373	1380	1398	1420	1433	1430	1425	1413	1414	1417	1414	1417	1424	1424	1420	1424	1428	1437	1434	1444	1451	1458	1465	1561	1643	1929	2193	2410	2502	2524	2526	2504	2448	2362	2341	2333	2391	2466	2462	2446	2406	2363	2334	2337	2360	2380	2344	2311	2241	2202	2225	2269	2290	2285	2270	2259	2247	2231	2213	2205	2219	2248	2271	2281	2246	2236	2246	2243	2179	2147	2144	2138	2135	2092	2112	2136	2147	2127	2136	2137	2125	2116	2075	2058	2037	2019	2004	1991	1970	1955	1960	1958	1959	1965	1965	1956	1945	1942	1940	1950	1940	1965	1993	1999	2008	2010	2008	1997	1985	1982	1988	2001	1998	1963	1981	2001	1991	1980	1958	1947	1940	1942	1967	1983	2011	1971	1968	1962	1917	1907	1901	1889	1895	1895	1915	1919	1906	1900	1883	1875	1871	1822	1809	1792	1756	1737	1718	1693	1667	1599	1583	0	0	0	0	0	0	0	0	0
0	0	0	0	0	0	0	0	0	0	0	0	0	0	0	0	0	0	0	0	0	0	0	0	0	0	0	0	0	0	0	0	0	0	0	0	0	0	0	0	0	0	0	0	0	0	0	0	0	0	0	0	0	0	0	0	0	0	0	0	0	0	0	0	0	0	0	0	0	0	0	0	0	0	0	0	0	0	0	0	0	0	0	0	0	0	0	0	0	0	0	0	0	0	0	0	0	0	0	0	0	0	0	0	0	0	0	0	0	0	0	0	0	0	0	0	0	0	0	0	0	0	0	0	0	0	0	0	0	0	0	0	0	0	1178	1293	1377	1390	1375	1384	1364	1351	1355	1389	1392	1397	1414	1427	1432	1422	1410	1405	1396	1385	1374	1369	1375	1390	1403	1399	1399	1400	1388	1386	1364	1361	1353	1346	1347	1365	1370	1371	1373	1386	1400	1399	1389	1388	1381	1387	1402	1415	1422	1440	1435	1438	1420	1391	1341	1348	1393	1392	1385	1382	1386	1393	1409	1424	1421	1400	1373	1353	1351	1371	1388	1394	1393	1400	1410	1416	1419	1403	1400	1399	1397	1392	1393	1407	1420	1447	1435	1435	1421	1414	1416	1422	1433	1427	1423	1422	1405	1393	1396	1398	1393	1380	1393	1425	1462	1438	1392	1397	1432	1459	1467	1470	1467	1450	1426	1417	1423	1433	1432	1360	1428	1465	1489	1440	1416	1386	1328	1327	1328	1321	1279	1237	1209	1219	1254	1272	1292	1295	1317	0	0	0	0	0	1308	1319	1399	1435	1441	1434	1425	1404	1398	1420	1441	1443	1433	1417	1417	1414	1419	1428	1441	1436	1426	1424	1426	1423	1420	1412	1416	1420	1435	1448	1442	1437	1427	1436	1441	1446	1460	1450	1468	1439	1428	1418	1416	1404	1408	1398	1425	1418	1427	1419	1422	1425	1412	1453	1449	1466	1462	1459	1459	1445	1450	1453	1436	1426	1450	1442	1440	1445	1448	1453	1454	1461	1463	1455	1451	1450	1472	1441	1440	1448	1435	1411	1400	1437	1482	1535	1808	2452	2756	2859	2925	2991	3021	3077	3068	3050	2949	2900	2935	2981	2998	3036	3023	2993	2992	2969	2964	2980	2973	2977	2974	2954	2973	2993	3016	2998	2911	2697	0	0	0	0	1858	1858	2012	2177	2319	2324	2288	2281	2263	2137	1929	1791	1763	1749	1752	1726	1714	1693	1691	1686	1686	1687	1684	1759	1817	1825	1880	1937	1934	1910	1872	1890	1905	1924	1923	1890	1852	1750	1603	1509	1491	1497	1495	1471	1419	1371	1347	1353	1380	1411	1417	1403	1401	1397	1395	1425	1442	1421	1444	1443	1445	1446	1415	1392	1403	1422	1432	1430	1419	1410	1404	1403	1405	1409	1403	1399	1401	1401	1393	1389	1384	1392	1409	1421	1441	1451	1449	1441	1429	1409	1403	1409	1417	1417	1415	1429	1439	1443	1442	1432	1440	1459	1465	1496	1648	1956	2108	2344	2404	2408	2379	2331	2309	2292	2266	2251	2254	2218	2225	2253	2248	2213	2196	2188	2210	2196	2169	2164	2134	2108	2122	2184	2246	2252	2252	2227	2225	2198	2187	2175	2183	2211	2230	2198	2169	2180	2200	2186	2096	2083	2068	2051	2054	2065	2059	2066	2059	2026	2031	2040	2051	2030	2024	2024	2002	1986	1974	1963	1960	1976	1960	1946	1940	1939	1946	1951	1955	1949	1943	1934	1922	1932	1929	1920	1924	1927	1930	1927	1914	1907	1898	1901	1914	1910	1906	1900	1897	1885	1871	1862	1851	1846	1846	1856	1863	1852	1847	1841	1862	1864	1864	1854	1864	1864	1888	1897	1835	1803	1766	1737	1703	1683	1674	1654	1645	1653	1633	1595	1560	1538	1528	0	0	0	0	0	0	0	0	0
0	0	0	0	0	0	0	0	0	0	0	0	0	0	0	0	0	0	0	0	0	0	0	0	0	0	0	0	0	0	0	0	0	0	0	0	0	0	0	0	0	0	0	0	0	0	0	0	0	0	0	0	0	0	0	0	0	0	0	0	0	0	0	0	0	0	0	0	0	0	0	0	0	0	0	0	0	0	0	0	0	0	0	0	0	0	0	0	0	0	0	0	0	0	0	0	0	0	0	0	0	0	0	0	0	0	0	0	0	0	0	0	0	0	0	0	0	0	0	0	0	0	0	0	0	0	0	0	0	0	0	0	0	0	1156	1295	1363	1384	1379	1382	1363	1349	1357	1382	1390	1403	1424	1434	1435	1423	1417	1413	1407	1393	1375	1365	1370	1384	1396	1396	1406	1422	1417	1400	1380	1357	1352	1357	1342	1356	1355	1353	1382	1389	1396	1400	1400	1398	1395	1391	1405	1414	1421	1429	1401	1390	1377	1375	1330	1332	1371	1376	1377	1377	1387	1398	1402	1416	1412	1393	1372	1358	1369	1386	1398	1401	1405	1419	1420	1407	1392	1387	1371	1370	1372	1365	1357	1360	1404	1462	1490	1506	1471	1457	1456	1457	1445	1421	1403	1386	1378	1385	1396	1409	1414	1416	1469	1482	1499	1493	1477	1508	1586	1751	1818	1874	2231	2213	2045	1973	1799	1754	1756	1819	1869	1833	1808	1760	0	0	0	0	0	0	0	0	0	0	0	0	0	0	0	0	0	0	0	0	0	1273	1389	1420	1425	1421	1409	1387	1395	1416	1448	1447	1442	1430	1409	1404	1415	1431	1435	1433	1432	1432	1424	1432	1420	1416	1416	1416	1435	1445	1435	1434	1433	1436	1431	1434	1452	1444	1448	1414	1415	1419	1412	1391	1396	1396	1419	1425	1428	1421	1401	1401	1425	1449	1435	1454	1459	1445	1442	1443	1441	1453	1441	1430	1461	1461	1437	1448	1453	1459	1459	1454	1466	1455	1451	1449	1449	1437	1427	1440	1419	1397	1388	1428	1469	1522	1831	2496	2672	2879	2896	2961	3079	3141	3149	3091	3037	2997	3000	2980	2840	2739	2674	2662	2718	2854	2904	2939	2953	2957	2937	2885	2872	2861	2847	2848	2830	2717	2314	0	0	0	1933	1886	1977	2132	2272	2311	2296	2290	2279	2191	1952	1794	1768	1758	1754	1748	1720	1695	1693	1692	1683	1671	1674	1753	1820	1845	1867	1935	1932	1900	1871	1893	1909	1923	1908	1876	1857	1761	1650	1527	1500	1493	1475	1446	1396	1364	1353	1375	1419	1457	1459	1437	1422	1414	1402	1420	1447	1435	1430	1436	1440	1454	1436	1426	1411	1415	1425	1423	1419	1417	1416	1409	1409	1410	1406	1403	1404	1406	1401	1399	1404	1407	1417	1429	1441	1456	1466	1461	1433	1397	1390	1397	1406	1410	1418	1425	1430	1433	1431	1428	1431	1444	1466	1490	1622	1905	2078	2181	2239	2263	2266	2254	2233	2206	2190	2182	2156	2141	2149	2167	2169	2152	2121	2096	2096	2089	2065	2065	2061	2060	2061	2078	2116	2137	2147	2142	2152	2165	2161	2149	2129	2113	2100	2088	2074	2081	2100	2096	2042	2019	2011	2019	2039	2041	2021	2000	1987	1993	1997	2005	2010	2015	2008	2000	1989	1977	1966	1955	1965	1978	1945	1934	1924	1923	1931	1941	1953	1950	1936	1929	1917	1900	1896	1904	1926	1938	1937	1929	1915	1906	1903	1894	1893	1896	1884	1872	1851	1848	1849	1845	1841	1837	1830	1828	1822	1815	1806	1803	1800	1817	1755	1752	1736	1736	1729	1724	1709	1687	1663	1638	1629	1612	1597	1579	1571	1575	1576	1575	1576	1576	1569	0	0	0	0	0	0	0	0	0
0	0	0	0	0	0	0	0	0	0	0	0	0	0	0	0	0	0	0	0	0	0	0	0	0	0	0	0	0	0	0	0	0	0	0	0	0	0	0	0	0	0	0	0	0	0	0	0	0	0	0	0	0	0	0	0	0	0	0	0	0	0	0	0	0	0	0	0	0	0	0	0	0	0	0	0	0	0	0	0	0	0	0	0	0	0	0	0	0	0	0	0	0	0	0	0	0	0	0	0	0	0	0	0	0	0	0	0	0	0	0	0	0	0	0	0	0	0	0	0	0	0	0	0	0	0	0	0	0	0	0	0	0	0	0	1256	1351	1373	1372	1379	1368	1358	1358	1379	1390	1404	1423	1428	1424	1412	1406	1405	1403	1392	1377	1367	1370	1377	1386	1395	1407	1422	1415	1391	1388	1386	1379	1347	1351	1356	1356	1364	1382	1389	1393	1393	1396	1401	1400	1399	1405	1409	1410	1429	1408	1371	1352	1343	1323	1312	1311	1354	1363	1365	1377	1385	1392	1393	1393	1385	1404	1405	1413	1409	1403	1415	1436	1446	1434	1418	1408	1398	1391	1407	1436	1468	1491	1483	1604	1487	1536	1569	1551	1603	1545	1523	1497	1491	1505	1534	1564	1613	1638	1639	1653	1698	1736	1744	1774	1812	1862	1940	2004	2074	1938	1978	2116	2138	2085	2006	1910	1936	1953	1985	1955	1931	1904	0	0	0	0	0	0	0	0	0	0	0	0	0	0	0	0	0	0	0	0	0	0	1259	1390	1422	1426	1412	1398	1380	1394	1406	1448	1455	1446	1440	1424	1411	1414	1436	1454	1455	1454	1449	1442	1438	1422	1419	1416	1420	1425	1441	1444	1427	1439	1420	1426	1429	1433	1449	1456	1408	1404	1408	1407	1388	1404	1402	1421	1417	1408	1421	1423	1417	1421	1439	1427	1436	1454	1452	1454	1433	1435	1452	1455	1472	1471	1467	1435	1445	1462	1449	1444	1438	1460	1459	1453	1445	1446	1451	1430	1432	1410	1387	1392	1422	1453	1494	1769	2329	2596	2732	2789	2887	2967	3060	3042	3024	2996	2974	2941	2843	2752	2674	2645	2658	2692	2754	2844	2894	2906	2899	2868	2819	2808	2791	2810	2807	2800	2752	2493	2207	0	2035	1999	1958	1999	2111	2238	2282	2298	2314	2308	2218	1976	1789	1777	1768	1768	1762	1726	1709	1695	1702	1695	1705	1704	1750	1804	1826	1861	1908	1904	1882	1873	1890	1889	1907	1892	1876	1850	1778	1688	1538	1501	1477	1447	1416	1385	1370	1379	1414	1459	1488	1488	1464	1430	1426	1405	1412	1450	1441	1422	1430	1433	1455	1446	1433	1423	1414	1408	1411	1408	1413	1420	1420	1416	1414	1413	1418	1414	1409	1405	1411	1414	1422	1427	1426	1433	1445	1454	1440	1424	1394	1386	1385	1396	1409	1416	1413	1408	1420	1412	1411	1418	1431	1451	1496	1648	1836	2010	2128	2203	2242	2246	2201	2171	2154	2149	2141	2141	2130	2140	2156	2153	2132	2092	2054	2034	2033	2021	2019	2009	1998	1997	2004	2051	2077	2099	2107	2115	2113	2121	2116	2093	2064	2039	2006	1991	1999	2004	2015	1982	1980	1992	1996	1995	1992	1973	1956	1951	1956	1970	1993	2002	1999	1998	1982	1967	1958	1945	1943	1958	1968	1936	1920	1908	1906	1922	1935	1954	1944	1926	1922	1918	1909	1904	1901	1919	1933	1932	1917	1903	1895	1889	1876	1863	1867	1869	1862	1844	1834	1834	1823	1815	1814	1809	1766	1774	1766	1764	1764	1756	1749	1745	1741	1729	1720	1720	1714	1700	1673	1640	1620	1612	1625	1621	1608	1601	1603	1597	1591	1580	1575	1580	0	0	0	0	0	0	0	0	0
0	0	0	0	0	0	0	0	0	0	0	0	0	0	0	0	0	0	0	0	0	0	0	0	0	0	0	0	0	0	0	0	0	0	0	0	0	0	0	0	0	0	0	0	0	0	0	0	0	0	0	0	0	0	0	0	0	0	0	0	0	0	0	0	0	0	0	0	0	0	0	0	0	0	0	0	0	0	0	0	0	0	0	0	0	0	0	0	0	0	0	0	0	0	0	0	0	0	0	0	0	0	0	0	0	0	0	0	0	0	0	0	0	0	0	0	0	0	0	0	0	0	0	0	0	0	0	0	0	0	0	0	0	0	0	1241	1338	1371	1355	1377	1397	1371	1361	1375	1389	1399	1412	1415	1410	1399	1394	1392	1389	1382	1376	1368	1369	1376	1388	1397	1406	1412	1401	1381	1361	1347	1343	1349	1351	1358	1367	1372	1365	1380	1381	1381	1385	1398	1400	1398	1405	1403	1405	1420	1410	1364	1327	1304	1320	1318	1311	1304	1308	1331	1362	1378	1388	1386	1387	1385	1394	1413	1428	1431	1446	1508	1566	1608	1613	1625	1644	1654	1654	1656	1663	1666	1679	1684	1566	1672	1584	1768	1622	1621	1604	1615	1627	1648	1677	1720	1746	1773	1778	1774	1783	1780	1784	1791	1810	1848	1911	1985	2055	2135	2130	2146	2304	2305	2261	2164	2058	2054	2060	2061	2046	2022	1999	1908	0	0	0	0	0	0	0	0	0	0	0	0	0	0	0	0	0	0	0	0	0	1316	1405	1426	1426	1407	1397	1385	1405	1407	1432	1455	1445	1437	1430	1425	1425	1435	1452	1460	1465	1463	1455	1446	1437	1425	1428	1426	1435	1439	1440	1429	1423	1414	1402	1408	1430	1447	1431	1427	1413	1404	1408	1399	1414	1438	1425	1416	1417	1436	1420	1420	1427	1435	1424	1410	1456	1435	1446	1445	1445	1447	1433	1475	1468	1462	1465	1443	1443	1449	1436	1436	1440	1437	1435	1450	1453	1450	1428	1428	1409	1391	1404	1426	1439	1452	1631	2111	2449	2685	2747	2805	2849	2937	2924	2868	2846	2910	2880	2790	2725	2671	2655	2671	2697	2717	2739	2833	2859	2856	2820	2756	2732	2745	2758	2755	2765	2713	2636	2352	2175	2104	2039	2062	2085	2107	2161	2263	2311	2318	2318	2213	1965	1812	1782	1776	1780	1783	1776	1742	1738	1740	1742	1760	1750	1767	1793	1818	1845	1882	1882	1880	1893	1877	1892	1888	1877	1873	1859	1787	1716	1547	1504	1473	1443	1429	1399	1404	1431	1468	1499	1508	1494	1468	1429	1418	1387	1414	1434	1441	1400	1412	1418	1429	1435	1424	1411	1399	1391	1393	1404	1410	1420	1423	1417	1425	1422	1420	1420	1410	1404	1407	1419	1429	1428	1424	1424	1438	1446	1436	1416	1400	1397	1394	1398	1411	1420	1421	1412	1389	1398	1403	1413	1415	1428	1517	1703	1799	1935	2070	2156	2186	2170	2139	2123	2110	2110	2117	2115	2112	2092	2112	2127	2117	2072	2001	1977	1996	2021	2038	2041	2001	1963	1948	1964	1987	2018	2048	2053	2036	2040	2049	2055	2037	2004	1984	1983	1988	1979	1957	1911	1924	1955	1968	1962	1949	1943	1939	1939	1948	1960	1971	1975	1986	1977	1967	1949	1931	1932	1939	1949	1953	1933	1900	1883	1878	1904	1934	1947	1942	1903	1914	1922	1914	1901	1895	1904	1915	1910	1899	1892	1889	1882	1864	1851	1855	1860	1860	1834	1805	1812	1806	1780	1757	1750	1754	1765	1768	1764	1756	1744	1733	1726	1725	1723	1728	1728	1711	1690	1669	1641	1621	1616	1628	1612	1602	1597	1600	1593	1585	1571	1564	1569	0	0	0	0	0	0	0	0	0
0	0	0	0	0	0	0	0	0	0	0	0	0	0	0	0	0	0	0	0	0	0	0	0	0	0	0	0	0	0	0	0	0	0	0	0	0	0	0	0	0	0	0	0	0	0	0	0	0	0	0	0	0	0	0	0	0	0	0	0	0	0	0	0	0	0	0	0	0	0	0	0	0	0	0	0	0	0	0	0	0	0	0	0	0	0	0	0	0	0	0	0	0	0	0	0	0	0	0	0	0	0	0	0	0	0	0	0	0	0	0	0	0	0	0	0	0	0	0	0	0	0	0	0	0	0	0	0	0	0	0	0	0	0	0	1226	1315	1334	1348	1399	1423	1394	1376	1379	1390	1397	1394	1401	1399	1390	1382	1378	1379	1376	1365	1361	1369	1374	1389	1402	1402	1405	1397	1385	1372	1354	1348	1349	1344	1348	1352	1363	1355	1360	1369	1371	1379	1400	1408	1401	1395	1406	1398	1409	1389	1350	1315	1296	1330	1318	1316	1317	1326	1361	1385	1394	1389	1383	1382	1384	1399	1417	1440	1456	1484	1540	1591	1619	1637	1657	1671	1676	1671	1676	1685	1693	1701	1704	1712	1719	1794	1845	1762	1693	1703	1656	1648	1657	1709	1745	1776	1796	1809	1811	1817	1818	1831	1840	1859	1898	1957	2040	2116	2184	2184	2230	2347	2348	2312	2244	2165	2131	2131	2112	2106	2085	2073	2085	0	0	0	0	0	0	0	0	0	0	0	0	0	0	0	0	0	0	0	0	0	1366	1414	1429	1426	1404	1399	1400	1433	1446	1441	1440	1427	1422	1432	1433	1431	1431	1446	1457	1469	1472	1473	1457	1449	1442	1438	1439	1439	1441	1437	1434	1411	1412	1413	1415	1438	1405	1425	1425	1424	1426	1413	1413	1434	1436	1444	1432	1424	1424	1425	1440	1438	1447	1443	1428	1425	1454	1441	1440	1444	1429	1470	1470	1465	1465	1442	1444	1447	1451	1446	1442	1430	1432	1430	1432	1444	1445	1426	1424	1410	1414	1408	1429	1442	1430	1628	2111	2425	2537	2717	2764	2799	2782	2756	2729	2724	2714	2808	2765	2692	2664	2652	2657	2646	2589	2611	2700	2747	2756	2747	2677	2641	2649	2629	2583	2564	2549	2505	2423	2283	2206	2154	2105	2111	2132	2217	2252	2297	2305	2300	2186	1924	1876	1807	1817	1806	1796	1792	1792	1781	1764	1757	1759	1770	1777	1793	1809	1829	1876	1870	1872	1891	1893	1892	1885	1877	1876	1861	1781	1709	1550	1515	1486	1480	1476	1455	1439	1468	1491	1508	1504	1481	1454	1409	1373	1353	1383	1414	1415	1390	1394	1404	1403	1408	1387	1385	1383	1382	1389	1407	1411	1418	1426	1427	1420	1422	1419	1421	1420	1416	1415	1423	1435	1424	1414	1404	1426	1437	1429	1415	1415	1414	1410	1407	1409	1413	1417	1410	1386	1377	1395	1404	1410	1406	1546	1677	1794	1922	2043	2098	2112	2102	2083	2069	2066	2068	2077	2073	2041	2020	2034	2055	2042	2007	1952	1939	1951	1965	1967	1957	1956	1935	1894	1858	1840	1876	1959	2010	2010	2020	2027	2011	1992	1981	1985	1990	1972	1953	1940	1913	1933	1940	1952	1945	1930	1926	1935	1942	1947	1948	1929	1923	1944	1935	1910	1891	1893	1902	1899	1898	1887	1902	1876	1855	1864	1886	1909	1916	1866	1876	1899	1923	1914	1898	1884	1884	1884	1878	1875	1836	1832	1822	1795	1779	1777	1778	1788	1771	1779	1787	1793	1791	1760	1750	1754	1764	1766	1761	1754	1741	1725	1713	1693	1694	1707	1707	1705	1683	1666	1645	1636	1631	1619	1604	1580	1585	1591	1585	1575	1564	1554	1556	0	0	0	0	0	0	0	0	0
