0	0	0	0	0	0	0	0	0	2160	0	0	0	0	0	0	0	0	0	0	0	0	2318	2310	2327	2340	2340	2364	2385	2392	2396	2418	2432	2418	2418	2381	2351	2329	2354	2371	2388	2389	2391	2391	2401	2414	2431	2424	2413	2411	2414	2421	2445	2447	2447	2455	2426	2395	2381	2381	2365	2347	2301	2258	2264	2291	2338	2358	2360	2357	2347	2347	2335	2326	2340	2347	2361	2398	2399	2430	2410	2384	2359	2336	2316	2310	2280	2276	2280	2296	2309	2310	2306	2287	2274	2257	2239	2237	2249	2273	2279	2273	2259	2245	2205	2206	2237	2233	2212	2219	2238	2254	2229	2222	2209	2200	2211	2243	2244	2236	2242	2219	2205	2160	2205	2200	2179	2151	2139	2133	2116	2106	2087	1974	1693	1616	1462	1419	1371	1365	1392	1386	1383	1384	1394	1394	1386	1378	1375	1378	1376	1373	1360	1348	1349	1364	1376	1387	1400	1403	1396	1374	1370	1369	1372	1378	1391	1397	1399	1391	1384	1385	1389	1396	1402	1398	1390	1399	1402	1406	1406	1401	1385	1413	1414	1425	1404	1388	1391	1413	1401	1401	1407	1402	1410	1421	1425	1430	1434	1438	1426	1428	1451	1480	1508	1528	1562	1624	1713	1760	1786	1790	1808	1815	1808	1818	1841	1829	1800	1774	1768	1783	1814	1776	1764	1748	1733	1753	1786	1819	1826	1831	1869	1888	1887	1874	1860	1849	1813	1791	1800	1832	1836	1816	1778	1765	1765	1774	1777	1770	1780	1784	1790	1794	1793	1732	1726	1715	1740	1742	1753	1757	1760	1751	1749	1740	1722	1715	1726	1731	1729	1741	1746	1742	1731	1719	1694	1674	1672	1607	1502	1480	1389	1354	1368	1402	1415	1403	1400	1422	1430	1427	1417	1415	1415	1414	1420	1428	1428	1423	1426	1428	1426	1423	1418	1404	1400	1402	1410	1420	1426	1421	1411	1404	1410	1409	1417	1425	1434	1437	1431	1424	1421	1423	1427	1435	1447	1451	1441	1437	1443	1436	1442	1451	1452	1447	1429	1433	1429	1434	1446	1439	1436	1428	1432	1449	1434	1410	1406	1406	1409	1419	1422	1424	1441	1442	1433	1442	1429	1406	1433	1442	1424	1422	1437	1457	1501	1523	1517	1529	1541	1545	1556	1564	1566	1561	1525	1513	1504	1496	1487	1487	1494	1497	1503	1483	1487	1489	1497	1505	1513	1503	1495	1477	1459	1452	1450	1448	1460	1469	1482	1486	1495	1492	1504	1514	1509	1492	1466	1446	1429	1438	1451	1462	1463	1454	1446	1440	1431	1429	1426	1422	1417	1409	1409	1403	1412	1421	1413	1414	1417	1431	1449	1459	1481	1475	1410	1401	1402	1402	1406	1410	1419	1444	1459	1452	1440	1429	1423	1425	1422	1412	1406	1399	1393	1380	1374	1364	1364	1375	1395	1396	1379	1365	1348	1345	1354	1365	1366	1368	1390	1395	1407	1385	1391	1389	1380	1379	1379	1389	1400	1412	1416	1403	1383	1356	1347	1356	1365	1361	1353	1354	1355	1360	1360	1359	1362	1363	1357	1349	1341	1360	1391	1395	1400	1403	1398	1374	1367	1369	1370	1359	1358	1350	1338	1349	1330	1330	1340	1353	1353	1347	1332	1325	1328	1336	1344	1335	1333	1322	1314	1325	1314	1305	1300	1302	1308	1312	1312	1305	1297	1286	1283	1270	1259	1254	1260	1268	1277	1279	1272	1260	1249	1252	1262	1273	1278	1265	1257	1240	1222	1216	1229	1240	1248	1257	1264	1279	1276	1271	1278	1278	1269	1264	1249	1237	1216	1202	1191	1192	1195	1198	1192	1207	1214	1217	1216	1218	1226	1231	1221	1217	1215	1213	1211	1216	1208	1206	1204	1202	1206	1203	1209	1204	1192	1180	1175	1166	1174	1182	1184	1171	1133	1136	1139	1139	1156	1147	1138	1132	1117	1117	1114	1132	1138	1129	1126	1125	1123	1119	1118	0	0	0	0	0	0	0	0	0
0	0	0	0	0	0	2186	2186	2196	2222	2248	2281	2304	2304	2287	2264	2262	2273	2309	2309	2342	2344	2332	2340	2375	2406	2406	2427	2422	2394	2403	2417	2410	2367	2367	2331	2326	2326	2334	2365	2385	2393	2375	2375	2370	2388	2408	2405	2383	2336	2333	2335	2369	2406	2406	2419	2401	2360	2326	2328	2339	2322	2279	2233	2222	2260	2310	2335	2317	2300	2298	2298	2292	2271	2268	2278	2312	2359	2370	2374	2368	2345	2267	2243	2253	2274	2267	2255	2236	2223	2209	2209	2200	2202	2208	2215	2221	2192	2167	2169	2204	2219	2205	2148	2117	2108	2132	2119	2110	2114	2147	2164	2134	2127	2142	2153	2143	2137	2175	2167	2135	2137	2144	2121	2122	2123	2104	2096	2087	2072	2049	2032	2014	1945	1732	1634	1498	1426	1384	1352	1366	1371	1363	1372	1390	1380	1381	1383	1380	1377	1376	1368	1353	1354	1358	1369	1379	1386	1392	1382	1380	1369	1368	1371	1378	1392	1407	1414	1409	1410	1402	1399	1395	1397	1394	1389	1388	1406	1410	1384	1392	1392	1387	1404	1407	1418	1411	1385	1375	1403	1397	1399	1398	1400	1405	1417	1421	1431	1442	1454	1445	1449	1475	1508	1525	1535	1576	1629	1726	1779	1774	1764	1770	1774	1763	1792	1804	1783	1757	1751	1747	1757	1768	1759	1734	1721	1711	1692	1755	1766	1771	1766	1780	1799	1800	1813	1790	1748	1735	1732	1729	1740	1747	1745	1726	1733	1736	1748	1750	1748	1746	1741	1735	1725	1697	1693	1680	1675	1681	1698	1720	1727	1726	1706	1700	1689	1669	1671	1662	1655	1666	1687	1689	1683	1680	1675	1658	1643	1640	1624	1529	1506	1404	1409	1400	1419	1424	1412	1399	1415	1421	1420	1412	1404	1403	1405	1410	1417	1424	1424	1421	1410	1395	1400	1400	1399	1401	1407	1412	1423	1427	1439	1430	1415	1415	1415	1410	1412	1432	1434	1429	1427	1422	1426	1432	1444	1450	1447	1443	1438	1445	1448	1453	1448	1446	1436	1438	1436	1433	1430	1427	1429	1440	1442	1440	1439	1477	1482	1447	1413	1411	1416	1425	1427	1433	1439	1454	1424	1460	1419	1447	1470	1434	1422	1446	1456	1463	1464	1471	1479	1489	1495	1501	1509	1512	1498	1479	1472	1464	1447	1430	1423	1425	1440	1450	1453	1437	1430	1432	1461	1477	1474	1469	1453	1447	1444	1438	1438	1441	1437	1430	1459	1470	1458	1465	1471	1467	1457	1439	1416	1398	1399	1411	1429	1436	1426	1414	1411	1411	1403	1398	1398	1398	1392	1384	1378	1386	1397	1393	1381	1383	1404	1424	1428	1430	1398	1380	1379	1385	1383	1378	1372	1370	1372	1376	1370	1377	1382	1393	1398	1393	1381	1377	1375	1351	1339	1347	1341	1344	1357	1351	1338	1327	1316	1317	1314	1326	1339	1368	1393	1401	1400	1388	1348	1334	1333	1335	1336	1343	1360	1360	1367	1363	1341	1328	1329	1333	1344	1352	1350	1344	1343	1345	1346	1346	1343	1345	1350	1346	1338	1335	1323	1336	1336	1343	1333	1315	1305	1305	1308	1299	1296	1294	1311	1326	1326	1312	1293	1277	1281	1287	1280	1269	1265	1271	1276	1277	1277	1275	1270	1275	1258	1256	1257	1269	1268	1267	1270	1275	1280	1280	1273	1257	1252	1253	1254	1236	1237	1246	1253	1246	1237	1234	1236	1236	1240	1237	1227	1213	1217	1211	1201	1210	1225	1231	1233	1229	1232	1241	1241	1238	1235	1227	1211	1209	1208	1198	1185	1176	1174	1179	1184	1190	1194	1191	1182	1192	1197	1214	1214	1209	1202	1199	1201	1203	1203	1199	1192	1185	1179	1176	1177	1183	1183	1178	1173	1150	1153	1161	1171	1163	1140	1127	1120	1124	1124	1125	1121	1110	1109	1104	1097	1106	1103	1114	1121	1121	1122	1118	1109	1105	0	0	0	0	0	0	0	0	0
0	0	0	0	2204	2196	2205	2205	2215	2236	2256	2276	2294	2294	2276	2265	2276	2299	2330	2330	2362	2367	2370	2367	2386	2407	2407	2416	2404	2376	2360	2362	2320	2298	2298	2303	2310	2304	2323	2350	2377	2392	2376	2376	2352	2290	2222	2240	2263	2257	2241	2220	2234	2292	2292	2362	2341	2286	2264	2268	2270	2256	2227	2209	2214	2234	2270	2278	2265	2275	2290	2290	2278	2259	2240	2252	2285	2322	2320	2295	2253	2203	2182	2179	2213	2247	2258	2238	2213	2204	2186	2167	2143	2128	2140	2155	2121	2100	2095	2106	2134	2139	2132	2105	2077	2063	2072	2035	2021	1983	2007	2075	2098	2105	2107	2113	2105	2053	2027	2027	2019	1971	1989	2024	2021	2000	1992	2031	2049	2036	1998	1967	1922	1880	1710	1604	1520	1436	1401	1352	1356	1362	1359	1367	1379	1380	1385	1390	1389	1383	1376	1368	1360	1361	1370	1382	1388	1388	1383	1375	1369	1368	1372	1378	1387	1398	1414	1420	1421	1422	1420	1410	1399	1388	1383	1377	1382	1394	1378	1371	1370	1389	1395	1394	1399	1404	1398	1385	1380	1410	1436	1397	1396	1385	1394	1402	1411	1417	1446	1468	1466	1464	1484	1504	1514	1526	1561	1656	1763	1752	1746	1739	1732	1727	1726	1728	1729	1738	1733	1725	1726	1735	1754	1736	1709	1699	1690	1663	1645	1651	1667	1702	1710	1716	1740	1731	1723	1716	1705	1711	1714	1707	1689	1685	1690	1696	1681	1665	1664	1688	1699	1702	1682	1672	1657	1656	1663	1651	1643	1639	1641	1643	1659	1658	1660	1659	1658	1657	1646	1645	1654	1654	1647	1635	1626	1624	1629	1632	1619	1594	1503	1484	1446	1429	1414	1422	1420	1408	1407	1409	1410	1408	1409	1403	1402	1401	1402	1405	1420	1420	1415	1391	1380	1381	1390	1389	1395	1400	1398	1412	1424	1444	1439	1438	1436	1436	1412	1399	1399	1404	1412	1403	1423	1439	1443	1441	1446	1442	1430	1429	1424	1448	1449	1438	1428	1422	1424	1440	1435	1433	1445	1452	1459	1466	1472	1465	1455	1460	1450	1430	1425	1423	1422	1428	1432	1445	1472	1476	1431	1458	1448	1445	1472	1424	1414	1411	1434	1444	1451	1446	1445	1445	1441	1440	1440	1447	1447	1442	1430	1425	1421	1412	1396	1390	1388	1396	1394	1400	1434	1439	1439	1433	1412	1414	1431	1435	1436	1431	1409	1405	1409	1403	1379	1371	1383	1397	1400	1398	1385	1370	1373	1378	1363	1357	1355	1350	1362	1372	1384	1391	1386	1374	1366	1364	1362	1369	1381	1381	1372	1360	1351	1364	1383	1399	1405	1373	1361	1360	1366	1362	1354	1342	1336	1340	1340	1350	1353	1348	1359	1306	1313	1315	1318	1313	1311	1318	1327	1324	1317	1311	1309	1304	1306	1302	1298	1308	1314	1312	1317	1323	1327	1329	1324	1328	1322	1317	1318	1325	1329	1323	1302	1293	1297	1303	1299	1308	1319	1334	1337	1336	1329	1325	1325	1334	1331	1327	1331	1338	1336	1330	1303	1285	1245	1251	1248	1241	1245	1256	1263	1263	1269	1273	1271	1296	1307	1318	1282	1266	1263	1262	1267	1262	1262	1247	1242	1248	1248	1236	1214	1208	1234	1236	1233	1223	1217	1216	1215	1216	1220	1220	1215	1215	1226	1233	1237	1233	1221	1222	1224	1234	1230	1224	1224	1226	1225	1208	1194	1190	1199	1202	1199	1192	1198	1200	1194	1190	1187	1175	1182	1188	1193	1189	1182	1166	1152	1148	1143	1141	1151	1166	1178	1182	1181	1181	1176	1164	1169	1178	1195	1194	1187	1179	1176	1174	1178	1183	1181	1174	1164	1158	1155	1153	1155	1161	1161	1138	1133	1135	1140	1152	1151	1143	1130	1123	1119	1119	1116	1110	1102	1102	1102	1094	1097	1094	1103	1109	1118	1113	1101	1096	1090	0	0	0	0	0	0	0	0	0
2174	2187	2187	2196	2191	2195	2186	2186	2205	2227	2249	2271	2276	2276	2261	2245	2251	2293	2305	2305	2330	2339	2341	2338	2340	2345	2345	2360	2337	2282	2222	2196	2199	2231	2231	2259	2263	2285	2279	2281	2316	2352	2340	2340	2288	2200	2208	2215	2228	2224	2213	2196	2198	2224	2224	2255	2246	2219	2223	2210	2211	2198	2186	2180	2196	2212	2222	2220	2229	2252	2273	2273	2242	2198	2178	2200	2216	2243	2237	2229	2192	2152	2139	2147	2165	2216	2239	2192	2189	2182	2164	2141	2118	2102	2085	2028	2024	2032	2052	2067	2079	2088	2082	2059	2046	2027	2010	1973	1941	1939	1965	2011	2071	2085	2069	2041	2030	2010	1983	1953	1933	1895	1890	1952	1958	1939	1933	1967	2005	2002	1954	1937	1909	1834	1731	1607	1586	1472	1454	1389	1361	1367	1361	1367	1382	1382	1388	1389	1390	1385	1386	1380	1379	1380	1389	1391	1390	1385	1380	1370	1365	1373	1376	1376	1385	1402	1418	1425	1426	1422	1420	1408	1397	1382	1372	1373	1374	1382	1373	1372	1366	1378	1393	1378	1380	1385	1386	1388	1399	1423	1439	1414	1395	1382	1385	1394	1410	1397	1432	1442	1440	1446	1473	1484	1485	1501	1517	1640	1741	1736	1718	1718	1723	1716	1713	1713	1708	1705	1702	1694	1700	1719	1721	1714	1685	1674	1659	1647	1640	1629	1650	1658	1665	1669	1690	1674	1666	1668	1682	1679	1671	1646	1640	1648	1673	1675	1658	1637	1627	1629	1642	1657	1644	1636	1632	1637	1641	1641	1632	1620	1613	1613	1618	1617	1625	1636	1634	1642	1644	1642	1636	1628	1614	1610	1609	1608	1611	1621	1603	1564	1480	1458	1435	1420	1410	1413	1417	1401	1403	1407	1405	1407	1409	1410	1410	1409	1404	1408	1410	1410	1397	1375	1374	1379	1387	1388	1391	1395	1390	1391	1424	1438	1444	1440	1431	1413	1403	1407	1422	1439	1443	1448	1453	1454	1451	1442	1434	1423	1420	1426	1438	1431	1425	1423	1412	1411	1418	1428	1432	1436	1448	1450	1455	1456	1462	1457	1447	1442	1441	1447	1445	1438	1429	1424	1424	1435	1428	1436	1448	1452	1447	1437	1437	1431	1428	1432	1438	1441	1432	1425	1415	1404	1391	1392	1390	1407	1424	1419	1417	1402	1400	1399	1393	1378	1363	1371	1379	1397	1402	1399	1409	1404	1409	1409	1411	1421	1429	1417	1397	1390	1384	1373	1371	1357	1359	1368	1379	1367	1341	1337	1350	1356	1347	1335	1330	1335	1351	1364	1382	1385	1373	1362	1348	1342	1339	1344	1355	1357	1352	1342	1343	1356	1366	1382	1389	1377	1363	1349	1345	1344	1320	1308	1304	1317	1318	1323	1325	1305	1295	1297	1297	1292	1292	1291	1297	1300	1307	1302	1298	1297	1297	1295	1298	1297	1288	1294	1299	1302	1305	1301	1291	1287	1284	1296	1295	1298	1304	1312	1312	1304	1289	1275	1269	1270	1272	1273	1273	1268	1294	1307	1296	1301	1299	1298	1301	1314	1319	1321	1316	1288	1255	1234	1223	1235	1242	1239	1229	1230	1236	1248	1256	1258	1259	1259	1264	1260	1247	1246	1242	1238	1233	1235	1231	1230	1231	1231	1223	1210	1198	1194	1201	1215	1205	1210	1211	1209	1202	1196	1199	1194	1196	1205	1213	1218	1218	1218	1195	1185	1176	1197	1205	1205	1206	1206	1204	1187	1178	1183	1184	1179	1186	1188	1172	1168	1181	1176	1167	1145	1155	1175	1187	1179	1160	1149	1134	1134	1136	1141	1147	1152	1158	1172	1173	1164	1153	1150	1157	1166	1162	1153	1144	1139	1141	1153	1158	1164	1165	1154	1142	1140	1137	1138	1139	1139	1132	1125	1119	1120	1120	1132	1135	1134	1126	1121	1113	1113	1106	1098	1091	1095	1093	1093	1088	1081	1081	1084	1085	1076	1075	1068	1063	0	0	0	0	0	0	0	0	0
2117	2147	2147	2158	2157	2163	2162	2162	2179	2196	2229	2247	2242	2242	2208	2190	2214	2203	2204	2204	2195	2237	2265	2248	2244	2272	2272	2262	2178	2154	2156	2164	2164	2163	2163	2173	2176	2189	2202	2211	2219	2215	2190	2190	2144	2117	2147	2181	2194	2198	2168	2153	2150	2166	2166	2184	2185	2170	2157	2147	2149	2158	2158	2167	2180	2186	2170	2154	2154	2159	2195	2195	2186	2136	2065	2049	2057	2086	2103	2120	2118	2093	2088	2096	2113	2125	2090	2103	2112	2116	2099	2087	2080	2065	2044	2014	1994	1994	1996	2011	2025	2019	2012	2006	2010	2002	1984	1956	1932	1924	1932	1965	2000	2010	1991	1982	1976	1974	1951	1911	1880	1856	1868	1898	1909	1899	1899	1899	1917	1917	1902	1909	1906	1901	1754	1657	1624	1511	1475	1408	1366	1367	1370	1377	1384	1381	1381	1387	1386	1387	1394	1401	1403	1404	1402	1392	1379	1373	1369	1372	1365	1377	1375	1373	1383	1398	1413	1415	1417	1411	1407	1402	1384	1371	1369	1370	1366	1371	1379	1378	1374	1374	1383	1368	1366	1365	1374	1397	1418	1423	1435	1440	1406	1383	1380	1389	1387	1388	1413	1424	1420	1424	1454	1474	1481	1481	1488	1615	1714	1696	1694	1699	1707	1712	1711	1707	1702	1698	1685	1675	1664	1663	1654	1666	1661	1647	1641	1630	1624	1612	1617	1622	1624	1622	1631	1630	1627	1650	1650	1641	1620	1609	1600	1612	1645	1659	1639	1628	1614	1604	1606	1602	1605	1605	1612	1624	1630	1630	1614	1583	1594	1606	1609	1612	1613	1627	1636	1643	1632	1627	1613	1587	1576	1579	1587	1593	1609	1611	1590	1563	1505	1428	1411	1394	1384	1403	1409	1403	1404	1407	1407	1408	1417	1420	1417	1410	1408	1404	1408	1402	1386	1371	1372	1381	1389	1395	1394	1391	1383	1402	1425	1441	1446	1435	1424	1407	1401	1408	1414	1440	1446	1449	1452	1446	1436	1426	1411	1416	1417	1426	1432	1427	1414	1408	1405	1404	1407	1417	1426	1435	1439	1442	1443	1442	1442	1442	1440	1436	1434	1424	1418	1413	1406	1404	1409	1411	1416	1420	1428	1437	1436	1422	1410	1410	1411	1400	1407	1407	1404	1401	1390	1376	1366	1369	1380	1385	1393	1391	1374	1373	1378	1373	1379	1381	1371	1366	1370	1377	1359	1356	1362	1365	1373	1363	1360	1350	1344	1338	1339	1349	1362	1367	1359	1339	1349	1359	1361	1345	1335	1332	1335	1338	1330	1326	1328	1333	1348	1365	1375	1355	1354	1342	1336	1328	1324	1328	1333	1335	1333	1331	1327	1340	1355	1365	1349	1325	1331	1343	1335	1322	1308	1289	1294	1295	1282	1280	1279	1282	1285	1286	1282	1284	1287	1287	1288	1283	1276	1280	1277	1280	1285	1290	1289	1284	1278	1281	1279	1272	1265	1255	1248	1246	1257	1259	1264	1270	1269	1262	1280	1283	1273	1267	1259	1259	1279	1277	1260	1229	1243	1260	1253	1247	1247	1260	1278	1286	1266	1242	1237	1223	1208	1203	1212	1222	1232	1231	1225	1222	1229	1241	1248	1244	1234	1233	1239	1208	1216	1227	1229	1217	1211	1204	1203	1206	1197	1193	1193	1195	1190	1185	1192	1173	1185	1195	1196	1194	1186	1171	1175	1176	1176	1191	1194	1200	1201	1197	1175	1158	1151	1152	1166	1176	1180	1182	1169	1153	1154	1164	1170	1172	1167	1146	1131	1131	1147	1164	1154	1135	1142	1150	1151	1148	1151	1142	1138	1137	1135	1142	1143	1136	1128	1132	1150	1136	1134	1142	1152	1159	1156	1142	1133	1119	1130	1131	1134	1140	1140	1133	1120	1119	1119	1121	1127	1129	1124	1118	1113	1110	1111	1111	1115	1114	1111	1113	1104	1104	1090	1082	1078	1081	1090	1087	1080	1068	1066	1065	1055	1063	1062	1060	1046	0	0	0	0	0	0	0	0	0
2080	2089	2089	2093	2087	2103	2130	2130	2138	2171	2191	2213	2185	2185	2169	2133	2100	2069	2055	2055	2070	2082	2106	2100	2098	2093	2093	2082	2093	2112	2135	2132	2124	2116	2116	2074	2068	2107	2140	2149	2170	2163	2127	2127	2089	2077	2069	2080	2079	2100	2104	2108	2110	2123	2123	2123	2124	2117	2095	2088	2096	2121	2136	2143	2132	2130	2124	2114	2103	2073	2080	2080	2065	2051	2031	2007	1999	2000	2021	2045	2045	2045	2044	2058	2069	2043	2004	2002	2016	2032	2037	2039	2030	1999	2005	1995	1973	1959	1962	1964	1969	1969	1952	1972	1979	1965	1949	1924	1908	1896	1878	1888	1902	1910	1918	1936	1937	1916	1916	1880	1806	1790	1799	1827	1850	1855	1863	1866	1864	1862	1845	1843	1850	1877	1876	1683	1632	1537	1474	1410	1372	1367	1369	1375	1381	1380	1380	1385	1390	1392	1398	1409	1413	1417	1402	1384	1379	1369	1369	1374	1374	1379	1372	1370	1378	1390	1397	1402	1407	1403	1400	1393	1380	1374	1366	1365	1365	1367	1375	1382	1373	1370	1384	1371	1369	1359	1369	1393	1418	1420	1429	1458	1426	1392	1393	1396	1409	1401	1400	1414	1410	1417	1457	1480	1490	1483	1470	1570	1677	1663	1669	1674	1685	1684	1655	1648	1654	1657	1636	1629	1627	1619	1604	1597	1621	1628	1620	1612	1600	1599	1602	1601	1596	1588	1587	1585	1589	1580	1569	1600	1583	1567	1568	1587	1616	1635	1626	1620	1605	1589	1583	1580	1582	1585	1595	1607	1591	1575	1552	1565	1585	1614	1628	1625	1627	1626	1616	1606	1586	1581	1576	1541	1523	1508	1499	1516	1537	1556	1541	1527	1496	1431	1394	1390	1389	1410	1411	1406	1406	1410	1412	1419	1425	1424	1418	1407	1401	1405	1409	1409	1396	1376	1371	1385	1398	1404	1402	1389	1392	1416	1426	1441	1438	1428	1412	1398	1394	1394	1407	1410	1421	1437	1438	1433	1430	1419	1412	1412	1422	1428	1421	1415	1410	1407	1407	1404	1402	1408	1405	1412	1431	1431	1428	1422	1420	1410	1415	1419	1412	1402	1401	1397	1401	1397	1394	1397	1401	1401	1403	1401	1385	1373	1381	1385	1376	1369	1363	1364	1366	1366	1362	1359	1361	1367	1377	1380	1377	1371	1351	1346	1336	1347	1338	1338	1359	1360	1361	1350	1334	1333	1339	1349	1349	1335	1327	1318	1317	1319	1323	1335	1353	1354	1323	1318	1327	1335	1337	1334	1329	1317	1320	1326	1325	1329	1336	1344	1355	1351	1341	1328	1326	1328	1324	1318	1312	1313	1309	1310	1313	1312	1305	1304	1303	1305	1306	1309	1300	1302	1308	1309	1296	1236	1255	1272	1273	1275	1279	1277	1278	1268	1272	1264	1272	1282	1277	1251	1250	1254	1262	1265	1272	1266	1256	1256	1254	1244	1239	1238	1231	1222	1210	1205	1225	1242	1247	1253	1245	1235	1230	1222	1210	1211	1229	1252	1273	1257	1244	1216	1218	1232	1213	1207	1208	1209	1207	1222	1212	1208	1212	1210	1197	1187	1196	1205	1212	1215	1214	1212	1219	1222	1227	1228	1222	1208	1194	1197	1205	1215	1217	1212	1203	1196	1187	1178	1179	1179	1181	1184	1179	1174	1151	1156	1166	1173	1171	1166	1166	1155	1146	1147	1157	1161	1168	1177	1187	1179	1156	1144	1136	1135	1132	1134	1139	1148	1136	1130	1135	1141	1153	1151	1140	1121	1118	1122	1126	1135	1138	1120	1122	1129	1133	1130	1125	1133	1133	1135	1132	1134	1131	1125	1120	1118	1117	1123	1127	1133	1140	1149	1146	1132	1100	1104	1103	1112	1123	1119	1107	1105	1106	1102	1095	1084	1091	1102	1109	1111	1099	1096	1099	1102	1105	1105	1108	1107	1098	1098	1082	1074	1071	1078	1083	1068	1057	1051	1047	1045	1046	1051	1053	1048	1049	0	0	0	0	0	0	0	0	0
2049	2040	2040	2049	2041	2053	2061	2061	2083	2135	2160	2134	2135	2135	2128	2097	2044	2011	2005	2005	2009	2024	2056	2066	2070	2084	2084	2083	2079	2066	2073	2058	2049	2037	2037	2019	2014	2029	2061	2084	2113	2113	2087	2087	2051	2036	2017	2017	2027	2033	2039	2062	2082	2094	2094	2087	2085	2077	2068	2061	2065	2078	2084	2096	2080	2065	2071	2069	2062	2036	2022	2022	2002	2017	1991	1970	1957	1961	1975	1987	1995	1991	1996	2013	1988	1984	1972	1958	1965	1985	2005	2006	1990	1951	1923	1912	1913	1924	1915	1878	1871	1878	1889	1901	1882	1891	1882	1876	1863	1852	1844	1847	1843	1846	1853	1865	1841	1818	1777	1762	1743	1756	1781	1806	1811	1807	1810	1800	1797	1787	1778	1782	1797	1828	1837	1681	1631	1566	1480	1392	1365	1367	1363	1370	1372	1377	1379	1389	1390	1392	1393	1398	1405	1405	1401	1382	1378	1375	1377	1379	1381	1379	1372	1368	1364	1354	1362	1377	1392	1406	1398	1396	1388	1384	1374	1369	1358	1362	1366	1372	1372	1375	1381	1379	1372	1372	1370	1375	1391	1387	1407	1450	1427	1402	1397	1407	1415	1409	1397	1392	1401	1413	1452	1484	1486	1468	1460	1577	1602	1622	1619	1623	1618	1611	1609	1612	1616	1619	1615	1613	1608	1590	1572	1564	1577	1593	1603	1596	1588	1573	1575	1575	1575	1562	1555	1555	1556	1551	1537	1531	1515	1510	1549	1566	1582	1589	1599	1607	1606	1592	1578	1566	1564	1565	1559	1547	1516	1498	1492	1507	1539	1568	1581	1525	1531	1536	1541	1531	1537	1539	1543	1519	1504	1493	1488	1489	1494	1505	1525	1517	1493	1433	1394	1394	1421	1417	1404	1399	1404	1410	1412	1418	1425	1424	1414	1397	1392	1401	1412	1414	1410	1401	1404	1420	1434	1438	1426	1408	1410	1423	1427	1431	1426	1418	1407	1398	1393	1398	1400	1394	1405	1416	1408	1408	1408	1404	1400	1392	1395	1404	1408	1405	1400	1401	1401	1392	1386	1383	1389	1397	1398	1414	1400	1376	1331	1339	1366	1375	1377	1376	1369	1374	1380	1384	1378	1373	1380	1382	1378	1366	1347	1342	1350	1361	1362	1355	1354	1347	1347	1338	1348	1359	1364	1370	1375	1373	1369	1365	1352	1329	1314	1309	1306	1304	1304	1308	1319	1318	1308	1308	1319	1330	1332	1323	1315	1301	1305	1302	1308	1319	1326	1325	1299	1301	1294	1292	1297	1310	1315	1306	1305	1312	1318	1329	1333	1335	1314	1285	1292	1287	1278	1274	1278	1284	1304	1297	1299	1295	1296	1279	1274	1284	1295	1296	1288	1273	1269	1260	1260	1249	1253	1254	1263	1254	1260	1267	1271	1271	1268	1263	1257	1247	1248	1268	1270	1240	1232	1228	1235	1252	1240	1235	1222	1224	1226	1234	1233	1227	1225	1216	1212	1207	1213	1216	1227	1235	1234	1231	1222	1205	1201	1204	1210	1220	1216	1220	1229	1205	1197	1193	1182	1173	1172	1173	1188	1193	1186	1189	1195	1202	1198	1181	1183	1187	1191	1191	1187	1182	1194	1203	1204	1202	1195	1188	1187	1195	1197	1200	1205	1203	1196	1181	1161	1160	1165	1172	1174	1173	1173	1165	1146	1151	1160	1166	1162	1151	1141	1132	1134	1145	1144	1144	1156	1164	1168	1166	1134	1128	1129	1130	1130	1127	1130	1133	1133	1126	1124	1119	1116	1106	1097	1093	1102	1113	1121	1121	1106	1105	1106	1110	1112	1092	1095	1096	1090	1084	1089	1094	1093	1085	1091	1091	1084	1078	1082	1088	1087	1083	1073	1021	1021	1027	1032	1038	1050	1057	1064	1066	1059	1061	1058	1049	1028	1022	1046	1064	1091	1077	1066	1058	1054	1057	1060	1060	1065	1065	1065	1058	1051	1048	1043	1039	1040	1034	1029	1029	1032	1036	1039	1039	1042	0	0	0	0	0	0	0	0	0
2009	2006	2006	2009	2030	2049	2059	2059	2065	2064	2059	2051	2076	2076	2077	2049	2013	1980	1981	1981	1978	2001	2028	2062	2080	2090	2090	2086	2064	2035	2016	1996	1975	1981	1981	1990	2004	2001	2004	2026	2051	2065	2047	2047	2027	2017	1997	1984	1981	1988	1994	2015	2043	2059	2059	2057	2027	1995	1975	1998	2002	1999	2018	2030	2013	2006	2006	2002	2005	1990	1961	1961	1954	1943	1935	1923	1916	1927	1943	1954	1960	1962	1956	1945	1924	1929	1926	1914	1912	1915	1914	1917	1919	1902	1858	1839	1832	1824	1819	1811	1793	1789	1786	1801	1830	1853	1855	1845	1840	1832	1818	1810	1801	1795	1800	1810	1784	1759	1742	1726	1734	1755	1773	1783	1796	1790	1779	1768	1761	1755	1757	1754	1757	1768	1769	1654	1614	1578	1468	1382	1348	1365	1359	1366	1372	1377	1383	1393	1390	1381	1384	1384	1388	1391	1392	1381	1369	1369	1372	1381	1387	1385	1379	1367	1355	1337	1339	1354	1381	1400	1402	1393	1394	1390	1379	1375	1372	1369	1373	1378	1376	1382	1389	1393	1393	1386	1377	1380	1385	1362	1386	1425	1405	1395	1391	1400	1412	1416	1393	1393	1397	1409	1440	1473	1469	1472	1471	1543	1555	1561	1566	1567	1566	1566	1562	1562	1575	1590	1601	1593	1578	1549	1527	1520	1529	1564	1575	1565	1558	1543	1534	1534	1534	1524	1505	1511	1519	1532	1528	1521	1516	1512	1512	1502	1547	1552	1566	1580	1569	1555	1563	1541	1532	1524	1515	1500	1492	1483	1484	1492	1499	1494	1487	1488	1482	1491	1501	1496	1498	1501	1495	1468	1458	1464	1471	1475	1477	1466	1467	1480	1470	1455	1436	1432	1417	1395	1387	1384	1405	1416	1419	1416	1416	1416	1409	1395	1392	1403	1415	1412	1408	1404	1402	1410	1433	1442	1434	1420	1413	1415	1418	1420	1415	1404	1398	1389	1387	1391	1388	1371	1365	1356	1370	1379	1394	1398	1389	1380	1361	1359	1366	1385	1385	1387	1378	1349	1349	1355	1359	1362	1361	1360	1343	1308	1316	1325	1341	1347	1350	1353	1356	1362	1369	1372	1366	1355	1358	1360	1354	1340	1326	1318	1324	1331	1348	1359	1343	1330	1324	1337	1342	1343	1357	1364	1368	1368	1336	1337	1339	1322	1305	1297	1293	1293	1294	1295	1307	1307	1299	1293	1297	1309	1315	1308	1296	1287	1287	1287	1290	1295	1294	1295	1289	1280	1272	1273	1269	1273	1272	1279	1290	1299	1303	1313	1304	1302	1275	1268	1263	1254	1252	1256	1259	1253	1261	1290	1290	1282	1270	1261	1265	1270	1278	1284	1250	1245	1243	1233	1225	1226	1230	1225	1220	1217	1220	1228	1239	1245	1254	1245	1229	1225	1226	1238	1248	1221	1205	1202	1204	1220	1220	1208	1206	1205	1209	1220	1227	1219	1215	1208	1203	1206	1207	1205	1200	1203	1206	1217	1218	1209	1204	1201	1200	1197	1188	1189	1196	1191	1180	1180	1180	1173	1171	1166	1163	1158	1154	1160	1174	1195	1206	1183	1179	1174	1175	1170	1160	1151	1147	1151	1156	1152	1140	1126	1125	1140	1146	1145	1141	1142	1140	1129	1127	1133	1141	1146	1151	1151	1147	1141	1144	1149	1156	1151	1144	1119	1112	1109	1123	1133	1134	1135	1143	1133	1131	1141	1129	1120	1120	1125	1126	1126	1121	1125	1126	1125	1120	1108	1103	1085	1078	1077	1083	1094	1100	1095	1085	1080	1066	1063	1063	1070	1081	1081	1082	1080	1077	1063	1048	1047	1053	1053	1050	1044	1039	1033	1032	1028	1023	1033	1030	1023	1033	1044	1044	1039	1039	1039	1045	1044	1036	1029	1008	1019	1024	1016	1017	1023	1028	1024	1005	1000	997	1008	1008	1008	1008	1020	1009	1005	1008	1016	1020	1019	1009	1002	1002	1005	1012	1016	1027	0	0	0	0	0	0	0	0	0
1921	1957	1957	1997	2035	2045	2027	2027	2002	1989	1978	1986	2006	2006	2016	1990	1969	1967	1962	1962	1973	1995	2017	2048	2076	2083	2083	2076	2053	2026	2009	1972	1946	1951	1951	1966	1977	1983	1975	1982	1998	2000	2018	2018	2032	2003	1988	1967	1964	1965	1978	1988	2001	2015	2015	2004	1984	1953	1935	1926	1939	1963	1934	1946	1958	1963	1951	1940	1934	1928	1934	1934	1931	1923	1848	1810	1819	1850	1872	1854	1821	1838	1855	1856	1854	1854	1848	1844	1833	1805	1775	1752	1747	1762	1782	1796	1799	1802	1798	1800	1792	1778	1781	1783	1774	1776	1766	1760	1760	1798	1797	1784	1762	1736	1727	1739	1746	1734	1723	1716	1722	1728	1734	1731	1768	1778	1773	1767	1754	1738	1733	1726	1714	1715	1700	1619	1582	1565	1445	1371	1350	1356	1357	1371	1377	1386	1389	1388	1385	1374	1374	1375	1377	1381	1381	1371	1361	1370	1383	1393	1401	1394	1380	1372	1357	1336	1331	1348	1364	1382	1390	1388	1389	1391	1384	1380	1375	1381	1385	1386	1389	1390	1386	1393	1395	1397	1391	1388	1387	1366	1383	1409	1399	1394	1385	1372	1399	1395	1399	1393	1403	1422	1449	1498	1502	1498	1521	1540	1534	1532	1539	1549	1551	1548	1549	1553	1564	1567	1565	1558	1530	1532	1514	1503	1502	1526	1528	1537	1534	1529	1520	1510	1495	1467	1460	1473	1495	1508	1511	1520	1521	1504	1470	1458	1464	1473	1497	1500	1487	1495	1508	1502	1495	1483	1481	1475	1474	1475	1471	1473	1475	1474	1460	1455	1452	1452	1456	1453	1443	1438	1429	1417	1406	1414	1422	1430	1442	1449	1434	1424	1420	1425	1440	1435	1417	1405	1404	1416	1418	1425	1425	1422	1420	1411	1401	1396	1395	1404	1408	1402	1398	1394	1389	1391	1412	1425	1416	1404	1401	1399	1400	1401	1398	1393	1385	1375	1373	1383	1383	1368	1344	1337	1347	1362	1379	1380	1373	1360	1354	1341	1332	1343	1356	1354	1350	1336	1340	1334	1335	1338	1337	1320	1307	1300	1303	1314	1320	1322	1321	1332	1340	1346	1348	1353	1324	1319	1314	1335	1333	1318	1318	1319	1321	1326	1325	1320	1317	1318	1324	1334	1337	1315	1296	1296	1302	1314	1319	1321	1313	1303	1302	1293	1288	1287	1289	1291	1296	1298	1282	1279	1281	1293	1300	1300	1290	1280	1279	1280	1278	1273	1267	1253	1258	1260	1262	1261	1265	1271	1272	1268	1254	1250	1258	1262	1271	1269	1259	1254	1240	1247	1243	1245	1244	1240	1232	1228	1228	1232	1236	1249	1258	1266	1270	1264	1226	1233	1235	1226	1221	1221	1223	1221	1217	1210	1206	1202	1205	1223	1225	1213	1202	1202	1201	1200	1198	1196	1196	1191	1191	1195	1192	1183	1183	1192	1203	1203	1195	1189	1198	1199	1200	1199	1201	1200	1194	1190	1192	1202	1210	1206	1201	1195	1187	1178	1168	1167	1171	1172	1166	1178	1179	1175	1163	1153	1149	1143	1140	1145	1154	1146	1144	1129	1139	1141	1134	1133	1126	1122	1125	1132	1135	1132	1125	1117	1115	1107	1116	1104	1100	1098	1100	1105	1111	1114	1115	1124	1122	1119	1117	1103	1103	1112	1113	1112	1112	1105	1104	1098	1096	1086	1079	1078	1086	1088	1087	1099	1106	1107	1109	1111	1116	1111	1099	1098	1101	1112	1115	1055	1035	1023	1017	1011	1026	1051	1065	1070	1063	1048	1049	1050	1055	1050	1050	1053	1061	1057	1044	1035	1031	1036	1038	1039	1027	1025	1022	1019	1021	1020	1016	1022	1020	1016	1009	1004	1005	1020	1024	1029	1031	1035	1029	1010	1011	1013	1010	1008	1004	1007	1007	1007	998	995	982	996	996	996	991	997	1008	1008	1003	1002	1003	1003	1000	1000	991	980	983	991	997	0	0	0	0	0	0	0	0	0
1886	1926	1926	1977	2011	2005	1993	1993	1956	1935	1931	1934	1917	1917	1921	1946	1955	1966	1969	1969	1966	1948	1943	1936	1943	1954	1954	1983	2004	2010	1983	1942	1915	1918	1918	1929	1952	1940	1915	1922	1930	1946	1962	1962	1970	1947	1915	1923	1940	1951	1954	1945	1937	1933	1933	1936	1923	1906	1897	1892	1884	1888	1886	1863	1855	1823	1805	1793	1792	1800	1816	1816	1825	1813	1780	1773	1773	1768	1754	1765	1787	1806	1803	1807	1813	1807	1787	1764	1739	1741	1743	1729	1718	1733	1750	1763	1771	1764	1755	1761	1766	1750	1736	1734	1740	1745	1750	1749	1740	1727	1724	1716	1702	1679	1681	1696	1701	1694	1676	1669	1663	1663	1665	1699	1709	1726	1758	1756	1741	1728	1725	1712	1699	1670	1656	1570	1540	1530	1410	1362	1355	1367	1366	1377	1385	1392	1385	1382	1382	1377	1374	1373	1370	1369	1375	1367	1359	1386	1411	1412	1407	1398	1385	1381	1369	1351	1340	1343	1358	1372	1378	1381	1383	1390	1385	1380	1381	1390	1390	1386	1385	1387	1371	1384	1384	1413	1393	1381	1402	1398	1404	1411	1402	1395	1385	1371	1380	1401	1434	1482	1491	1501	1502	1501	1490	1523	1556	1532	1518	1520	1535	1540	1539	1532	1536	1548	1553	1545	1520	1510	1504	1502	1502	1478	1484	1497	1497	1492	1493	1490	1490	1470	1454	1447	1450	1458	1461	1464	1463	1465	1459	1458	1452	1431	1427	1451	1459	1442	1450	1451	1474	1468	1453	1446	1445	1450	1447	1456	1457	1457	1459	1449	1443	1437	1430	1426	1425	1423	1424	1427	1413	1399	1384	1381	1389	1400	1411	1419	1412	1393	1382	1389	1394	1405	1414	1417	1421	1426	1427	1421	1422	1426	1414	1405	1387	1380	1373	1370	1378	1387	1388	1383	1375	1374	1373	1379	1378	1377	1373	1372	1372	1369	1370	1369	1359	1358	1364	1374	1369	1360	1336	1323	1320	1325	1321	1338	1345	1329	1323	1323	1317	1325	1325	1326	1333	1335	1331	1321	1315	1321	1324	1315	1310	1297	1298	1308	1314	1313	1295	1290	1288	1299	1310	1319	1310	1307	1296	1303	1300	1307	1308	1304	1286	1269	1273	1271	1277	1278	1288	1311	1314	1295	1274	1273	1281	1297	1299	1296	1288	1274	1272	1266	1247	1247	1275	1289	1289	1283	1266	1265	1273	1280	1265	1257	1254	1262	1268	1265	1252	1250	1243	1223	1232	1245	1249	1253	1254	1259	1259	1257	1245	1243	1243	1249	1255	1249	1251	1238	1234	1234	1233	1231	1228	1230	1221	1211	1206	1210	1221	1226	1229	1224	1207	1204	1211	1220	1226	1222	1215	1214	1214	1210	1215	1202	1197	1189	1186	1190	1191	1184	1178	1166	1161	1166	1183	1189	1185	1173	1167	1166	1175	1170	1159	1165	1173	1180	1180	1177	1184	1189	1194	1187	1179	1171	1170	1174	1174	1169	1165	1168	1172	1169	1154	1141	1137	1137	1141	1136	1139	1148	1151	1146	1131	1126	1134	1135	1140	1148	1147	1143	1121	1083	1086	1120	1116	1118	1105	1107	1103	1106	1122	1122	1117	1112	1109	1100	1100	1100	1092	1088	1086	1095	1101	1109	1113	1114	1114	1109	1101	1078	1076	1081	1083	1078	1080	1087	1088	1089	1074	1067	1063	1062	1073	1068	1064	1065	1075	1082	1090	1065	1055	1061	1063	1058	1051	1044	1034	1030	1032	1031	1029	1022	1017	1012	1014	1023	1037	1026	1020	1023	1030	1032	1032	1029	1016	1008	998	995	996	1004	1006	1007	1006	1007	1000	1003	1010	1008	1005	1004	1005	1008	1002	997	988	985	994	1009	995	1000	998	993	996	1000	998	994	991	993	1000	999	997	983	975	969	962	962	959	980	992	994	999	986	973	970	965	965	968	965	968	976	989	0	0	0	0	0	0	0	0	0
1870	1901	1901	1940	1940	1946	1925	1925	1899	1897	1907	1905	1891	1891	1884	1900	1928	1940	1932	1932	1925	1921	1909	1904	1915	1914	1914	1913	1914	1916	1906	1889	1862	1892	1892	1897	1897	1887	1858	1829	1836	1841	1866	1866	1876	1874	1865	1871	1879	1896	1892	1879	1869	1866	1866	1860	1779	1787	1804	1813	1824	1836	1831	1790	1746	1740	1761	1762	1768	1781	1789	1789	1785	1770	1760	1768	1777	1770	1733	1715	1732	1765	1770	1754	1751	1752	1757	1742	1719	1713	1709	1705	1702	1708	1717	1729	1725	1713	1709	1716	1713	1713	1708	1705	1708	1706	1716	1719	1713	1706	1689	1682	1672	1662	1662	1677	1679	1674	1661	1645	1636	1632	1633	1642	1669	1679	1688	1692	1692	1685	1690	1688	1666	1643	1631	1557	1508	1497	1394	1364	1370	1378	1372	1384	1396	1394	1386	1380	1379	1378	1377	1376	1376	1381	1378	1372	1370	1383	1405	1411	1408	1400	1390	1384	1377	1363	1347	1345	1353	1369	1375	1383	1386	1385	1385	1382	1391	1392	1390	1379	1373	1379	1378	1382	1397	1413	1395	1377	1399	1420	1423	1421	1407	1399	1389	1388	1425	1456	1499	1510	1509	1501	1500	1501	1506	1532	1523	1526	1525	1511	1503	1490	1485	1479	1472	1471	1469	1465	1463	1467	1466	1465	1463	1474	1471	1476	1471	1466	1462	1458	1454	1449	1448	1441	1436	1425	1420	1417	1407	1411	1414	1431	1433	1427	1424	1428	1427	1421	1419	1417	1440	1447	1445	1438	1438	1442	1440	1427	1426	1423	1428	1422	1410	1402	1398	1393	1394	1408	1425	1424	1411	1395	1362	1390	1405	1422	1426	1411	1390	1380	1367	1378	1379	1388	1399	1398	1401	1400	1406	1397	1383	1401	1401	1379	1368	1355	1339	1332	1345	1375	1382	1377	1367	1357	1355	1352	1354	1354	1350	1341	1344	1343	1341	1341	1348	1344	1344	1341	1347	1349	1318	1309	1307	1308	1308	1314	1302	1299	1297	1300	1300	1309	1306	1307	1315	1320	1321	1287	1285	1302	1317	1311	1300	1302	1298	1300	1302	1292	1276	1273	1276	1286	1301	1305	1290	1285	1277	1277	1281	1285	1282	1265	1257	1259	1259	1266	1268	1274	1276	1273	1264	1259	1247	1252	1262	1278	1286	1284	1261	1249	1250	1228	1224	1229	1236	1256	1254	1250	1234	1240	1248	1251	1245	1241	1237	1234	1226	1210	1205	1190	1175	1190	1209	1219	1225	1232	1235	1236	1220	1220	1214	1218	1233	1234	1234	1226	1208	1194	1170	1178	1200	1214	1213	1214	1211	1201	1196	1197	1205	1213	1205	1177	1176	1178	1188	1195	1213	1215	1213	1201	1183	1184	1187	1189	1180	1166	1169	1172	1176	1173	1159	1152	1144	1138	1158	1181	1175	1164	1156	1131	1121	1134	1136	1139	1145	1161	1165	1165	1174	1183	1156	1126	1122	1130	1132	1133	1128	1116	1110	1147	1148	1130	1123	1121	1116	1119	1116	1111	1114	1109	1111	1112	1102	1105	1110	1114	1120	1124	1118	1110	1093	1070	1062	1075	1090	1093	1096	1082	1086	1087	1088	1092	1100	1099	1089	1092	1094	1087	1084	1074	1072	1076	1078	1084	1092	1096	1091	1089	1087	1071	1068	1072	1076	1069	1065	1064	1067	1071	1072	1073	1029	1024	1022	1021	1022	1047	1060	1066	1054	1036	1024	1025	1044	1050	1045	1039	1030	1030	1030	1029	1025	1019	1004	994	991	995	1014	1022	1017	1016	1014	1010	1004	993	998	1000	992	983	985	987	991	993	993	983	980	987	994	996	994	993	994	996	998	989	981	980	977	978	981	983	976	972	977	977	977	975	978	984	990	990	984	975	965	958	953	953	949	948	967	975	982	983	977	966	959	949	944	941	932	943	956	0	0	0	0	0	0	0	0	0
1865	1867	1867	1877	1885	1878	1862	1862	1844	1864	1890	1901	1868	1868	1847	1850	1863	1867	1889	1889	1899	1899	1885	1889	1882	1872	1872	1861	1854	1862	1863	1855	1826	1803	1803	1830	1842	1822	1789	1769	1779	1799	1824	1824	1838	1832	1830	1827	1825	1825	1834	1791	1779	1754	1754	1740	1748	1770	1780	1796	1807	1807	1793	1735	1729	1733	1729	1721	1724	1733	1740	1740	1748	1741	1741	1757	1772	1747	1716	1695	1702	1726	1727	1737	1730	1731	1725	1724	1703	1682	1671	1670	1671	1671	1672	1677	1675	1668	1676	1669	1664	1660	1659	1673	1664	1665	1675	1678	1689	1674	1655	1642	1635	1635	1635	1633	1634	1633	1628	1627	1619	1608	1613	1621	1639	1659	1661	1660	1658	1631	1641	1641	1641	1622	1609	1579	1462	1420	1390	1356	1358	1382	1372	1383	1397	1386	1376	1373	1384	1390	1385	1381	1375	1374	1369	1369	1364	1362	1374	1396	1400	1396	1392	1389	1376	1356	1348	1356	1375	1383	1390	1395	1392	1390	1388	1390	1391	1389	1383	1369	1362	1377	1400	1393	1400	1419	1394	1371	1391	1418	1401	1415	1402	1397	1404	1429	1461	1480	1478	1453	1433	1447	1461	1471	1486	1498	1509	1507	1510	1492	1461	1461	1456	1457	1454	1446	1444	1443	1443	1444	1443	1452	1453	1459	1459	1457	1453	1452	1445	1428	1412	1423	1425	1420	1401	1396	1388	1386	1387	1390	1401	1416	1428	1434	1428	1410	1403	1399	1401	1392	1386	1374	1412	1401	1399	1394	1384	1378	1380	1387	1376	1379	1365	1355	1350	1354	1369	1384	1387	1383	1373	1355	1353	1358	1376	1387	1384	1370	1360	1366	1368	1366	1368	1378	1380	1375	1371	1367	1349	1334	1329	1351	1363	1362	1346	1335	1329	1331	1333	1358	1371	1369	1353	1343	1335	1333	1334	1336	1334	1325	1319	1318	1318	1319	1326	1323	1315	1313	1296	1293	1295	1295	1296	1298	1300	1295	1292	1286	1285	1289	1283	1289	1292	1299	1293	1288	1274	1261	1271	1293	1296	1290	1277	1281	1281	1284	1271	1267	1264	1272	1272	1279	1275	1272	1263	1255	1252	1257	1259	1233	1234	1243	1239	1241	1250	1252	1262	1264	1255	1246	1236	1230	1211	1215	1227	1248	1248	1223	1204	1209	1223	1214	1207	1216	1228	1235	1237	1226	1217	1221	1223	1223	1219	1221	1234	1239	1228	1208	1196	1186	1186	1198	1201	1201	1198	1197	1193	1197	1192	1192	1190	1198	1208	1207	1209	1208	1200	1191	1170	1168	1168	1176	1184	1191	1192	1184	1181	1186	1157	1151	1156	1155	1149	1165	1170	1167	1164	1165	1159	1150	1142	1121	1120	1132	1146	1143	1142	1153	1153	1152	1150	1139	1130	1129	1146	1162	1159	1150	1140	1113	1113	1114	1118	1125	1124	1123	1139	1148	1148	1133	1122	1114	1109	1109	1116	1116	1114	1104	1090	1088	1093	1096	1102	1094	1090	1089	1096	1095	1097	1097	1088	1082	1079	1078	1071	1069	1069	1073	1075	1080	1078	1068	1062	1059	1071	1081	1068	1068	1072	1069	1062	1062	1068	1074	1076	1085	1082	1089	1086	1077	1072	1077	1078	1083	1081	1082	1077	1077	1079	1067	1057	1054	1056	1056	1048	1054	1059	1054	1037	1014	1004	1014	1022	1021	1017	1021	1024	1039	1033	996	990	985	996	1005	1010	1017	1025	1029	1025	996	975	961	950	948	963	978	988	1005	1008	1012	1002	994	988	975	979	984	985	978	977	982	986	985	982	965	963	962	980	985	980	982	985	988	986	975	975	971	970	970	973	976	974	968	971	972	968	965	967	972	978	967	966	960	952	947	943	943	938	940	945	951	950	965	957	946	940	941	941	936	928	930	934	0	0	0	0	0	0	0	0	0
1841	1839	1839	1837	1827	1804	1805	1805	1822	1859	1878	1872	1847	1847	1835	1833	1831	1841	1871	1871	1878	1870	1849	1838	1848	1841	1841	1811	1812	1827	1833	1814	1797	1783	1783	1776	1775	1754	1744	1743	1744	1760	1785	1785	1793	1789	1791	1719	1710	1729	1756	1766	1757	1745	1745	1735	1740	1748	1753	1768	1778	1766	1732	1731	1739	1738	1719	1706	1704	1711	1722	1722	1722	1712	1708	1724	1723	1708	1689	1663	1671	1689	1694	1708	1708	1704	1697	1680	1666	1649	1638	1637	1648	1644	1639	1639	1636	1638	1633	1620	1600	1594	1610	1613	1620	1628	1640	1644	1648	1630	1618	1603	1596	1596	1582	1577	1583	1580	1572	1576	1581	1587	1591	1602	1617	1614	1605	1601	1588	1579	1584	1586	1578	1575	1589	1566	1453	1422	1399	1366	1355	1365	1360	1368	1384	1369	1358	1365	1392	1396	1395	1384	1374	1365	1364	1360	1344	1347	1368	1388	1390	1385	1390	1395	1382	1362	1351	1357	1377	1387	1394	1395	1395	1392	1387	1387	1392	1385	1376	1353	1363	1397	1406	1403	1404	1412	1391	1371	1373	1380	1393	1349	1323	1374	1405	1443	1467	1465	1454	1442	1439	1443	1444	1444	1440	1452	1471	1479	1478	1475	1450	1435	1441	1438	1427	1426	1426	1425	1427	1427	1431	1430	1424	1429	1432	1407	1399	1400	1398	1390	1390	1401	1401	1386	1384	1378	1374	1362	1359	1359	1370	1393	1393	1393	1378	1370	1361	1364	1359	1350	1345	1341	1347	1354	1379	1373	1362	1358	1361	1362	1358	1356	1361	1359	1346	1342	1345	1356	1364	1360	1353	1351	1347	1352	1361	1365	1362	1351	1346	1348	1361	1361	1363	1362	1351	1354	1345	1337	1305	1294	1317	1336	1343	1345	1336	1329	1322	1321	1311	1318	1333	1335	1337	1328	1317	1314	1317	1317	1313	1316	1308	1295	1279	1261	1269	1286	1286	1278	1272	1271	1271	1272	1275	1286	1290	1280	1274	1267	1266	1262	1263	1266	1268	1282	1278	1268	1261	1258	1272	1267	1260	1260	1250	1241	1225	1231	1231	1229	1253	1252	1251	1246	1241	1231	1231	1228	1225	1217	1215	1210	1203	1203	1220	1230	1241	1243	1248	1242	1231	1215	1200	1201	1199	1203	1210	1212	1206	1192	1183	1183	1185	1200	1211	1213	1227	1235	1234	1225	1203	1204	1206	1207	1204	1208	1212	1211	1197	1184	1172	1155	1151	1174	1183	1181	1171	1168	1177	1174	1173	1182	1187	1177	1171	1174	1185	1187	1185	1176	1165	1155	1147	1152	1144	1144	1153	1161	1137	1124	1115	1122	1124	1116	1123	1130	1127	1121	1123	1126	1123	1123	1116	1111	1104	1103	1109	1116	1118	1125	1127	1124	1119	1115	1120	1121	1123	1121	1149	1138	1111	1099	1101	1101	1102	1105	1106	1096	1091	1111	1124	1124	1111	1097	1098	1097	1092	1103	1094	1092	1080	1068	1068	1066	1066	1060	1069	1077	1079	1079	1075	1071	1068	1067	1070	1070	1062	1059	1060	1065	1065	1073	1078	1066	1059	1057	1062	1064	1064	1063	1058	1050	1045	1039	1048	1051	1063	1067	1077	1085	1079	1069	1066	1066	1056	1051	1046	1059	1051	1050	1021	1035	1036	1029	1031	1039	1044	1035	1030	1007	992	988	992	1003	1013	1011	1004	1001	995	1000	993	978	981	989	986	984	988	997	1005	1006	1001	981	957	943	941	948	964	978	983	979	987	992	988	976	970	959	967	972	978	975	976	979	982	981	975	964	960	958	958	949	948	953	963	974	968	961	959	962	964	964	967	967	966	966	966	966	962	959	960	961	960	958	952	944	941	938	935	935	933	936	944	945	943	937	934	927	921	922	925	928	927	927	927	0	0	0	0	0	0	0	0	0
1809	1798	1798	1781	1771	1774	1797	1797	1805	1832	1817	1802	1812	1812	1809	1811	1816	1825	1847	1847	1850	1835	1818	1803	1788	1795	1795	1779	1785	1792	1795	1794	1796	1783	1783	1768	1762	1749	1739	1740	1742	1746	1748	1714	1713	1703	1683	1672	1682	1715	1734	1754	1751	1739	1723	1723	1717	1716	1717	1715	1705	1683	1692	1710	1723	1704	1690	1683	1688	1699	1698	1698	1669	1658	1677	1670	1668	1634	1611	1610	1627	1644	1665	1680	1686	1677	1666	1648	1625	1612	1609	1604	1612	1614	1614	1614	1610	1602	1582	1568	1557	1550	1550	1553	1568	1593	1610	1616	1607	1594	1580	1563	1563	1553	1542	1542	1551	1543	1551	1558	1565	1560	1545	1575	1570	1560	1552	1537	1543	1553	1557	1553	1549	1541	1542	1539	1456	1427	1413	1378	1366	1367	1353	1362	1386	1387	1381	1409	1406	1410	1403	1391	1389	1370	1361	1358	1351	1355	1372	1387	1378	1371	1374	1399	1387	1371	1365	1368	1377	1388	1396	1398	1389	1386	1385	1389	1388	1378	1365	1355	1366	1402	1415	1408	1404	1396	1388	1378	1371	1371	1354	1342	1338	1365	1384	1407	1421	1423	1423	1410	1409	1419	1428	1424	1419	1417	1418	1423	1440	1432	1435	1421	1413	1406	1406	1404	1404	1407	1414	1415	1407	1397	1402	1411	1414	1404	1387	1388	1387	1380	1380	1375	1362	1362	1370	1368	1359	1347	1335	1338	1345	1349	1344	1341	1338	1344	1348	1356	1354	1343	1328	1333	1335	1343	1345	1347	1357	1358	1360	1358	1354	1345	1350	1347	1339	1332	1327	1332	1344	1349	1348	1344	1342	1334	1332	1334	1340	1339	1331	1328	1331	1334	1301	1304	1330	1332	1309	1285	1271	1279	1293	1304	1316	1329	1322	1309	1302	1273	1259	1271	1281	1292	1283	1279	1281	1286	1304	1304	1298	1287	1270	1260	1254	1252	1254	1263	1280	1269	1262	1263	1265	1269	1272	1274	1272	1271	1266	1264	1259	1254	1257	1259	1265	1267	1265	1256	1249	1251	1246	1219	1216	1226	1220	1214	1206	1205	1195	1196	1201	1190	1188	1191	1199	1202	1192	1193	1198	1205	1210	1197	1176	1168	1161	1167	1175	1216	1229	1220	1201	1188	1182	1177	1177	1158	1160	1167	1162	1142	1143	1159	1169	1189	1194	1180	1184	1185	1186	1175	1175	1178	1171	1165	1151	1141	1138	1139	1132	1137	1145	1138	1131	1148	1159	1162	1146	1152	1171	1182	1187	1179	1168	1160	1154	1157	1157	1153	1163	1165	1162	1131	1120	1121	1120	1123	1116	1098	1088	1092	1104	1114	1114	1095	1096	1115	1113	1107	1113	1119	1123	1116	1107	1095	1088	1091	1098	1098	1096	1102	1107	1107	1106	1104	1112	1121	1117	1110	1103	1094	1093	1090	1094	1092	1081	1075	1081	1088	1084	1097	1098	1095	1098	1090	1088	1088	1090	1086	1086	1081	1055	1052	1057	1051	1050	1042	1048	1061	1062	1053	1051	1048	1047	1055	1060	1065	1061	1058	1056	1057	1060	1068	1075	1066	1063	1061	1063	1059	1053	1052	1043	1027	1018	1017	1017	1032	1045	1050	1044	1050	1058	1058	1057	1048	1041	1021	1022	1014	997	974	969	993	995	994	997	1009	1021	1009	1005	987	987	985	986	993	992	998	987	995	987	978	972	970	974	976	976	968	968	979	992	998	980	963	950	942	943	954	966	976	974	961	961	956	948	947	950	958	963	966	966	959	962	969	976	979	971	963	958	951	946	942	942	944	953	960	954	953	946	945	957	956	961	963	965	960	960	957	953	953	954	954	954	952	942	936	932	929	930	930	935	940	947	946	939	932	925	917	916	924	924	922	918	916	901	0	0	0	0	0	0	0	0	0
1768	1746	1746	1731	1729	1743	1756	1756	1764	1777	1778	1781	1779	1779	1780	1777	1764	1755	1780	1780	1813	1816	1795	1768	1747	1731	1731	1738	1748	1748	1742	1756	1772	1781	1781	1772	1761	1742	1744	1747	1702	1686	1684	1684	1665	1647	1626	1629	1637	1642	1681	1698	1716	1713	1690	1690	1673	1656	1651	1644	1636	1640	1659	1680	1678	1673	1665	1651	1643	1639	1644	1644	1632	1627	1623	1624	1601	1590	1591	1590	1595	1599	1611	1624	1645	1649	1629	1611	1592	1575	1566	1551	1557	1569	1576	1594	1586	1578	1558	1547	1536	1535	1534	1529	1526	1531	1548	1563	1563	1546	1534	1522	1518	1498	1499	1504	1496	1501	1526	1534	1535	1522	1512	1501	1523	1532	1522	1511	1518	1530	1533	1521	1513	1511	1508	1509	1460	1430	1408	1396	1390	1367	1352	1380	1397	1401	1412	1404	1397	1396	1397	1399	1402	1402	1397	1389	1387	1390	1378	1375	1368	1364	1371	1394	1395	1387	1379	1377	1385	1392	1395	1403	1393	1387	1389	1397	1394	1390	1369	1364	1361	1394	1406	1409	1407	1401	1390	1384	1380	1371	1363	1366	1383	1415	1415	1396	1387	1396	1400	1385	1382	1381	1406	1405	1405	1405	1398	1396	1390	1374	1377	1377	1380	1393	1401	1400	1393	1384	1379	1374	1374	1383	1393	1395	1395	1397	1390	1386	1375	1366	1349	1339	1345	1344	1352	1356	1351	1342	1340	1337	1339	1334	1331	1327	1316	1325	1331	1342	1341	1334	1323	1323	1326	1331	1328	1324	1323	1327	1347	1345	1341	1331	1329	1325	1314	1300	1298	1309	1335	1344	1338	1335	1328	1325	1320	1320	1319	1313	1307	1304	1279	1280	1281	1279	1278	1281	1279	1266	1266	1269	1274	1284	1280	1277	1270	1255	1241	1231	1230	1244	1252	1253	1259	1261	1263	1257	1282	1280	1277	1263	1262	1259	1257	1248	1235	1219	1221	1251	1260	1253	1248	1242	1240	1241	1244	1248	1252	1246	1243	1244	1246	1252	1252	1238	1222	1211	1210	1210	1198	1192	1202	1201	1201	1197	1191	1185	1189	1189	1176	1178	1178	1182	1185	1189	1192	1195	1197	1197	1197	1194	1177	1156	1145	1145	1150	1169	1188	1188	1181	1171	1172	1166	1155	1157	1157	1156	1150	1127	1116	1122	1132	1139	1138	1121	1125	1132	1148	1152	1156	1152	1145	1137	1128	1120	1118	1121	1123	1127	1123	1120	1128	1137	1141	1142	1132	1128	1144	1150	1149	1142	1140	1143	1137	1132	1115	1104	1122	1134	1138	1108	1102	1101	1096	1112	1104	1094	1083	1081	1087	1090	1084	1071	1074	1097	1096	1096	1103	1109	1116	1110	1098	1087	1082	1085	1091	1087	1084	1090	1100	1103	1102	1101	1105	1112	1108	1101	1092	1085	1070	1063	1049	1037	1034	1034	1039	1045	1052	1065	1058	1049	1054	1056	1049	1039	1041	1042	1036	1029	1033	1037	1038	1038	1033	1030	1029	1043	1044	1037	1033	1028	1032	1037	1045	1054	1062	1050	1044	1046	1052	1056	1065	1052	1043	1048	1043	1039	1034	1030	1025	1012	1000	1000	999	1003	986	994	1010	1021	1008	1032	1030	1020	1004	997	996	990	984	971	965	976	977	979	965	964	965	968	973	977	978	975	975	980	970	969	977	982	979	969	965	964	962	957	957	946	947	955	959	961	959	948	941	939	947	960	962	963	952	950	946	939	927	921	926	930	932	933	932	934	937	942	949	955	955	947	937	930	929	932	934	936	938	940	942	936	936	933	936	942	949	953	938	924	923	937	941	945	943	944	947	947	943	933	928	927	927	929	924	921	920	919	930	927	925	921	923	922	919	917	910	900	899	0	0	0	0	0	0	0	0	0
1723	1710	1710	1712	1704	1711	1718	1718	1705	1724	1743	1751	1754	1754	1741	1737	1724	1723	1731	1723	1723	1724	1743	1727	1705	1701	1701	1701	1704	1699	1706	1724	1741	1755	1755	1750	1737	1720	1673	1634	1645	1654	1652	1652	1647	1640	1638	1637	1631	1626	1637	1662	1680	1660	1653	1653	1637	1620	1611	1605	1608	1612	1619	1623	1607	1608	1610	1616	1623	1622	1609	1609	1603	1601	1606	1603	1595	1587	1585	1578	1567	1568	1573	1572	1578	1584	1577	1564	1546	1523	1519	1506	1518	1537	1549	1554	1543	1534	1533	1519	1519	1536	1533	1523	1503	1496	1513	1520	1519	1524	1514	1503	1477	1461	1452	1466	1461	1474	1484	1499	1510	1506	1493	1483	1482	1502	1501	1499	1500	1509	1504	1487	1480	1481	1483	1483	1468	1425	1413	1406	1385	1368	1372	1406	1422	1421	1424	1403	1391	1379	1388	1397	1406	1409	1405	1396	1390	1398	1390	1375	1363	1354	1368	1388	1403	1401	1398	1384	1388	1401	1412	1417	1420	1406	1398	1399	1400	1394	1374	1366	1360	1378	1392	1397	1405	1403	1394	1382	1373	1373	1385	1401	1404	1408	1397	1388	1386	1388	1386	1385	1380	1375	1375	1374	1391	1389	1382	1372	1347	1336	1328	1337	1352	1368	1377	1376	1363	1357	1351	1348	1349	1353	1369	1381	1378	1371	1373	1365	1360	1343	1327	1321	1325	1332	1341	1347	1346	1338	1325	1325	1325	1318	1313	1308	1300	1302	1316	1326	1338	1316	1299	1309	1314	1318	1312	1304	1302	1305	1315	1308	1327	1314	1309	1294	1287	1273	1276	1297	1328	1335	1327	1319	1311	1285	1280	1279	1277	1270	1264	1260	1250	1267	1274	1266	1255	1252	1257	1262	1262	1263	1264	1266	1258	1243	1228	1231	1223	1214	1211	1217	1229	1246	1253	1231	1212	1221	1222	1223	1239	1252	1255	1256	1238	1217	1192	1186	1186	1190	1209	1224	1238	1237	1225	1217	1210	1210	1213	1210	1193	1185	1214	1215	1214	1212	1190	1197	1194	1184	1178	1183	1187	1187	1186	1184	1184	1179	1182	1181	1172	1170	1168	1169	1170	1178	1176	1182	1188	1200	1196	1192	1177	1162	1149	1146	1152	1153	1165	1170	1163	1158	1143	1148	1150	1145	1144	1140	1134	1130	1121	1120	1112	1114	1111	1111	1117	1131	1138	1140	1139	1139	1132	1133	1125	1119	1118	1119	1119	1119	1118	1116	1118	1119	1118	1119	1112	1117	1117	1110	1107	1108	1118	1103	1088	1079	1085	1096	1103	1107	1108	1106	1099	1093	1085	1093	1097	1094	1079	1074	1074	1072	1062	1054	1048	1060	1065	1076	1087	1090	1086	1086	1087	1082	1079	1082	1083	1080	1085	1085	1087	1089	1082	1067	1059	1055	1064	1057	1051	1041	1035	1033	1030	1029	1029	1032	1034	1035	1030	1029	1032	1031	1030	1025	1038	1045	1046	1042	1030	1022	1023	1026	1022	1022	1022	1019	1013	1015	1011	1012	1012	1013	1015	1018	1012	1017	1024	1015	1005	1008	1023	1027	1028	1017	1025	1034	1034	1032	1028	1018	1013	1006	999	992	992	991	1004	1003	1000	995	996	997	998	996	987	980	976	980	980	970	969	958	958	956	950	949	955	962	968	966	965	963	959	952	958	960	964	968	961	955	949	948	947	944	947	939	936	940	938	947	943	934	931	935	944	940	929	928	936	939	938	925	915	914	913	918	923	921	925	924	929	923	926	928	931	927	918	908	902	912	918	927	931	934	930	927	927	926	927	931	933	934	928	919	917	919	925	921	915	910	912	920	927	924	925	919	919	917	909	894	886	885	892	898	901	900	898	905	907	904	897	891	891	0	0	0	0	0	0	0	0	0
1668	1688	1688	1703	1711	1695	1681	1671	1671	1688	1694	1699	1720	1720	1714	1709	1704	1705	1705	1696	1696	1696	1689	1688	1673	1675	1671	1671	1669	1670	1686	1702	1712	1712	1712	1692	1638	1623	1615	1607	1617	1622	1620	1620	1631	1644	1645	1641	1624	1606	1594	1588	1589	1590	1592	1592	1599	1601	1584	1569	1557	1562	1577	1575	1576	1581	1577	1582	1603	1602	1592	1592	1579	1577	1579	1573	1575	1569	1576	1569	1554	1554	1554	1555	1549	1539	1532	1516	1503	1488	1497	1502	1521	1533	1540	1532	1520	1511	1503	1497	1484	1477	1474	1471	1469	1475	1476	1484	1496	1510	1501	1473	1456	1446	1443	1444	1442	1441	1441	1464	1478	1487	1477	1468	1463	1480	1475	1466	1468	1471	1469	1454	1449	1452	1457	1459	1456	1437	1433	1422	1398	1370	1391	1407	1413	1413	1418	1406	1388	1379	1384	1395	1405	1413	1407	1392	1388	1394	1397	1387	1370	1359	1367	1379	1389	1394	1391	1382	1399	1399	1404	1415	1422	1422	1413	1406	1391	1376	1362	1357	1356	1362	1363	1369	1375	1390	1406	1401	1394	1389	1391	1389	1384	1372	1386	1386	1380	1383	1383	1387	1387	1382	1377	1356	1353	1357	1355	1351	1337	1318	1316	1328	1334	1341	1341	1342	1342	1334	1327	1329	1324	1323	1320	1341	1351	1345	1343	1345	1338	1323	1311	1297	1305	1314	1327	1322	1324	1318	1312	1310	1314	1311	1302	1293	1284	1282	1295	1305	1286	1270	1266	1263	1276	1270	1269	1264	1257	1248	1256	1264	1274	1279	1287	1268	1274	1269	1274	1305	1331	1334	1308	1285	1269	1269	1271	1266	1256	1240	1221	1226	1241	1257	1262	1242	1233	1232	1239	1248	1251	1256	1247	1250	1246	1239	1220	1205	1203	1196	1197	1192	1208	1221	1221	1219	1206	1185	1187	1194	1208	1212	1205	1198	1180	1175	1170	1168	1167	1179	1191	1209	1222	1226	1209	1197	1193	1191	1190	1183	1175	1164	1161	1160	1161	1167	1172	1184	1172	1164	1163	1169	1185	1188	1185	1176	1177	1175	1174	1176	1180	1179	1168	1159	1143	1149	1150	1147	1160	1173	1176	1161	1164	1159	1149	1148	1148	1138	1124	1105	1099	1100	1129	1138	1133	1128	1123	1121	1121	1122	1110	1109	1104	1108	1102	1103	1110	1115	1121	1121	1122	1123	1119	1118	1125	1122	1117	1112	1112	1111	1111	1080	1084	1099	1096	1093	1098	1107	1110	1104	1100	1102	1096	1085	1080	1087	1092	1093	1096	1101	1103	1092	1094	1088	1076	1072	1083	1079	1067	1068	1062	1053	1034	1029	1022	1021	1025	1038	1054	1053	1048	1040	1041	1045	1053	1064	1063	1069	1071	1071	1059	1055	1052	1033	1025	1013	1012	1013	1009	1008	1009	1016	1026	1023	1020	1017	1029	1026	1022	1013	1008	1002	996	1000	1006	1025	1026	1025	1016	1015	1007	1007	996	998	994	989	993	996	990	1000	1005	1008	1005	1000	1003	1007	1014	1010	1004	993	992	995	1006	1007	1009	1015	1027	1025	1017	1014	1005	1002	987	973	977	988	995	995	993	991	988	988	987	979	969	962	967	975	973	971	960	943	943	945	941	942	944	950	954	953	944	941	941	946	955	953	948	952	952	948	939	931	930	933	934	929	926	924	928	930	929	928	926	923	920	923	924	927	931	935	937	929	920	910	911	913	913	910	904	905	907	914	917	925	921	924	918	909	898	894	891	895	917	923	930	930	927	919	912	911	914	915	907	911	913	915	910	890	880	873	870	885	902	907	901	905	905	901	898	886	872	869	871	876	878	882	886	885	890	891	886	882	879	0	0	0	0	0	0	0	0	0
1652	1676	1676	1690	1701	1677	1662	1652	1652	1658	1659	1658	1673	1673	1688	1692	1693	1695	1690	1679	1679	1668	1669	1664	1658	1643	1640	1640	1646	1646	1646	1653	1658	1637	1579	1583	1589	1606	1612	1604	1597	1589	1597	1600	1600	1607	1609	1615	1593	1566	1558	1554	1545	1547	1552	1552	1550	1549	1544	1536	1528	1529	1539	1552	1548	1556	1558	1557	1561	1552	1553	1553	1551	1555	1547	1542	1549	1554	1561	1561	1547	1535	1532	1529	1524	1514	1502	1501	1496	1504	1513	1515	1523	1530	1532	1517	1499	1489	1479	1475	1463	1458	1458	1455	1453	1448	1452	1459	1474	1484	1471	1450	1433	1429	1427	1432	1429	1431	1431	1436	1447	1461	1460	1451	1441	1429	1435	1441	1449	1447	1450	1434	1431	1426	1429	1440	1435	1448	1457	1452	1435	1404	1393	1396	1399	1398	1402	1399	1385	1368	1364	1369	1377	1388	1385	1371	1370	1382	1399	1401	1387	1380	1376	1372	1369	1373	1379	1376	1372	1367	1360	1359	1380	1375	1364	1356	1360	1359	1363	1361	1359	1358	1362	1361	1354	1345	1358	1378	1391	1383	1372	1370	1368	1365	1372	1376	1369	1365	1365	1382	1390	1390	1382	1370	1365	1356	1342	1337	1330	1311	1302	1301	1313	1318	1325	1333	1330	1326	1318	1313	1306	1300	1303	1298	1300	1311	1326	1327	1324	1313	1303	1289	1279	1265	1269	1279	1277	1262	1265	1277	1289	1288	1264	1260	1256	1258	1270	1278	1258	1250	1248	1256	1257	1250	1226	1210	1215	1231	1242	1247	1251	1254	1259	1244	1262	1254	1272	1300	1304	1299	1298	1282	1266	1262	1256	1250	1237	1218	1204	1206	1213	1218	1218	1210	1214	1212	1213	1213	1213	1215	1221	1219	1229	1232	1212	1191	1188	1166	1163	1164	1174	1192	1203	1200	1190	1174	1171	1164	1166	1170	1169	1159	1154	1153	1161	1163	1163	1167	1174	1184	1196	1187	1167	1170	1188	1177	1160	1145	1143	1140	1142	1151	1153	1156	1165	1163	1156	1140	1141	1140	1172	1175	1167	1154	1154	1162	1165	1168	1170	1167	1151	1137	1127	1123	1124	1128	1129	1129	1138	1143	1152	1147	1144	1129	1124	1121	1121	1118	1116	1114	1123	1123	1109	1116	1110	1102	1106	1101	1099	1104	1103	1108	1103	1105	1108	1110	1111	1108	1104	1104	1104	1107	1111	1101	1087	1087	1091	1084	1050	1052	1063	1067	1073	1077	1085	1096	1102	1097	1097	1078	1052	1058	1068	1077	1081	1081	1085	1051	1057	1070	1075	1080	1064	1050	1046	1047	1052	1052	1038	1013	998	1002	1013	1013	1015	1021	1042	1041	1022	1017	1015	1018	1026	1025	1023	1018	1018	1018	1001	1000	992	994	992	966	972	984	995	998	1001	1005	1011	1014	1011	1004	990	988	990	995	998	994	981	977	985	1001	1004	1002	992	992	985	985	974	969	971	971	969	971	991	997	997	992	996	992	985	987	1003	1006	1005	1001	995	992	995	983	976	977	981	986	966	971	974	972	974	981	979	979	961	946	956	980	977	966	963	962	951	943	939	962	971	967	950	938	934	937	936	933	933	937	936	933	931	929	935	937	948	947	940	938	942	941	934	928	924	923	924	919	914	911	914	919	917	912	911	914	912	919	921	924	931	932	929	922	915	897	893	902	901	894	887	885	893	900	900	910	909	910	903	901	898	890	887	891	893	905	912	921	922	915	905	895	889	892	896	886	883	883	882	879	877	874	875	873	880	884	888	892	892	890	879	862	859	866	870	873	875	875	880	881	884	882	880	873	868	0	0	0	0	0	0	0	0	0
1640	1650	1650	1658	1672	1652	1632	1633	1633	1637	1640	1643	1651	1661	1661	1673	1676	1647	1639	1633	1633	1650	1651	1654	1643	1640	1631	1631	1617	1611	1606	1597	1570	1573	1569	1569	1568	1573	1583	1573	1544	1537	1539	1543	1543	1538	1538	1533	1539	1550	1548	1539	1535	1538	1536	1536	1531	1525	1520	1520	1514	1515	1522	1533	1532	1527	1523	1534	1524	1539	1543	1538	1538	1532	1523	1519	1517	1529	1552	1559	1535	1517	1499	1486	1483	1487	1474	1475	1487	1501	1514	1525	1523	1513	1501	1492	1478	1463	1458	1453	1446	1443	1440	1441	1431	1424	1434	1445	1458	1460	1445	1433	1405	1395	1412	1409	1416	1420	1427	1433	1438	1446	1449	1449	1440	1404	1395	1400	1407	1409	1411	1407	1409	1410	1418	1414	1412	1400	1407	1405	1404	1385	1367	1359	1354	1356	1367	1373	1369	1366	1371	1362	1362	1366	1387	1394	1400	1401	1398	1391	1381	1377	1372	1366	1366	1367	1373	1372	1366	1359	1350	1341	1333	1336	1352	1353	1354	1352	1350	1345	1347	1351	1355	1347	1338	1336	1340	1349	1357	1357	1348	1350	1347	1329	1338	1340	1329	1332	1341	1356	1376	1381	1382	1376	1368	1357	1343	1328	1321	1313	1303	1293	1295	1309	1326	1331	1324	1319	1308	1294	1286	1284	1282	1283	1280	1280	1288	1315	1310	1305	1289	1272	1260	1231	1222	1220	1221	1227	1243	1256	1268	1258	1245	1243	1248	1255	1264	1262	1251	1248	1248	1251	1244	1210	1200	1203	1209	1218	1232	1236	1235	1230	1224	1218	1200	1182	1228	1240	1239	1231	1255	1253	1238	1225	1222	1228	1211	1198	1195	1197	1203	1201	1197	1179	1175	1197	1195	1184	1173	1154	1148	1164	1184	1217	1204	1188	1175	1155	1149	1147	1157	1172	1185	1185	1172	1163	1148	1152	1157	1159	1158	1155	1152	1148	1155	1157	1156	1154	1155	1146	1145	1143	1149	1148	1151	1148	1142	1131	1128	1130	1136	1140	1143	1144	1140	1142	1133	1118	1116	1120	1128	1129	1122	1087	1138	1145	1153	1150	1143	1142	1126	1111	1102	1104	1106	1110	1116	1118	1126	1130	1136	1128	1111	1106	1107	1107	1110	1103	1108	1112	1114	1088	1089	1091	1096	1092	1088	1085	1077	1083	1089	1094	1100	1099	1094	1093	1078	1074	1073	1080	1088	1088	1079	1069	1069	1073	1066	1056	1039	1042	1047	1055	1060	1066	1063	1059	1054	1052	1050	1049	1032	1033	1041	1057	1060	1047	1044	1042	1046	1046	1048	1046	1032	1029	1028	1032	1034	1038	1022	1000	996	1001	1014	1009	1006	1010	1013	1003	997	991	992	997	985	967	946	955	962	960	956	950	959	962	962	967	969	971	979	981	988	997	998	1004	998	985	975	974	971	981	985	983	966	965	978	990	991	978	968	957	963	962	962	962	965	965	965	971	979	990	984	976	973	968	957	955	980	991	988	980	971	965	966	969	941	947	955	955	948	938	932	930	936	964	966	961	936	935	943	946	944	954	945	943	937	930	926	921	920	932	930	929	926	933	929	919	926	927	929	929	929	930	926	924	932	941	927	931	924	914	913	923	915	900	905	905	903	901	899	896	891	888	890	895	895	897	901	913	917	908	900	896	892	888	887	885	881	877	872	871	874	878	866	867	876	885	891	892	888	885	884	884	883	892	906	909	909	901	889	878	876	881	889	881	864	861	866	875	883	883	873	870	872	868	866	866	866	865	859	851	856	863	866	866	869	873	870	872	868	866	861	863	857	857	0	0	0	0	0	0	0	0
1578	1600	1600	1613	1606	1595	1592	1599	1599	1609	1615	1622	1619	1619	1619	1623	1625	1618	1597	1594	1594	1608	1611	1615	1607	1601	1600	1600	1594	1596	1587	1564	1563	1549	1537	1537	1529	1505	1494	1478	1489	1499	1509	1519	1519	1523	1522	1513	1520	1522	1523	1525	1527	1530	1531	1531	1521	1518	1505	1501	1498	1501	1516	1528	1523	1514	1508	1497	1501	1517	1532	1523	1523	1492	1473	1464	1474	1507	1527	1515	1485	1472	1483	1477	1463	1454	1446	1449	1466	1485	1503	1501	1488	1475	1464	1454	1435	1434	1430	1402	1374	1368	1370	1383	1400	1415	1426	1429	1425	1432	1431	1422	1406	1376	1372	1376	1385	1400	1422	1446	1444	1435	1427	1420	1416	1390	1370	1376	1383	1396	1403	1413	1408	1386	1385	1397	1398	1405	1407	1404	1398	1380	1365	1361	1363	1362	1355	1358	1357	1359	1358	1352	1349	1349	1352	1363	1372	1379	1375	1365	1361	1359	1359	1352	1350	1352	1351	1348	1343	1341	1339	1325	1318	1331	1339	1336	1321	1302	1283	1320	1324	1333	1335	1320	1317	1316	1323	1331	1329	1326	1322	1316	1300	1286	1290	1279	1286	1303	1317	1331	1336	1333	1324	1326	1332	1337	1338	1339	1344	1301	1284	1270	1267	1279	1285	1289	1285	1280	1273	1262	1268	1264	1265	1254	1260	1256	1254	1256	1262	1269	1263	1254	1242	1231	1223	1226	1220	1214	1215	1219	1224	1232	1236	1238	1235	1232	1244	1247	1244	1238	1217	1206	1189	1183	1186	1193	1203	1209	1210	1214	1209	1199	1189	1167	1172	1192	1198	1196	1189	1183	1196	1214	1226	1206	1208	1219	1218	1218	1210	1208	1202	1194	1190	1177	1168	1166	1171	1168	1152	1122	1139	1155	1171	1184	1184	1181	1171	1155	1142	1142	1148	1157	1168	1166	1154	1135	1132	1136	1137	1142	1146	1146	1147	1152	1148	1150	1142	1134	1127	1120	1113	1120	1121	1125	1123	1122	1120	1119	1120	1124	1125	1126	1125	1125	1123	1125	1123	1108	1115	1119	1119	1111	1107	1090	1072	1110	1119	1120	1115	1124	1107	1087	1093	1092	1089	1089	1097	1112	1119	1123	1129	1115	1103	1103	1100	1096	1090	1072	1066	1062	1062	1062	1063	1071	1077	1072	1067	1063	1060	1052	1056	1057	1057	1058	1065	1073	1073	1073	1076	1076	1072	1068	1064	1065	1065	1062	1061	1051	1033	1031	1034	1042	1047	1047	1021	1021	1021	1024	1029	1030	1023	1012	1017	1016	1031	1040	1035	1030	1034	1037	1032	1022	1012	1011	1007	1020	1025	1013	1009	996	1000	1008	1007	1002	998	1001	996	990	983	981	989	982	951	945	946	950	952	955	957	956	953	962	956	950	949	958	958	964	960	966	980	985	985	981	961	958	963	969	968	962	947	951	956	952	944	942	945	949	949	951	962	962	965	967	965	959	958	972	975	969	951	940	941	940	951	960	959	958	953	928	926	922	926	932	941	949	946	935	928	927	924	929	934	934	926	931	933	938	931	920	910	916	913	906	911	918	917	909	910	911	909	902	902	901	908	909	925	926	925	929	927	921	907	909	917	913	906	895	889	888	890	885	890	906	898	891	889	888	885	881	889	888	892	890	890	894	897	894	887	883	883	883	879	876	869	862	858	857	859	858	859	859	863	870	878	880	878	875	878	878	868	870	883	886	887	878	871	867	867	872	877	870	863	856	854	853	853	850	848	852	859	856	854	852	852	853	852	855	858	861	862	861	865	865	864	853	846	844	846	854	852	852	0	0	0	0	0	0	0	0
1531	1532	1532	1545	1555	1548	1548	1557	1557	1565	1577	1561	1574	1589	1589	1597	1588	1586	1570	1582	1582	1590	1580	1567	1550	1548	1545	1545	1555	1539	1537	1533	1526	1522	1503	1503	1496	1482	1460	1455	1460	1469	1481	1488	1488	1499	1507	1502	1499	1498	1491	1493	1502	1519	1521	1521	1514	1489	1477	1472	1474	1476	1499	1519	1523	1511	1500	1484	1472	1467	1468	1463	1463	1454	1448	1440	1437	1445	1452	1449	1445	1451	1456	1458	1448	1427	1407	1416	1432	1450	1427	1428	1424	1440	1434	1429	1429	1424	1410	1402	1388	1381	1378	1384	1401	1412	1408	1404	1393	1393	1407	1402	1370	1356	1361	1379	1388	1419	1431	1413	1401	1392	1395	1400	1408	1393	1383	1373	1379	1399	1421	1414	1382	1370	1378	1389	1394	1400	1404	1394	1376	1367	1360	1357	1359	1361	1353	1350	1340	1323	1328	1342	1341	1337	1335	1339	1342	1351	1348	1319	1313	1319	1339	1329	1333	1339	1344	1335	1317	1307	1310	1303	1307	1317	1320	1317	1300	1283	1263	1263	1260	1259	1235	1243	1248	1270	1289	1301	1305	1301	1300	1286	1275	1255	1255	1262	1261	1269	1303	1314	1322	1314	1303	1301	1298	1293	1302	1308	1309	1264	1262	1255	1249	1250	1245	1241	1237	1234	1233	1233	1222	1216	1215	1219	1223	1230	1221	1213	1237	1241	1244	1218	1220	1222	1198	1188	1181	1174	1172	1182	1190	1196	1198	1202	1207	1225	1217	1213	1204	1189	1178	1165	1151	1142	1141	1153	1169	1182	1200	1182	1174	1168	1170	1174	1176	1180	1183	1189	1185	1178	1179	1190	1189	1192	1181	1184	1184	1184	1175	1170	1166	1184	1182	1173	1164	1157	1151	1141	1122	1124	1139	1143	1149	1156	1162	1164	1166	1157	1146	1143	1141	1144	1149	1135	1121	1111	1115	1121	1126	1128	1133	1137	1142	1143	1126	1122	1121	1112	1107	1107	1109	1104	1097	1095	1097	1100	1102	1102	1102	1114	1116	1107	1109	1113	1116	1116	1109	1101	1106	1114	1093	1103	1088	1083	1075	1058	1062	1071	1104	1097	1089	1082	1087	1086	1079	1072	1073	1075	1076	1079	1086	1088	1086	1068	1064	1056	1052	1056	1061	1055	1048	1042	1042	1054	1058	1044	1034	1028	1033	1045	1052	1048	1050	1049	1052	1060	1071	1071	1069	1069	1065	1055	1047	1049	1052	1047	1037	1041	1031	1026	1022	1012	1012	1015	1014	1014	1012	1018	1025	1025	1017	996	990	1003	1005	999	1007	1011	1014	1020	1009	999	995	987	982	983	987	997	991	981	983	994	993	995	991	991	989	981	974	979	968	949	946	943	941	944	948	952	958	963	963	955	951	942	938	938	939	936	935	935	937	942	949	950	932	932	943	955	955	948	938	938	943	940	931	935	941	944	940	943	948	954	958	959	958	949	941	938	934	937	927	928	928	923	939	921	937	941	908	907	909	915	921	926	925	931	923	919	917	922	918	917	912	919	911	917	921	918	906	898	898	902	905	905	910	912	916	909	906	911	914	904	894	889	893	909	884	883	880	907	917	913	914	910	911	905	889	888	887	885	881	875	873	873	887	883	877	875	875	879	886	887	886	884	884	887	888	881	876	874	874	875	868	862	859	854	852	848	848	849	851	852	855	861	866	868	864	866	868	868	862	861	866	866	866	859	854	851	858	864	865	865	852	847	848	849	851	848	842	838	841	839	835	840	840	842	842	846	852	859	864	856	854	853	836	833	832	834	838	838	840	840	0	0	0	0	0	0	0	0
1489	1502	1504	1504	1513	1519	1516	1502	1502	1503	1507	1522	1541	1560	1560	1563	1557	1543	1549	1551	1551	1560	1552	1527	1530	1531	1542	1542	1523	1508	1509	1508	1503	1488	1481	1481	1470	1458	1447	1437	1437	1440	1447	1462	1462	1476	1483	1485	1471	1464	1453	1457	1465	1465	1466	1466	1474	1468	1458	1456	1455	1462	1470	1479	1475	1472	1460	1451	1446	1447	1446	1439	1439	1437	1438	1421	1413	1415	1406	1401	1406	1408	1410	1411	1409	1403	1394	1379	1380	1375	1371	1383	1402	1412	1413	1401	1398	1399	1394	1385	1378	1377	1374	1370	1385	1393	1390	1384	1378	1380	1371	1360	1353	1340	1342	1366	1385	1378	1389	1385	1377	1374	1378	1384	1386	1370	1357	1357	1362	1370	1369	1372	1354	1352	1352	1357	1363	1373	1377	1360	1341	1320	1332	1349	1351	1349	1354	1340	1314	1303	1299	1315	1323	1323	1317	1310	1317	1320	1308	1295	1287	1287	1289	1308	1316	1328	1333	1316	1300	1291	1296	1293	1293	1292	1302	1286	1263	1258	1262	1232	1237	1239	1241	1218	1208	1219	1274	1294	1304	1292	1286	1278	1261	1248	1247	1255	1257	1256	1268	1292	1304	1305	1298	1277	1254	1233	1222	1219	1226	1243	1244	1235	1230	1236	1231	1221	1218	1218	1215	1214	1201	1191	1181	1182	1192	1206	1202	1184	1174	1175	1172	1169	1185	1164	1159	1155	1151	1149	1155	1164	1164	1170	1172	1168	1182	1177	1176	1176	1174	1181	1174	1158	1152	1148	1141	1142	1153	1165	1176	1175	1168	1165	1162	1167	1170	1168	1163	1161	1153	1139	1125	1143	1178	1178	1169	1159	1155	1151	1144	1140	1143	1149	1149	1144	1129	1122	1115	1101	1103	1117	1130	1135	1131	1129	1127	1110	1109	1104	1112	1125	1126	1127	1113	1107	1102	1101	1100	1106	1112	1101	1102	1097	1110	1117	1121	1118	1116	1108	1099	1096	1079	1073	1077	1079	1074	1073	1071	1071	1073	1088	1092	1081	1079	1094	1097	1094	1080	1075	1078	1078	1079	1075	1083	1075	1063	1068	1054	1052	1060	1057	1054	1060	1074	1073	1072	1079	1077	1070	1063	1057	1056	1058	1062	1061	1057	1050	1043	1052	1055	1052	1040	1033	1033	1039	1044	1039	1028	1022	1027	1035	1033	1031	1027	1023	1030	1046	1057	1062	1057	1042	1027	1014	1020	1026	1030	1024	1016	1009	1007	1008	1004	1015	1017	1017	1011	1004	1002	1007	1018	981	991	980	977	976	977	977	980	982	990	996	997	983	975	964	959	952	951	955	955	954	958	979	976	964	960	965	967	964	963	954	939	939	942	947	949	950	946	944	936	937	946	944	937	931	929	933	932	927	926	923	924	929	938	936	927	926	930	942	949	942	936	935	934	930	927	927	936	939	932	939	943	947	948	951	944	931	930	918	907	906	905	905	889	889	892	898	910	909	901	900	897	894	895	909	916	909	909	893	895	901	897	892	900	902	897	909	921	921	912	900	894	895	899	906	903	894	890	889	898	904	908	909	903	898	896	881	879	872	872	870	887	884	878	880	876	875	884	892	893	889	880	874	870	866	864	868	864	859	858	863	869	877	882	879	875	862	862	866	863	863	866	865	858	849	846	845	842	843	843	846	847	846	851	855	855	848	848	851	858	863	856	851	846	847	846	845	845	844	848	855	856	849	842	840	842	846	852	848	838	834	830	823	828	834	834	832	824	823	835	839	837	833	827	821	809	808	811	822	827	831	833	833	0	0	0	0	0	0	0	0
1471	1463	1477	1477	1485	1488	1467	1464	1464	1464	1481	1502	1513	1526	1526	1521	1497	1497	1487	1498	1498	1499	1500	1514	1525	1529	1530	1490	1473	1474	1476	1467	1463	1448	1451	1451	1450	1448	1439	1427	1416	1416	1425	1438	1438	1445	1444	1406	1406	1415	1432	1439	1440	1417	1409	1409	1412	1432	1440	1438	1434	1433	1439	1439	1435	1424	1422	1426	1428	1430	1424	1422	1422	1416	1401	1387	1375	1378	1386	1392	1387	1382	1384	1386	1388	1382	1377	1371	1368	1356	1354	1361	1370	1384	1375	1371	1365	1375	1366	1354	1351	1344	1346	1345	1358	1364	1373	1364	1363	1367	1351	1339	1331	1317	1312	1321	1346	1355	1357	1359	1354	1346	1340	1338	1345	1331	1335	1341	1342	1335	1328	1329	1334	1331	1327	1333	1344	1338	1328	1324	1319	1306	1308	1314	1325	1333	1342	1325	1297	1288	1293	1303	1311	1310	1304	1289	1289	1288	1275	1272	1264	1263	1271	1288	1302	1316	1307	1298	1282	1280	1277	1268	1255	1245	1234	1225	1221	1213	1209	1215	1210	1214	1220	1215	1206	1215	1219	1228	1232	1277	1274	1265	1253	1247	1242	1238	1238	1243	1243	1245	1247	1244	1243	1231	1217	1205	1191	1185	1195	1209	1228	1217	1211	1208	1208	1197	1195	1198	1195	1190	1185	1175	1177	1171	1189	1193	1187	1179	1155	1153	1151	1142	1140	1136	1139	1141	1141	1140	1150	1157	1157	1159	1161	1154	1142	1143	1146	1148	1144	1142	1146	1150	1149	1141	1130	1132	1142	1152	1155	1159	1155	1144	1130	1133	1136	1139	1140	1135	1132	1127	1126	1129	1132	1159	1158	1152	1146	1145	1138	1134	1131	1129	1129	1119	1102	1099	1095	1090	1089	1095	1093	1095	1093	1089	1085	1080	1079	1076	1072	1078	1087	1087	1081	1088	1092	1088	1087	1088	1083	1073	1076	1073	1085	1096	1109	1100	1096	1089	1087	1071	1055	1057	1063	1067	1065	1055	1054	1046	1055	1066	1073	1066	1066	1063	1063	1064	1058	1063	1066	1064	1063	1061	1050	1067	1047	1049	1044	1030	1023	1022	1029	1036	1041	1053	1055	1056	1059	1065	1070	1070	1056	1053	1053	1052	1050	1045	1035	1043	1050	1044	1027	1020	1019	1020	1010	1000	999	1000	1006	1007	1012	999	997	993	1000	1008	1009	1018	1014	1006	1002	1001	1007	1011	1010	1011	1005	1005	1012	1016	1013	1017	1016	1014	1011	998	993	993	962	964	964	964	960	969	967	975	971	972	973	973	973	970	959	950	949	947	949	953	946	932	936	965	958	939	935	936	942	943	943	943	928	930	933	940	942	946	942	938	927	925	919	922	920	926	930	932	931	926	919	917	914	918	924	930	911	916	924	926	935	938	936	934	930	923	918	915	910	913	923	936	935	935	934	931	928	919	906	900	898	895	892	892	888	887	886	888	890	887	887	890	888	885	883	889	892	888	881	884	883	887	883	884	890	889	886	888	893	897	888	895	902	903	903	899	898	894	886	880	877	880	887	891	894	887	872	867	872	871	870	867	864	864	864	849	840	838	840	846	855	861	871	868	862	860	854	852	846	850	858	860	862	860	865	862	861	839	832	824	823	826	838	844	845	842	838	836	834	834	836	827	816	819	826	831	829	831	832	842	849	853	856	848	831	824	834	840	842	837	832	822	833	836	829	828	831	841	851	845	835	818	812	819	826	826	828	821	814	813	812	814	816	815	811	804	805	803	807	810	818	820	821	821	0	0	0	0	0	0	0	0
1434	1434	1447	1447	1450	1450	1453	1452	1452	1451	1460	1476	1486	1487	1487	1473	1456	1454	1459	1473	1473	1475	1476	1481	1486	1481	1415	1415	1428	1445	1453	1445	1426	1423	1427	1427	1430	1432	1425	1422	1423	1422	1418	1420	1420	1405	1386	1381	1386	1391	1399	1402	1398	1396	1401	1406	1406	1421	1420	1410	1404	1400	1415	1411	1399	1379	1362	1368	1373	1390	1390	1395	1395	1393	1388	1377	1368	1367	1374	1376	1366	1364	1365	1362	1358	1358	1364	1376	1381	1359	1339	1338	1343	1348	1348	1343	1352	1347	1329	1320	1322	1318	1313	1313	1320	1346	1349	1333	1324	1330	1321	1320	1309	1299	1288	1289	1304	1326	1334	1331	1322	1316	1314	1309	1295	1311	1316	1317	1306	1306	1306	1312	1317	1317	1309	1307	1307	1300	1309	1309	1304	1294	1290	1294	1300	1283	1289	1292	1291	1283	1291	1301	1301	1296	1285	1276	1264	1251	1253	1251	1250	1251	1246	1260	1271	1264	1235	1226	1231	1246	1254	1255	1250	1245	1236	1227	1221	1212	1208	1187	1183	1183	1188	1200	1207	1210	1208	1202	1197	1194	1191	1191	1245	1246	1219	1218	1216	1213	1210	1206	1202	1204	1202	1196	1194	1181	1176	1178	1189	1195	1205	1194	1188	1193	1193	1189	1181	1173	1175	1171	1167	1166	1158	1161	1172	1182	1178	1163	1151	1148	1145	1137	1134	1126	1126	1128	1127	1128	1126	1133	1146	1149	1143	1132	1126	1126	1135	1138	1131	1128	1133	1139	1143	1134	1123	1122	1127	1134	1139	1145	1139	1126	1124	1134	1134	1131	1126	1113	1110	1124	1133	1136	1133	1125	1122	1137	1138	1135	1133	1130	1126	1123	1117	1100	1094	1075	1080	1076	1077	1081	1075	1075	1080	1082	1075	1074	1070	1065	1061	1059	1057	1060	1068	1080	1081	1079	1071	1066	1068	1062	1069	1073	1087	1090	1094	1085	1077	1085	1071	1052	1043	1051	1056	1060	1054	1032	1038	1036	1039	1039	1047	1036	1037	1043	1046	1045	1044	1046	1047	1044	1041	1035	1038	1029	1033	1039	1031	1013	1012	1006	1016	1005	1010	1032	1040	1037	1043	1046	1041	1035	1011	1007	1020	1034	1037	1033	1029	1032	1028	1021	1010	1003	999	997	997	996	994	993	993	997	1001	1003	999	989	994	998	997	994	987	979	976	993	989	984	979	984	988	994	998	1009	1009	1007	998	990	977	968	948	951	947	947	951	957	957	967	974	976	968	962	956	957	951	944	944	938	943	943	948	949	944	926	920	948	949	946	935	926	921	922	930	921	921	922	923	926	931	935	936	932	922	916	908	906	919	926	928	930	927	922	910	904	910	908	910	898	902	899	897	893	888	933	936	934	935	927	915	907	905	902	912	920	929	928	926	923	912	901	896	891	889	891	890	891	885	881	881	879	883	878	878	880	876	877	879	880	884	866	866	870	874	875	876	877	883	883	881	878	867	864	853	863	878	884	884	861	859	855	855	858	859	858	861	870	867	861	857	862	865	869	870	868	867	860	852	844	838	824	822	821	830	835	856	857	853	838	833	833	830	835	838	840	838	835	815	817	823	824	811	807	806	820	823	831	847	843	835	824	826	825	822	820	834	837	834	830	829	831	834	838	838	838	837	826	816	821	823	814	824	828	821	805	807	805	802	801	796	820	825	825	813	802	808	814	822	822	813	814	806	805	808	802	802	804	804	804	802	806	805	805	798	793	797	797	0	0	0	0	0	0	0	0
1405	1414	1419	1419	1422	1428	1429	1432	1432	1436	1443	1453	1459	1439	1439	1430	1421	1429	1441	1441	1441	1433	1429	1408	1413	1367	1379	1379	1403	1423	1429	1431	1424	1413	1406	1406	1411	1407	1407	1407	1407	1415	1418	1415	1415	1401	1391	1383	1375	1379	1385	1384	1375	1372	1387	1406	1406	1420	1425	1413	1392	1375	1378	1377	1363	1323	1347	1363	1361	1361	1363	1368	1368	1376	1368	1353	1357	1360	1353	1354	1347	1341	1340	1329	1337	1344	1360	1370	1369	1348	1316	1301	1306	1321	1332	1337	1335	1323	1312	1305	1299	1293	1295	1299	1309	1314	1312	1305	1303	1305	1310	1309	1308	1298	1277	1264	1267	1278	1290	1289	1289	1295	1292	1288	1275	1287	1293	1292	1272	1277	1285	1293	1297	1295	1289	1283	1292	1294	1298	1294	1285	1280	1279	1275	1267	1259	1250	1274	1275	1271	1260	1275	1270	1258	1242	1233	1228	1234	1242	1242	1240	1240	1232	1228	1237	1230	1217	1212	1213	1224	1234	1243	1248	1244	1229	1220	1215	1214	1208	1183	1174	1159	1167	1179	1194	1198	1183	1180	1178	1177	1173	1178	1186	1195	1195	1207	1203	1201	1196	1189	1181	1178	1182	1185	1174	1166	1156	1165	1175	1177	1182	1170	1169	1170	1180	1178	1158	1154	1154	1156	1159	1156	1144	1153	1164	1168	1162	1144	1122	1130	1133	1134	1122	1120	1118	1116	1117	1116	1111	1111	1115	1121	1107	1091	1090	1098	1114	1118	1115	1112	1111	1112	1111	1110	1116	1116	1117	1120	1116	1119	1121	1110	1112	1117	1120	1114	1093	1095	1101	1109	1121	1134	1141	1135	1131	1123	1088	1093	1082	1078	1072	1067	1068	1064	1065	1057	1061	1064	1064	1062	1065	1064	1065	1066	1065	1060	1058	1054	1061	1064	1055	1056	1056	1053	1046	1037	1030	1033	1047	1058	1063	1071	1076	1077	1072	1062	1045	1038	1023	1018	1025	1043	1050	1040	1028	1027	1024	1027	1028	1031	1016	1003	1010	1024	1034	1032	1032	1031	1027	1024	1020	1015	1007	1007	1020	1024	1011	1003	1003	1000	987	991	995	1006	1022	1011	1017	1026	1011	998	992	992	994	1005	1015	1016	1004	978	969	980	999	994	997	996	992	991	991	991	990	993	1000	1000	1000	990	985	992	990	979	976	970	966	967	971	972	968	968	977	982	966	974	987	989	986	972	929	924	921	940	940	941	939	945	939	947	946	941	934	919	913	916	925	929	929	929	922	937	942	943	937	923	924	924	927	929	930	919	913	909	904	911	912	919	922	921	914	914	924	925	915	907	897	891	900	909	918	919	920	905	893	894	896	899	894	887	895	896	892	883	885	912	916	916	908	905	909	898	893	895	901	906	909	914	920	922	871	872	878	884	884	882	887	885	876	871	870	875	871	866	865	871	872	868	861	856	849	859	869	866	871	869	867	866	865	876	866	856	846	841	839	841	845	850	846	841	833	827	821	826	833	836	852	858	857	854	849	846	859	868	871	872	874	850	829	824	833	831	823	817	820	818	815	817	825	823	820	821	821	827	833	838	829	822	816	811	807	806	807	807	809	814	813	810	809	804	803	820	815	818	823	822	823	825	821	818	818	822	824	824	814	805	803	810	810	810	806	813	819	816	803	801	797	800	795	789	793	795	798	811	811	807	802	797	795	795	797	799	798	797	796	790	790	792	800	807	807	805	808	786	783	783	782	782	0	0	0	0	0	0	0	0
1398	1409	1407	1407	1406	1408	1405	1409	1409	1408	1411	1413	1420	1408	1408	1383	1368	1388	1392	1394	1394	1397	1390	1378	1347	1341	1342	1342	1349	1361	1364	1378	1386	1389	1383	1383	1373	1373	1368	1370	1390	1399	1405	1401	1401	1398	1387	1378	1369	1368	1374	1373	1364	1354	1354	1359	1359	1374	1365	1372	1363	1349	1336	1316	1319	1326	1350	1355	1344	1333	1331	1341	1340	1340	1330	1325	1335	1335	1339	1341	1331	1323	1318	1315	1317	1327	1341	1352	1341	1332	1301	1284	1288	1305	1320	1326	1320	1304	1293	1289	1291	1285	1291	1300	1303	1301	1294	1288	1285	1281	1284	1290	1299	1290	1263	1254	1258	1266	1272	1276	1276	1281	1285	1279	1271	1263	1259	1245	1246	1257	1262	1272	1275	1269	1265	1262	1275	1283	1282	1265	1264	1262	1261	1260	1250	1233	1231	1250	1254	1250	1240	1227	1220	1215	1213	1210	1211	1220	1233	1239	1230	1221	1215	1214	1222	1216	1213	1211	1210	1209	1206	1207	1206	1198	1184	1180	1178	1175	1181	1174	1164	1160	1158	1158	1166	1157	1154	1146	1146	1159	1162	1174	1181	1185	1184	1178	1178	1182	1187	1177	1166	1161	1165	1161	1154	1146	1142	1140	1152	1158	1170	1159	1151	1151	1151	1145	1141	1142	1143	1147	1148	1146	1145	1147	1143	1137	1138	1130	1110	1118	1122	1111	1101	1093	1093	1094	1099	1099	1099	1097	1103	1104	1090	1079	1077	1083	1098	1102	1095	1091	1096	1097	1098	1100	1101	1087	1084	1083	1079	1073	1084	1084	1086	1091	1093	1083	1078	1082	1084	1093	1069	1094	1108	1122	1115	1101	1069	1049	1029	1052	1053	1048	1032	1046	1044	1041	1048	1046	1044	1044	1048	1046	1042	1030	1033	1035	1041	1047	1056	1059	1059	1063	1059	1047	1038	1032	1022	1025	1032	1039	1037	1038	1044	1047	1043	1024	1010	1011	1019	1018	1018	1023	1026	1019	1011	1015	1018	1020	1016	1011	1003	1005	1006	1005	996	997	1005	1011	1015	1013	1010	1004	993	1002	1015	1021	1012	992	993	990	980	983	980	992	1005	1000	1005	1006	996	991	991	991	990	990	995	997	991	985	976	983	978	983	989	984	987	984	973	971	977	985	989	991	990	977	963	960	966	971	970	967	962	959	957	958	956	947	941	941	948	961	961	961	928	923	922	927	938	938	932	928	921	917	919	916	913	912	911	907	907	908	916	921	920	919	921	928	930	934	930	919	907	918	919	921	923	914	901	896	887	897	900	911	919	913	906	897	901	906	903	894	884	875	883	893	898	903	905	897	883	882	876	882	882	882	888	887	878	871	877	892	900	905	900	895	894	888	880	874	872	872	876	877	882	882	863	856	865	873	873	872	871	868	860	859	858	858	859	858	867	865	866	862	851	838	858	872	871	867	864	861	858	856	856	854	848	838	837	836	837	838	840	843	844	839	833	830	820	825	827	825	824	829	837	850	847	836	828	838	844	847	849	835	819	820	824	822	817	812	810	805	804	801	809	811	815	809	816	819	827	827	816	812	809	808	808	808	811	809	797	798	800	801	803	798	798	799	805	811	812	814	803	803	812	810	807	801	801	792	792	794	795	797	799	801	804	804	805	803	798	798	799	799	798	794	796	795	798	798	797	798	790	781	766	766	772	792	792	781	768	770	775	791	798	801	799	797	791	784	781	781	779	779	0	0	0	0	0	0	0	0
1388	1388	1384	1384	1377	1375	1372	1355	1355	1358	1363	1358	1351	1349	1349	1355	1357	1358	1358	1367	1374	1374	1373	1363	1355	1352	1347	1338	1338	1347	1358	1365	1370	1366	1356	1356	1337	1331	1332	1344	1361	1380	1377	1348	1339	1339	1341	1338	1338	1331	1346	1357	1352	1335	1328	1323	1323	1322	1324	1320	1325	1337	1336	1325	1316	1324	1339	1341	1332	1319	1314	1312	1310	1310	1305	1300	1301	1309	1319	1324	1319	1314	1305	1312	1315	1325	1323	1323	1318	1307	1290	1276	1281	1294	1307	1310	1292	1265	1254	1262	1277	1286	1292	1300	1294	1279	1272	1264	1254	1248	1255	1267	1269	1242	1235	1241	1251	1255	1259	1254	1254	1262	1262	1260	1260	1256	1248	1232	1225	1238	1241	1251	1256	1249	1235	1227	1223	1232	1245	1247	1248	1250	1250	1241	1229	1220	1217	1227	1232	1209	1185	1187	1190	1190	1191	1193	1189	1190	1189	1186	1198	1200	1202	1200	1199	1201	1199	1201	1192	1182	1175	1178	1186	1181	1167	1161	1160	1157	1159	1165	1160	1159	1158	1151	1141	1140	1136	1134	1134	1126	1125	1136	1146	1159	1162	1148	1140	1144	1144	1136	1146	1146	1146	1146	1138	1134	1132	1129	1141	1152	1161	1154	1140	1127	1108	1101	1097	1098	1104	1113	1123	1125	1130	1113	1105	1121	1122	1118	1103	1109	1107	1100	1093	1087	1083	1080	1078	1083	1088	1095	1100	1099	1084	1073	1071	1077	1081	1086	1082	1077	1073	1074	1079	1081	1077	1077	1078	1077	1064	1059	1052	1052	1052	1053	1058	1063	1065	1064	1062	1025	1047	1036	1032	1037	1040	1041	1038	1033	1020	1000	1024	1024	1026	1020	1027	1031	1036	1031	1033	1038	1043	1043	1044	1036	1028	1024	1025	1039	1047	1050	1040	1046	1051	1046	1035	1017	1008	1011	1014	1023	1030	1030	1037	1040	1033	1022	1011	989	991	1008	1021	1024	1023	1010	1002	997	1000	1001	997	990	992	993	997	985	972	966	968	965	966	974	973	975	970	968	979	984	984	971	973	978	981	977	975	970	967	965	978	995	1002	1000	989	989	987	985	981	975	978	975	993	990	979	967	974	970	972	974	974	972	966	957	949	941	948	950	953	956	955	953	953	955	956	951	939	927	922	930	928	922	924	932	916	941	928	922	922	929	922	920	917	912	917	918	917	914	908	902	897	894	891	891	909	914	915	914	911	912	923	925	918	897	900	894	892	893	901	906	897	887	882	882	895	908	912	901	889	879	882	882	891	886	884	875	880	884	883	886	886	885	888	888	873	865	872	876	885	883	874	867	875	885	890	890	888	888	883	875	874	870	873	845	847	865	870	874	855	851	852	849	852	863	867	864	859	855	853	853	848	843	840	838	844	849	833	822	826	826	822	821	826	847	845	841	835	836	826	826	831	827	829	833	832	826	823	833	831	821	817	818	821	822	824	825	825	824	822	819	819	817	817	815	820	817	814	810	813	813	812	809	806	801	803	792	794	807	809	806	806	808	810	803	803	806	806	804	802	803	803	802	788	789	789	793	799	792	791	797	799	804	806	793	789	791	793	790	780	778	786	781	788	788	792	793	799	802	800	797	797	797	794	790	798	798	797	780	777	785	784	783	781	784	784	783	775	775	761	758	762	761	760	764	771	775	776	759	755	760	772	771	771	773	773	776	0	0	0	0	0	0	0	0
1376	1373	1371	1371	1362	1343	1332	1320	1322	1322	1328	1329	1336	1340	1340	1351	1354	1344	1340	1343	1355	1355	1371	1370	1357	1349	1346	1337	1337	1343	1349	1351	1349	1336	1336	1336	1327	1315	1315	1329	1343	1354	1337	1321	1289	1289	1294	1292	1299	1304	1318	1328	1328	1331	1329	1323	1323	1313	1313	1317	1313	1313	1319	1309	1308	1307	1317	1314	1308	1304	1299	1303	1294	1294	1286	1279	1274	1281	1297	1305	1310	1297	1300	1305	1311	1318	1313	1307	1292	1280	1280	1282	1277	1274	1274	1274	1269	1258	1247	1243	1243	1258	1267	1265	1247	1245	1246	1249	1241	1236	1236	1236	1237	1231	1234	1244	1252	1248	1241	1238	1235	1240	1239	1234	1229	1238	1234	1219	1220	1220	1229	1239	1242	1226	1207	1195	1196	1206	1221	1228	1231	1229	1218	1218	1219	1216	1215	1213	1204	1175	1166	1170	1176	1172	1165	1159	1159	1152	1147	1146	1166	1173	1177	1176	1157	1166	1176	1189	1163	1148	1137	1164	1172	1166	1150	1131	1125	1126	1132	1140	1145	1146	1153	1145	1138	1135	1137	1139	1137	1128	1131	1136	1133	1128	1117	1121	1118	1121	1123	1117	1122	1118	1114	1132	1130	1124	1123	1123	1119	1112	1111	1111	1115	1112	1103	1091	1084	1086	1089	1096	1104	1104	1095	1073	1085	1101	1102	1104	1098	1094	1093	1075	1075	1073	1060	1053	1057	1064	1082	1094	1095	1094	1089	1082	1077	1074	1075	1070	1062	1056	1055	1066	1069	1071	1069	1067	1053	1052	1053	1058	1051	1037	1034	1037	1046	1040	1040	1051	1006	999	1017	1022	1018	1017	1015	1022	1021	1015	1011	1006	1002	997	995	1007	1016	1021	1025	1027	1030	1033	1038	1039	1038	1036	1023	1025	1021	1024	1027	1028	1030	1033	1035	1013	1005	995	987	987	994	1014	1004	998	993	989	984	982	975	980	1006	1015	1016	1012	1012	985	987	973	979	1002	996	989	982	973	971	968	966	970	965	969	969	966	966	967	977	978	971	968	969	969	972	978	982	980	977	972	968	965	957	962	969	985	989	991	990	986	978	967	962	978	978	967	957	950	945	961	967	971	967	949	944	934	930	934	939	941	943	943	940	937	938	940	944	939	932	910	908	902	905	901	905	917	920	918	928	921	916	903	903	901	897	897	895	895	900	907	902	899	888	882	875	884	899	907	906	903	902	899	890	883	882	889	888	881	876	870	871	894	888	873	867	868	871	873	877	878	887	883	879	874	874	875	871	873	884	888	887	888	887	888	890	889	884	856	862	865	874	867	858	859	872	877	876	876	879	879	874	868	857	849	840	837	837	841	844	847	852	849	830	833	835	843	847	846	835	831	830	842	842	839	833	830	822	814	807	807	807	814	819	818	818	814	827	827	817	813	814	813	819	823	819	821	822	819	816	815	818	813	815	815	817	819	817	819	820	821	820	819	811	812	815	809	803	805	810	799	802	806	807	807	806	800	795	791	793	796	799	800	799	799	793	793	797	802	806	804	799	786	790	785	778	770	768	771	792	790	789	793	795	790	784	779	781	781	780	774	764	767	776	786	784	767	770	775	782	785	791	793	793	794	789	783	777	775	771	770	772	766	768	769	772	769	777	777	769	769	761	750	746	751	755	760	769	772	756	750	747	749	757	763	768	771	771	772	0	0	0	0	0	0	0	0
1336	1349	1345	1345	1341	1319	1299	1296	1296	1296	1309	1312	1320	1340	1340	1355	1360	1348	1330	1336	1358	1358	1355	1348	1336	1318	1319	1320	1320	1323	1322	1327	1316	1312	1316	1324	1324	1321	1319	1321	1326	1322	1304	1277	1267	1267	1269	1272	1281	1292	1302	1312	1316	1315	1327	1326	1326	1316	1313	1307	1303	1300	1296	1293	1290	1286	1285	1288	1285	1287	1288	1282	1286	1286	1273	1257	1253	1268	1282	1296	1296	1282	1265	1263	1274	1280	1276	1274	1269	1269	1268	1267	1268	1268	1262	1243	1235	1230	1231	1226	1234	1245	1249	1237	1224	1227	1231	1231	1220	1216	1210	1213	1215	1225	1237	1247	1248	1239	1227	1217	1216	1216	1216	1201	1188	1193	1209	1205	1211	1212	1212	1211	1212	1207	1196	1182	1178	1184	1183	1183	1189	1185	1185	1195	1212	1218	1219	1210	1187	1156	1154	1160	1170	1171	1162	1155	1160	1160	1168	1174	1168	1163	1160	1153	1126	1132	1134	1137	1121	1113	1106	1111	1125	1128	1130	1125	1117	1112	1105	1098	1094	1095	1104	1106	1109	1125	1134	1136	1127	1115	1118	1126	1126	1120	1106	1098	1107	1114	1116	1112	1102	1103	1105	1103	1091	1123	1108	1101	1103	1103	1085	1073	1076	1083	1086	1081	1068	1072	1078	1086	1090	1086	1066	1063	1071	1084	1086	1093	1093	1088	1074	1063	1061	1057	1046	1036	1037	1049	1074	1090	1089	1081	1072	1067	1060	1038	1029	1025	1026	1027	1030	1052	1061	1063	1051	1034	1036	1036	1042	1047	1044	1035	1030	1026	1018	1005	999	1002	991	978	982	1001	1003	998	1005	1014	1020	1006	1001	1002	1003	1003	1000	993	986	997	1013	1015	1017	1023	1028	1028	1028	1019	1017	1017	1022	1016	1007	996	1014	1013	1000	995	987	979	972	977	984	996	984	970	963	974	979	972	966	961	961	963	970	970	973	962	961	954	965	982	990	991	984	978	975	972	972	961	961	961	971	972	970	957	951	956	945	974	973	971	970	971	969	974	967	960	957	945	943	933	939	963	967	963	959	953	948	939	943	935	926	928	923	925	930	936	952	945	933	927	933	918	915	919	927	931	940	935	920	913	912	919	924	921	904	890	899	896	887	889	895	911	919	917	911	907	894	888	887	886	883	883	885	887	899	906	901	886	874	870	886	894	902	899	887	884	880	874	867	866	869	875	877	870	864	865	858	855	856	855	849	851	858	858	863	872	866	861	852	844	842	860	864	865	866	872	876	876	869	883	881	882	876	858	858	862	861	862	856	856	861	871	866	862	863	867	858	860	857	847	833	832	830	825	824	818	833	832	823	822	824	832	841	842	834	827	819	824	832	832	839	834	822	815	809	803	806	805	810	809	810	808	810	809	815	813	808	804	804	807	809	812	813	806	808	801	806	803	809	809	811	810	808	811	816	819	812	803	801	807	811	805	793	790	790	801	800	802	806	806	804	799	793	791	791	794	796	798	797	792	785	788	792	795	808	807	800	790	789	783	772	761	758	758	779	791	790	787	779	777	774	770	774	773	777	762	753	759	770	776	778	776	759	757	749	755	765	784	786	776	770	766	764	763	763	763	756	768	769	771	771	764	762	765	765	769	763	744	742	746	752	759	770	757	755	745	750	749	754	761	766	770	770	773	0	0	0	0	0	0	0	0
1277	1285	1285	1285	1296	1299	1296	1287	1284	1284	1288	1300	1318	1342	1356	1356	1356	1340	1327	1338	1353	1353	1326	1315	1302	1303	1301	1298	1298	1291	1290	1290	1297	1285	1283	1300	1300	1317	1312	1312	1310	1302	1283	1256	1255	1255	1260	1270	1276	1281	1291	1296	1298	1300	1303	1310	1310	1313	1304	1292	1286	1286	1284	1280	1276	1277	1277	1270	1261	1262	1269	1269	1267	1267	1261	1248	1236	1247	1266	1280	1275	1255	1245	1238	1235	1237	1240	1235	1226	1229	1224	1233	1245	1248	1236	1220	1210	1191	1178	1177	1192	1214	1220	1218	1207	1206	1204	1208	1204	1198	1191	1185	1185	1192	1209	1220	1206	1204	1203	1202	1191	1186	1179	1166	1157	1154	1188	1190	1195	1201	1198	1196	1197	1189	1182	1175	1170	1165	1152	1150	1155	1152	1144	1145	1173	1186	1171	1174	1162	1160	1162	1162	1165	1163	1159	1155	1156	1163	1168	1164	1143	1133	1127	1122	1119	1119	1119	1102	1098	1092	1084	1082	1103	1112	1120	1120	1112	1109	1099	1096	1083	1085	1083	1084	1091	1107	1114	1116	1106	1084	1092	1105	1117	1120	1107	1101	1104	1080	1070	1070	1076	1083	1088	1083	1076	1070	1060	1047	1073	1075	1073	1059	1057	1053	1052	1055	1060	1064	1075	1081	1079	1070	1065	1063	1065	1069	1058	1060	1060	1054	1043	1051	1053	1049	1037	1036	1042	1044	1038	1041	1050	1059	1059	1047	1030	1027	1021	1016	1017	1018	1019	1013	1012	1017	1023	1023	1020	1022	1026	1030	1022	1014	1019	1017	1009	997	990	983	979	975	979	988	987	982	991	1000	1006	994	995	997	1002	1004	1002	994	989	988	989	993	1000	1007	1012	1015	1011	998	998	989	992	1005	1011	987	982	984	990	983	978	976	971	973	979	976	972	964	957	951	963	965	957	955	954	961	967	966	961	956	943	941	939	954	985	992	988	983	978	974	964	952	952	955	957	971	953	945	947	954	951	925	961	957	953	958	954	937	934	942	947	934	926	929	934	937	935	930	916	909	909	912	915	915	918	920	921	923	924	927	927	927	924	916	911	904	903	905	912	920	931	929	919	910	900	907	908	894	887	886	880	880	877	879	890	901	904	910	906	901	887	885	879	878	876	876	879	888	902	888	888	886	880	869	859	861	870	874	872	874	874	872	863	858	844	845	848	851	857	859	857	845	841	842	847	849	849	851	860	863	859	850	841	834	831	843	851	843	838	844	849	851	853	851	853	868	858	852	848	844	853	849	851	847	849	842	834	817	827	847	841	834	829	823	816	816	814	805	803	802	806	815	811	808	806	809	817	819	819	814	814	819	823	827	835	831	818	809	802	798	799	802	803	804	805	804	802	808	813	814	807	798	796	799	802	806	805	799	792	787	791	797	797	796	789	800	799	804	802	801	794	791	793	802	800	791	787	787	784	784	788	791	789	787	784	794	789	793	791	790	774	771	773	778	779	781	784	785	789	793	797	796	789	773	768	767	767	766	775	782	777	774	765	759	758	764	765	776	766	755	752	759	766	769	769	766	764	757	754	753	755	757	762	762	759	754	753	753	753	749	752	755	757	765	765	758	756	759	759	760	757	751	745	742	746	753	761	759	748	748	751	752	751	757	759	755	755	751	0	0	0	0	0	0	0	0
1280	1280	1282	1282	1291	1296	1295	1288	1287	1287	1289	1303	1320	1333	1342	1342	1318	1311	1317	1320	1325	1299	1297	1288	1278	1271	1275	1272	1272	1267	1273	1279	1267	1269	1271	1287	1287	1298	1301	1294	1288	1280	1257	1250	1255	1255	1263	1267	1267	1268	1275	1280	1284	1277	1278	1281	1285	1285	1272	1263	1261	1262	1262	1259	1257	1257	1263	1256	1252	1250	1248	1248	1244	1244	1239	1214	1202	1195	1206	1209	1210	1218	1219	1214	1213	1217	1219	1220	1209	1207	1201	1204	1208	1212	1212	1203	1189	1170	1158	1154	1163	1185	1203	1202	1180	1179	1182	1180	1182	1177	1171	1165	1172	1167	1171	1166	1156	1155	1157	1156	1168	1169	1162	1153	1143	1135	1171	1182	1180	1178	1180	1174	1162	1166	1168	1161	1146	1129	1121	1117	1125	1133	1127	1123	1126	1135	1136	1127	1137	1150	1153	1147	1129	1120	1122	1128	1129	1133	1147	1130	1122	1120	1105	1106	1105	1108	1082	1060	1063	1067	1069	1069	1083	1095	1099	1090	1091	1095	1099	1096	1083	1080	1075	1077	1088	1098	1096	1094	1085	1084	1088	1088	1095	1096	1114	1119	1070	1047	1039	1039	1043	1063	1068	1071	1063	1050	1041	1036	1041	1042	1052	1055	1048	1043	1043	1047	1053	1061	1069	1074	1069	1048	1054	1054	1052	1046	1025	1024	1030	1028	1028	1038	1041	1036	1035	1035	1037	1030	1019	1010	997	1000	1007	1012	1011	1014	1014	1011	1010	1009	1006	987	992	999	1006	1009	1002	1003	1011	1012	1009	1007	1009	1006	998	995	990	985	981	978	977	976	965	973	975	981	983	983	985	984	978	982	984	977	971	965	965	962	960	954	953	965	977	981	984	981	981	977	975	970	972	971	969	962	973	968	967	970	968	966	960	955	947	945	950	953	952	952	953	961	967	966	951	940	930	929	920	929	952	955	957	961	964	964	959	946	943	946	945	942	941	941	944	950	922	910	902	910	920	916	908	906	909	921	929	930	927	919	914	912	909	905	902	900	895	895	895	892	903	907	910	918	917	901	902	904	914	912	910	903	902	902	904	907	918	918	912	902	900	908	896	894	880	879	873	872	867	868	875	885	886	889	869	873	879	859	858	865	865	864	865	882	882	871	864	860	857	852	854	849	851	849	850	856	863	865	852	845	833	836	842	840	834	834	849	851	838	842	840	845	845	853	859	856	851	845	832	824	822	822	826	825	825	824	829	834	842	830	836	835	833	822	822	831	825	822	838	839	838	822	815	806	814	817	819	813	814	816	812	806	798	800	801	800	799	805	805	802	799	801	797	798	794	786	784	791	794	803	809	802	790	783	781	785	793	798	795	789	783	784	778	779	779	779	774	770	772	776	779	788	798	795	786	785	782	782	782	772	764	774	793	799	796	795	785	784	786	789	789	782	778	782	782	782	786	786	785	786	782	785	786	789	786	769	764	769	761	758	762	768	775	780	786	783	783	781	764	768	770	770	771	777	773	771	766	763	755	752	750	757	753	750	760	750	745	748	757	759	758	757	754	756	752	750	754	754	752	746	749	742	740	739	731	741	749	753	753	758	760	745	745	751	751	754	751	745	736	732	734	736	739	742	744	743	748	749	751	754	749	744	744	732	0	0	0	0	0	0	0	0
