2166	2172	2172	2186	2204	2218	2215	2215	2204	2214	2220	2222	2210	2210	2200	2204	2236	2243	2239	2239	2226	2218	2191	2165	2166	2176	2176	2178	2175	2193	2212	2228	2217	2195	2195	2153	2144	2190	2197	2212	2186	2170	2182	2182	2205	2230	2258	2260	2225	2201	2177	2193	2222	2246	2246	2236	2229	2217	2213	2213	2194	2172	2124	2134	2152	2164	2146	2126	2129	2141	2150	2150	2162	2165	2156	2146	2128	2111	2106	2086	2093	2118	2141	2167	2151	2140	2094	2072	2053	2041	2037	2021	2009	2016	2031	2016	2027	2038	2045	2052	2050	2021	1988	1991	1990	1976	1978	1984	2006	2015	2006	1970	1945	1963	1987	1993	1983	1958	1935	1933	1946	1924	1917	1881	1864	1859	1870	1894	1900	1889	1881	1878	1879	1871	1787	1619	1560	1457	1375	1359	1339	1362	1375	1382	1380	1375	1382	1387	1386	1391	1404	1417	1416	1407	1382	1373	1364	1368	1374	1388	1393	1396	1383	1370	1365	1362	1360	1358	1356	1345	1348	1362	1371	1371	1370	1374	1385	1392	1398	1401	1402	1402	1417	1408	1404	1380	1381	1364	1360	1362	1367	1390	1408	1390	1393	1391	1386	1390	1404	1420	1424	1404	1414	1423	1418	1401	1391	1514	1594	1594	1594	1606	1621	1645	1656	1656	1654	1647	1651	1654	1661	1661	1656	1638	1616	1599	1587	1589	1609	1607	1624	1627	1624	1619	1616	1608	1610	1628	1628	1615	1593	1589	1585	1575	1577	1580	1573	1571	1564	1555	1541	1527	1548	1528	1516	1516	1531	1546	1536	1512	1487	1487	1484	1485	1481	1474	1465	1460	1452	1454	1455	1460	1464	1474	1506	1526	1531	1529	1548	1538	1506	1438	1437	1409	1399	1393	1395	1405	1410	1404	1401	1403	1406	1410	1417	1429	1440	1436	1428	1428	1430	1429	1426	1420	1419	1418	1418	1420	1424	1419	1406	1410	1411	1410	1408	1408	1410	1414	1406	1419	1407	1414	1427	1426	1413	1403	1397	1406	1416	1423	1417	1404	1399	1404	1408	1419	1424	1426	1427	1429	1426	1425	1420	1413	1414	1430	1430	1418	1405	1397	1401	1407	1407	1412	1413	1405	1397	1394	1396	1393	1392	1394	1393	1387	1374	1356	1367	1405	1428	1433	1424	1397	1380	1379	1378	1375	1366	1377	1382	1379	1374	1378	1391	1408	1395	1376	1364	1360	1386	1396	1396	1386	1386	1365	1363	1354	1344	1341	1344	1357	1354	1356	1358	1371	1372	1367	1356	1347	1340	1338	1349	1354	1347	1347	1347	1353	1354	1353	1345	1344	1347	1346	1348	1342	1335	1326	1320	1323	1339	1345	1340	1342	1347	1348	1345	1324	1346	1356	1358	1349	1339	1326	1335	1339	1318	1317	1309	1290	1287	1275	1252	1249	1267	1279	1289	1297	1286	1274	1270	1271	1277	1268	1265	1270	1278	1289	1298	1297	1295	1297	1304	1289	1264	1260	1267	1253	1256	1272	1263	1255	1250	1258	1261	1261	1257	1252	1255	1258	1257	1255	1248	1252	1255	1261	1272	1284	1286	1267	1257	1245	1236	1216	1210	1214	1218	1222	1224	1233	1237	1239	1238	1237	1228	1217	1204	1191	1197	1201	1197	1178	1172	1171	1183	1202	1211	1215	1211	1205	1201	1202	1192	1179	1174	1176	1180	1188	1203	1201	1201	1189	1179	1167	1163	1164	1163	1164	1167	1170	1168	1157	1160	1157	1150	1148	1146	1150	1153	1151	1161	1173	1172	1157	1143	1135	1147	1147	1144	1130	1117	1110	1111	1115	1123	1124	1125	1125	1124	1121	1126	1132	1139	1143	1148	1145	1141	1127	1121	1119	1118	1118	1117	1099	1093	1093	1099	1117	1128	1121	1112	1097	1100	1110	1111	1106	1102	1110	1118	1123	1124	1112	1105	1095	1088	1090	1097	1097	1101	1101	1096	1088	1079	1067	1063	1058	1058	1056	1045	1051	1054	1057	1062	0	0	0	0	0	0	0	0	0
2127	2134	2134	2127	2146	2140	2142	2142	2113	2128	2155	2173	2162	2162	2144	2142	2152	2170	2181	2181	2178	2159	2141	2116	2123	2141	2141	2142	2136	2145	2149	2136	2104	2089	2089	2069	2081	2102	2118	2125	2125	2134	2158	2158	2164	2172	2169	2165	2146	2132	2124	2145	2167	2200	2200	2194	2159	2163	2170	2159	2125	2112	2098	2098	2095	2099	2099	2097	2106	2116	2125	2125	2122	2117	2120	2110	2091	2063	2038	2026	2040	2066	2079	2071	2054	2027	2031	2040	2039	2030	2025	2016	1995	1978	1971	1978	1981	1994	2007	1986	1978	1979	1967	1958	1942	1932	1918	1916	1908	1918	1918	1910	1900	1904	1916	1899	1896	1893	1890	1888	1886	1878	1863	1845	1766	1756	1771	1813	1848	1869	1870	1841	1829	1838	1827	1618	1547	1463	1372	1366	1376	1383	1391	1390	1378	1380	1384	1383	1385	1392	1402	1416	1409	1395	1383	1378	1382	1374	1375	1387	1389	1386	1379	1373	1373	1375	1373	1368	1359	1353	1358	1369	1376	1375	1375	1381	1384	1385	1393	1402	1407	1408	1408	1404	1404	1384	1388	1395	1377	1392	1394	1403	1422	1392	1386	1390	1388	1392	1423	1437	1446	1441	1438	1437	1431	1409	1388	1509	1587	1589	1590	1591	1578	1571	1585	1596	1606	1604	1582	1570	1583	1610	1623	1626	1594	1569	1541	1529	1545	1573	1592	1600	1598	1590	1589	1587	1590	1587	1575	1573	1563	1565	1562	1557	1556	1560	1555	1554	1544	1533	1527	1516	1511	1506	1508	1516	1521	1501	1492	1484	1478	1490	1494	1479	1480	1469	1448	1436	1436	1432	1438	1427	1425	1414	1445	1477	1507	1521	1510	1509	1498	1459	1426	1422	1411	1409	1403	1402	1402	1404	1408	1415	1413	1412	1422	1438	1443	1425	1420	1423	1425	1430	1431	1430	1424	1416	1410	1410	1409	1405	1400	1410	1414	1415	1412	1410	1410	1402	1405	1398	1400	1415	1423	1425	1416	1403	1396	1399	1413	1423	1416	1412	1412	1416	1420	1426	1426	1425	1411	1407	1414	1410	1399	1380	1379	1372	1393	1401	1397	1391	1392	1395	1403	1402	1401	1389	1381	1379	1380	1375	1357	1347	1357	1361	1347	1339	1335	1346	1363	1375	1374	1349	1333	1329	1349	1350	1354	1363	1359	1357	1348	1362	1367	1372	1367	1355	1350	1360	1370	1377	1373	1363	1361	1348	1336	1325	1322	1327	1333	1331	1329	1333	1355	1369	1371	1365	1344	1339	1330	1311	1305	1308	1306	1314	1326	1322	1310	1309	1307	1297	1301	1314	1335	1335	1320	1305	1297	1298	1307	1326	1326	1327	1325	1317	1311	1308	1311	1317	1320	1317	1306	1288	1295	1297	1301	1295	1267	1261	1262	1248	1241	1217	1222	1255	1263	1273	1277	1268	1267	1259	1258	1249	1241	1234	1219	1223	1239	1250	1249	1251	1243	1235	1247	1243	1237	1228	1230	1244	1245	1245	1254	1256	1256	1255	1247	1233	1229	1214	1220	1224	1206	1199	1205	1220	1230	1241	1232	1235	1239	1234	1231	1200	1195	1200	1202	1206	1208	1220	1220	1212	1219	1224	1218	1203	1189	1186	1194	1201	1196	1181	1170	1168	1177	1185	1190	1200	1200	1194	1191	1192	1151	1147	1155	1162	1165	1168	1175	1174	1168	1157	1155	1157	1158	1159	1158	1149	1148	1153	1150	1145	1140	1141	1138	1135	1137	1139	1135	1132	1138	1141	1140	1137	1126	1127	1131	1136	1135	1111	1105	1108	1112	1119	1124	1124	1115	1115	1110	1108	1108	1112	1105	1112	1130	1133	1123	1108	1099	1095	1093	1088	1075	1080	1075	1080	1082	1082	1085	1097	1094	1085	1085	1089	1097	1102	1104	1100	1098	1103	1108	1109	1101	1090	1087	1089	1097	1097	1100	1098	1090	1078	1070	1065	1055	1052	1047	1046	1044	1047	1052	1057	1057	0	0	0	0	0	0	0	0	0
2094	2083	2083	2072	2058	2044	2031	2031	1976	1988	2018	2058	2111	2111	2114	2100	2088	2108	2122	2122	2118	2097	2087	2075	2072	2086	2086	2105	2113	2100	2104	2094	2078	2072	2072	2064	2048	2048	2075	2099	2108	2111	2124	2124	2125	2118	2114	2122	2119	2102	2082	2101	2123	2133	2133	2092	2095	2112	2116	2104	2066	2062	2064	2067	2055	2043	2023	2011	2054	2046	2024	2024	2007	2011	2007	1987	1959	1934	1943	1960	1964	1968	1957	1967	1971	1969	1974	1990	2013	2013	2007	1992	1962	1921	1898	1897	1924	1929	1934	1883	1882	1866	1860	1879	1869	1880	1882	1874	1879	1882	1879	1879	1865	1850	1840	1843	1849	1853	1850	1838	1842	1835	1826	1809	1774	1751	1749	1761	1776	1796	1808	1799	1778	1793	1786	1587	1524	1455	1371	1371	1384	1395	1400	1385	1375	1378	1375	1380	1382	1392	1399	1403	1393	1377	1374	1383	1391	1386	1379	1379	1377	1382	1382	1385	1384	1378	1373	1366	1360	1362	1366	1373	1376	1378	1382	1388	1381	1381	1389	1398	1408	1397	1397	1413	1407	1403	1391	1404	1392	1406	1407	1414	1432	1415	1403	1402	1401	1391	1411	1441	1458	1463	1463	1453	1446	1442	1445	1567	1568	1553	1532	1535	1538	1521	1524	1539	1543	1538	1530	1543	1552	1585	1600	1593	1557	1542	1521	1511	1518	1531	1546	1557	1563	1565	1571	1575	1573	1571	1563	1545	1522	1485	1543	1542	1544	1533	1531	1527	1519	1510	1508	1504	1498	1498	1490	1489	1483	1463	1446	1445	1440	1440	1457	1456	1455	1456	1444	1427	1425	1416	1415	1416	1407	1395	1396	1427	1459	1473	1442	1438	1468	1462	1436	1415	1408	1404	1392	1392	1394	1399	1405	1422	1424	1421	1427	1434	1427	1420	1415	1419	1427	1430	1439	1430	1415	1407	1404	1403	1409	1412	1407	1409	1411	1413	1416	1413	1412	1414	1410	1400	1406	1409	1414	1395	1389	1384	1379	1378	1387	1406	1413	1413	1413	1419	1423	1404	1387	1379	1390	1393	1383	1383	1355	1342	1349	1363	1372	1377	1378	1378	1372	1368	1369	1375	1376	1371	1366	1366	1362	1355	1340	1327	1320	1328	1326	1325	1331	1335	1339	1342	1344	1338	1323	1314	1322	1326	1334	1339	1310	1310	1324	1349	1359	1356	1348	1341	1341	1340	1341	1350	1350	1342	1332	1330	1331	1318	1314	1315	1318	1318	1309	1301	1294	1310	1319	1316	1312	1315	1309	1290	1279	1280	1276	1286	1293	1286	1276	1271	1272	1285	1289	1291	1308	1315	1305	1290	1287	1282	1283	1288	1290	1305	1310	1308	1298	1265	1269	1273	1289	1266	1257	1250	1243	1237	1249	1248	1248	1246	1249	1234	1227	1224	1220	1210	1230	1261	1264	1262	1259	1253	1245	1231	1224	1216	1213	1227	1232	1227	1221	1208	1198	1208	1221	1219	1213	1215	1203	1197	1201	1212	1214	1218	1215	1207	1193	1192	1197	1190	1188	1190	1179	1174	1169	1167	1166	1173	1183	1200	1195	1193	1192	1187	1181	1180	1185	1187	1187	1182	1182	1188	1201	1212	1207	1193	1174	1181	1190	1195	1188	1176	1163	1157	1166	1174	1180	1179	1174	1180	1181	1171	1134	1136	1144	1152	1159	1160	1160	1164	1157	1155	1156	1150	1156	1156	1151	1141	1130	1134	1130	1129	1126	1131	1129	1127	1129	1129	1121	1115	1116	1126	1125	1124	1122	1119	1117	1114	1100	1095	1096	1108	1111	1108	1102	1087	1076	1069	1091	1099	1093	1083	1099	1106	1101	1096	1096	1091	1083	1068	1061	1021	1029	1052	1035	1035	1042	1051	1060	1050	1040	1035	1038	1039	1040	1037	1044	1059	1080	1075	1067	1058	1047	1044	1044	1049	1063	1063	1083	1073	1059	1058	1063	1057	1052	1043	1038	1034	1033	1034	1037	1040	1041	0	0	0	0	0	0	0	0	0
2060	2041	2041	2012	2006	1991	1946	1946	1937	1940	1965	2010	2063	2063	2075	2068	2059	2061	2052	2052	2041	2034	2028	2038	2032	2053	2053	2072	2068	2047	2021	2024	2043	2053	2053	2041	2042	2038	2056	2078	2086	2088	2073	2073	2066	2061	2041	2038	2050	2056	2058	2054	2054	2048	2048	2019	1998	1999	2034	2033	2012	2010	2015	2019	2006	1994	1979	1962	1953	1950	1955	1955	1954	1948	1940	1914	1903	1889	1869	1860	1871	1883	1905	1922	1931	1927	1923	1921	1938	1965	1966	1922	1886	1865	1857	1867	1863	1852	1856	1850	1844	1828	1811	1810	1833	1845	1850	1847	1853	1853	1845	1834	1816	1801	1801	1810	1794	1778	1789	1803	1806	1798	1782	1762	1754	1745	1736	1729	1736	1753	1749	1751	1739	1724	1740	1549	1498	1455	1384	1370	1379	1393	1398	1381	1375	1374	1372	1380	1384	1390	1401	1398	1371	1358	1365	1377	1388	1388	1377	1369	1365	1383	1396	1402	1395	1382	1372	1362	1363	1365	1364	1368	1379	1383	1384	1386	1385	1376	1381	1391	1399	1402	1401	1414	1416	1406	1398	1404	1406	1416	1415	1402	1428	1432	1425	1417	1409	1399	1403	1442	1458	1473	1481	1480	1485	1520	1538	1533	1540	1534	1534	1532	1523	1521	1518	1516	1516	1514	1520	1523	1524	1541	1549	1551	1534	1522	1507	1489	1492	1493	1503	1520	1526	1528	1531	1525	1505	1498	1487	1473	1475	1472	1472	1481	1493	1515	1518	1509	1493	1484	1482	1480	1483	1479	1445	1442	1444	1438	1443	1440	1427	1412	1413	1423	1418	1418	1403	1397	1384	1380	1386	1400	1403	1385	1379	1388	1405	1423	1423	1422	1425	1430	1413	1407	1398	1386	1385	1379	1374	1387	1411	1427	1433	1430	1427	1426	1420	1413	1408	1402	1402	1409	1411	1411	1409	1404	1403	1407	1411	1413	1410	1406	1404	1399	1401	1402	1406	1413	1409	1398	1394	1376	1371	1373	1375	1371	1352	1334	1334	1355	1384	1390	1396	1404	1388	1354	1349	1351	1354	1354	1348	1336	1330	1334	1341	1350	1359	1364	1367	1365	1362	1355	1356	1357	1361	1356	1349	1348	1349	1341	1325	1317	1309	1314	1315	1325	1327	1326	1320	1318	1320	1320	1314	1303	1297	1294	1287	1287	1291	1293	1304	1328	1345	1344	1334	1324	1326	1322	1312	1313	1322	1325	1325	1326	1324	1315	1305	1294	1295	1297	1297	1289	1282	1289	1291	1288	1283	1280	1274	1266	1253	1253	1260	1259	1265	1268	1266	1263	1263	1273	1279	1288	1291	1293	1295	1286	1278	1269	1267	1239	1242	1266	1290	1293	1258	1257	1257	1222	1219	1220	1221	1218	1216	1204	1198	1211	1229	1237	1238	1231	1223	1223	1217	1214	1216	1236	1242	1238	1226	1216	1223	1218	1201	1202	1213	1224	1226	1218	1209	1195	1188	1188	1196	1198	1201	1196	1183	1169	1175	1193	1211	1212	1199	1188	1179	1185	1190	1177	1169	1162	1156	1153	1152	1151	1154	1161	1169	1178	1175	1165	1141	1143	1154	1153	1150	1145	1145	1146	1150	1150	1147	1140	1131	1122	1120	1143	1134	1126	1118	1112	1121	1135	1153	1166	1169	1155	1148	1143	1137	1121	1116	1120	1132	1141	1137	1121	1114	1115	1120	1129	1136	1142	1147	1139	1136	1130	1116	1110	1118	1118	1116	1114	1122	1122	1123	1119	1113	1101	1099	1108	1115	1118	1115	1109	1102	1095	1088	1087	1043	1043	1053	1061	1082	1081	1073	1051	1043	1041	1041	1045	1048	1031	1024	1014	1015	1006	1000	994	993	999	1006	1013	1016	1012	1014	1025	1039	1037	1031	1033	1034	1034	1032	1033	1023	1019	1015	1016	1019	1021	1017	1018	1013	1006	1007	1007	1010	1033	1052	1053	1046	1041	1036	1034	1035	1029	1028	1028	1027	1010	1006	0	0	0	0	0	0	0	0	0
2000	1978	1978	1975	1965	1958	1937	1937	1919	1924	1939	1979	2024	2024	2059	2058	2040	2019	1992	1992	1992	2007	2006	1993	2004	2011	2011	2022	2017	1998	1995	1996	2006	2018	2018	2011	2011	2011	2032	2044	2051	2018	2013	2013	2032	2017	2020	1994	1994	2004	2013	2022	2011	1982	1982	1944	1941	1938	1928	1928	1924	1955	1956	1953	1956	1950	1940	1921	1910	1905	1910	1910	1906	1900	1815	1833	1842	1847	1843	1839	1837	1847	1864	1872	1863	1842	1822	1811	1805	1792	1775	1767	1767	1767	1769	1767	1764	1761	1767	1766	1750	1751	1760	1763	1748	1744	1733	1739	1752	1808	1800	1779	1768	1753	1745	1725	1705	1702	1718	1745	1766	1765	1749	1732	1717	1713	1693	1692	1700	1710	1709	1691	1669	1658	1662	1601	1489	1456	1397	1373	1361	1363	1391	1375	1372	1380	1380	1378	1382	1393	1403	1392	1372	1356	1360	1375	1387	1390	1377	1360	1356	1363	1402	1405	1403	1386	1377	1376	1369	1366	1368	1373	1380	1385	1379	1379	1382	1378	1373	1380	1392	1408	1403	1405	1404	1401	1405	1409	1410	1409	1403	1395	1427	1439	1429	1420	1406	1400	1433	1448	1467	1477	1488	1505	1486	1488	1511	1524	1531	1534	1528	1523	1512	1509	1520	1528	1526	1519	1514	1513	1510	1507	1510	1510	1508	1498	1486	1482	1477	1478	1481	1487	1486	1487	1472	1464	1462	1464	1458	1466	1470	1474	1477	1475	1484	1498	1508	1488	1461	1440	1434	1445	1434	1401	1398	1409	1412	1425	1430	1423	1407	1395	1387	1391	1390	1384	1386	1373	1356	1337	1337	1343	1348	1356	1358	1364	1383	1397	1398	1398	1400	1400	1405	1410	1419	1416	1399	1380	1372	1385	1410	1430	1444	1436	1427	1420	1412	1400	1391	1387	1386	1390	1400	1404	1402	1398	1397	1402	1406	1403	1389	1380	1379	1380	1379	1377	1388	1397	1400	1394	1374	1358	1357	1356	1357	1355	1341	1328	1327	1329	1344	1367	1372	1373	1364	1337	1338	1336	1335	1329	1321	1316	1322	1329	1330	1331	1334	1342	1341	1344	1350	1340	1332	1319	1312	1311	1314	1332	1330	1325	1323	1314	1310	1304	1298	1298	1306	1301	1288	1280	1277	1280	1279	1284	1292	1291	1286	1280	1276	1278	1296	1303	1307	1309	1313	1316	1310	1302	1286	1285	1296	1306	1311	1308	1288	1276	1279	1274	1269	1283	1293	1271	1264	1256	1262	1260	1258	1252	1252	1247	1248	1243	1243	1244	1251	1253	1243	1239	1245	1264	1262	1267	1274	1270	1264	1248	1239	1242	1233	1212	1206	1211	1229	1241	1232	1230	1221	1214	1216	1217	1217	1215	1211	1202	1192	1187	1202	1215	1211	1198	1188	1186	1184	1186	1210	1234	1239	1236	1218	1203	1197	1191	1189	1198	1204	1212	1215	1206	1198	1191	1184	1179	1178	1186	1187	1180	1169	1154	1146	1147	1161	1173	1177	1172	1172	1172	1176	1154	1126	1129	1136	1139	1136	1137	1140	1144	1155	1151	1143	1137	1130	1103	1121	1125	1126	1127	1115	1108	1106	1111	1107	1099	1094	1091	1095	1092	1097	1094	1082	1082	1090	1096	1105	1120	1118	1129	1138	1138	1129	1106	1090	1087	1085	1086	1111	1103	1088	1081	1075	1081	1089	1105	1105	1104	1096	1085	1086	1100	1108	1105	1099	1097	1094	1093	1091	1100	1097	1049	1051	1055	1056	1052	1053	1053	1053	1053	1052	1038	1032	1034	1046	1058	1058	1048	1036	1033	1029	1020	1015	1018	1022	1015	1014	1006	1001	996	995	991	989	995	1001	1008	1006	1002	1004	1001	1013	1017	1019	1025	1023	1016	1006	1004	1000	1003	1005	1007	1007	999	986	983	979	1001	1001	1001	1002	1010	1025	1027	1018	1004	1000	1005	1015	1019	1025	1014	1009	1008	1007	0	0	0	0	0	0	0	0	0
1973	1955	1955	1947	1951	1951	1938	1938	1911	1910	1922	1947	1979	1979	2001	2006	1955	1928	1948	1948	1957	1952	1946	1941	1946	1960	1960	1978	1971	1981	1984	1986	1990	1989	1989	1976	1976	1966	1973	1978	1966	1959	1962	1962	1940	1941	1928	1946	1959	1967	1973	1946	1927	1924	1924	1910	1904	1889	1882	1876	1871	1868	1847	1813	1809	1805	1820	1825	1831	1844	1845	1845	1828	1809	1785	1787	1801	1817	1806	1805	1798	1761	1767	1787	1815	1819	1803	1791	1783	1768	1751	1741	1734	1729	1732	1731	1730	1729	1737	1734	1724	1714	1710	1711	1714	1702	1702	1702	1714	1727	1724	1718	1706	1697	1696	1672	1644	1631	1639	1688	1710	1723	1716	1716	1679	1670	1658	1659	1665	1677	1683	1657	1641	1621	1619	1587	1478	1454	1409	1373	1362	1359	1390	1372	1368	1375	1377	1379	1382	1390	1399	1386	1361	1343	1354	1370	1385	1395	1382	1355	1353	1367	1398	1393	1389	1393	1389	1383	1383	1379	1382	1388	1393	1388	1377	1381	1392	1385	1375	1378	1388	1404	1397	1389	1383	1390	1398	1411	1409	1387	1374	1388	1432	1433	1426	1412	1409	1425	1468	1495	1503	1509	1518	1547	1522	1516	1511	1522	1520	1503	1492	1491	1495	1504	1512	1516	1505	1495	1493	1493	1496	1495	1480	1474	1484	1477	1474	1461	1454	1455	1452	1445	1434	1438	1445	1450	1455	1454	1462	1471	1469	1469	1468	1458	1465	1480	1457	1409	1417	1397	1393	1395	1383	1381	1385	1390	1386	1402	1413	1406	1385	1370	1361	1364	1367	1370	1368	1372	1355	1346	1338	1340	1339	1338	1340	1354	1360	1369	1382	1392	1393	1398	1398	1402	1399	1400	1402	1387	1380	1376	1397	1425	1420	1394	1374	1375	1375	1376	1380	1373	1363	1366	1377	1387	1387	1383	1383	1388	1393	1382	1366	1359	1355	1356	1355	1365	1377	1382	1380	1374	1350	1337	1333	1334	1331	1327	1315	1298	1296	1308	1322	1347	1356	1352	1341	1324	1317	1323	1322	1314	1301	1294	1305	1314	1316	1315	1317	1315	1311	1312	1307	1300	1298	1302	1299	1300	1291	1291	1302	1308	1305	1303	1283	1269	1269	1266	1271	1274	1279	1276	1285	1286	1279	1283	1285	1284	1278	1269	1263	1256	1253	1252	1252	1261	1271	1293	1287	1283	1270	1266	1273	1285	1283	1269	1259	1250	1250	1249	1255	1270	1274	1254	1241	1241	1247	1251	1248	1235	1232	1229	1221	1220	1218	1222	1226	1227	1224	1216	1235	1248	1248	1245	1244	1248	1235	1229	1223	1220	1213	1206	1215	1223	1220	1208	1218	1215	1210	1209	1210	1214	1211	1202	1199	1187	1178	1175	1179	1195	1195	1185	1173	1159	1154	1156	1169	1192	1201	1201	1197	1186	1184	1181	1177	1169	1181	1183	1188	1191	1194	1188	1175	1161	1179	1179	1179	1152	1147	1147	1146	1148	1148	1154	1158	1157	1148	1143	1136	1123	1126	1131	1135	1139	1142	1143	1140	1133	1139	1136	1135	1130	1117	1094	1100	1113	1115	1110	1105	1099	1087	1088	1091	1093	1083	1080	1083	1080	1082	1086	1076	1072	1079	1090	1093	1097	1105	1113	1129	1136	1125	1096	1090	1083	1075	1069	1069	1081	1079	1072	1076	1071	1070	1086	1095	1084	1076	1085	1096	1099	1073	1056	1049	1048	1052	1049	1041	1036	1029	1028	1030	1028	1024	1019	1024	1031	1036	1033	1037	1025	1013	1012	1022	1030	1032	1024	996	991	993	995	994	994	998	997	993	990	989	991	993	992	993	995	999	1003	999	996	992	986	987	985	984	994	997	989	982	984	986	988	991	994	995	990	981	973	973	973	989	989	987	987	991	984	981	974	972	981	988	995	1002	998	995	994	1000	0	0	0	0	0	0	0	0	0
1925	1925	1925	1934	1947	1928	1896	1896	1889	1893	1900	1918	1937	1937	1926	1891	1864	1867	1886	1886	1908	1923	1927	1925	1915	1906	1906	1908	1915	1924	1936	1961	1958	1944	1944	1931	1927	1926	1918	1903	1901	1904	1892	1892	1887	1866	1846	1853	1888	1924	1922	1894	1882	1871	1871	1864	1794	1807	1811	1805	1802	1798	1795	1788	1773	1762	1773	1789	1790	1784	1789	1789	1785	1770	1735	1731	1752	1774	1735	1715	1712	1714	1722	1723	1728	1716	1736	1760	1759	1747	1736	1725	1719	1716	1709	1695	1693	1695	1693	1682	1689	1682	1676	1671	1677	1680	1695	1693	1694	1696	1673	1669	1666	1669	1672	1662	1647	1632	1639	1666	1692	1704	1698	1689	1645	1618	1604	1605	1609	1612	1612	1609	1595	1608	1605	1582	1484	1458	1415	1380	1372	1370	1383	1360	1359	1376	1380	1379	1381	1385	1382	1371	1359	1350	1355	1369	1386	1400	1387	1362	1358	1370	1386	1366	1358	1361	1382	1385	1385	1389	1399	1407	1405	1391	1385	1388	1399	1392	1385	1381	1384	1388	1385	1382	1383	1371	1390	1407	1398	1365	1354	1379	1423	1423	1414	1412	1403	1416	1442	1474	1498	1512	1525	1525	1517	1509	1504	1490	1474	1470	1463	1461	1468	1477	1488	1497	1493	1474	1461	1465	1472	1480	1480	1473	1462	1421	1426	1440	1457	1467	1468	1464	1456	1451	1456	1458	1462	1468	1454	1447	1449	1450	1446	1432	1419	1417	1403	1401	1404	1401	1366	1366	1371	1364	1350	1333	1334	1350	1367	1368	1355	1348	1347	1352	1364	1368	1372	1362	1351	1335	1333	1331	1318	1309	1315	1341	1359	1373	1387	1393	1387	1395	1385	1379	1385	1384	1391	1387	1384	1383	1394	1401	1390	1371	1369	1367	1367	1362	1365	1356	1338	1342	1353	1359	1362	1359	1363	1371	1373	1351	1346	1345	1345	1345	1348	1340	1340	1356	1350	1349	1327	1317	1318	1319	1314	1309	1288	1279	1278	1288	1302	1329	1335	1336	1326	1315	1310	1304	1302	1293	1285	1274	1278	1286	1278	1272	1281	1292	1298	1298	1287	1280	1288	1291	1293	1292	1288	1285	1282	1280	1253	1249	1251	1251	1245	1245	1247	1255	1258	1262	1267	1271	1269	1270	1274	1273	1268	1260	1251	1239	1235	1230	1230	1244	1253	1269	1269	1254	1237	1234	1244	1251	1250	1250	1242	1238	1237	1238	1255	1258	1246	1211	1227	1240	1241	1232	1223	1214	1200	1193	1184	1190	1191	1190	1194	1183	1185	1192	1190	1212	1226	1225	1222	1227	1230	1222	1215	1207	1202	1199	1208	1195	1180	1172	1192	1196	1196	1197	1204	1207	1207	1195	1178	1172	1164	1160	1167	1171	1184	1176	1153	1147	1143	1145	1146	1164	1159	1162	1162	1144	1149	1156	1153	1152	1163	1171	1174	1159	1144	1135	1103	1111	1140	1142	1140	1127	1129	1121	1123	1123	1124	1128	1122	1110	1103	1102	1094	1108	1124	1122	1124	1122	1126	1139	1139	1129	1124	1122	1117	1113	1103	1096	1094	1092	1088	1087	1081	1071	1071	1073	1076	1079	1075	1069	1068	1071	1075	1070	1068	1058	1058	1061	1067	1074	1083	1090	1089	1090	1089	1087	1081	1081	1076	1069	1066	1067	1064	1070	1061	1063	1036	1036	1035	1037	1038	1018	1017	1031	1041	1039	1032	1033	1041	1046	1043	1037	1032	1029	1022	1008	1008	1007	1002	1006	1014	1012	988	992	993	985	981	982	985	987	988	986	989	990	991	991	990	988	985	979	975	988	992	995	996	1004	1001	998	998	989	982	981	974	974	980	988	993	984	981	976	976	976	981	985	985	977	966	964	964	960	965	965	964	950	948	949	952	958	963	962	962	959	972	972	961	966	977	0	0	0	0	0	0	0	0	0
1855	1866	1866	1887	1881	1871	1868	1868	1866	1863	1864	1883	1881	1881	1881	1861	1855	1848	1875	1875	1890	1910	1916	1920	1896	1874	1874	1866	1874	1882	1897	1905	1898	1885	1885	1876	1869	1874	1876	1855	1866	1869	1857	1857	1840	1820	1816	1817	1816	1806	1828	1787	1785	1778	1778	1773	1768	1773	1765	1772	1774	1780	1779	1769	1754	1746	1741	1740	1742	1748	1742	1742	1740	1720	1696	1701	1729	1732	1713	1692	1684	1690	1706	1716	1704	1682	1669	1685	1695	1704	1703	1703	1707	1693	1677	1662	1660	1651	1618	1630	1650	1650	1652	1651	1657	1667	1670	1684	1681	1669	1645	1630	1626	1644	1648	1652	1639	1625	1624	1642	1648	1637	1634	1635	1617	1597	1588	1593	1596	1588	1583	1581	1579	1579	1585	1580	1510	1457	1433	1382	1379	1380	1380	1341	1342	1375	1380	1376	1378	1379	1375	1364	1352	1352	1356	1378	1391	1397	1387	1371	1367	1366	1362	1354	1350	1356	1372	1393	1408	1407	1411	1415	1402	1398	1396	1399	1400	1393	1384	1380	1377	1370	1372	1382	1381	1385	1387	1399	1399	1364	1350	1365	1418	1423	1422	1418	1401	1415	1447	1473	1481	1478	1470	1468	1480	1482	1483	1480	1464	1467	1465	1461	1460	1467	1477	1479	1473	1449	1439	1445	1456	1468	1472	1472	1447	1407	1404	1427	1442	1453	1453	1461	1468	1461	1448	1447	1446	1445	1434	1414	1413	1419	1394	1379	1361	1342	1343	1356	1371	1385	1391	1392	1384	1365	1350	1341	1349	1364	1372	1372	1353	1348	1335	1328	1329	1343	1350	1336	1334	1330	1325	1319	1301	1295	1307	1328	1339	1349	1362	1377	1378	1376	1361	1364	1370	1377	1380	1385	1384	1385	1375	1366	1362	1363	1363	1365	1364	1359	1339	1320	1312	1319	1325	1334	1336	1338	1342	1352	1351	1325	1323	1333	1345	1346	1337	1326	1312	1301	1297	1302	1298	1295	1299	1302	1300	1287	1277	1272	1269	1267	1262	1269	1274	1292	1290	1286	1299	1289	1287	1261	1254	1253	1263	1272	1266	1253	1258	1262	1264	1258	1244	1241	1267	1275	1281	1279	1276	1279	1272	1224	1213	1225	1229	1228	1227	1225	1231	1234	1228	1231	1229	1234	1227	1229	1246	1253	1253	1248	1225	1224	1215	1219	1224	1235	1242	1242	1231	1215	1193	1194	1205	1215	1209	1204	1203	1206	1208	1209	1220	1222	1213	1193	1201	1218	1211	1190	1181	1185	1174	1168	1166	1176	1179	1179	1174	1180	1176	1163	1161	1168	1195	1202	1197	1211	1225	1220	1212	1201	1165	1157	1148	1145	1146	1145	1141	1134	1129	1125	1133	1138	1139	1132	1132	1139	1149	1148	1156	1140	1134	1135	1130	1128	1126	1131	1126	1121	1119	1124	1132	1119	1120	1114	1137	1148	1155	1149	1133	1114	1095	1092	1094	1107	1113	1120	1118	1110	1098	1094	1087	1087	1084	1082	1078	1079	1080	1076	1065	1084	1095	1095	1087	1082	1081	1086	1091	1097	1090	1077	1080	1091	1085	1090	1092	1089	1083	1074	1063	1059	1057	1056	1053	1055	1059	1054	1055	1057	1050	1051	1042	1040	1048	1055	1059	1065	1069	1069	1067	1064	1061	1078	1080	1076	1074	1068	1057	1035	1031	1033	1024	1014	1010	1018	1029	1029	1028	1002	1000	1004	1003	1006	1003	1004	1020	1033	1036	1039	1038	1015	987	982	984	987	979	962	954	958	968	980	985	982	976	974	976	972	975	977	985	989	992	991	984	980	975	966	969	975	993	996	1000	996	990	989	990	973	977	971	963	964	970	979	986	976	971	967	960	964	966	971	959	948	951	952	951	950	947	947	943	943	944	951	949	940	935	933	937	942	947	958	953	950	943	0	0	0	0	0	0	0	0	0
1825	1830	1830	1833	1830	1816	1817	1817	1822	1830	1837	1845	1848	1848	1839	1836	1830	1842	1859	1859	1873	1889	1898	1893	1883	1867	1867	1845	1842	1857	1857	1857	1845	1838	1838	1826	1838	1854	1846	1840	1832	1827	1819	1819	1803	1794	1800	1768	1769	1760	1759	1752	1760	1767	1767	1763	1753	1740	1729	1723	1726	1737	1757	1756	1745	1723	1694	1695	1699	1701	1709	1709	1701	1694	1691	1704	1712	1696	1679	1661	1661	1676	1693	1697	1693	1669	1637	1635	1649	1659	1667	1670	1679	1669	1657	1637	1621	1596	1582	1588	1597	1612	1626	1626	1638	1630	1629	1625	1633	1630	1617	1606	1603	1612	1621	1627	1618	1608	1584	1558	1574	1586	1592	1606	1581	1572	1572	1580	1578	1573	1567	1568	1567	1574	1577	1568	1522	1483	1451	1398	1385	1395	1376	1340	1334	1379	1388	1375	1372	1374	1376	1368	1366	1366	1374	1385	1397	1400	1396	1390	1377	1358	1358	1356	1353	1359	1368	1381	1393	1394	1398	1399	1403	1403	1403	1398	1399	1389	1382	1370	1366	1357	1361	1378	1387	1407	1399	1396	1396	1398	1368	1383	1459	1491	1468	1442	1437	1440	1449	1458	1460	1459	1457	1449	1438	1440	1443	1455	1451	1450	1455	1456	1459	1459	1462	1462	1434	1433	1440	1452	1463	1461	1450	1445	1433	1419	1412	1404	1397	1397	1398	1405	1418	1418	1412	1401	1402	1412	1409	1390	1371	1368	1354	1342	1331	1334	1339	1338	1342	1343	1344	1341	1340	1333	1335	1331	1335	1339	1342	1339	1338	1334	1330	1318	1307	1305	1308	1313	1313	1313	1310	1308	1298	1294	1302	1320	1326	1337	1343	1351	1351	1357	1354	1351	1355	1366	1364	1371	1369	1358	1336	1344	1347	1355	1357	1355	1347	1331	1309	1293	1290	1307	1314	1319	1319	1312	1309	1304	1302	1307	1314	1325	1336	1335	1320	1308	1295	1291	1290	1283	1273	1266	1267	1281	1282	1289	1285	1275	1271	1266	1268	1264	1261	1269	1262	1254	1257	1256	1234	1218	1222	1236	1250	1260	1223	1218	1222	1231	1227	1217	1204	1193	1195	1215	1245	1260	1259	1232	1207	1201	1200	1208	1213	1211	1214	1212	1216	1214	1208	1192	1177	1186	1203	1199	1202	1211	1223	1217	1209	1208	1197	1193	1195	1200	1207	1205	1193	1179	1155	1156	1165	1178	1181	1169	1173	1184	1191	1194	1188	1174	1154	1166	1173	1174	1176	1176	1167	1150	1155	1156	1162	1163	1163	1167	1168	1175	1157	1151	1144	1149	1159	1164	1166	1177	1182	1182	1110	1100	1097	1098	1113	1126	1136	1134	1122	1095	1095	1102	1109	1122	1121	1122	1119	1124	1129	1127	1127	1107	1102	1107	1114	1119	1119	1108	1088	1088	1102	1109	1113	1107	1110	1106	1104	1121	1139	1118	1102	1086	1080	1087	1088	1092	1097	1102	1094	1081	1071	1074	1065	1059	1058	1059	1062	1064	1070	1071	1070	1080	1083	1079	1070	1069	1067	1072	1070	1065	1059	1059	1062	1072	1074	1072	1078	1082	1080	1067	1062	1057	1048	1041	1042	1039	1045	1048	1049	1049	1043	1031	1009	1012	1022	1034	1045	1037	1041	1041	1036	1038	1008	1010	1009	1015	1012	1016	1014	1021	1034	1031	1019	1012	1008	1014	1018	1021	1007	999	996	996	993	992	989	980	980	982	999	1006	1005	997	981	968	968	968	962	947	950	948	955	956	964	973	969	967	970	965	968	974	984	991	993	991	979	970	960	965	971	972	966	961	954	949	958	968	962	961	965	952	938	949	960	966	970	970	963	953	948	949	953	946	938	936	937	938	940	941	941	941	941	941	943	945	947	940	932	930	932	934	940	943	944	939	924	0	0	0	0	0	0	0	0	0
1813	1809	1809	1798	1772	1764	1789	1789	1802	1821	1827	1834	1831	1831	1820	1812	1820	1830	1838	1838	1833	1837	1863	1870	1855	1848	1848	1823	1829	1835	1834	1825	1815	1795	1795	1803	1836	1837	1808	1800	1781	1785	1775	1727	1732	1727	1721	1731	1743	1755	1739	1738	1741	1741	1739	1739	1720	1693	1673	1665	1658	1666	1681	1690	1690	1672	1659	1658	1668	1679	1683	1683	1686	1681	1684	1675	1676	1672	1660	1639	1643	1655	1672	1682	1676	1652	1622	1602	1598	1617	1635	1638	1625	1639	1632	1624	1604	1586	1572	1568	1571	1588	1604	1605	1591	1587	1589	1592	1596	1578	1567	1572	1572	1585	1601	1601	1594	1576	1552	1551	1556	1560	1567	1560	1544	1538	1534	1534	1542	1539	1532	1526	1535	1554	1564	1565	1520	1491	1459	1403	1388	1393	1361	1341	1334	1337	1396	1388	1374	1378	1384	1397	1405	1387	1390	1390	1394	1405	1412	1407	1386	1367	1361	1366	1360	1359	1370	1378	1384	1385	1389	1394	1394	1400	1403	1400	1397	1384	1375	1370	1369	1367	1367	1382	1395	1415	1399	1393	1389	1401	1408	1420	1413	1425	1422	1407	1414	1414	1419	1424	1425	1441	1433	1428	1418	1414	1414	1434	1438	1436	1443	1449	1450	1447	1433	1421	1418	1420	1436	1449	1456	1439	1421	1408	1406	1401	1384	1379	1369	1363	1374	1394	1406	1406	1399	1390	1391	1396	1392	1387	1374	1362	1360	1356	1355	1343	1339	1330	1328	1320	1317	1325	1324	1320	1314	1312	1321	1324	1329	1332	1333	1324	1320	1313	1308	1302	1297	1290	1293	1298	1302	1304	1323	1324	1316	1312	1314	1319	1323	1330	1324	1317	1328	1343	1348	1354	1345	1328	1309	1300	1298	1307	1333	1329	1313	1303	1305	1306	1289	1275	1274	1273	1289	1303	1311	1313	1305	1294	1286	1284	1289	1296	1306	1305	1292	1277	1268	1258	1259	1257	1248	1244	1247	1257	1271	1278	1280	1278	1271	1270	1268	1258	1254	1248	1241	1240	1240	1231	1219	1208	1207	1219	1230	1206	1191	1189	1185	1198	1211	1200	1188	1178	1176	1178	1184	1194	1198	1203	1203	1195	1188	1192	1192	1197	1199	1203	1205	1200	1192	1172	1162	1157	1153	1149	1148	1152	1185	1189	1189	1178	1169	1164	1159	1157	1162	1160	1167	1159	1158	1156	1152	1152	1144	1136	1126	1128	1130	1131	1129	1117	1124	1135	1141	1165	1170	1169	1163	1148	1131	1125	1122	1131	1151	1151	1155	1155	1135	1131	1134	1147	1147	1136	1138	1133	1093	1097	1094	1090	1088	1092	1110	1117	1125	1126	1114	1095	1093	1097	1103	1103	1107	1107	1111	1115	1116	1114	1105	1095	1091	1096	1111	1112	1112	1106	1080	1071	1077	1085	1098	1103	1103	1097	1082	1065	1065	1071	1074	1077	1075	1071	1080	1081	1080	1077	1068	1061	1047	1033	1024	1024	1034	1039	1050	1056	1063	1062	1068	1068	1069	1063	1057	1056	1055	1056	1052	1043	1038	1038	1042	1055	1060	1058	1068	1075	1068	1059	1051	1046	1037	1026	1022	1026	1028	1042	1045	1038	1027	993	993	1000	1009	1013	1019	1005	1009	1011	1006	992	989	993	990	986	986	992	1010	1024	1031	1028	1019	1012	1008	1009	1005	1011	1005	998	996	990	989	982	975	971	973	972	976	974	993	984	969	960	955	954	947	948	951	951	944	934	938	959	958	953	955	957	967	973	974	976	981	973	963	951	951	956	963	961	939	934	930	934	938	945	949	955	955	936	934	940	948	954	960	956	944	938	937	941	942	930	923	914	923	928	931	937	941	941	938	935	933	935	936	936	933	928	924	921	922	930	934	929	900	0	0	0	0	0	0	0	0	0
1796	1783	1783	1756	1721	1732	1760	1760	1775	1793	1801	1815	1814	1814	1799	1790	1792	1793	1764	1764	1770	1781	1798	1791	1785	1777	1777	1776	1774	1771	1761	1765	1758	1754	1754	1760	1776	1775	1773	1757	1710	1692	1682	1682	1689	1697	1700	1707	1722	1726	1726	1724	1723	1708	1678	1678	1663	1653	1644	1645	1652	1665	1673	1678	1663	1650	1650	1646	1650	1659	1660	1660	1665	1659	1651	1643	1629	1630	1638	1622	1618	1630	1644	1648	1643	1625	1606	1590	1585	1592	1594	1590	1585	1595	1593	1583	1576	1567	1569	1567	1559	1555	1562	1552	1546	1542	1551	1548	1543	1536	1523	1519	1522	1530	1551	1561	1557	1551	1553	1547	1542	1531	1531	1529	1515	1506	1497	1494	1496	1506	1491	1484	1499	1523	1539	1549	1542	1479	1440	1404	1392	1403	1374	1379	1341	1353	1400	1377	1372	1376	1380	1391	1402	1397	1387	1380	1387	1400	1412	1408	1387	1381	1374	1374	1369	1368	1371	1375	1380	1385	1387	1389	1393	1398	1401	1405	1399	1395	1383	1384	1381	1380	1374	1383	1396	1411	1411	1396	1389	1385	1380	1382	1380	1354	1375	1394	1392	1401	1412	1419	1420	1418	1417	1413	1405	1396	1388	1401	1418	1412	1417	1425	1431	1422	1406	1400	1403	1407	1396	1391	1399	1406	1394	1374	1359	1359	1382	1382	1375	1364	1359	1364	1383	1378	1380	1380	1385	1382	1383	1375	1368	1355	1355	1353	1344	1343	1341	1326	1314	1300	1289	1281	1279	1286	1293	1297	1295	1290	1312	1317	1319	1312	1305	1301	1300	1293	1286	1277	1283	1289	1290	1301	1312	1324	1315	1304	1297	1305	1306	1300	1295	1293	1301	1303	1301	1298	1283	1275	1275	1275	1269	1272	1281	1282	1276	1258	1258	1264	1258	1257	1262	1253	1247	1240	1245	1252	1262	1261	1258	1255	1251	1257	1264	1265	1251	1233	1219	1210	1211	1214	1221	1219	1219	1212	1216	1232	1229	1235	1247	1251	1247	1238	1225	1205	1201	1210	1215	1211	1205	1200	1196	1189	1183	1173	1174	1167	1170	1175	1175	1180	1177	1170	1170	1172	1176	1185	1194	1189	1185	1188	1182	1164	1155	1156	1163	1185	1197	1191	1179	1170	1166	1171	1161	1159	1154	1147	1144	1147	1144	1137	1146	1150	1147	1133	1135	1131	1137	1131	1147	1148	1145	1129	1117	1107	1104	1110	1112	1122	1117	1115	1121	1130	1134	1136	1153	1165	1168	1148	1110	1091	1089	1113	1116	1124	1125	1117	1137	1140	1143	1138	1131	1114	1093	1087	1087	1092	1090	1087	1083	1088	1100	1107	1109	1113	1103	1092	1087	1084	1085	1086	1097	1101	1102	1096	1102	1101	1094	1082	1079	1086	1098	1104	1104	1098	1059	1068	1082	1087	1075	1065	1059	1052	1041	1031	1028	1026	1028	1028	1027	1023	1033	1036	1040	1050	1058	1063	1055	1029	1014	1010	1017	1023	1021	1026	1042	1056	1057	1060	1061	1057	1050	1046	1044	1032	1027	1017	1019	1020	1025	1031	1039	1042	1048	1036	1021	1022	1028	1026	1025	1012	1008	1009	1001	1005	993	990	987	990	984	996	998	993	990	988	992	990	983	973	972	976	975	980	984	985	986	990	998	1011	1014	1007	1000	999	987	993	995	991	989	981	976	975	970	957	955	965	963	964	969	964	958	950	944	944	947	955	957	945	923	921	924	929	934	942	944	942	940	945	952	958	955	939	914	914	922	929	935	936	942	942	933	929	931	935	944	948	951	938	939	947	942	938	930	923	915	922	927	934	928	922	914	905	916	920	928	935	935	938	927	917	916	919	921	921	918	914	909	908	907	909	909	905	899	0	0	0	0	0	0	0	0	0
1733	1739	1739	1694	1696	1723	1744	1744	1751	1762	1764	1756	1753	1753	1761	1774	1767	1752	1739	1727	1727	1734	1742	1742	1730	1730	1730	1731	1728	1734	1733	1722	1713	1718	1718	1728	1731	1721	1667	1646	1648	1644	1647	1647	1660	1667	1667	1670	1671	1678	1698	1707	1694	1670	1651	1651	1623	1617	1622	1633	1646	1656	1661	1648	1628	1631	1633	1634	1642	1644	1645	1645	1641	1630	1615	1605	1593	1588	1587	1594	1591	1601	1606	1596	1574	1559	1574	1571	1576	1569	1566	1560	1558	1567	1566	1554	1548	1536	1538	1536	1521	1516	1521	1531	1526	1519	1522	1531	1528	1520	1507	1498	1494	1497	1483	1502	1520	1542	1544	1531	1523	1511	1502	1503	1506	1485	1477	1474	1477	1480	1467	1455	1451	1455	1482	1500	1511	1495	1440	1407	1415	1406	1400	1390	1380	1390	1408	1375	1373	1367	1374	1378	1386	1387	1380	1378	1385	1397	1401	1389	1381	1372	1377	1383	1382	1381	1384	1386	1385	1390	1396	1390	1393	1403	1403	1398	1398	1396	1396	1391	1389	1387	1369	1377	1389	1391	1403	1406	1411	1410	1409	1406	1393	1389	1395	1385	1382	1388	1403	1417	1422	1413	1405	1391	1396	1384	1374	1383	1377	1370	1378	1392	1404	1394	1390	1398	1403	1385	1360	1357	1356	1370	1382	1364	1351	1350	1374	1377	1372	1357	1341	1331	1330	1343	1356	1363	1367	1364	1356	1356	1353	1341	1342	1342	1334	1328	1330	1332	1309	1285	1271	1269	1260	1264	1261	1254	1253	1255	1255	1258	1298	1287	1279	1270	1272	1274	1268	1257	1261	1268	1281	1285	1290	1286	1284	1281	1279	1278	1284	1282	1280	1270	1265	1264	1264	1260	1256	1258	1256	1250	1245	1239	1233	1233	1232	1226	1226	1221	1231	1245	1249	1218	1207	1189	1175	1180	1189	1195	1196	1200	1214	1232	1232	1231	1221	1214	1213	1202	1208	1214	1217	1216	1210	1197	1175	1171	1180	1194	1211	1222	1225	1208	1194	1192	1193	1190	1183	1187	1193	1186	1164	1152	1154	1155	1163	1160	1165	1166	1156	1163	1163	1163	1164	1168	1174	1173	1179	1178	1170	1172	1162	1147	1138	1137	1143	1154	1178	1192	1187	1176	1166	1152	1139	1143	1146	1140	1132	1130	1127	1131	1124	1118	1116	1120	1122	1125	1123	1121	1133	1139	1132	1117	1107	1099	1096	1099	1106	1108	1106	1113	1117	1123	1125	1126	1131	1135	1127	1103	1089	1078	1069	1071	1083	1092	1105	1119	1121	1114	1104	1092	1082	1090	1086	1087	1087	1089	1084	1080	1077	1081	1088	1095	1089	1099	1091	1086	1080	1074	1072	1074	1075	1074	1064	1057	1058	1052	1041	1033	1033	1038	1045	1050	1063	1073	1050	1061	1067	1064	1044	1033	1026	1040	1054	1048	1039	1030	1019	1012	1010	1006	1002	1014	1028	1042	1054	1051	1030	1013	1006	1006	1013	1014	1004	1004	1013	1015	997	1011	1014	1012	1008	1010	1012	1015	1019	1008	1007	1001	999	1009	990	999	1010	1013	1008	1003	1003	1007	1006	1003	1002	997	992	984	984	986	985	979	976	975	970	968	969	978	980	976	973	962	960	960	968	979	983	977	975	976	980	989	996	994	989	976	970	968	974	973	965	965	956	956	955	947	948	949	950	953	948	955	951	947	942	941	946	944	941	929	906	900	899	910	923	928	930	927	923	930	927	938	935	913	911	908	909	910	925	932	934	931	926	928	929	933	937	944	947	938	932	932	940	944	930	913	910	906	914	921	918	908	899	900	902	904	902	898	898	907	914	905	903	906	912	911	906	900	888	885	898	902	893	884	887	0	0	0	0	0	0	0	0	0
1662	1662	1662	1668	1695	1712	1728	1723	1723	1706	1691	1692	1673	1673	1699	1732	1749	1737	1719	1710	1710	1710	1703	1699	1689	1689	1687	1687	1696	1694	1699	1694	1690	1689	1689	1697	1644	1633	1634	1629	1635	1625	1628	1628	1626	1627	1635	1635	1632	1636	1636	1644	1658	1630	1601	1601	1573	1564	1562	1569	1582	1584	1585	1582	1590	1585	1572	1582	1594	1590	1585	1585	1592	1596	1577	1562	1557	1553	1558	1559	1562	1568	1568	1534	1531	1527	1533	1546	1554	1539	1538	1528	1537	1532	1540	1522	1511	1510	1502	1492	1487	1495	1494	1498	1499	1498	1511	1524	1522	1510	1491	1477	1460	1451	1460	1479	1504	1524	1524	1510	1493	1478	1473	1479	1484	1480	1470	1466	1476	1475	1466	1439	1420	1418	1434	1440	1448	1458	1440	1427	1412	1403	1400	1394	1393	1396	1404	1377	1373	1372	1378	1382	1386	1386	1384	1380	1388	1401	1402	1393	1378	1365	1372	1407	1427	1416	1374	1370	1406	1408	1398	1394	1401	1414	1423	1431	1422	1413	1395	1389	1383	1377	1367	1371	1379	1384	1389	1405	1418	1425	1428	1423	1405	1377	1377	1367	1358	1369	1394	1413	1420	1411	1404	1386	1388	1385	1369	1365	1356	1351	1354	1377	1375	1370	1372	1363	1355	1341	1330	1331	1332	1336	1358	1360	1344	1340	1351	1355	1354	1336	1324	1318	1309	1310	1322	1333	1338	1336	1334	1336	1327	1324	1302	1306	1312	1308	1312	1303	1287	1272	1263	1247	1246	1231	1232	1229	1227	1224	1225	1228	1232	1230	1255	1243	1252	1253	1251	1227	1223	1233	1240	1228	1216	1223	1234	1258	1262	1268	1273	1273	1272	1257	1240	1231	1227	1232	1234	1237	1233	1230	1227	1227	1229	1239	1238	1225	1214	1207	1221	1230	1209	1204	1196	1193	1189	1183	1187	1186	1183	1178	1174	1175	1185	1203	1212	1209	1201	1195	1191	1200	1202	1201	1190	1175	1163	1146	1150	1174	1193	1195	1197	1186	1182	1178	1171	1170	1147	1145	1151	1155	1158	1155	1155	1154	1158	1158	1160	1161	1162	1168	1164	1158	1159	1156	1153	1141	1137	1146	1153	1155	1143	1128	1121	1122	1130	1142	1147	1150	1151	1150	1116	1112	1118	1112	1118	1122	1125	1126	1128	1125	1111	1110	1105	1105	1110	1110	1105	1108	1116	1125	1115	1104	1094	1093	1088	1091	1095	1100	1098	1099	1105	1105	1113	1116	1118	1121	1111	1091	1079	1075	1071	1073	1080	1084	1100	1106	1110	1107	1096	1072	1073	1073	1076	1078	1086	1078	1074	1071	1070	1069	1045	1034	1016	1016	1023	1037	1041	1035	1040	1047	1047	1041	1037	1038	1041	1042	1023	1016	1008	1006	1017	1031	1039	1032	1039	1028	1008	1002	1001	1003	1017	1018	1021	1028	1032	1026	1014	1001	990	988	988	996	998	1023	1023	1019	1005	996	998	1006	1005	1009	1003	1000	999	993	979	997	1004	1009	1001	986	986	1003	1016	1010	1006	999	982	978	982	984	988	987	988	989	989	993	992	989	978	976	973	971	973	977	974	970	959	955	955	955	958	962	966	964	958	953	946	954	963	972	977	973	966	961	962	969	971	972	970	951	946	952	957	952	950	948	944	944	946	946	943	940	940	939	941	943	945	951	948	927	925	938	939	927	895	888	895	909	916	920	920	917	911	906	909	913	911	907	907	904	903	909	908	913	919	916	908	901	901	903	927	927	904	907	907	927	934	933	921	917	915	918	920	919	912	900	894	897	897	892	882	884	884	891	893	892	893	891	893	895	896	889	882	876	882	884	871	868	870	0	0	0	0	0	0	0	0	0
1630	1631	1631	1626	1655	1686	1704	1692	1692	1676	1663	1655	1648	1648	1662	1683	1702	1719	1712	1700	1700	1687	1667	1658	1655	1634	1629	1629	1637	1648	1655	1660	1660	1660	1633	1613	1603	1609	1612	1615	1621	1619	1617	1608	1608	1606	1614	1610	1593	1588	1591	1592	1586	1569	1563	1563	1551	1546	1538	1534	1539	1549	1555	1546	1536	1532	1531	1538	1548	1547	1547	1547	1545	1553	1548	1534	1530	1530	1532	1537	1540	1542	1531	1507	1501	1502	1510	1526	1528	1529	1522	1499	1484	1490	1501	1496	1481	1474	1462	1462	1466	1482	1488	1484	1476	1459	1469	1481	1488	1483	1463	1449	1442	1440	1443	1461	1481	1504	1506	1485	1463	1447	1440	1445	1448	1465	1468	1473	1476	1463	1463	1442	1429	1414	1422	1430	1435	1437	1438	1419	1383	1359	1357	1376	1402	1407	1373	1369	1370	1371	1375	1374	1371	1380	1374	1364	1366	1376	1384	1384	1377	1374	1370	1380	1371	1360	1357	1361	1373	1384	1384	1383	1389	1389	1381	1366	1370	1375	1393	1388	1381	1372	1372	1375	1379	1374	1371	1377	1408	1419	1424	1419	1406	1361	1350	1339	1325	1327	1344	1376	1392	1387	1379	1379	1382	1371	1358	1349	1346	1331	1326	1320	1346	1338	1337	1340	1334	1323	1310	1308	1308	1308	1314	1321	1322	1317	1329	1323	1315	1307	1300	1302	1295	1290	1292	1294	1288	1294	1305	1303	1269	1276	1278	1280	1273	1286	1293	1277	1262	1254	1253	1234	1226	1224	1220	1220	1222	1222	1216	1208	1208	1205	1196	1188	1229	1213	1211	1201	1208	1212	1212	1206	1197	1193	1193	1210	1235	1255	1260	1257	1240	1227	1218	1206	1203	1202	1201	1207	1208	1207	1195	1196	1214	1231	1232	1214	1207	1200	1203	1187	1186	1186	1186	1181	1174	1173	1174	1174	1169	1169	1161	1147	1143	1168	1192	1194	1186	1177	1171	1175	1189	1187	1170	1160	1148	1137	1135	1138	1163	1183	1176	1164	1150	1145	1141	1134	1137	1145	1149	1143	1155	1160	1162	1163	1158	1160	1157	1155	1137	1144	1139	1133	1139	1139	1136	1130	1118	1120	1126	1117	1118	1111	1101	1099	1104	1111	1107	1099	1087	1081	1091	1098	1100	1095	1094	1095	1113	1122	1127	1124	1111	1108	1103	1101	1100	1099	1095	1092	1082	1083	1096	1087	1078	1075	1075	1071	1080	1077	1060	1064	1068	1076	1077	1080	1095	1099	1096	1082	1074	1067	1071	1074	1074	1076	1081	1092	1102	1018	1022	1034	1044	1052	1050	1048	1054	1053	1054	1058	1050	1013	1006	1004	1004	1010	1007	1011	1014	1017	1021	1026	1022	1018	1020	1014	1020	1010	996	988	985	985	988	999	1000	996	986	981	989	992	996	999	1005	1008	1011	1015	1015	1016	998	981	979	977	972	974	994	999	995	979	975	983	993	985	978	984	991	984	972	976	983	981	988	987	991	979	971	979	999	1003	1004	997	985	978	976	972	966	955	948	954	963	976	984	981	978	974	974	967	959	952	947	944	953	947	946	953	954	952	952	952	947	939	935	940	961	971	974	967	961	954	951	940	946	952	951	919	921	931	939	936	934	933	935	938	949	948	945	938	933	930	931	937	936	934	923	909	920	928	929	924	895	890	897	912	912	905	908	908	903	895	893	898	894	888	887	900	889	890	894	902	906	900	892	881	878	883	888	893	895	894	893	894	892	896	897	906	910	913	909	897	891	882	877	880	888	881	875	876	876	880	879	874	879	884	887	887	884	880	879	874	870	870	865	862	863	0	0	0	0	0	0	0	0	0
1589	1587	1587	1592	1635	1658	1656	1655	1655	1648	1643	1633	1628	1635	1635	1642	1652	1663	1665	1659	1659	1663	1630	1609	1587	1578	1599	1599	1628	1653	1673	1670	1621	1621	1594	1594	1571	1569	1572	1560	1571	1580	1580	1585	1585	1586	1587	1580	1568	1566	1546	1530	1534	1532	1536	1536	1528	1518	1503	1502	1507	1519	1524	1518	1502	1501	1512	1518	1522	1531	1531	1529	1529	1515	1510	1511	1501	1492	1501	1506	1505	1496	1493	1488	1478	1493	1497	1506	1504	1500	1488	1470	1447	1448	1469	1472	1449	1442	1440	1439	1442	1454	1460	1454	1448	1445	1445	1449	1449	1420	1408	1407	1415	1427	1440	1446	1466	1481	1475	1450	1422	1406	1398	1402	1403	1410	1414	1426	1423	1420	1421	1413	1395	1389	1404	1412	1420	1398	1382	1367	1353	1331	1324	1340	1351	1358	1343	1348	1356	1361	1356	1341	1340	1341	1357	1350	1342	1340	1341	1351	1354	1355	1360	1366	1355	1346	1348	1357	1366	1378	1379	1379	1370	1355	1357	1358	1357	1362	1384	1384	1380	1370	1371	1369	1369	1363	1362	1361	1363	1366	1376	1379	1362	1335	1333	1323	1314	1308	1314	1319	1330	1329	1338	1339	1339	1344	1343	1337	1336	1306	1305	1300	1302	1315	1325	1327	1313	1297	1287	1281	1279	1284	1292	1296	1295	1295	1294	1307	1290	1284	1270	1271	1275	1282	1274	1265	1263	1271	1276	1246	1236	1250	1254	1255	1251	1255	1256	1247	1244	1242	1231	1219	1211	1208	1206	1217	1225	1227	1228	1213	1195	1179	1169	1162	1164	1167	1177	1173	1176	1206	1207	1195	1189	1185	1182	1194	1201	1213	1223	1227	1214	1211	1214	1201	1182	1179	1175	1172	1166	1154	1165	1187	1196	1212	1214	1207	1190	1185	1179	1172	1169	1169	1171	1166	1158	1153	1140	1153	1158	1157	1145	1139	1139	1139	1153	1173	1170	1160	1158	1161	1168	1160	1147	1136	1133	1129	1124	1122	1127	1126	1125	1121	1117	1116	1117	1127	1131	1132	1131	1134	1141	1134	1126	1114	1144	1153	1132	1115	1109	1113	1109	1105	1104	1121	1118	1110	1100	1089	1081	1083	1090	1086	1089	1089	1093	1097	1095	1087	1083	1080	1091	1093	1089	1083	1081	1086	1106	1121	1126	1126	1115	1100	1093	1089	1087	1094	1088	1080	1070	1063	1057	1058	1063	1058	1058	1060	1051	1047	1040	1046	1051	1059	1066	1067	1062	1047	1045	1041	1043	1047	1043	1048	1060	1062	1053	1015	1001	1000	1004	1007	1022	1046	1050	1048	1042	1038	1038	1036	1004	994	992	992	996	995	998	998	997	1001	1003	998	995	990	985	976	965	968	969	968	965	957	963	961	961	965	977	981	984	985	988	998	995	1000	999	979	974	973	966	971	970	971	964	961	970	980	987	974	972	990	982	978	963	966	960	951	949	959	966	970	967	965	967	963	964	964	970	973	974	964	957	963	966	959	936	933	933	938	952	965	970	962	960	965	971	968	955	952	945	938	941	948	948	958	958	952	947	936	927	923	914	924	952	972	974	965	950	923	907	899	902	904	896	896	896	912	932	928	922	915	916	923	932	941	933	927	913	920	915	906	899	899	899	904	908	903	903	909	893	887	897	902	903	900	894	888	889	888	883	886	882	878	876	875	875	880	889	894	897	891	880	873	867	871	884	886	885	882	878	877	879	884	887	890	870	875	877	876	874	871	872	873	881	881	874	867	867	863	863	862	860	858	876	878	876	876	873	872	869	862	855	852	852	852	0	0	0	0	0	0	0	0
1565	1559	1559	1575	1595	1611	1615	1614	1614	1604	1604	1604	1602	1599	1599	1600	1592	1570	1574	1581	1581	1590	1590	1586	1573	1569	1584	1584	1607	1631	1624	1542	1558	1567	1566	1566	1546	1539	1534	1532	1543	1556	1564	1575	1575	1575	1568	1545	1533	1516	1513	1520	1519	1509	1501	1501	1497	1500	1490	1487	1492	1509	1512	1506	1491	1490	1504	1507	1513	1513	1518	1506	1506	1484	1476	1463	1455	1434	1431	1445	1457	1469	1467	1451	1446	1462	1469	1480	1491	1488	1478	1462	1446	1432	1426	1428	1422	1409	1413	1420	1426	1437	1448	1451	1448	1441	1437	1430	1410	1404	1394	1385	1388	1399	1417	1420	1416	1406	1396	1390	1382	1375	1364	1373	1374	1377	1370	1383	1373	1359	1353	1343	1351	1366	1384	1391	1393	1382	1369	1360	1358	1347	1333	1327	1326	1325	1329	1332	1337	1336	1327	1316	1317	1315	1323	1326	1318	1310	1316	1324	1331	1332	1342	1345	1344	1337	1333	1331	1340	1352	1361	1362	1355	1338	1334	1344	1348	1345	1334	1367	1366	1363	1363	1364	1356	1352	1340	1328	1331	1333	1332	1327	1312	1313	1316	1309	1301	1296	1287	1280	1278	1285	1293	1304	1296	1301	1324	1319	1305	1263	1259	1257	1271	1297	1307	1299	1284	1270	1256	1236	1249	1254	1267	1266	1273	1277	1274	1283	1269	1260	1253	1261	1270	1270	1264	1253	1240	1236	1233	1225	1218	1221	1219	1215	1216	1247	1251	1247	1233	1190	1172	1165	1162	1173	1194	1211	1221	1223	1211	1194	1184	1177	1168	1157	1166	1170	1162	1151	1158	1165	1173	1180	1188	1183	1177	1171	1170	1178	1192	1200	1201	1192	1199	1197	1176	1161	1148	1142	1137	1139	1166	1191	1197	1191	1178	1172	1172	1176	1160	1157	1157	1157	1158	1153	1141	1123	1124	1134	1146	1142	1134	1128	1132	1140	1145	1155	1152	1150	1154	1156	1149	1133	1122	1109	1104	1111	1111	1107	1104	1107	1104	1101	1099	1096	1103	1111	1121	1118	1124	1129	1120	1092	1088	1079	1102	1106	1101	1098	1096	1096	1091	1088	1091	1093	1092	1080	1074	1052	1056	1061	1054	1046	1050	1057	1071	1081	1081	1075	1066	1061	1064	1072	1078	1075	1067	1073	1091	1108	1116	1109	1090	1080	1068	1063	1064	1066	1069	1062	1054	1046	1039	1037	1046	1052	1057	1059	1057	1050	1034	1036	1039	1047	1053	1057	1033	1025	1026	1028	1032	1033	1033	1037	1043	1038	1020	997	990	991	1003	1006	1010	1015	1020	1022	1031	1022	1019	992	985	992	996	989	987	987	989	992	995	997	995	990	989	972	958	954	963	967	967	965	961	960	952	957	952	943	944	960	971	965	968	968	985	984	979	961	947	950	960	966	963	959	954	946	960	960	943	939	938	952	950	950	960	960	954	946	939	949	949	958	957	969	966	953	955	955	967	969	964	958	945	948	951	946	917	909	909	928	945	949	948	942	944	953	955	952	956	953	943	937	931	935	933	939	936	932	940	936	917	904	915	925	929	930	933	928	914	908	910	909	897	892	893	891	887	892	907	899	894	908	917	922	927	918	905	902	905	899	893	889	888	893	899	895	896	896	897	899	894	892	892	894	894	895	893	886	880	876	875	874	873	875	872	867	864	870	881	888	891	885	878	873	861	860	870	869	871	867	865	864	866	869	862	855	857	854	852	850	846	844	846	862	862	854	851	848	848	847	846	847	850	852	855	859	868	863	865	865	858	849	846	852	852	852	0	0	0	0	0	0	0	0
1530	1533	1533	1549	1559	1581	1580	1566	1566	1557	1559	1558	1571	1570	1570	1561	1545	1556	1558	1561	1561	1547	1542	1545	1551	1557	1557	1557	1558	1485	1497	1506	1519	1524	1512	1512	1516	1515	1511	1509	1517	1530	1545	1543	1543	1527	1514	1494	1485	1486	1498	1506	1502	1490	1470	1470	1463	1474	1482	1486	1482	1481	1489	1489	1476	1479	1485	1487	1479	1470	1468	1464	1464	1454	1438	1429	1422	1414	1415	1426	1445	1459	1456	1443	1423	1424	1429	1442	1457	1460	1451	1428	1423	1425	1426	1426	1414	1405	1405	1408	1411	1426	1426	1427	1417	1410	1405	1406	1402	1394	1401	1398	1385	1384	1381	1385	1384	1385	1376	1371	1373	1373	1370	1360	1360	1362	1369	1366	1358	1345	1336	1338	1344	1355	1367	1379	1384	1376	1369	1359	1338	1333	1329	1319	1315	1317	1318	1321	1331	1337	1330	1315	1304	1303	1303	1303	1297	1297	1295	1297	1301	1303	1311	1325	1328	1322	1321	1319	1319	1316	1326	1318	1321	1318	1315	1320	1318	1319	1304	1305	1305	1305	1309	1333	1312	1300	1294	1301	1313	1316	1292	1292	1284	1278	1295	1293	1284	1275	1267	1258	1260	1272	1283	1288	1269	1266	1281	1275	1271	1253	1249	1254	1267	1288	1290	1278	1256	1232	1217	1206	1210	1222	1220	1223	1222	1230	1243	1256	1237	1219	1210	1208	1234	1242	1215	1190	1194	1198	1198	1192	1178	1172	1181	1191	1198	1205	1236	1236	1215	1150	1142	1138	1139	1152	1174	1181	1189	1189	1164	1135	1131	1138	1152	1164	1173	1182	1166	1154	1149	1160	1179	1184	1165	1157	1141	1140	1140	1145	1153	1163	1172	1181	1189	1190	1178	1161	1144	1137	1129	1131	1157	1153	1132	1119	1119	1122	1148	1154	1149	1144	1136	1137	1138	1121	1098	1102	1114	1127	1137	1133	1124	1120	1125	1133	1124	1117	1146	1147	1150	1147	1130	1110	1096	1085	1081	1085	1086	1091	1095	1097	1094	1088	1083	1082	1085	1094	1087	1094	1105	1118	1058	1072	1070	1063	1064	1070	1075	1074	1085	1081	1082	1076	1081	1076	1069	1059	1040	1046	1053	1055	1040	1028	1035	1052	1065	1070	1070	1067	1062	1054	1052	1056	1066	1066	1064	1059	1075	1084	1096	1068	1045	1039	1058	1054	1049	1043	1044	1053	1048	1037	1026	1023	1027	1037	1044	1047	1044	1043	1032	1029	1033	1032	1031	1018	1020	1021	1012	1015	1022	1021	1026	1019	1016	994	986	980	979	975	993	999	999	996	1003	1006	1008	996	977	973	989	995	989	983	980	979	979	986	992	988	983	983	977	948	942	944	950	956	956	963	959	953	948	935	932	933	935	933	949	956	950	948	968	974	963	947	937	942	949	960	956	949	945	944	946	942	938	931	929	929	939	943	942	941	927	926	933	929	931	945	950	937	936	939	949	944	948	943	941	938	928	939	936	921	909	905	906	913	918	913	909	910	921	935	943	934	925	917	912	916	918	920	923	922	918	919	919	916	924	919	924	924	918	909	906	900	893	889	882	885	882	901	909	903	894	889	879	879	889	906	917	917	909	895	889	889	892	893	888	886	886	890	895	886	883	886	888	892	892	892	889	888	890	890	884	878	871	868	867	862	865	869	863	856	854	861	872	882	883	878	873	870	865	865	861	856	851	845	837	834	836	841	846	844	843	844	842	840	838	835	839	843	842	834	828	832	832	835	838	843	845	848	856	854	851	841	841	836	833	835	835	845	850	850	0	0	0	0	0	0	0	0
1505	1520	1528	1528	1531	1538	1533	1516	1516	1519	1528	1537	1548	1541	1541	1523	1514	1524	1537	1530	1530	1516	1514	1516	1520	1520	1503	1503	1471	1465	1468	1476	1482	1475	1483	1483	1483	1494	1488	1491	1490	1493	1492	1480	1480	1467	1460	1457	1456	1445	1458	1476	1477	1465	1445	1445	1444	1466	1475	1451	1436	1435	1438	1447	1436	1444	1449	1456	1439	1430	1433	1442	1442	1436	1427	1418	1413	1414	1405	1413	1432	1439	1435	1420	1403	1395	1388	1381	1382	1375	1381	1383	1392	1401	1416	1406	1394	1396	1399	1395	1383	1383	1386	1395	1397	1384	1382	1391	1389	1390	1388	1390	1395	1398	1393	1385	1385	1377	1363	1349	1351	1358	1358	1362	1363	1361	1360	1357	1353	1343	1340	1341	1341	1345	1355	1368	1370	1358	1346	1328	1315	1302	1302	1308	1314	1313	1314	1310	1321	1325	1312	1302	1284	1285	1283	1282	1282	1282	1285	1287	1285	1280	1279	1302	1304	1300	1303	1306	1305	1297	1296	1293	1297	1291	1296	1282	1268	1266	1278	1267	1273	1287	1297	1277	1247	1230	1268	1267	1266	1263	1267	1264	1253	1238	1252	1243	1243	1240	1230	1231	1245	1262	1262	1252	1239	1214	1208	1211	1222	1236	1240	1239	1247	1255	1244	1237	1227	1221	1203	1194	1190	1194	1202	1201	1203	1218	1234	1241	1212	1199	1177	1168	1188	1187	1173	1173	1162	1151	1152	1155	1156	1156	1155	1163	1166	1164	1178	1185	1155	1124	1123	1121	1120	1128	1140	1145	1146	1110	1113	1117	1125	1134	1142	1152	1156	1154	1143	1131	1124	1120	1111	1162	1152	1144	1142	1146	1151	1149	1148	1147	1149	1155	1166	1174	1159	1141	1133	1131	1133	1121	1102	1094	1091	1090	1093	1099	1116	1116	1110	1108	1119	1120	1113	1092	1084	1095	1101	1109	1116	1108	1104	1097	1106	1106	1107	1102	1102	1098	1097	1096	1095	1094	1086	1077	1068	1066	1070	1078	1088	1089	1086	1076	1070	1069	1067	1063	1060	1056	1041	1042	1043	1052	1063	1056	1049	1054	1062	1060	1051	1045	1044	1059	1066	1068	1062	1057	1056	1062	1071	1069	1059	1042	1043	1058	1057	1055	1055	1057	1054	1052	1046	1051	1054	1044	1049	1050	1049	1045	1042	1028	1010	1010	1018	1010	1012	1016	1016	1024	1038	1028	1017	1014	1018	1024	1025	1021	1019	1038	1038	1038	1025	1016	1012	1013	1017	1020	1013	1007	1010	987	999	991	992	982	976	971	968	963	978	984	986	994	997	992	989	986	962	956	960	965	969	977	974	969	971	972	975	978	976	970	958	938	930	929	938	948	943	942	937	935	937	931	925	929	930	932	942	947	938	932	937	947	942	925	926	934	940	944	948	945	943	938	936	935	936	931	929	933	934	929	930	926	922	923	919	919	917	911	908	910	922	926	894	891	896	899	898	909	909	909	904	901	897	895	903	904	903	904	888	893	901	911	918	898	886	886	903	902	901	897	911	917	915	908	893	888	906	907	905	903	914	909	903	894	881	876	879	877	875	868	880	885	884	879	866	869	879	904	905	890	885	885	883	881	876	885	880	875	866	863	862	863	866	872	879	874	878	884	889	886	884	878	872	863	857	850	851	857	862	863	857	849	846	847	848	850	861	864	859	846	840	839	838	825	828	829	835	836	837	839	840	838	839	834	830	827	831	828	836	834	828	826	827	829	829	834	839	839	835	826	821	823	829	826	825	828	823	823	828	831	841	841	0	0	0	0	0	0	0	0
1504	1495	1503	1503	1505	1502	1492	1488	1488	1488	1507	1516	1519	1504	1504	1491	1486	1490	1493	1502	1502	1492	1492	1491	1490	1478	1480	1445	1449	1444	1444	1437	1437	1440	1451	1451	1466	1473	1471	1453	1455	1459	1454	1448	1448	1438	1428	1424	1415	1414	1424	1432	1439	1426	1418	1418	1424	1436	1432	1425	1412	1399	1403	1408	1412	1405	1411	1412	1409	1400	1397	1402	1402	1402	1404	1406	1409	1411	1415	1416	1418	1421	1413	1393	1383	1378	1378	1372	1376	1374	1375	1371	1372	1383	1380	1370	1362	1363	1369	1359	1337	1344	1348	1354	1362	1363	1358	1358	1362	1357	1346	1363	1390	1393	1390	1378	1378	1364	1352	1343	1337	1338	1340	1338	1343	1350	1346	1345	1336	1331	1336	1333	1336	1335	1337	1340	1344	1338	1326	1312	1296	1282	1281	1289	1303	1310	1307	1304	1298	1297	1294	1284	1270	1268	1270	1266	1269	1270	1266	1268	1256	1249	1252	1271	1277	1284	1283	1292	1290	1279	1258	1260	1266	1257	1249	1243	1245	1243	1242	1258	1267	1276	1285	1253	1220	1218	1217	1220	1224	1226	1231	1233	1227	1220	1226	1227	1216	1200	1198	1201	1211	1217	1217	1212	1197	1194	1193	1189	1191	1197	1215	1206	1211	1216	1204	1200	1200	1194	1187	1182	1179	1177	1173	1177	1202	1207	1221	1234	1195	1181	1171	1180	1181	1166	1158	1155	1146	1140	1145	1150	1152	1148	1148	1142	1140	1137	1140	1141	1134	1113	1119	1124	1125	1127	1131	1129	1105	1106	1103	1110	1119	1127	1136	1139	1124	1107	1105	1109	1104	1103	1100	1106	1111	1125	1133	1142	1144	1146	1139	1125	1125	1138	1147	1151	1134	1135	1136	1133	1124	1110	1088	1078	1076	1082	1091	1096	1093	1094	1089	1084	1092	1094	1075	1068	1068	1076	1088	1100	1103	1090	1083	1079	1082	1080	1079	1061	1059	1063	1072	1082	1083	1086	1086	1082	1068	1060	1063	1075	1085	1089	1071	1054	1054	1058	1060	1049	1028	1030	1032	1034	1036	1040	1038	1049	1039	1044	1045	1041	1034	1034	1037	1051	1052	1033	1023	1030	1040	1050	1057	1054	1047	1039	1034	1029	1033	1031	1037	1042	1037	1040	1042	1034	1030	1032	1029	1017	1012	1010	1009	1002	988	978	980	981	989	1002	1004	1009	1004	988	985	1003	1008	1014	1014	1001	992	997	1012	1016	1011	1003	1006	1011	1012	1018	1011	1001	996	995	991	977	974	975	965	969	966	970	973	975	979	971	959	964	957	952	947	943	940	944	941	944	946	951	952	957	958	963	958	957	932	928	923	924	931	937	935	933	927	931	927	925	920	923	924	927	940	939	930	920	925	933	928	916	919	922	932	934	934	946	943	929	923	920	920	922	931	934	934	934	922	923	917	909	905	907	903	905	903	900	896	898	897	890	889	887	883	883	899	899	899	896	894	893	893	896	899	897	892	886	894	900	899	869	862	870	878	882	870	870	880	877	876	877	877	878	883	885	888	881	877	873	872	871	859	866	875	877	870	863	861	861	859	859	866	871	872	876	876	868	878	881	874	872	861	863	858	854	855	850	846	842	847	857	868	844	844	852	850	852	851	846	842	840	840	839	841	844	847	844	837	832	823	821	825	822	835	833	832	826	839	825	805	810	808	819	826	837	843	844	847	843	833	828	823	821	823	828	823	818	820	822	823	823	828	831	824	824	813	807	806	813	817	815	821	817	816	817	817	826	828	828	0	0	0	0	0	0	0	0
1487	1477	1474	1474	1469	1460	1449	1447	1447	1442	1460	1491	1487	1474	1474	1457	1454	1459	1471	1477	1477	1472	1462	1441	1442	1448	1418	1418	1419	1422	1420	1416	1413	1417	1431	1431	1435	1428	1425	1437	1448	1451	1445	1432	1432	1410	1411	1405	1394	1389	1401	1402	1401	1398	1400	1400	1400	1409	1414	1409	1395	1387	1396	1396	1387	1390	1390	1387	1375	1350	1341	1345	1345	1359	1365	1372	1376	1368	1356	1349	1339	1346	1342	1333	1334	1355	1366	1371	1371	1370	1367	1363	1360	1363	1359	1338	1332	1320	1312	1316	1319	1326	1328	1330	1333	1341	1333	1331	1330	1328	1313	1327	1342	1340	1333	1349	1359	1349	1346	1342	1332	1319	1293	1284	1286	1325	1331	1310	1310	1317	1321	1324	1323	1318	1312	1314	1321	1312	1308	1295	1279	1266	1263	1269	1270	1262	1275	1286	1278	1273	1283	1273	1258	1255	1257	1260	1256	1253	1245	1241	1232	1227	1228	1240	1238	1234	1235	1240	1241	1238	1233	1227	1231	1225	1228	1235	1240	1235	1235	1239	1248	1258	1248	1226	1216	1203	1198	1207	1214	1213	1182	1171	1210	1206	1216	1211	1196	1195	1193	1196	1196	1197	1200	1200	1198	1179	1174	1169	1163	1161	1183	1186	1187	1182	1188	1190	1189	1185	1178	1176	1171	1166	1154	1161	1188	1195	1209	1197	1173	1166	1169	1174	1165	1154	1140	1136	1128	1128	1131	1137	1141	1145	1141	1136	1126	1121	1121	1126	1119	1110	1110	1111	1118	1122	1122	1113	1104	1098	1098	1102	1112	1121	1125	1116	1107	1104	1097	1093	1088	1089	1092	1101	1101	1106	1099	1117	1113	1107	1107	1109	1116	1121	1124	1133	1131	1123	1122	1123	1113	1096	1073	1063	1066	1083	1088	1088	1081	1078	1070	1060	1060	1060	1052	1043	1038	1040	1072	1082	1088	1066	1060	1058	1064	1072	1062	1055	1045	1044	1056	1065	1070	1078	1082	1074	1067	1058	1066	1070	1076	1063	1052	1053	1057	1061	1055	1035	1029	1027	1027	1026	1024	1023	1021	1014	1025	1035	1037	1028	1030	1024	1033	1022	1043	1037	1020	1022	1034	1043	1048	1047	1037	1023	1018	1023	1010	1000	994	994	1004	1024	1028	1010	992	988	993	992	990	999	1000	985	977	980	981	976	986	996	1002	1005	1001	993	982	974	973	972	970	973	994	1001	1002	984	973	973	976	983	1008	1005	962	964	987	988	989	988	976	970	967	965	963	965	954	934	937	937	921	923	940	943	947	947	944	939	942	925	918	917	915	916	937	941	932	925	917	914	915	916	922	922	924	923	919	918	913	913	915	913	910	920	929	932	921	915	923	924	923	907	905	902	902	904	900	931	926	916	908	906	910	908	911	907	926	927	924	917	911	903	891	889	893	893	895	892	889	893	896	893	888	880	878	879	885	894	892	890	892	891	890	881	876	877	877	872	866	863	868	860	853	856	868	868	860	867	862	861	861	867	873	877	889	883	877	879	874	866	856	850	853	859	869	869	866	862	860	850	843	844	835	852	856	857	852	847	864	868	871	847	842	833	835	830	833	830	825	826	830	834	831	829	827	827	826	824	817	812	814	825	831	820	819	818	815	813	818	820	820	822	819	811	805	809	815	823	814	802	796	799	805	789	800	801	804	809	827	825	814	806	795	795	798	805	811	808	815	817	821	821	812	814	801	799	798	797	799	802	799	799	803	809	804	795	789	791	795	795	0	0	0	0	0	0	0	0
1455	1458	1442	1442	1412	1396	1400	1411	1411	1426	1444	1453	1446	1443	1443	1435	1428	1443	1454	1438	1438	1407	1410	1410	1414	1400	1399	1399	1399	1400	1400	1401	1405	1408	1396	1396	1391	1394	1407	1425	1428	1426	1421	1416	1416	1413	1412	1411	1398	1384	1382	1379	1378	1374	1387	1391	1391	1402	1410	1406	1399	1384	1379	1377	1369	1352	1351	1347	1340	1337	1338	1343	1343	1348	1349	1344	1358	1355	1338	1331	1321	1316	1316	1313	1323	1328	1341	1352	1356	1359	1347	1339	1336	1340	1341	1335	1319	1302	1299	1303	1312	1311	1311	1313	1323	1326	1326	1321	1307	1296	1303	1316	1325	1324	1309	1301	1300	1299	1305	1304	1304	1291	1273	1267	1267	1284	1286	1294	1297	1309	1306	1306	1307	1299	1288	1283	1294	1296	1290	1273	1261	1251	1247	1241	1241	1247	1259	1255	1254	1260	1264	1257	1246	1243	1245	1245	1243	1233	1224	1218	1214	1217	1222	1223	1243	1242	1232	1230	1229	1228	1221	1214	1213	1210	1211	1221	1226	1212	1210	1218	1220	1218	1218	1209	1205	1199	1186	1177	1163	1146	1139	1146	1153	1167	1180	1190	1189	1190	1190	1182	1182	1180	1185	1190	1187	1175	1157	1155	1147	1141	1149	1160	1167	1168	1174	1176	1178	1177	1174	1170	1169	1158	1145	1158	1172	1182	1176	1158	1131	1130	1138	1146	1139	1135	1129	1120	1115	1117	1124	1129	1133	1134	1134	1125	1117	1110	1105	1101	1099	1101	1095	1099	1104	1107	1105	1093	1095	1099	1090	1095	1103	1106	1102	1099	1100	1096	1088	1081	1075	1070	1078	1084	1090	1084	1077	1069	1071	1084	1088	1095	1098	1100	1102	1109	1106	1103	1109	1099	1082	1059	1049	1046	1059	1073	1074	1060	1052	1043	1044	1041	1040	1049	1045	1029	1015	1007	1018	1038	1054	1051	1042	1046	1053	1057	1051	1051	1048	1049	1045	1049	1058	1062	1069	1067	1063	1058	1051	1058	1063	1045	1039	1037	1033	1018	1021	1020	1029	1026	1021	1019	1014	1012	1005	1001	1007	1021	1019	1018	1022	1021	1008	1010	1012	1028	1010	1011	1014	1034	1029	1026	1017	1006	1001	1016	1006	988	979	978	999	1001	984	975	979	980	987	992	988	977	975	971	978	975	977	972	979	987	993	995	993	984	972	962	948	934	933	978	993	997	990	982	975	966	959	959	934	928	932	946	954	954	955	961	956	949	940	930	922	913	919	925	926	920	913	914	915	930	938	945	945	942	923	905	901	901	908	910	913	908	906	908	903	907	909	914	913	909	906	907	906	905	904	906	902	903	905	911	916	911	906	908	918	919	909	904	901	898	896	895	890	900	902	881	885	894	900	903	904	902	920	922	920	914	897	889	871	875	882	888	885	881	882	884	891	892	887	882	877	880	887	889	876	877	877	882	871	869	870	867	867	862	859	853	852	852	850	846	843	842	842	847	850	854	852	853	850	849	859	867	875	875	872	860	851	840	840	840	857	867	867	864	846	839	826	825	822	825	825	822	820	827	835	829	842	833	824	817	816	824	820	812	812	819	823	828	828	826	823	824	820	811	802	800	796	792	815	820	820	811	806	805	808	810	811	818	814	808	794	793	799	811	816	800	795	799	780	792	793	791	789	793	797	798	798	794	790	785	789	792	794	802	811	813	809	809	798	794	793	792	788	784	785	788	792	796	797	800	799	793	776	776	779	779	0	0	0	0	0	0	0	0
1426	1422	1381	1381	1373	1383	1387	1406	1406	1415	1422	1418	1415	1405	1405	1391	1392	1415	1413	1393	1393	1388	1388	1392	1364	1373	1373	1373	1369	1366	1357	1347	1341	1333	1332	1332	1351	1375	1394	1405	1404	1401	1396	1395	1395	1396	1401	1408	1399	1370	1353	1354	1360	1362	1364	1367	1367	1367	1375	1383	1371	1361	1351	1331	1326	1321	1331	1337	1345	1349	1342	1342	1337	1337	1331	1335	1343	1338	1327	1321	1312	1307	1313	1314	1312	1311	1321	1328	1328	1339	1323	1308	1307	1312	1317	1311	1307	1299	1297	1298	1304	1297	1295	1300	1309	1314	1311	1301	1286	1273	1283	1298	1313	1310	1299	1288	1274	1273	1272	1272	1268	1256	1241	1243	1246	1252	1254	1263	1275	1288	1292	1289	1275	1255	1244	1239	1254	1259	1259	1255	1250	1246	1239	1235	1234	1238	1240	1232	1230	1234	1242	1241	1230	1228	1238	1244	1243	1235	1224	1215	1215	1209	1198	1198	1230	1232	1228	1227	1225	1219	1208	1198	1188	1178	1170	1181	1186	1185	1190	1182	1180	1178	1183	1191	1195	1184	1171	1156	1136	1128	1129	1138	1141	1150	1151	1136	1140	1149	1173	1173	1166	1162	1172	1177	1173	1164	1149	1141	1137	1133	1145	1152	1156	1159	1158	1161	1168	1173	1174	1169	1155	1147	1141	1123	1114	1124	1125	1117	1098	1099	1107	1113	1117	1116	1106	1099	1098	1104	1113	1118	1122	1121	1118	1110	1105	1100	1095	1093	1093	1090	1087	1087	1084	1079	1070	1055	1051	1061	1067	1061	1068	1075	1078	1080	1083	1081	1078	1070	1057	1058	1048	1054	1062	1060	1061	1064	1053	1050	1060	1083	1086	1092	1087	1087	1071	1067	1080	1070	1054	1037	1031	1031	1034	1039	1038	1031	1029	1037	1038	1033	1031	1037	1037	1022	1006	1006	1017	1040	1039	1041	1035	1028	1024	1024	1031	1046	1053	1049	1038	1038	1050	1055	1038	1029	1032	1037	1029	1024	1029	1033	1034	1027	1020	998	990	991	996	1000	1009	1015	1012	1003	995	993	998	1013	1018	1011	1017	1008	996	1001	994	1000	1001	1003	1008	1009	1013	1006	994	996	991	984	994	982	972	974	983	969	961	960	971	972	981	981	979	976	970	969	963	963	970	966	958	964	977	983	978	956	941	941	943	931	926	932	938	947	965	965	960	955	932	926	922	926	931	932	955	951	948	943	913	906	904	902	899	899	915	922	921	915	907	903	908	914	926	938	942	940	904	907	910	914	915	910	904	898	891	895	898	903	904	902	899	888	875	875	875	881	896	897	892	896	902	900	904	903	900	894	903	906	904	902	897	893	887	884	880	877	876	876	880	885	889	895	890	884	878	875	875	860	859	859	857	853	855	856	852	856	870	878	886	890	880	870	867	874	869	845	843	861	866	864	860	859	860	859	858	853	848	847	848	844	840	833	832	833	832	837	846	851	851	841	829	812	822	842	838	827	813	803	805	805	822	826	828	838	836	830	826	817	817	814	814	817	818	822	819	816	811	806	813	818	820	814	820	816	807	805	805	811	817	814	809	807	813	805	812	808	800	791	788	783	783	801	801	803	803	805	801	799	797	795	794	800	791	787	788	814	820	818	805	784	776	785	787	788	789	791	795	796	796	790	789	787	791	787	786	787	783	786	794	794	801	792	789	786	783	784	785	788	790	793	794	795	793	786	776	774	776	776	0	0	0	0	0	0	0	0
1384	1379	1371	1371	1371	1379	1391	1387	1387	1376	1381	1383	1372	1365	1365	1365	1374	1380	1370	1363	1374	1374	1377	1376	1347	1359	1363	1352	1352	1354	1344	1316	1297	1293	1312	1312	1331	1360	1381	1387	1380	1374	1375	1371	1368	1368	1371	1383	1373	1340	1327	1322	1333	1337	1333	1334	1334	1340	1330	1335	1325	1320	1325	1323	1316	1313	1327	1336	1343	1338	1332	1326	1319	1319	1316	1314	1314	1311	1309	1307	1304	1304	1300	1309	1306	1309	1311	1316	1320	1319	1312	1294	1280	1281	1287	1298	1301	1288	1285	1293	1289	1285	1284	1280	1292	1284	1271	1266	1265	1263	1272	1276	1287	1277	1268	1268	1262	1255	1257	1253	1240	1225	1218	1218	1224	1228	1235	1240	1253	1263	1264	1263	1251	1240	1232	1228	1222	1236	1245	1247	1244	1239	1235	1231	1223	1219	1219	1206	1203	1207	1204	1198	1193	1197	1210	1227	1230	1232	1230	1222	1210	1189	1184	1178	1203	1212	1206	1186	1183	1177	1173	1161	1158	1158	1158	1160	1161	1167	1169	1161	1154	1159	1169	1177	1178	1169	1154	1136	1131	1123	1120	1122	1126	1133	1136	1127	1130	1133	1121	1116	1136	1146	1156	1162	1156	1151	1144	1140	1138	1130	1133	1153	1159	1155	1139	1132	1133	1133	1131	1133	1133	1126	1114	1095	1091	1100	1108	1107	1100	1097	1098	1100	1100	1099	1091	1084	1087	1090	1097	1102	1104	1100	1097	1095	1084	1063	1053	1067	1083	1081	1079	1074	1068	1053	1044	1035	1044	1054	1056	1058	1061	1063	1063	1066	1068	1064	1055	1048	1047	1030	1034	1027	1033	1039	1043	1050	1046	1040	1033	1032	1079	1081	1083	1062	1053	1058	1067	1059	1038	1030	1034	1032	1025	1016	1008	1012	1026	1028	1033	1031	1028	1023	1018	1014	1006	1011	1025	1030	1034	1036	1019	1011	1007	1004	1023	1030	1018	1017	1032	1023	1037	1037	1026	1026	1022	1012	994	977	999	1015	1027	1026	1010	998	996	991	987	980	982	991	990	992	986	984	982	985	983	985	987	988	984	982	982	985	986	992	984	963	960	978	982	978	974	970	969	971	971	970	963	943	932	938	953	962	966	968	969	954	954	954	962	972	961	944	928	914	916	928	935	934	928	929	933	939	935	920	923	926	930	936	906	923	922	920	919	918	908	903	905	917	930	919	892	896	904	903	899	890	896	890	913	908	899	897	897	906	916	928	919	898	901	905	906	907	907	905	896	884	882	884	886	890	887	888	882	860	861	860	879	889	895	886	891	884	883	896	904	899	875	884	877	899	901	898	895	888	876	875	867	863	858	866	870	873	875	874	883	877	874	866	864	864	856	849	843	842	844	846	850	858	865	870	870	859	852	852	857	862	861	835	828	827	837	834	837	826	816	817	829	846	843	844	838	830	827	822	824	820	823	828	835	846	841	837	817	814	822	825	822	823	816	804	799	801	817	821	816	806	806	803	808	811	811	809	812	813	812	815	819	814	810	800	797	807	814	815	815	811	799	798	801	806	812	814	809	805	807	796	787	799	791	788	782	774	770	783	787	793	802	786	781	780	777	777	776	773	766	761	768	794	801	799	795	788	783	785	788	792	789	787	788	790	779	778	774	774	765	765	765	770	775	779	783	783	794	795	788	780	781	783	786	787	781	775	780	756	773	769	768	769	769	774	0	0	0	0	0	0	0	0
1387	1378	1376	1376	1371	1378	1357	1347	1350	1350	1364	1370	1370	1362	1362	1354	1351	1342	1343	1346	1355	1355	1358	1332	1328	1334	1348	1350	1350	1333	1325	1313	1311	1306	1318	1318	1333	1350	1357	1363	1361	1344	1329	1338	1351	1351	1359	1358	1347	1325	1308	1305	1310	1311	1302	1305	1305	1307	1302	1294	1293	1293	1301	1316	1318	1316	1320	1323	1320	1316	1307	1306	1292	1292	1290	1287	1284	1280	1283	1283	1279	1283	1293	1299	1305	1308	1304	1301	1297	1296	1294	1283	1262	1262	1269	1276	1280	1274	1265	1258	1252	1255	1264	1267	1267	1267	1265	1260	1249	1242	1240	1226	1229	1235	1243	1253	1252	1245	1228	1224	1222	1218	1210	1204	1209	1215	1221	1223	1236	1238	1233	1236	1236	1232	1226	1224	1218	1212	1225	1237	1233	1223	1221	1216	1210	1203	1199	1181	1177	1180	1178	1177	1179	1189	1192	1192	1173	1164	1165	1188	1193	1178	1167	1164	1156	1151	1149	1152	1140	1125	1122	1126	1120	1112	1129	1130	1138	1134	1139	1139	1135	1123	1119	1117	1137	1144	1135	1120	1109	1104	1106	1105	1105	1115	1129	1124	1119	1117	1114	1102	1107	1104	1104	1124	1133	1136	1138	1137	1124	1115	1122	1134	1144	1135	1120	1104	1099	1108	1110	1110	1111	1110	1085	1067	1071	1084	1094	1104	1098	1082	1081	1066	1071	1072	1068	1064	1069	1072	1077	1089	1091	1080	1070	1060	1053	1042	1047	1061	1064	1063	1062	1064	1056	1045	1030	1025	1034	1044	1047	1045	1053	1052	1047	1052	1055	1056	1051	1047	1024	1021	1018	1020	1026	1031	1029	1022	1009	1002	1002	1004	1004	1006	1049	1047	1038	1041	1050	1044	1036	1032	1028	1027	1018	1013	1005	1007	1009	1021	1022	1024	1023	1022	1013	1010	1004	1009	1017	1027	1000	1003	1003	1009	1009	1004	1004	1010	1014	1016	1015	1004	994	1013	1022	998	1011	993	985	984	984	990	993	997	995	995	991	985	984	965	956	951	950	955	957	960	959	971	977	980	980	981	978	974	971	961	952	953	954	956	944	956	957	957	962	971	976	978	975	973	961	936	932	932	928	934	939	944	941	935	940	936	943	965	951	939	927	918	911	913	919	924	925	923	922	916	910	909	916	915	888	890	893	901	912	912	910	900	894	889	884	886	895	888	888	896	902	905	900	890	876	881	902	893	891	892	895	901	906	904	900	895	897	898	893	880	880	881	868	860	861	860	859	856	861	866	867	863	863	860	871	881	879	868	873	874	887	894	887	873	866	866	865	866	880	883	874	865	867	873	862	845	838	847	856	858	860	861	854	859	862	861	860	855	862	858	836	836	834	840	848	844	846	843	835	831	830	842	858	861	845	826	821	824	816	814	813	814	813	813	822	828	838	835	809	808	812	812	811	812	813	813	817	837	834	827	818	810	818	822	819	821	812	808	801	802	803	807	793	796	800	798	798	805	807	799	800	803	806	811	817	815	804	795	793	793	804	807	805	802	791	790	789	791	803	808	809	803	794	784	778	782	789	785	781	769	766	769	774	776	777	779	779	775	776	774	775	769	765	758	758	768	773	773	771	773	787	788	790	781	773	772	761	757	759	765	758	766	762	757	757	757	765	770	774	774	775	775	774	772	774	780	783	769	760	764	762	760	745	762	761	762	762	766	0	0	0	0	0	0	0	0
1369	1367	1368	1368	1360	1336	1320	1316	1322	1322	1346	1354	1353	1346	1346	1339	1338	1333	1338	1340	1344	1344	1302	1291	1293	1305	1317	1327	1327	1323	1324	1342	1352	1357	1348	1333	1333	1313	1307	1313	1318	1312	1310	1321	1337	1337	1349	1353	1341	1318	1302	1297	1293	1279	1285	1289	1289	1283	1283	1283	1274	1267	1275	1291	1304	1306	1298	1288	1284	1284	1285	1275	1273	1273	1263	1259	1257	1259	1256	1253	1258	1266	1274	1288	1296	1298	1288	1280	1278	1283	1279	1257	1250	1248	1258	1268	1266	1257	1243	1233	1235	1242	1244	1249	1250	1258	1254	1240	1216	1205	1201	1200	1198	1198	1194	1218	1224	1215	1214	1213	1210	1206	1200	1192	1204	1214	1206	1210	1211	1202	1204	1210	1213	1217	1216	1213	1207	1197	1190	1195	1192	1195	1199	1196	1191	1186	1182	1162	1161	1167	1170	1175	1182	1191	1184	1154	1154	1148	1148	1157	1161	1160	1158	1151	1127	1116	1114	1123	1130	1134	1125	1118	1114	1104	1099	1103	1110	1125	1141	1149	1132	1120	1113	1118	1118	1108	1111	1107	1098	1097	1099	1098	1092	1095	1100	1103	1107	1107	1108	1102	1097	1097	1100	1097	1096	1091	1088	1095	1101	1103	1107	1112	1109	1114	1103	1090	1085	1086	1089	1093	1089	1067	1056	1053	1059	1079	1084	1098	1095	1069	1054	1040	1039	1044	1050	1057	1057	1056	1058	1071	1067	1051	1046	1040	1043	1054	1056	1057	1055	1053	1052	1037	1032	1029	1020	1015	1030	1034	1035	1033	1034	1037	1038	1038	1041	1043	1039	1027	1015	1016	1011	1012	1019	1022	1021	1016	1008	990	987	992	992	995	1003	1008	1020	1031	1031	1030	1029	1025	1020	1018	1014	1008	1001	995	1000	1006	1005	998	997	1001	1002	999	983	971	981	990	987	969	980	976	974	974	975	985	990	992	994	981	976	975	983	984	967	964	964	962	965	973	982	978	983	986	982	978	976	971	959	952	940	941	945	943	937	950	973	973	969	964	960	965	962	953	946	941	936	938	939	932	928	926	963	973	974	969	960	956	938	920	912	909	910	915	929	939	935	927	933	915	913	917	929	933	930	923	913	910	913	919	917	915	913	901	902	897	887	884	884	880	888	892	895	900	894	888	886	881	874	873	879	883	889	897	901	896	875	861	863	870	882	887	876	869	866	877	888	890	884	867	867	867	860	860	861	867	859	852	848	847	849	851	856	845	848	849	851	853	857	860	868	870	866	871	876	874	864	859	859	861	863	867	871	873	847	844	849	851	858	855	836	826	826	842	831	836	837	839	844	844	843	837	841	854	849	843	830	828	829	833	835	834	821	810	818	829	849	852	825	823	822	821	819	809	810	805	807	806	807	822	825	817	804	808	807	808	808	805	802	800	806	815	825	815	813	802	811	818	814	815	807	805	800	799	793	788	787	790	793	795	793	795	800	795	792	796	804	810	812	810	803	795	790	790	792	799	799	792	787	783	782	783	799	804	799	798	795	784	777	778	785	787	784	776	772	769	766	767	772	772	773	770	776	777	772	771	767	762	756	758	761	762	760	764	769	781	781	770	770	766	756	752	754	755	764	767	766	761	755	750	751	750	750	746	747	756	763	759	765	768	764	755	751	752	751	747	741	744	764	771	771	777	0	0	0	0	0	0	0	0
1317	1348	1343	1343	1310	1298	1289	1291	1302	1302	1307	1311	1324	1320	1313	1313	1311	1326	1332	1333	1323	1323	1253	1259	1272	1289	1303	1316	1316	1321	1319	1306	1292	1289	1289	1306	1306	1300	1297	1305	1308	1306	1307	1313	1319	1319	1329	1333	1321	1301	1301	1296	1283	1271	1257	1258	1258	1269	1272	1264	1256	1253	1255	1264	1279	1283	1271	1256	1249	1246	1250	1254	1248	1248	1249	1246	1241	1243	1245	1251	1250	1244	1249	1248	1254	1267	1266	1253	1243	1247	1248	1241	1231	1229	1235	1244	1246	1221	1205	1210	1217	1225	1229	1231	1233	1240	1233	1209	1196	1190	1184	1180	1179	1171	1173	1172	1185	1192	1203	1201	1187	1181	1183	1185	1196	1198	1184	1175	1169	1175	1179	1191	1198	1200	1202	1196	1180	1147	1142	1144	1156	1162	1155	1148	1157	1162	1159	1137	1158	1169	1171	1175	1184	1178	1162	1149	1144	1143	1143	1143	1142	1131	1133	1136	1120	1114	1116	1125	1129	1128	1126	1120	1112	1098	1090	1094	1106	1119	1131	1132	1115	1112	1111	1108	1097	1080	1066	1064	1067	1081	1093	1093	1092	1084	1079	1087	1084	1072	1068	1065	1068	1077	1089	1091	1094	1096	1085	1079	1082	1090	1096	1094	1095	1093	1085	1081	1082	1078	1074	1066	1060	1046	1041	1048	1061	1070	1063	1064	1070	1060	1045	1032	1023	1025	1035	1043	1042	1040	1044	1045	1043	1035	1033	1033	1044	1045	1048	1046	1044	1041	1038	1023	1006	1016	1016	1023	1017	1013	1005	1017	1024	1025	1027	1031	1006	996	993	989	988	993	1006	1000	1010	1015	1012	1009	1002	975	973	978	979	986	990	988	987	982	1002	1012	1019	1019	1014	1008	1005	978	963	963	982	984	987	980	977	976	978	969	966	975	978	954	953	963	962	960	960	962	963	970	973	974	976	971	967	963	960	955	946	945	941	944	938	939	940	959	965	974	973	967	966	960	955	952	938	944	939	933	931	927	949	946	945	946	945	951	954	950	938	930	927	921	916	909	907	922	934	936	942	945	937	927	917	908	906	905	907	913	919	924	928	918	909	900	898	906	916	927	929	926	921	914	907	912	906	895	894	897	889	881	875	874	879	874	880	888	891	890	890	885	882	876	870	869	872	877	884	886	891	887	865	852	848	859	873	865	869	867	865	867	867	858	859	862	862	862	857	871	872	855	847	842	850	845	842	843	838	832	829	829	832	838	843	848	856	853	848	849	844	839	837	840	846	854	856	864	869	851	840	837	841	840	834	836	834	826	825	815	814	818	814	816	820	822	826	808	801	805	816	830	820	814	806	800	796	792	799	803	810	817	820	819	811	816	816	813	805	798	794	794	801	802	802	801	804	797	802	807	807	804	804	800	796	794	794	800	807	811	797	802	805	811	801	798	795	796	794	796	797	795	793	787	788	787	790	793	789	781	781	785	779	794	801	807	796	793	790	788	787	785	788	787	783	781	776	771	771	779	786	792	787	781	777	781	782	785	785	778	773	770	764	763	767	768	761	765	766	773	771	769	765	760	755	765	765	756	752	760	757	760	762	763	763	761	753	750	747	744	756	760	763	761	752	745	743	735	735	739	738	737	743	748	747	748	745	744	749	748	743	738	735	743	747	754	754	758	0	0	0	0	0	0	0	0
1273	1276	1273	1273	1268	1269	1267	1269	1271	1271	1282	1291	1290	1278	1283	1283	1293	1294	1303	1281	1256	1243	1238	1249	1261	1277	1297	1304	1304	1288	1289	1280	1278	1278	1276	1279	1279	1293	1296	1295	1299	1303	1303	1298	1298	1298	1296	1277	1272	1276	1282	1284	1280	1249	1234	1235	1244	1244	1243	1239	1235	1238	1243	1251	1259	1258	1244	1235	1231	1225	1227	1225	1223	1223	1230	1224	1228	1230	1232	1230	1225	1221	1217	1219	1226	1236	1239	1239	1219	1227	1225	1222	1215	1210	1204	1199	1191	1169	1156	1147	1153	1185	1194	1196	1197	1201	1194	1182	1169	1167	1179	1178	1170	1152	1141	1134	1126	1132	1143	1152	1158	1169	1172	1180	1185	1174	1170	1152	1142	1134	1141	1160	1188	1188	1178	1157	1125	1126	1130	1130	1132	1136	1129	1125	1124	1124	1118	1121	1151	1154	1150	1144	1131	1124	1124	1126	1117	1112	1118	1120	1116	1113	1115	1121	1124	1107	1093	1094	1100	1105	1112	1113	1108	1088	1087	1089	1102	1112	1115	1116	1111	1110	1097	1092	1079	1066	1055	1055	1065	1076	1076	1068	1066	1060	1066	1070	1044	1045	1045	1043	1046	1069	1081	1087	1085	1083	1082	1072	1068	1062	1074	1078	1074	1068	1067	1070	1069	1068	1059	1054	1036	1027	1035	1035	1043	1047	1042	1034	1046	1056	1039	1030	1020	1029	1034	1030	1026	1021	1023	1028	1030	1017	1010	1004	1002	1018	1020	1030	1024	1016	1011	998	997	1007	1014	1018	1000	978	986	999	1002	1009	1017	1008	997	988	985	979	979	979	982	988	999	1000	998	999	974	961	960	962	958	971	979	976	967	957	955	958	960	960	964	963	950	951	952	954	956	964	962	958	955	954	957	963	972	962	957	963	965	960	952	951	952	954	955	957	958	957	956	960	962	960	951	942	942	945	938	934	940	932	933	943	952	958	959	956	952	949	948	938	926	930	937	932	919	916	915	928	933	934	939	940	934	929	919	917	912	898	885	883	887	889	894	897	911	915	907	894	898	897	900	902	908	910	913	914	912	910	903	898	892	898	912	917	923	922	916	905	893	894	867	881	884	891	889	883	872	864	867	871	877	866	873	876	875	864	858	854	849	848	854	863	870	862	865	865	854	834	848	850	852	839	846	864	865	864	856	851	837	838	838	839	848	853	862	858	842	842	841	840	837	837	832	826	825	827	830	836	840	834	826	825	831	830	835	832	831	827	829	840	842	843	838	846	830	823	821	834	821	815	818	820	823	825	826	811	808	810	812	812	807	801	795	792	792	807	817	810	800	797	793	793	791	784	783	795	798	783	782	799	805	805	795	787	783	783	779	769	763	766	784	782	784	783	782	780	778	774	772	771	778	793	794	792	787	790	801	789	776	781	782	788	791	795	794	793	790	785	784	783	781	785	786	775	774	774	775	789	797	801	791	789	786	784	779	779	775	774	781	778	777	771	766	762	763	774	762	757	759	764	766	770	777	776	773	768	766	763	758	753	747	743	753	750	752	754	750	753	750	758	759	754	749	747	752	751	755	755	755	752	746	746	739	738	748	753	759	763	751	739	727	731	731	734	734	733	730	728	728	730	735	739	748	744	739	736	732	734	741	740	740	737	0	0	0	0	0	0	0	0
1259	1256	1251	1248	1248	1246	1246	1251	1258	1258	1274	1277	1259	1240	1252	1252	1268	1274	1273	1253	1243	1230	1234	1239	1246	1255	1259	1256	1256	1258	1262	1269	1274	1271	1270	1270	1270	1259	1264	1273	1281	1292	1295	1285	1276	1276	1259	1259	1255	1259	1265	1254	1252	1229	1219	1218	1220	1220	1219	1216	1218	1221	1229	1239	1239	1235	1216	1214	1214	1214	1208	1207	1206	1208	1208	1210	1214	1212	1207	1205	1204	1200	1202	1202	1205	1217	1227	1225	1205	1207	1210	1208	1203	1192	1177	1176	1167	1154	1146	1137	1137	1140	1153	1155	1162	1167	1163	1156	1152	1143	1146	1155	1150	1137	1121	1108	1109	1116	1128	1134	1139	1152	1158	1164	1155	1147	1135	1119	1114	1110	1111	1125	1133	1129	1118	1111	1109	1115	1118	1120	1114	1115	1125	1125	1125	1122	1112	1110	1125	1119	1109	1096	1090	1073	1080	1085	1081	1078	1080	1080	1081	1070	1069	1068	1071	1063	1066	1079	1086	1089	1100	1095	1088	1073	1073	1085	1099	1104	1109	1110	1087	1074	1056	1054	1051	1052	1050	1048	1056	1065	1060	1053	1037	1028	1027	1022	1027	1032	1035	1029	1030	1040	1057	1070	1074	1068	1063	1063	1043	1038	1032	1030	1023	1041	1037	1040	1051	1066	1056	1040	1031	1019	1019	1026	1027	1022	1022	1021	1023	1036	1028	1020	994	990	991	988	989	1002	1013	1023	1015	1002	996	985	977	982	986	991	985	979	981	976	983	994	1007	998	973	966	966	979	993	999	1004	995	988	978	971	969	970	967	956	958	960	967	975	969	981	963	951	941	942	947	962	956	952	944	942	949	939	936	945	935	940	946	946	941	946	954	952	944	945	949	954	957	958	963	958	960	956	954	946	942	941	943	945	942	941	938	937	946	952	945	942	942	942	943	944	938	935	932	932	932	945	947	945	942	938	932	933	925	918	920	918	913	907	905	903	908	926	931	927	921	917	911	907	905	895	886	880	879	884	885	884	881	882	893	894	889	890	894	894	906	909	907	901	890	881	882	889	895	896	895	898	901	903	900	896	888	873	859	859	861	869	879	888	886	880	870	859	851	850	853	861	864	864	854	851	849	847	846	846	849	851	856	854	851	843	837	827	826	838	839	838	841	846	846	848	850	833	830	831	835	839	844	848	845	841	838	835	839	836	827	829	829	826	825	827	837	834	828	822	820	821	815	810	809	813	824	822	821	819	823	810	819	823	823	815	814	814	811	812	819	822	823	817	810	805	800	808	802	798	795	793	786	787	791	790	791	792	778	787	795	797	792	790	784	778	774	773	773	793	796	788	776	774	762	764	765	765	754	754	755	765	777	776	775	777	766	763	763	764	769	763	758	756	753	772	772	765	764	771	779	784	786	789	787	784	782	779	774	770	770	777	766	763	764	765	779	788	792	790	784	779	777	771	768	768	762	757	757	759	745	738	736	732	734	734	731	728	733	741	738	744	754	757	742	745	747	738	735	735	735	738	743	744	745	738	739	732	736	739	749	744	742	746	744	745	746	745	743	736	729	727	732	739	744	750	748	744	737	724	727	727	727	727	732	732	732	733	730	733	739	743	745	740	736	731	733	733	731	731	727	0	0	0	0	0	0	0	0
1254	1249	1241	1232	1232	1225	1236	1256	1268	1268	1264	1246	1233	1233	1240	1240	1255	1269	1263	1236	1225	1225	1222	1224	1226	1226	1224	1232	1232	1242	1249	1254	1262	1259	1252	1242	1242	1239	1246	1253	1263	1253	1251	1253	1251	1251	1250	1246	1240	1234	1234	1225	1225	1223	1217	1212	1208	1208	1205	1203	1204	1209	1218	1226	1223	1212	1195	1190	1192	1187	1179	1169	1164	1169	1169	1175	1180	1182	1179	1179	1178	1182	1185	1190	1192	1197	1195	1191	1175	1167	1169	1165	1152	1142	1138	1143	1144	1140	1140	1139	1142	1149	1149	1148	1148	1150	1152	1146	1134	1129	1129	1132	1133	1123	1104	1100	1105	1118	1118	1106	1115	1123	1134	1132	1126	1132	1124	1115	1104	1099	1091	1102	1115	1116	1111	1106	1104	1103	1095	1084	1082	1079	1085	1115	1125	1109	1096	1096	1070	1048	1043	1037	1046	1049	1058	1063	1065	1065	1066	1056	1053	1058	1055	1055	1055	1051	1057	1068	1077	1084	1085	1083	1059	1044	1051	1053	1053	1059	1063	1062	1057	1047	1049	1050	1046	1042	1037	1034	1039	1047	1050	1041	1029	1024	1026	1022	1014	1020	1019	1018	1017	1021	1040	1051	1059	1055	1043	1030	1028	1036	1033	1023	998	997	1005	1027	1044	1059	1039	1012	1008	1002	1004	1011	1016	1018	1004	1001	1002	1001	997	991	969	964	963	962	967	979	993	1005	996	992	987	977	976	975	974	974	970	972	971	973	970	983	982	979	973	966	961	966	979	975	977	979	979	971	968	963	956	940	948	945	945	940	932	932	928	926	925	922	926	932	943	940	938	934	936	937	935	935	930	930	930	939	937	938	944	944	939	939	939	943	934	938	943	931	928	939	949	946	939	939	938	940	940	931	924	909	916	927	933	932	934	935	933	937	935	928	927	926	923	922	930	934	934	926	914	920	922	917	913	907	905	905	899	896	893	879	886	888	889	888	887	884	880	874	875	889	884	885	892	886	883	872	868	876	883	885	884	882	878	889	894	892	883	871	865	865	877	882	886	887	895	898	898	893	883	871	864	858	851	848	841	848	869	878	868	860	849	844	842	846	854	850	837	837	842	846	845	837	832	842	850	853	851	850	842	835	829	829	830	833	833	835	834	835	834	836	831	825	830	830	832	833	829	829	827	821	816	810	817	817	820	817	811	809	826	832	829	815	813	816	813	811	807	802	803	807	808	802	799	796	798	791	788	791	794	788	788	786	769	764	766	772	777	793	807	810	803	789	784	792	789	780	781	786	783	774	768	776	783	796	800	798	786	782	780	772	767	767	767	782	785	769	755	757	762	765	758	754	752	756	759	771	768	758	758	759	752	762	760	756	743	744	747	761	761	764	758	758	758	765	768	759	757	757	758	762	770	770	768	765	771	762	754	754	764	771	762	740	733	744	748	750	753	754	747	748	749	751	748	733	726	723	719	733	726	717	716	720	729	736	728	726	722	719	723	722	724	726	733	736	739	738	734	735	735	735	727	725	729	737	736	733	728	726	728	738	739	735	726	723	727	724	721	722	725	730	739	732	730	730	724	718	720	730	732	731	726	726	728	729	734	734	737	731	725	724	722	716	716	715	0	0	0	0	0	0	0	0
1250	1242	1225	1204	1204	1219	1240	1256	1256	1256	1240	1231	1223	1229	1240	1240	1256	1276	1258	1233	1202	1202	1203	1208	1206	1204	1208	1210	1210	1216	1216	1231	1243	1242	1234	1228	1228	1227	1233	1240	1241	1200	1198	1212	1221	1226	1226	1222	1218	1200	1199	1199	1200	1202	1203	1202	1201	1201	1200	1197	1199	1201	1208	1212	1209	1190	1174	1168	1178	1187	1187	1181	1168	1159	1159	1153	1159	1164	1162	1166	1166	1168	1174	1178	1180	1178	1174	1161	1156	1154	1141	1125	1118	1116	1121	1132	1135	1136	1140	1146	1159	1148	1139	1130	1129	1128	1135	1131	1119	1115	1117	1124	1125	1118	1108	1108	1118	1123	1107	1095	1089	1100	1108	1099	1096	1095	1108	1100	1091	1081	1061	1064	1075	1083	1087	1080	1084	1086	1087	1078	1061	1055	1063	1066	1083	1082	1070	1054	1029	1027	1031	1027	1028	1039	1051	1057	1058	1056	1055	1047	1047	1047	1047	1043	1043	1049	1049	1058	1067	1072	1055	1052	1036	1024	1026	1032	1042	1050	1051	1040	1035	1031	1032	1031	1034	1034	1029	1022	1024	1032	1033	1031	1030	1027	1024	1019	1004	1003	1006	1006	1009	1005	1003	1017	1023	1009	988	984	993	1000	1004	1012	974	961	957	968	971	1008	991	991	994	984	993	1004	1007	1007	1001	998	993	990	981	972	965	953	950	949	954	962	969	972	975	980	978	976	974	969	961	954	957	958	964	967	974	979	978	977	972	965	957	945	938	945	953	962	969	972	965	956	935	931	940	940	937	920	917	914	913	906	914	913	917	921	926	928	927	926	929	930	934	924	922	908	907	906	906	923	929	929	932	928	923	921	927	919	927	928	922	910	908	905	911	925	929	930	918	910	905	907	917	922	925	926	927	926	926	927	925	915	916	914	911	910	907	907	902	898	900	906	912	909	892	889	895	900	885	873	867	871	869	878	878	881	882	879	874	869	869	874	883	880	890	885	881	861	859	866	871	871	865	855	858	860	862	855	850	852	867	866	864	865	862	864	872	878	875	870	847	843	844	842	837	832	839	842	849	860	857	849	833	837	838	841	840	836	841	847	850	847	826	822	822	828	833	843	834	832	836	835	832	831	826	828	828	827	824	824	822	822	818	823	824	823	823	822	819	821	819	815	804	801	789	788	793	797	799	797	802	804	819	810	807	811	809	807	803	798	793	794	794	791	785	782	780	778	786	791	787	793	781	774	767	765	772	776	780	785	802	805	798	786	780	781	775	771	785	780	765	746	744	746	766	775	782	785	782	778	775	773	768	759	756	755	764	773	767	762	759	755	754	752	751	757	755	760	756	748	748	748	745	741	740	737	737	750	753	757	757	754	751	748	748	747	746	747	747	746	751	753	753	757	757	730	716	749	747	743	745	740	746	725	727	732	741	750	753	748	744	740	740	738	731	721	713	716	714	714	717	716	715	718	723	727	719	720	720	720	714	714	722	725	732	733	728	726	725	732	731	731	727	727	731	728	720	712	713	709	704	704	710	721	719	720	713	720	709	719	726	730	729	727	726	726	709	710	719	720	721	718	718	715	706	708	712	720	721	719	716	711	708	708	704	705	0	0	0	0	0	0	0	0
1228	1215	1200	1199	1199	1214	1234	1240	1227	1227	1221	1216	1206	1218	1245	1245	1261	1259	1225	1180	1187	1195	1195	1203	1199	1196	1198	1194	1188	1188	1202	1215	1225	1221	1212	1212	1212	1217	1222	1212	1181	1177	1184	1187	1165	1166	1166	1167	1178	1182	1185	1182	1182	1176	1175	1176	1180	1180	1186	1181	1178	1182	1183	1179	1165	1144	1138	1148	1162	1172	1176	1173	1161	1151	1151	1145	1145	1145	1143	1154	1157	1161	1166	1169	1163	1151	1144	1134	1120	1112	1113	1116	1110	1108	1117	1128	1127	1128	1118	1109	1102	1101	1086	1087	1098	1099	1102	1099	1090	1086	1085	1084	1063	1053	1060	1065	1070	1063	1057	1047	1042	1044	1054	1065	1063	1062	1065	1058	1050	1048	1047	1053	1056	1061	1050	1048	1048	1059	1060	1058	1051	1047	1043	1045	1048	1046	1034	1030	1016	1019	1018	1020	1023	1036	1049	1056	1051	1046	1044	1043	1038	1037	1036	1032	1025	1033	1037	1025	1032	1037	1032	1028	1022	1021	1025	1033	1039	1030	1025	1016	1010	1011	1013	1012	1014	1025	1020	1013	1007	1008	1008	988	983	987	1002	1002	993	986	1001	1006	1006	1001	992	985	986	984	984	981	984	988	981	968	952	941	949	959	958	950	947	963	967	974	973	978	988	994	995	985	973	968	968	952	949	951	948	945	956	972	974	975	975	973	972	972	967	959	944	926	923	933	954	962	975	974	958	962	966	972	967	955	938	928	932	940	942	938	931	923	921	927	935	932	929	920	911	903	899	902	903	909	910	914	915	913	915	919	921	920	913	912	904	900	897	902	902	900	889	912	918	926	925	922	918	916	925	928	922	906	888	876	892	902	908	910	909	905	901	898	899	908	918	918	919	920	908	903	900	888	878	897	896	896	890	889	884	884	881	891	895	898	891	884	878	875	862	859	861	858	858	863	867	878	878	873	862	862	863	867	874	872	876	882	874	851	841	842	843	846	849	849	849	850	846	841	845	844	845	843	860	848	834	834	841	825	843	845	838	833	835	831	830	832	833	827	829	831	829	825	826	826	827	829	829	819	820	820	820	810	805	808	812	821	833	832	825	828	830	830	830	829	828	823	824	820	818	814	813	809	810	812	810	810	811	816	817	817	813	807	799	795	784	776	781	791	791	793	795	794	801	806	814	814	812	808	798	792	799	800	794	784	772	773	769	775	779	784	786	782	775	771	761	759	762	764	762	766	778	770	760	754	749	749	755	759	764	763	751	744	743	755	762	759	757	752	763	768	767	760	762	756	752	740	767	775	775	772	765	759	751	753	757	756	755	749	747	743	736	736	736	738	732	729	728	733	739	750	741	736	728	722	718	734	738	742	739	727	726	726	728	728	727	717	720	726	728	728	728	727	729	733	740	738	736	736	731	730	731	733	733	732	730	713	711	707	713	702	700	697	694	715	711	710	711	715	718	705	702	694	706	708	717	711	707	716	714	724	726	709	706	710	716	708	700	702	712	709	701	704	709	717	714	705	702	698	699	698	690	712	710	709	709	709	697	695	700	698	713	706	706	705	697	699	701	703	704	710	705	700	698	698	697	698	0	0	0	0	0	0	0	0
1192	1189	1185	1188	1188	1199	1209	1207	1196	1196	1203	1202	1201	1202	1216	1216	1227	1207	1190	1162	1168	1184	1184	1194	1196	1188	1179	1164	1159	1159	1176	1189	1197	1196	1175	1186	1197	1197	1193	1171	1159	1162	1172	1163	1157	1149	1149	1146	1142	1153	1170	1170	1165	1158	1159	1168	1170	1170	1167	1143	1127	1121	1124	1125	1120	1115	1112	1120	1126	1133	1143	1155	1151	1116	1101	1101	1101	1109	1124	1127	1128	1127	1128	1120	1099	1083	1079	1091	1095	1080	1083	1088	1086	1082	1082	1082	1109	1110	1097	1061	1054	1045	1046	1050	1059	1071	1083	1090	1088	1071	1050	1042	1039	1039	1039	1038	1038	1041	1042	1037	1029	1028	1035	1041	1046	1044	1036	1032	1031	1038	1039	1032	1025	1026	1028	1017	1007	1002	1006	1012	1035	1033	1031	1033	1033	1032	1023	1016	1006	1005	1006	1010	1019	1032	1046	1051	1045	1040	1037	1032	1031	1026	1016	1006	1002	1011	1009	999	1011	1004	1009	1004	1000	990	988	995	998	998	990	983	984	994	995	995	1000	1004	1011	1007	1000	1000	996	983	979	981	988	989	984	1005	1002	995	991	986	979	969	964	970	974	976	973	971	967	955	949	949	948	953	952	949	959	967	970	966	961	949	945	954	957	959	951	951	943	933	939	947	949	951	956	963	966	959	956	955	956	941	927	914	907	921	917	914	927	944	961	964	930	941	953	960	951	941	937	931	930	930	927	920	924	927	922	922	928	925	921	915	908	894	890	894	895	901	904	899	884	885	890	900	908	904	899	897	883	880	881	882	886	889	879	878	874	875	900	902	905	910	903	910	915	884	882	886	883	889	891	891	881	876	872	876	886	904	901	899	898	897	877	871	870	864	865	860	868	876	871	871	867	858	855	851	876	871	870	866	867	860	856	848	849	851	855	857	856	865	867	872	858	854	856	857	857	856	857	859	860	849	850	844	832	832	827	824	826	827	829	841	838	837	835	841	841	838	817	815	820	824	822	823	824	823	827	821	802	801	798	800	798	801	798	798	802	805	802	804	808	810	809	804	793	797	800	805	810	810	812	810	807	820	820	822	823	825	822	828	824	819	815	811	807	802	800	800	793	793	793	807	814	814	812	802	795	791	771	775	784	788	787	783	785	785	780	788	791	811	806	803	793	798	807	805	771	763	766	763	765	767	762	765	768	780	773	766	758	751	756	761	757	752	758	759	758	754	746	742	752	753	758	753	744	732	736	745	750	750	742	733	728	752	754	756	755	752	749	763	764	763	761	761	758	759	751	745	743	738	739	744	745	737	727	726	728	726	728	727	724	727	733	737	735	733	716	715	716	720	719	720	713	711	720	728	729	729	722	719	719	723	726	725	727	725	722	716	716	714	709	707	714	714	718	731	732	730	719	707	706	701	700	701	701	696	695	692	692	697	697	697	694	692	692	692	689	687	695	717	709	705	704	702	702	687	695	697	702	699	695	695	704	713	700	703	706	707	706	701	696	694	691	691	679	678	674	677	679	686	688	689	691	691	699	697	696	695	689	688	692	694	695	696	697	692	693	693	694	696	0	0	0	0	0	0	0	0
