0	0	0	0	0	0	0	0	0	0	0	0	0	0	0	0	0	0	0	0	0	0	0	0	0	0	0	0	0	0	0	0	0	0	0	0	0	0	0	0	0	0	0	0	0	0	0	0	0	0	0	0	0	0	0	0	0	0	0	0	0	0	0	0	0	0	0	1247	1285	1270	1286	1286	1301	1294	1305	1307	1304	1310	1325	1336	1341	1338	1330	1305	1270	1260	1264	1283	1287	1289	1296	1311	1328	1335	1322	1311	1311	1314	1313	1306	1301	1303	1313	1316	1317	1298	1295	1309	1304	1313	1312	1316	1324	1332	1332	1331	1328	1332	1335	1345	1368	1370	1362	1336	1334	1318	1297	1322	1329	1308	1300	1313	1334	1357	1370	1392	1412	1418	1409	1393	1382	1385	1402	1438	1466	1488	1523	1573	1606	1628	1642	1664	1682	1704	1710	1697	1679	1676	1695	1723	1752	1732	1736	1706	1695	1686	1637	1570	1544	1568	1615	1673	1702	1739	1761	1758	1754	1770	1798	1838	1885	1910	1952	1997	2041	2090	2132	2174	2201	2221	2233	2204	2161	2139	2119	2107	2104	2105	2119	2171	2253	2355	2423	2453	2489	2632	2615	2584	2538	2488	2439	2404	2401	2426	2450	2482	2484	2480	2490	2470	2425	2380	0	0	1418	1408	1382	1367	1373	1412	1429	1411	1391	1385	1377	1381	1386	1409	1402	1391	1378	1384	1394	1398	1401	1396	1400	1407	1415	1417	1428	1428	1434	1437	1409	1381	1390	1398	1406	1425	1432	1447	1452	1442	1427	1405	1403	1375	1395	1406	1411	1416	1425	1423	1418	1423	1422	1416	1412	1433	1441	1445	1443	1443	1440	1444	1445	1444	1445	1444	1424	1432	1446	1440	1434	1435	1437	1427	1438	1441	1441	1443	1428	1413	1423	1400	1412	1449	1477	1491	1570	1849	1974	2076	2161	2173	2153	2148	2127	2131	2094	2031	2006	1984	1994	2001	1993	1993	1991	1986	1993	1984	2006	2026	2059	2092	2089	2078	2086	2119	2130	2130	2125	2103	2059	2051	2048	2035	2034	2038	2058	2058	2065	2042	2026	2007	1991	1966	1961	1950	1938	1915	1889	1835	1818	1799	1792	1774	1771	1756	1792	1838	1882	1883	1889	1888	1873	1854	1858	1862	1864	1866	1874	1842	1725	1548	1533	1520	1524	1532	1534	1538	1532	1513	1486	1457	1428	1382	1349	1407	1465	1502	1505	1482	1450	1463	1443	1428	1420	1412	1414	1433	1463	1463	1457	1460	1468	1480	1488	1492	1483	1466	1455	1457	1457	1456	1451	1454	1455	1463	1467	1476	1496	1506	1511	1501	1481	1473	1477	1481	1486	1497	1506	1506	1490	1523	1643	1722	1835	1925	1940	1945	1946	1944	1930	1910	1902	1902	1890	1896	1905	1910	1898	1888	1890	1912	1923	1920	1929	1935	1934	1934	1907	1908	1912	1912	1916	1922	1950	1932	1905	1865	1876	1895	1919	1925	1930	1926	1903	1880	1874	1865	1857	1848	1849	1857	1860	1861	1851	1835	1819	1821	1807	1807	1804	1804	1806	1801	1794	1794	1803	1806	1806	1815	1815	1808	1799	1771	1781	1794	1796	1799	1787	1812	1813	1797	1770	1749	1738	1731	1740	1749	1747	1733	1726	1704	1690	1689	1702	1706	1667	1664	1664	1668	1670	1667	1627	1611	1622	1633	1642	1646	1637	1607	1605	1600	1608	1604	1610	1609	1611	1597	1582	1575	1587	1594	1595	1586	1581	1584	1592	1596	1600	1589	1577	1559	1543	1532	1539	1563	1547	1527	1514	1505	1502	1498	1514	1535	1542	1543	1534	1520	1512	1503	1504	1507	1511	1519	1519	1508	1498	1486	1482	1474	1467	1460	1467	1468	1457	1448	1441	1437	1428	1417	1417	1397	1391	1376	1378	1381	1381	1379	1372	1370	1368	1364	1355	1342	1333	1332	1335	0	0	0	0	0	0	0	0	0
0	0	0	0	0	0	0	0	0	0	0	0	0	0	0	0	0	0	0	0	0	0	0	0	0	0	0	0	0	0	0	0	0	0	0	0	0	0	0	0	0	0	0	0	0	0	0	0	0	0	0	0	0	0	0	0	0	0	0	0	0	0	0	0	0	0	0	1291	1312	1278	1282	1282	1310	1304	1311	1313	1314	1322	1327	1328	1330	1331	1309	1267	1256	1252	1254	1252	1254	1264	1275	1294	1319	1331	1331	1326	1335	1340	1335	1319	1305	1306	1314	1317	1314	1308	1307	1310	1305	1309	1302	1310	1322	1334	1334	1323	1326	1328	1321	1349	1361	1364	1351	1328	1333	1324	1298	1300	1298	1291	1289	1295	1321	1340	1360	1378	1405	1415	1404	1381	1369	1366	1388	1429	1459	1512	1549	1585	1622	1638	1643	1666	1669	1682	1691	1683	1669	1661	1684	1712	1741	1744	1747	1707	1687	1677	1638	1602	1554	1566	1593	1656	1720	1759	1767	1751	1745	1761	1794	1835	1865	1898	1928	1982	2039	2101	2148	2188	2216	2217	2216	2188	2156	2138	2096	2090	2112	2137	2161	2198	2269	2350	2425	2432	2447	2585	2617	2605	2575	2508	2429	2379	2370	2396	2430	2460	2494	2483	2458	2410	2355	2325	1892	0	1426	1319	1353	1348	1376	1418	1428	1415	1402	1414	1391	1384	1387	1397	1400	1399	1384	1392	1407	1407	1412	1411	1404	1398	1401	1398	1405	1416	1424	1427	1419	1378	1392	1403	1408	1409	1429	1436	1440	1434	1422	1412	1397	1389	1399	1406	1407	1411	1428	1424	1427	1428	1423	1424	1416	1431	1441	1442	1439	1420	1428	1429	1438	1453	1447	1438	1423	1435	1443	1439	1426	1438	1438	1431	1440	1441	1459	1462	1443	1435	1425	1403	1403	1445	1472	1480	1555	1763	1940	2020	2083	2100	2090	2080	2067	2060	2016	1998	1982	1982	1982	1986	1984	1976	1963	1951	1953	1952	1964	1973	1998	2009	2050	2061	2063	2079	2104	2121	2103	2066	2046	2031	2021	2019	2017	2013	1994	1988	1988	2004	1999	1976	1951	1938	1937	1959	1968	1957	1941	1877	1889	1885	1857	1808	1787	1812	1806	1852	1889	1889	1887	1886	1887	1861	1853	1854	1859	1860	1860	1820	1720	1605	1559	1535	1526	1513	1512	1511	1526	1510	1485	1451	1433	1404	1376	1406	1454	1486	1505	1485	1454	1466	1446	1410	1402	1402	1414	1428	1440	1464	1469	1471	1480	1484	1488	1494	1486	1475	1470	1471	1474	1469	1462	1454	1455	1459	1471	1476	1488	1506	1506	1498	1483	1477	1479	1483	1482	1492	1506	1517	1502	1534	1649	1703	1829	1909	1923	1925	1940	1935	1911	1843	1818	1828	1839	1851	1855	1864	1861	1865	1863	1853	1851	1861	1904	1904	1876	1868	1876	1870	1867	1855	1850	1873	1887	1875	1852	1832	1828	1841	1860	1879	1888	1885	1840	1822	1812	1814	1820	1814	1819	1830	1829	1799	1804	1811	1815	1819	1811	1767	1751	1768	1780	1777	1775	1785	1780	1773	1770	1789	1791	1779	1755	1752	1760	1774	1777	1773	1757	1751	1760	1751	1727	1713	1691	1685	1679	1655	1653	1655	1668	1668	1641	1632	1636	1636	1626	1627	1626	1629	1623	1618	1600	1614	1612	1604	1618	1613	1580	1558	1550	1556	1569	1576	1582	1581	1563	1545	1539	1551	1583	1589	1579	1557	1548	1549	1559	1579	1595	1601	1583	1562	1548	1538	1536	1529	1516	1501	1489	1483	1481	1476	1490	1513	1529	1520	1513	1501	1489	1484	1481	1491	1501	1504	1497	1488	1479	1473	1467	1460	1450	1451	1456	1458	1445	1436	1434	1436	1422	1402	1383	1383	1366	1360	1366	1368	1364	1361	1357	1355	1358	1352	1342	1332	1323	1324	1323	0	0	0	0	0	0	0	0	0
0	0	0	0	0	0	0	0	0	0	0	0	0	0	0	0	0	0	0	0	0	0	0	0	0	0	0	0	0	0	0	0	0	0	0	0	0	0	0	0	0	0	0	0	0	0	0	0	0	0	0	0	0	0	0	0	0	0	0	0	0	0	0	0	0	0	0	1341	1332	1290	1289	1289	1312	1298	1299	1306	1315	1314	1320	1322	1319	1316	1286	1267	1260	1255	1250	1246	1245	1250	1261	1281	1312	1325	1328	1330	1341	1350	1351	1334	1317	1311	1323	1326	1319	1312	1310	1311	1308	1297	1291	1298	1326	1332	1322	1321	1323	1326	1317	1344	1358	1361	1351	1323	1335	1327	1299	1286	1266	1272	1277	1290	1304	1323	1334	1349	1382	1403	1390	1368	1351	1366	1390	1428	1464	1508	1549	1591	1626	1648	1658	1656	1664	1669	1667	1660	1653	1662	1680	1699	1750	1771	1759	1718	1688	1674	1661	1629	1564	1573	1592	1661	1726	1759	1761	1742	1738	1750	1781	1828	1849	1877	1918	1993	2053	2094	2148	2187	2217	2211	2218	2190	2127	2100	2067	2072	2115	2163	2204	2230	2286	2352	2395	2408	2408	2413	2532	2569	2534	2499	2425	2372	2342	2337	2376	2413	2443	2423	2380	2332	2301	2295	1925	1753	1504	1344	1369	1350	1377	1414	1423	1413	1404	1410	1393	1402	1402	1398	1400	1403	1405	1395	1414	1416	1416	1416	1411	1401	1396	1394	1399	1406	1418	1423	1413	1385	1401	1413	1412	1416	1423	1425	1428	1418	1415	1416	1412	1392	1402	1416	1418	1407	1426	1430	1440	1433	1429	1424	1431	1444	1446	1443	1433	1418	1426	1426	1441	1449	1446	1437	1422	1429	1432	1423	1427	1429	1447	1439	1442	1447	1455	1454	1457	1431	1427	1405	1406	1437	1463	1487	1546	1755	1901	1973	2002	2025	2049	2038	2022	1991	1965	1959	1963	1977	1978	1986	1963	1931	1922	1907	1888	1881	1871	1906	1924	1962	2006	2031	2040	2043	2043	2051	2061	2043	2021	2006	1997	1990	1991	1984	1965	1942	1939	1942	1936	1933	1917	1911	1931	1956	1953	1923	1898	1895	1907	1933	1937	1878	1845	1819	1865	1882	1900	1893	1895	1895	1890	1880	1856	1848	1847	1852	1847	1801	1700	1629	1591	1553	1529	1509	1500	1511	1529	1504	1465	1439	1433	1432	1408	1430	1463	1469	1473	1499	1503	1479	1454	1402	1400	1406	1425	1434	1437	1444	1456	1469	1486	1493	1492	1491	1488	1484	1482	1484	1487	1485	1473	1462	1461	1471	1478	1485	1491	1505	1505	1500	1485	1473	1482	1481	1480	1485	1500	1516	1516	1538	1636	1671	1845	1882	1888	1869	1865	1838	1826	1824	1824	1837	1836	1843	1841	1838	1836	1836	1826	1812	1818	1822	1829	1835	1833	1836	1846	1841	1823	1810	1798	1802	1798	1804	1803	1805	1809	1817	1831	1835	1828	1825	1807	1785	1775	1772	1779	1782	1771	1779	1768	1759	1762	1782	1806	1806	1789	1741	1740	1738	1751	1750	1751	1759	1754	1744	1733	1743	1751	1759	1755	1737	1692	1694	1693	1697	1698	1700	1693	1689	1684	1684	1676	1658	1641	1602	1603	1624	1623	1598	1578	1576	1582	1581	1582	1578	1574	1565	1564	1576	1589	1593	1594	1572	1550	1527	1504	1492	1505	1529	1548	1547	1542	1536	1521	1508	1499	1512	1538	1557	1554	1515	1517	1508	1511	1520	1531	1519	1512	1507	1502	1503	1502	1495	1474	1470	1466	1462	1456	1452	1457	1469	1482	1496	1488	1472	1456	1446	1431	1436	1455	1463	1443	1428	1429	1443	1447	1442	1429	1410	1403	1403	1409	1416	1427	1428	1410	1380	1358	1358	1344	1341	1355	1353	1351	1341	1338	1337	1336	1335	1330	1325	1317	1311	1304	0	0	0	0	0	0	0	0	0
0	0	0	0	0	0	0	0	0	0	0	0	0	0	0	0	0	0	0	0	0	0	0	0	0	0	0	0	0	0	0	0	0	0	0	0	0	0	0	0	0	0	0	0	0	0	0	0	0	0	0	0	0	0	0	0	0	0	0	0	0	0	0	0	0	0	0	1372	1343	1304	1305	1305	1301	1289	1291	1298	1300	1300	1305	1316	1312	1310	1293	1276	1268	1260	1255	1248	1244	1249	1265	1283	1307	1319	1317	1315	1323	1334	1342	1346	1340	1332	1332	1331	1321	1312	1307	1302	1296	1285	1284	1304	1323	1323	1318	1314	1321	1322	1314	1330	1346	1348	1357	1332	1340	1333	1318	1298	1261	1258	1269	1281	1297	1308	1310	1319	1341	1371	1365	1347	1350	1374	1405	1433	1444	1483	1533	1586	1632	1651	1655	1655	1661	1659	1653	1647	1652	1669	1690	1705	1743	1771	1761	1748	1714	1697	1702	1688	1564	1544	1556	1657	1714	1738	1755	1742	1737	1742	1771	1814	1837	1858	1920	2002	2054	2099	2143	2184	2204	2201	2216	2187	2119	2062	2026	2059	2104	2173	2217	2244	2288	2331	2341	2349	2335	2296	2352	2427	2461	2442	2396	2324	2287	2275	2318	2342	2347	2344	2311	2270	2254	2243	1891	1675	1516	1333	1364	1355	1367	1380	1419	1414	1412	1408	1405	1419	1418	1403	1404	1408	1411	1412	1415	1418	1419	1419	1414	1401	1390	1387	1391	1401	1405	1407	1396	1384	1411	1414	1411	1410	1409	1411	1416	1415	1418	1420	1400	1403	1426	1421	1417	1416	1421	1430	1442	1432	1439	1440	1443	1448	1454	1449	1437	1423	1423	1431	1438	1453	1432	1435	1419	1420	1425	1427	1426	1451	1454	1452	1451	1455	1455	1459	1430	1421	1419	1414	1423	1453	1461	1492	1556	1669	1847	1926	1970	1987	1988	1975	1959	1940	1936	1929	1940	1950	1966	1962	1934	1906	1880	1851	1834	1816	1815	1833	1874	1910	1934	1968	2013	2030	2025	2004	1988	1980	1986	1977	1968	1963	1967	1967	1937	1918	1916	1916	1921	1912	1904	1915	1933	1950	1944	1912	1888	1886	1906	1943	1958	1948	1920	1891	1879	1887	1889	1889	1897	1900	1902	1887	1864	1851	1850	1852	1841	1813	1707	1616	1584	1559	1522	1508	1508	1530	1530	1503	1455	1430	1438	1453	1447	1456	1470	1461	1472	1515	1513	1492	1464	1412	1412	1425	1441	1445	1439	1435	1442	1455	1475	1486	1489	1494	1497	1488	1478	1482	1488	1491	1479	1467	1463	1481	1494	1494	1494	1498	1499	1495	1489	1474	1476	1475	1471	1474	1488	1503	1508	1511	1625	1654	1817	1844	1834	1830	1811	1800	1811	1820	1822	1831	1829	1837	1835	1826	1819	1809	1797	1786	1786	1792	1802	1817	1833	1841	1839	1819	1781	1776	1768	1761	1763	1775	1781	1788	1797	1811	1814	1813	1790	1756	1761	1766	1752	1744	1743	1737	1737	1731	1726	1738	1755	1750	1737	1725	1716	1705	1700	1695	1695	1708	1729	1727	1695	1676	1665	1664	1661	1676	1679	1664	1669	1671	1673	1674	1681	1684	1673	1668	1667	1666	1659	1625	1596	1571	1562	1566	1562	1559	1553	1553	1557	1556	1550	1541	1529	1528	1533	1534	1528	1518	1552	1548	1527	1506	1494	1479	1490	1494	1486	1508	1506	1492	1492	1488	1475	1478	1491	1497	1488	1482	1466	1450	1444	1468	1492	1492	1488	1484	1482	1473	1476	1475	1468	1450	1436	1428	1418	1415	1421	1435	1452	1469	1464	1447	1419	1406	1412	1417	1422	1419	1402	1399	1414	1418	1422	1419	1410	1386	1367	1352	1355	1370	1392	1398	1358	1335	1322	1322	1317	1312	1310	1311	1307	1307	1306	1305	1311	1322	1323	1326	1316	1303	1289	0	0	0	0	0	0	0	0	0
0	0	0	0	0	0	0	0	0	0	0	0	0	0	0	0	0	0	0	0	0	0	0	0	0	0	0	0	0	0	0	0	0	0	0	0	0	0	0	0	0	0	0	0	0	0	0	0	0	0	0	0	0	0	0	0	0	0	0	0	0	0	0	0	0	0	0	1358	1331	1307	1306	1306	1287	1270	1272	1281	1286	1284	1300	1310	1313	1315	1305	1287	1272	1263	1262	1266	1262	1281	1284	1295	1312	1322	1305	1298	1305	1311	1321	1335	1336	1329	1329	1330	1321	1309	1295	1290	1286	1289	1291	1305	1316	1318	1318	1315	1318	1316	1311	1328	1336	1339	1343	1333	1346	1348	1353	1342	1297	1288	1283	1284	1295	1303	1305	1313	1324	1347	1357	1346	1351	1374	1406	1432	1439	1466	1516	1572	1619	1644	1645	1652	1643	1644	1638	1641	1652	1671	1693	1708	1720	1750	1746	1735	1724	1717	1731	1718	1578	1538	1540	1603	1694	1705	1712	1725	1731	1738	1756	1802	1813	1818	1916	1986	2068	2097	2131	2170	2184	2184	2209	2182	2108	2057	2050	2046	2094	2133	2169	2226	2262	2280	2296	2279	2244	2237	2251	2268	2275	2313	2338	2269	2228	2219	2249	2257	2250	2231	2241	2220	2206	2209	1948	1666	1518	1316	1344	1342	1352	1382	1417	1417	1415	1408	1415	1409	1408	1405	1406	1408	1408	1408	1410	1413	1410	1414	1410	1399	1386	1382	1383	1391	1394	1392	1406	1405	1413	1414	1416	1406	1399	1402	1408	1416	1419	1420	1405	1410	1439	1425	1421	1415	1407	1401	1404	1418	1436	1438	1445	1450	1456	1441	1439	1443	1434	1452	1450	1453	1431	1424	1424	1420	1423	1425	1428	1446	1461	1458	1463	1459	1461	1430	1420	1412	1423	1431	1438	1453	1458	1495	1569	1693	1766	1882	1916	1924	1932	1916	1889	1859	1843	1845	1864	1883	1896	1898	1888	1881	1855	1835	1823	1815	1813	1817	1820	1869	1913	1935	1970	1989	1984	1971	1961	1960	1958	1944	1932	1944	1964	1971	1953	1928	1923	1929	1922	1911	1901	1896	1908	1925	1920	1904	1894	1899	1907	1929	1932	1908	1874	1866	1871	1868	1849	1862	1885	1899	1902	1888	1872	1855	1848	1844	1839	1810	1749	1615	1564	1533	1515	1506	1510	1533	1527	1503	1468	1442	1452	1467	1465	1480	1486	1471	1475	1505	1482	1483	1473	1433	1436	1442	1456	1457	1451	1435	1435	1443	1459	1474	1483	1490	1489	1487	1470	1456	1475	1479	1472	1463	1459	1481	1494	1491	1482	1477	1484	1490	1486	1465	1468	1463	1463	1468	1480	1489	1503	1508	1603	1629	1771	1795	1773	1770	1768	1780	1788	1806	1816	1810	1799	1776	1771	1773	1778	1778	1777	1776	1772	1770	1780	1796	1813	1833	1810	1770	1748	1745	1744	1745	1748	1757	1768	1774	1764	1758	1758	1753	1734	1717	1719	1697	1697	1701	1698	1694	1698	1686	1686	1698	1716	1711	1688	1677	1672	1663	1661	1656	1653	1653	1654	1654	1658	1640	1604	1601	1611	1628	1646	1648	1652	1652	1656	1659	1667	1663	1652	1646	1641	1642	1624	1604	1585	1553	1537	1525	1521	1529	1538	1533	1528	1511	1510	1508	1507	1514	1510	1506	1490	1471	1472	1489	1490	1484	1479	1473	1456	1462	1452	1438	1436	1438	1450	1456	1460	1455	1472	1468	1453	1443	1435	1429	1420	1423	1452	1454	1448	1451	1450	1440	1431	1427	1426	1420	1399	1396	1390	1384	1400	1417	1430	1434	1432	1408	1399	1394	1399	1402	1402	1390	1386	1388	1395	1401	1402	1398	1379	1347	1336	1334	1336	1343	1354	1356	1344	1334	1324	1324	1318	1307	1300	1298	1299	1297	1294	1296	1302	1314	1322	1315	1300	1274	1261	0	0	0	0	0	0	0	0	0
0	0	0	0	0	0	0	0	0	0	0	0	0	0	0	0	0	0	0	0	0	0	0	0	0	0	0	0	0	0	0	0	0	0	0	0	0	0	0	0	0	0	0	0	0	0	0	0	0	0	0	0	0	0	0	0	0	0	0	0	0	0	0	0	0	0	0	1327	1293	1283	1271	1271	1279	1261	1272	1278	1282	1277	1299	1313	1317	1319	1313	1303	1289	1273	1281	1308	1315	1314	1306	1307	1318	1316	1305	1296	1294	1293	1297	1303	1312	1315	1317	1318	1313	1304	1293	1291	1295	1298	1297	1304	1316	1324	1326	1323	1318	1314	1312	1315	1343	1350	1333	1337	1337	1357	1371	1374	1345	1325	1306	1301	1301	1319	1318	1319	1324	1337	1353	1355	1360	1374	1393	1423	1429	1453	1505	1565	1605	1629	1633	1644	1638	1641	1639	1640	1650	1668	1686	1700	1700	1742	1734	1723	1728	1722	1744	1744	1613	1535	1545	1614	1711	1718	1702	1708	1726	1747	1759	1774	1781	1801	1852	2010	2082	2105	2122	2148	2160	2181	2197	2151	2104	2092	2089	2081	2073	2092	2123	2172	2234	2260	2264	2232	2215	2202	2206	2186	2165	2128	2170	2199	2179	2157	2185	2159	2146	2133	2116	2142	2167	2176	1893	1640	1497	1296	1349	1358	1363	1382	1410	1414	1409	1403	1410	1410	1408	1406	1412	1408	1407	1403	1392	1400	1401	1395	1398	1390	1384	1374	1379	1385	1388	1390	1398	1432	1430	1419	1413	1399	1390	1391	1402	1414	1413	1409	1407	1410	1419	1420	1418	1417	1404	1407	1402	1410	1426	1431	1433	1429	1435	1433	1433	1433	1450	1469	1434	1430	1430	1425	1431	1435	1430	1432	1436	1447	1415	1441	1434	1436	1430	1427	1405	1405	1438	1455	1454	1459	1459	1498	1572	1688	1758	1817	1876	1897	1902	1877	1846	1824	1817	1811	1826	1838	1844	1840	1839	1842	1836	1810	1810	1801	1793	1788	1788	1799	1833	1866	1906	1911	1917	1921	1919	1907	1899	1911	1908	1931	1948	1952	1926	1911	1887	1864	1881	1890	1874	1868	1870	1875	1862	1850	1875	1891	1906	1905	1885	1854	1811	1806	1809	1825	1830	1845	1876	1902	1893	1873	1858	1850	1855	1845	1824	1800	1730	1595	1544	1527	1503	1499	1506	1521	1525	1514	1483	1467	1467	1474	1464	1479	1498	1477	1474	1480	1489	1484	1472	1452	1455	1457	1460	1462	1455	1452	1457	1471	1483	1490	1484	1476	1476	1468	1453	1454	1453	1468	1460	1458	1464	1479	1485	1482	1468	1468	1469	1474	1485	1462	1458	1453	1454	1460	1471	1487	1493	1515	1564	1638	1719	1740	1746	1740	1738	1740	1747	1765	1789	1760	1748	1731	1723	1736	1742	1750	1755	1758	1768	1766	1763	1754	1758	1763	1751	1723	1701	1713	1721	1725	1724	1720	1717	1699	1700	1708	1710	1704	1685	1682	1680	1679	1670	1669	1663	1661	1646	1649	1628	1629	1628	1638	1638	1634	1647	1648	1638	1635	1628	1629	1634	1628	1619	1592	1562	1552	1562	1587	1632	1635	1631	1629	1629	1632	1644	1620	1612	1602	1598	1597	1580	1561	1553	1541	1518	1509	1500	1501	1505	1512	1503	1485	1483	1483	1486	1485	1477	1469	1458	1428	1423	1422	1429	1448	1440	1431	1420	1421	1420	1417	1419	1429	1439	1447	1450	1452	1451	1441	1431	1412	1414	1409	1402	1390	1393	1401	1401	1409	1414	1406	1402	1388	1389	1382	1382	1375	1372	1363	1362	1376	1371	1367	1385	1393	1393	1387	1379	1379	1375	1366	1372	1367	1377	1376	1373	1364	1344	1334	1327	1320	1317	1321	1338	1334	1332	1326	1321	1321	1310	1300	1288	1278	1279	1275	1277	1276	1284	1287	1300	1297	1282	1265	1242	0	0	0	0	0	0	0	0	0
0	0	0	0	0	0	0	0	0	0	0	0	0	0	0	0	0	0	0	0	0	0	0	0	0	0	0	0	0	0	0	0	0	0	0	0	0	0	0	0	0	0	0	0	0	0	0	0	0	0	0	0	0	0	0	0	0	0	0	0	2354	2357	2345	0	0	0	0	1301	1249	1247	1274	1274	1279	1265	1279	1283	1285	1279	1294	1315	1319	1327	1323	1319	1313	1298	1303	1326	1327	1322	1314	1313	1320	1319	1310	1301	1297	1291	1287	1284	1283	1291	1302	1312	1312	1302	1298	1303	1312	1316	1306	1307	1316	1324	1328	1321	1316	1320	1314	1334	1358	1364	1331	1340	1338	1363	1383	1398	1382	1352	1330	1312	1317	1338	1338	1336	1331	1336	1348	1359	1362	1371	1389	1421	1415	1415	1474	1558	1597	1610	1617	1628	1638	1649	1653	1656	1666	1669	1675	1684	1690	1735	1730	1722	1720	1714	1731	1732	1624	1569	1570	1661	1735	1727	1710	1707	1727	1751	1764	1773	1788	1815	1864	2017	2076	2074	2084	2091	2115	2137	2158	2157	2130	2127	2137	2161	2143	2135	2150	2205	2241	2259	2234	2194	2179	2154	2165	2130	2093	2065	2052	2069	2080	2089	2102	2087	2059	2040	2042	2076	2110	2120	2129	1631	1544	1316	1362	1369	1369	1371	1392	1394	1387	1378	1401	1404	1406	1417	1423	1412	1408	1401	1398	1370	1376	1388	1393	1387	1381	1376	1376	1392	1399	1408	1426	1436	1418	1394	1376	1383	1387	1394	1400	1405	1408	1405	1405	1404	1411	1416	1423	1423	1415	1414	1406	1416	1412	1413	1397	1409	1435	1441	1431	1431	1447	1450	1429	1429	1421	1429	1447	1455	1448	1443	1402	1412	1422	1433	1435	1434	1432	1426	1430	1410	1442	1465	1460	1469	1474	1484	1538	1686	1742	1802	1846	1868	1861	1836	1814	1804	1803	1806	1810	1820	1822	1821	1799	1786	1793	1790	1784	1774	1763	1755	1763	1765	1769	1806	1842	1842	1839	1838	1847	1861	1850	1858	1866	1862	1843	1824	1829	1829	1816	1832	1845	1853	1852	1846	1837	1812	1777	1764	1783	1806	1837	1841	1841	1821	1801	1787	1792	1802	1820	1844	1872	1862	1844	1837	1829	1834	1841	1837	1822	1790	1720	1657	1556	1522	1505	1500	1496	1510	1522	1510	1495	1477	1473	1462	1451	1468	1487	1480	1467	1464	1480	1465	1474	1475	1472	1467	1464	1461	1458	1459	1474	1482	1492	1498	1490	1473	1452	1445	1440	1438	1452	1462	1461	1463	1481	1478	1473	1474	1473	1465	1460	1465	1473	1456	1451	1447	1450	1462	1479	1494	1498	1552	1572	1635	1695	1727	1730	1727	1721	1720	1722	1722	1724	1717	1717	1705	1695	1684	1674	1677	1692	1712	1733	1752	1750	1711	1699	1711	1717	1703	1673	1684	1683	1685	1683	1683	1675	1670	1676	1679	1679	1659	1634	1628	1631	1628	1622	1609	1592	1602	1610	1611	1605	1604	1607	1608	1598	1605	1600	1605	1593	1584	1587	1591	1586	1572	1578	1566	1538	1515	1512	1515	1560	1563	1566	1548	1530	1525	1519	1524	1532	1546	1558	1558	1547	1528	1513	1509	1504	1496	1483	1478	1481	1481	1483	1477	1472	1472	1474	1469	1458	1438	1418	1407	1399	1399	1395	1395	1403	1395	1400	1402	1400	1402	1409	1420	1419	1429	1428	1429	1423	1423	1410	1398	1389	1387	1373	1357	1353	1354	1367	1382	1390	1394	1384	1378	1373	1366	1362	1350	1343	1332	1329	1323	1340	1348	1367	1382	1384	1347	1340	1346	1351	1351	1353	1348	1344	1343	1337	1330	1330	1332	1317	1302	1294	1297	1313	1320	1306	1303	1298	1298	1290	1279	1270	1260	1250	1240	1233	1236	1242	1246	1247	1249	1245	1236	1230	0	0	0	0	0	0	0	0	0
0	0	0	0	0	0	0	0	0	0	0	0	0	0	0	0	0	0	0	0	0	0	0	0	0	0	0	0	0	0	0	0	0	0	0	0	0	0	0	0	0	0	0	0	0	0	2358	2352	2336	0	2370	2395	2405	2399	2399	2386	2374	2392	2406	2415	2416	2436	2438	2350	0	0	0	1304	1236	1267	1296	1296	1284	1268	1277	1280	1280	1285	1295	1303	1317	1322	1322	1319	1307	1311	1320	1337	1341	1329	1320	1323	1325	1326	1315	1309	1305	1298	1290	1283	1282	1292	1296	1311	1309	1306	1306	1316	1324	1329	1311	1307	1313	1320	1313	1313	1310	1316	1328	1343	1372	1370	1338	1345	1342	1357	1368	1387	1397	1363	1339	1318	1318	1347	1352	1357	1349	1337	1344	1353	1359	1366	1399	1423	1418	1422	1443	1521	1586	1598	1607	1626	1647	1663	1675	1674	1665	1664	1666	1671	1690	1724	1719	1722	1699	1685	1705	1711	1619	1585	1601	1684	1754	1744	1722	1720	1737	1753	1770	1775	1783	1809	1875	1981	2034	2025	2035	2046	2066	2091	2113	2117	2117	2120	2115	2117	2104	2144	2166	2196	2207	2208	2182	2149	2127	2101	2075	2037	1994	1983	1988	2009	2038	2054	2052	2025	2007	2000	2015	2040	2051	2036	2030	1733	1630	1363	1377	1375	1364	1362	1384	1392	1397	1383	1377	1387	1404	1406	1425	1428	1412	1404	1399	1392	1380	1388	1393	1396	1385	1386	1401	1408	1416	1424	1436	1445	1415	1391	1378	1368	1383	1397	1406	1413	1415	1414	1405	1397	1404	1416	1420	1431	1427	1418	1405	1406	1413	1398	1402	1419	1425	1424	1429	1431	1446	1425	1406	1405	1408	1430	1437	1446	1446	1421	1407	1433	1437	1437	1430	1431	1441	1447	1444	1416	1442	1417	1446	1469	1485	1485	1526	1607	1716	1781	1816	1827	1818	1793	1784	1779	1785	1793	1802	1809	1810	1800	1781	1761	1728	1725	1726	1728	1725	1724	1724	1735	1745	1755	1779	1795	1789	1794	1792	1805	1819	1827	1831	1818	1797	1786	1790	1795	1794	1802	1815	1823	1823	1801	1782	1743	1708	1711	1722	1736	1743	1748	1755	1758	1785	1778	1776	1780	1796	1817	1819	1817	1785	1765	1772	1792	1801	1794	1779	1771	1711	1665	1570	1579	1554	1524	1521	1523	1524	1506	1486	1470	1461	1436	1428	1433	1462	1471	1467	1454	1469	1463	1463	1490	1486	1477	1467	1457	1458	1459	1460	1480	1488	1487	1480	1467	1452	1443	1436	1430	1452	1463	1472	1484	1495	1484	1479	1477	1474	1469	1462	1463	1469	1475	1461	1459	1460	1475	1493	1507	1517	1536	1592	1637	1678	1698	1701	1699	1698	1696	1694	1680	1679	1683	1687	1685	1673	1664	1663	1664	1667	1676	1682	1689	1676	1676	1677	1678	1686	1684	1651	1647	1652	1661	1662	1655	1646	1645	1646	1656	1611	1606	1592	1580	1591	1592	1573	1557	1564	1576	1584	1582	1574	1573	1576	1564	1565	1564	1545	1545	1539	1536	1525	1517	1502	1508	1521	1531	1529	1523	1516	1508	1503	1494	1477	1470	1465	1464	1466	1471	1470	1483	1491	1491	1492	1464	1452	1470	1471	1474	1464	1446	1438	1443	1449	1451	1449	1444	1439	1424	1411	1401	1397	1389	1383	1370	1363	1356	1369	1370	1379	1384	1380	1370	1372	1383	1393	1392	1395	1388	1394	1393	1392	1380	1353	1349	1345	1334	1324	1314	1324	1353	1371	1378	1374	1360	1350	1345	1335	1324	1318	1319	1316	1311	1308	1315	1339	1347	1313	1294	1312	1318	1324	1329	1325	1314	1304	1304	1317	1322	1319	1313	1303	1279	1274	1276	1284	1293	1278	1276	1264	1264	1259	1247	1242	1240	1229	1213	1214	1212	1215	1224	1229	1231	1227	1216	1211	0	0	0	0	0	0	0	0	0
0	0	0	0	0	0	0	0	0	0	0	0	0	0	0	0	0	0	0	0	0	0	0	0	0	0	0	0	0	0	0	2302	2316	0	0	0	0	0	0	2381	2392	2379	2375	2375	2381	2416	2441	2452	2446	2439	2447	2466	2457	2451	2451	2434	2429	2461	2458	2429	2434	2446	2444	2382	2174	0	1759	1340	1243	1301	1322	1322	1296	1270	1274	1274	1274	1280	1291	1303	1315	1322	1321	1317	1310	1313	1328	1343	1346	1332	1332	1336	1337	1329	1314	1309	1306	1299	1297	1296	1302	1299	1300	1306	1307	1311	1318	1330	1337	1339	1328	1310	1310	1307	1299	1296	1297	1316	1332	1327	1344	1346	1337	1327	1328	1346	1348	1353	1381	1356	1334	1323	1321	1345	1358	1368	1364	1348	1337	1341	1349	1365	1391	1407	1430	1439	1456	1510	1572	1594	1612	1635	1660	1676	1683	1677	1659	1649	1647	1654	1685	1720	1715	1713	1674	1661	1678	1690	1615	1589	1610	1677	1750	1739	1720	1733	1748	1759	1767	1772	1784	1797	1856	1943	1952	1978	1994	2002	2004	2013	2049	2076	2075	2041	2028	2010	2008	2019	2014	2025	2021	2034	2073	2059	2052	2034	2005	2002	1981	1960	1948	1960	2004	2025	2027	2012	1975	1959	1959	1962	1947	1930	1927	1734	1613	1447	1399	1377	1352	1354	1380	1396	1405	1386	1374	1383	1396	1403	1415	1417	1406	1406	1410	1404	1382	1386	1396	1400	1398	1398	1400	1407	1421	1434	1441	1445	1420	1395	1380	1378	1380	1393	1401	1402	1417	1407	1408	1398	1406	1410	1409	1414	1425	1440	1414	1409	1405	1392	1400	1414	1433	1424	1422	1433	1430	1410	1386	1408	1414	1422	1422	1420	1410	1412	1430	1436	1440	1440	1431	1432	1442	1448	1450	1415	1397	1410	1442	1470	1480	1498	1534	1591	1660	1734	1767	1765	1745	1731	1734	1743	1748	1749	1762	1771	1755	1759	1736	1712	1687	1664	1654	1662	1684	1699	1706	1709	1712	1712	1717	1737	1730	1736	1723	1723	1741	1784	1801	1785	1763	1757	1760	1769	1774	1777	1792	1798	1789	1735	1694	1683	1692	1704	1718	1717	1715	1718	1702	1688	1676	1679	1686	1688	1700	1693	1681	1670	1674	1680	1692	1704	1707	1706	1722	1742	1695	1628	1605	1616	1618	1555	1536	1562	1559	1534	1500	1467	1435	1409	1416	1412	1436	1469	1472	1459	1467	1462	1462	1499	1492	1484	1465	1457	1451	1455	1457	1462	1473	1469	1465	1464	1460	1451	1438	1442	1455	1469	1482	1494	1502	1511	1498	1503	1487	1475	1465	1467	1507	1506	1500	1491	1489	1499	1514	1527	1528	1545	1578	1616	1640	1660	1665	1666	1660	1648	1637	1625	1636	1656	1659	1657	1653	1648	1654	1657	1658	1658	1648	1644	1640	1642	1648	1654	1647	1644	1636	1628	1627	1623	1607	1578	1574	1563	1548	1561	1571	1585	1577	1558	1523	1536	1524	1523	1519	1519	1519	1522	1522	1514	1478	1473	1495	1508	1511	1499	1504	1492	1446	1430	1433	1443	1454	1471	1472	1473	1470	1471	1472	1459	1445	1440	1442	1443	1442	1442	1440	1428	1419	1415	1412	1406	1412	1406	1409	1411	1406	1405	1411	1410	1403	1388	1372	1361	1358	1360	1370	1373	1373	1364	1356	1346	1334	1326	1301	1305	1327	1347	1349	1348	1348	1347	1349	1354	1359	1355	1332	1338	1348	1352	1329	1327	1331	1317	1289	1282	1289	1327	1349	1363	1358	1344	1327	1317	1317	1316	1308	1305	1302	1300	1296	1294	1303	1306	1289	1280	1285	1287	1288	1297	1291	1288	1282	1280	1297	1307	1306	1289	1269	1248	1242	1251	1258	1259	1255	1242	1229	1229	1212	1213	1216	1213	1210	1193	1192	1192	1197	1205	1213	1213	1209	1201	1200	0	0	0	0	0	0	0	0	0
0	0	0	0	0	0	0	0	0	0	0	0	0	0	0	0	0	0	0	0	0	0	0	2329	2342	2346	2346	2318	2302	2303	2328	2376	2386	2393	2393	2361	2338	2357	2402	2422	2408	2368	2375	2375	2376	2447	2507	2527	2533	2530	2508	2501	2481	2437	2437	2391	2378	2399	2411	2404	2410	2405	2403	2346	2177	1970	1780	1381	1249	1336	1349	1349	1302	1274	1280	1288	1287	1294	1303	1306	1315	1327	1328	1323	1313	1314	1330	1345	1352	1343	1339	1345	1340	1329	1314	1306	1301	1296	1304	1313	1313	1308	1304	1304	1309	1318	1334	1339	1342	1342	1333	1310	1309	1309	1300	1301	1310	1329	1339	1341	1345	1347	1350	1320	1329	1335	1324	1322	1350	1340	1331	1328	1334	1339	1353	1362	1353	1340	1337	1341	1354	1368	1382	1404	1443	1458	1478	1523	1581	1597	1626	1647	1668	1681	1683	1674	1652	1642	1636	1641	1664	1700	1714	1711	1653	1654	1661	1663	1601	1567	1601	1654	1729	1729	1722	1750	1771	1789	1790	1795	1798	1809	1873	1905	1940	1966	1978	1961	1959	1968	2011	2031	2016	1989	1967	1965	1972	1966	1966	1962	1982	2004	2002	1986	1959	1936	1981	1979	1965	1947	1930	1933	1967	1983	1985	1970	1950	1935	1918	1901	1876	1859	1856	1717	1599	1479	1386	1383	1352	1347	1364	1386	1405	1396	1381	1386	1388	1394	1400	1394	1396	1405	1411	1412	1383	1383	1386	1398	1395	1393	1400	1408	1420	1432	1444	1441	1429	1418	1409	1404	1386	1376	1374	1378	1391	1399	1400	1397	1392	1405	1413	1422	1433	1439	1409	1409	1406	1412	1416	1420	1442	1434	1427	1436	1414	1381	1394	1396	1415	1428	1422	1419	1420	1427	1431	1433	1438	1454	1443	1441	1444	1426	1442	1451	1414	1409	1440	1463	1474	1492	1567	1605	1652	1688	1713	1700	1696	1719	1728	1718	1697	1682	1673	1691	1687	1652	1670	1682	1677	1662	1649	1647	1653	1660	1663	1663	1650	1636	1625	1645	1667	1673	1671	1688	1700	1734	1745	1729	1712	1708	1689	1691	1711	1724	1734	1722	1714	1679	1682	1686	1693	1702	1702	1693	1687	1678	1666	1651	1660	1670	1676	1684	1690	1684	1661	1641	1640	1667	1671	1676	1677	1674	1673	1643	1628	1630	1640	1639	1633	1612	1553	1565	1636	1630	1593	1554	1444	1414	1415	1421	1428	1484	1479	1465	1472	1451	1465	1504	1497	1491	1470	1452	1445	1452	1460	1463	1459	1453	1450	1461	1466	1459	1449	1447	1461	1470	1482	1495	1507	1518	1508	1511	1508	1485	1479	1490	1535	1548	1540	1529	1526	1532	1552	1558	1551	1552	1573	1598	1616	1629	1627	1628	1623	1609	1600	1594	1602	1616	1619	1626	1623	1624	1635	1640	1639	1633	1623	1613	1607	1610	1612	1621	1621	1613	1566	1555	1539	1541	1542	1547	1548	1538	1527	1527	1530	1531	1517	1499	1477	1479	1481	1477	1481	1477	1448	1435	1433	1433	1430	1445	1468	1480	1473	1449	1428	1416	1411	1411	1422	1424	1429	1439	1436	1436	1431	1418	1422	1428	1428	1424	1422	1424	1423	1428	1422	1410	1395	1405	1405	1399	1400	1394	1394	1393	1391	1389	1398	1394	1378	1365	1362	1362	1356	1345	1352	1361	1359	1336	1316	1316	1316	1307	1297	1296	1306	1328	1337	1340	1338	1333	1338	1336	1331	1294	1290	1311	1324	1329	1316	1305	1287	1283	1272	1269	1274	1294	1306	1319	1329	1315	1305	1305	1310	1308	1304	1296	1293	1293	1293	1289	1292	1282	1277	1273	1274	1274	1272	1273	1270	1267	1261	1260	1253	1260	1273	1252	1230	1220	1219	1228	1235	1246	1245	1231	1213	1213	1201	1193	1195	1186	1185	1179	1182	1182	1186	1193	1193	1188	1192	1194	1198	0	0	0	0	0	0	0	0	0
0	0	0	0	0	0	0	0	0	0	0	0	0	0	0	0	0	2331	0	0	0	2352	2345	2362	2375	2384	2384	2363	2350	2349	2381	2428	2444	2418	2418	2397	2387	2398	2398	2405	2385	2350	2347	2347	2351	2400	2494	2533	2538	2521	2504	2475	2430	2393	2393	2363	2353	2350	2376	2374	2374	2338	2322	2303	2159	1959	1791	1428	1267	1336	1336	1336	1275	1283	1302	1308	1317	1320	1323	1321	1323	1329	1332	1328	1318	1318	1327	1344	1352	1349	1344	1339	1332	1323	1315	1308	1302	1304	1314	1324	1326	1316	1306	1309	1313	1327	1338	1347	1348	1346	1329	1312	1310	1316	1319	1320	1326	1338	1345	1355	1362	1342	1341	1323	1333	1334	1313	1311	1331	1337	1342	1345	1336	1343	1344	1347	1334	1331	1338	1353	1368	1376	1384	1418	1452	1459	1480	1542	1617	1642	1651	1661	1676	1682	1679	1674	1665	1645	1638	1634	1657	1681	1698	1692	1656	1672	1667	1633	1582	1559	1568	1615	1697	1723	1726	1765	1798	1817	1830	1847	1868	1874	1879	1894	1911	1931	1935	1928	1935	1942	1968	1984	1981	1959	1929	1927	1918	1920	1912	1888	1870	1884	1892	1887	1881	1877	1869	1864	1869	1869	1869	1909	1936	1938	1928	1912	1907	1899	1888	1882	1843	1836	1834	1703	1556	1471	1373	1385	1360	1339	1348	1372	1410	1398	1393	1398	1389	1392	1392	1404	1400	1408	1415	1414	1395	1383	1386	1386	1390	1391	1396	1408	1418	1430	1434	1432	1425	1421	1410	1405	1388	1380	1376	1381	1389	1407	1400	1401	1394	1410	1407	1413	1420	1419	1402	1406	1413	1415	1414	1429	1448	1438	1435	1449	1426	1393	1391	1399	1415	1422	1425	1431	1430	1428	1429	1428	1431	1454	1450	1449	1431	1436	1436	1445	1427	1415	1435	1454	1454	1487	1562	1598	1630	1656	1658	1658	1663	1667	1670	1676	1657	1639	1643	1639	1609	1608	1637	1663	1651	1658	1651	1642	1638	1634	1626	1614	1601	1590	1605	1611	1627	1638	1630	1635	1641	1657	1685	1707	1699	1672	1647	1632	1620	1623	1638	1637	1641	1646	1657	1674	1684	1670	1646	1635	1654	1650	1644	1629	1635	1640	1654	1670	1672	1655	1642	1621	1621	1637	1632	1629	1619	1626	1612	1597	1613	1617	1617	1605	1595	1591	1573	1570	1610	1635	1631	1612	1537	1457	1442	1443	1500	1495	1481	1464	1470	1445	1491	1505	1505	1501	1494	1486	1467	1459	1464	1464	1457	1448	1456	1470	1470	1463	1457	1458	1460	1472	1488	1500	1511	1519	1526	1521	1512	1502	1493	1507	1546	1564	1566	1561	1558	1565	1562	1558	1550	1550	1566	1578	1590	1588	1591	1597	1597	1589	1581	1577	1577	1586	1581	1590	1593	1602	1614	1608	1592	1577	1577	1573	1571	1569	1522	1509	1505	1515	1519	1517	1512	1513	1513	1510	1501	1501	1501	1497	1477	1463	1458	1458	1458	1461	1456	1454	1451	1441	1435	1435	1429	1432	1434	1445	1447	1445	1428	1423	1410	1403	1401	1399	1413	1409	1407	1399	1402	1403	1399	1391	1397	1412	1418	1413	1419	1417	1416	1414	1402	1396	1391	1394	1389	1390	1356	1350	1347	1343	1357	1371	1380	1373	1367	1358	1355	1348	1337	1323	1327	1337	1334	1316	1301	1299	1300	1303	1286	1282	1286	1307	1317	1320	1309	1317	1326	1320	1286	1274	1281	1285	1298	1304	1296	1278	1261	1257	1256	1260	1260	1271	1274	1283	1283	1276	1290	1294	1297	1296	1293	1275	1264	1265	1274	1275	1271	1266	1266	1259	1258	1257	1252	1250	1249	1241	1236	1240	1239	1232	1225	1213	1189	1187	1196	1212	1224	1235	1236	1228	1212	1212	1203	1182	1183	1180	1173	1178	1179	1184	1185	1190	1178	1177	1179	1182	1185	0	0	0	0	0	0	0	0	0
0	0	0	0	0	0	0	0	0	0	0	0	2326	2326	2298	2285	2289	2319	2348	2348	2344	2332	2332	2350	2361	2364	2364	2355	2345	2357	2384	2437	2438	2408	2408	2395	2400	2408	2398	2378	2357	2333	2344	2344	2346	2361	2401	2418	2402	2385	2367	2358	2370	2363	2363	2336	2320	2323	2343	2356	2298	2272	2261	2220	2143	1931	1776	1509	1323	1338	1317	1317	1280	1286	1325	1328	1336	1338	1339	1338	1328	1325	1326	1326	1322	1330	1341	1349	1350	1341	1331	1324	1321	1321	1316	1316	1309	1300	1313	1331	1333	1322	1316	1312	1318	1326	1335	1345	1349	1341	1328	1315	1310	1312	1321	1328	1333	1338	1344	1361	1362	1337	1334	1328	1336	1332	1310	1315	1334	1337	1342	1349	1342	1336	1339	1341	1342	1346	1363	1376	1388	1393	1401	1432	1438	1449	1482	1534	1646	1674	1686	1688	1686	1679	1682	1683	1677	1666	1651	1645	1637	1651	1673	1669	1662	1701	1684	1623	1561	1547	1564	1608	1686	1733	1747	1762	1819	1847	1863	1879	1888	1885	1878	1878	1886	1895	1901	1909	1918	1932	1943	1933	1922	1920	1902	1898	1887	1883	1845	1826	1830	1843	1855	1854	1851	1841	1839	1845	1853	1850	1839	1836	1835	1812	1796	1852	1873	1868	1853	1840	1814	1818	1821	1727	1539	1476	1364	1392	1370	1342	1351	1372	1394	1387	1396	1402	1398	1399	1407	1408	1406	1416	1416	1410	1401	1391	1391	1392	1393	1420	1426	1413	1409	1405	1424	1419	1415	1411	1408	1402	1391	1386	1388	1394	1408	1416	1416	1402	1403	1410	1417	1415	1422	1424	1421	1418	1425	1424	1409	1417	1424	1436	1443	1426	1406	1400	1408	1428	1425	1423	1430	1436	1435	1428	1421	1422	1419	1440	1440	1440	1438	1442	1439	1447	1440	1426	1437	1435	1445	1474	1549	1569	1603	1629	1638	1636	1636	1634	1638	1647	1640	1612	1601	1582	1566	1576	1587	1594	1602	1603	1606	1592	1594	1606	1596	1584	1560	1551	1552	1551	1554	1561	1568	1581	1595	1616	1646	1665	1658	1636	1614	1599	1587	1582	1585	1594	1595	1591	1607	1634	1646	1630	1609	1603	1582	1557	1550	1549	1556	1589	1621	1638	1604	1583	1579	1575	1570	1560	1560	1563	1562	1568	1562	1556	1556	1558	1554	1543	1541	1551	1564	1579	1584	1574	1560	1544	1519	1504	1500	1502	1507	1495	1470	1475	1477	1486	1492	1506	1510	1509	1512	1493	1480	1464	1459	1462	1456	1456	1468	1470	1468	1464	1463	1468	1484	1499	1512	1513	1507	1496	1499	1502	1502	1494	1489	1504	1541	1555	1568	1561	1548	1527	1533	1531	1525	1526	1533	1538	1552	1553	1551	1558	1561	1541	1518	1520	1515	1525	1517	1520	1536	1540	1512	1497	1494	1494	1467	1475	1470	1483	1496	1487	1472	1485	1489	1485	1483	1484	1483	1473	1458	1453	1458	1460	1446	1445	1441	1442	1446	1446	1439	1431	1426	1423	1424	1423	1422	1425	1426	1429	1428	1422	1406	1401	1395	1394	1390	1386	1393	1390	1381	1372	1365	1364	1367	1364	1366	1376	1378	1387	1397	1397	1394	1387	1380	1371	1365	1365	1356	1342	1314	1299	1294	1297	1311	1336	1337	1345	1344	1339	1328	1328	1318	1308	1312	1319	1309	1286	1276	1268	1263	1251	1241	1237	1238	1249	1259	1266	1272	1282	1293	1291	1268	1259	1262	1263	1260	1257	1251	1247	1230	1210	1208	1215	1229	1220	1204	1211	1222	1215	1208	1238	1259	1253	1249	1233	1229	1234	1242	1248	1249	1249	1234	1235	1234	1233	1229	1225	1225	1226	1233	1230	1222	1209	1197	1180	1168	1166	1176	1190	1199	1198	1198	1198	1198	1198	1188	1177	1170	1171	1169	1170	1174	1174	1186	1178	1172	1166	1164	1162	1167	0	0	0	0	0	0	0	0	0
0	0	0	0	0	0	2226	2226	2228	2244	2278	2309	2305	2305	2260	2249	2245	2291	2307	2307	2306	2279	2279	2314	2333	2343	2343	2330	2321	2338	2372	2398	2354	2357	2357	2371	2381	2397	2384	2343	2334	2339	2348	2348	2352	2319	2295	2293	2291	2263	2258	2270	2297	2306	2306	2301	2268	2251	2249	2251	2233	2213	2207	2169	2087	1883	1694	1569	1375	1340	1316	1316	1295	1296	1332	1338	1344	1343	1341	1337	1326	1321	1323	1326	1328	1341	1347	1350	1346	1330	1315	1314	1320	1324	1324	1321	1317	1311	1321	1333	1338	1331	1321	1315	1316	1320	1331	1342	1344	1332	1324	1313	1308	1300	1307	1322	1330	1335	1335	1349	1348	1332	1330	1328	1333	1335	1321	1323	1342	1337	1335	1333	1335	1330	1339	1350	1356	1374	1388	1404	1417	1418	1427	1438	1418	1438	1481	1554	1659	1698	1706	1707	1696	1693	1688	1697	1689	1677	1663	1635	1615	1647	1645	1640	1668	1720	1697	1639	1562	1546	1566	1626	1696	1752	1777	1793	1819	1811	1806	1813	1832	1860	1857	1854	1859	1872	1878	1887	1896	1906	1901	1867	1846	1845	1852	1872	1866	1836	1816	1793	1796	1801	1829	1835	1823	1834	1825	1831	1836	1830	1813	1807	1808	1795	1780	1767	1751	1748	1742	1789	1783	1796	1804	1713	1521	1478	1381	1397	1376	1353	1373	1383	1383	1366	1388	1406	1404	1406	1411	1418	1423	1423	1417	1407	1400	1400	1402	1404	1413	1412	1410	1406	1397	1398	1402	1408	1405	1414	1408	1404	1394	1401	1407	1419	1429	1433	1423	1395	1397	1409	1417	1424	1433	1429	1432	1450	1457	1443	1417	1408	1425	1426	1424	1413	1412	1416	1426	1430	1425	1427	1432	1438	1435	1424	1419	1412	1410	1424	1430	1433	1441	1441	1444	1446	1448	1450	1446	1437	1437	1469	1514	1548	1574	1602	1615	1611	1590	1598	1605	1608	1594	1572	1555	1553	1553	1559	1563	1563	1559	1556	1529	1537	1553	1549	1542	1540	1539	1537	1542	1545	1541	1544	1549	1555	1548	1561	1576	1574	1561	1549	1540	1544	1541	1543	1556	1573	1575	1574	1572	1561	1553	1537	1526	1526	1526	1525	1527	1518	1508	1513	1547	1554	1547	1522	1532	1549	1562	1544	1523	1518	1529	1539	1543	1534	1541	1540	1537	1539	1536	1542	1550	1535	1512	1499	1486	1467	1483	1500	1500	1502	1496	1492	1485	1476	1485	1492	1500	1504	1506	1516	1522	1511	1491	1470	1459	1460	1472	1480	1485	1478	1482	1482	1479	1470	1472	1474	1474	1468	1455	1448	1454	1464	1489	1494	1489	1482	1470	1470	1467	1474	1477	1465	1467	1475	1495	1490	1490	1493	1496	1505	1513	1511	1511	1502	1499	1505	1482	1465	1460	1456	1469	1470	1438	1448	1436	1438	1444	1446	1446	1434	1404	1385	1403	1449	1452	1456	1429	1411	1396	1396	1393	1403	1395	1385	1381	1389	1411	1435	1415	1395	1399	1407	1409	1407	1410	1410	1412	1408	1406	1404	1408	1406	1388	1385	1376	1373	1365	1368	1372	1358	1323	1311	1302	1319	1323	1324	1327	1330	1318	1314	1317	1324	1340	1352	1356	1349	1337	1328	1310	1318	1295	1280	1267	1276	1276	1275	1289	1308	1320	1312	1301	1288	1281	1275	1276	1283	1274	1266	1256	1240	1232	1229	1225	1218	1221	1234	1248	1254	1252	1258	1262	1261	1252	1246	1244	1242	1242	1236	1214	1199	1189	1181	1186	1191	1194	1184	1191	1208	1218	1220	1208	1224	1232	1234	1223	1215	1219	1223	1230	1230	1231	1209	1192	1187	1183	1185	1188	1198	1210	1223	1228	1221	1213	1203	1183	1168	1154	1153	1171	1185	1189	1195	1192	1191	1178	1178	1169	1163	1158	1163	1163	1162	1160	1162	1166	1165	1154	1148	1146	1142	1137	0	0	0	0	0	0	0	0	0
2209	2209	2211	2230	2245	2254	2250	2250	2240	2249	2268	2276	2234	2234	2211	2196	2214	2244	2260	2260	2231	2212	2229	2265	2281	2281	2281	2278	2263	2258	2272	2257	2276	2303	2303	2316	2316	2312	2302	2286	2294	2297	2304	2304	2275	2220	2234	2254	2262	2236	2230	2236	2256	2247	2247	2226	2210	2200	2194	2197	2199	2164	2139	2111	2036	1874	1712	1623	1423	1359	1331	1331	1316	1313	1333	1342	1337	1331	1330	1331	1323	1319	1322	1326	1327	1331	1339	1342	1336	1321	1311	1317	1323	1331	1333	1328	1319	1310	1313	1324	1333	1336	1326	1320	1318	1323	1332	1338	1340	1332	1324	1309	1306	1298	1297	1316	1325	1329	1324	1304	1323	1327	1323	1323	1329	1341	1329	1333	1334	1330	1321	1310	1314	1326	1341	1354	1370	1385	1408	1427	1437	1439	1444	1417	1415	1445	1485	1581	1651	1706	1718	1713	1700	1689	1688	1688	1682	1668	1658	1602	1607	1628	1621	1619	1648	1716	1699	1652	1630	1556	1572	1635	1737	1783	1803	1801	1812	1797	1778	1769	1778	1795	1821	1830	1806	1804	1811	1819	1862	1863	1839	1812	1803	1788	1775	1768	1773	1784	1779	1766	1742	1767	1799	1808	1808	1799	1799	1792	1764	1738	1738	1760	1771	1765	1756	1736	1720	1717	1708	1699	1692	1682	1715	1698	1523	1468	1391	1399	1377	1359	1385	1395	1382	1358	1378	1389	1392	1394	1399	1403	1421	1427	1404	1388	1392	1398	1409	1413	1413	1409	1407	1397	1385	1382	1399	1408	1414	1417	1418	1410	1388	1394	1413	1422	1431	1440	1431	1397	1381	1381	1386	1388	1399	1414	1432	1429	1426	1438	1424	1415	1424	1428	1430	1418	1411	1411	1421	1425	1430	1425	1434	1440	1433	1421	1414	1409	1408	1417	1419	1419	1442	1448	1451	1448	1447	1461	1449	1435	1433	1434	1482	1523	1556	1577	1579	1567	1569	1579	1555	1533	1532	1532	1512	1509	1527	1542	1542	1541	1525	1506	1486	1485	1482	1474	1481	1494	1507	1506	1513	1508	1510	1504	1502	1497	1497	1502	1510	1504	1502	1499	1505	1518	1526	1531	1547	1555	1562	1544	1532	1520	1505	1485	1467	1462	1474	1491	1497	1489	1472	1476	1481	1485	1487	1489	1497	1513	1520	1505	1498	1513	1524	1527	1517	1501	1498	1512	1511	1508	1504	1506	1499	1471	1460	1464	1464	1462	1472	1473	1475	1468	1448	1454	1469	1482	1499	1495	1488	1486	1490	1497	1506	1507	1499	1489	1498	1503	1501	1475	1462	1456	1458	1471	1478	1477	1467	1449	1434	1418	1417	1427	1442	1456	1474	1491	1492	1488	1458	1447	1452	1457	1464	1459	1456	1460	1466	1462	1458	1453	1451	1452	1460	1469	1473	1468	1465	1463	1468	1452	1419	1414	1405	1416	1428	1413	1403	1376	1379	1404	1396	1389	1377	1362	1351	1365	1377	1394	1402	1378	1359	1342	1344	1348	1341	1348	1354	1356	1361	1354	1333	1339	1338	1344	1349	1342	1335	1328	1327	1322	1329	1354	1369	1359	1326	1318	1323	1328	1321	1314	1311	1300	1296	1290	1286	1282	1276	1290	1306	1310	1303	1303	1307	1311	1319	1332	1338	1334	1326	1301	1279	1280	1281	1260	1247	1250	1254	1254	1256	1267	1266	1273	1270	1259	1241	1226	1218	1215	1233	1233	1219	1195	1193	1186	1180	1175	1181	1208	1225	1229	1238	1248	1248	1244	1237	1233	1229	1225	1218	1206	1191	1184	1179	1178	1176	1179	1176	1178	1191	1206	1218	1218	1204	1209	1202	1189	1189	1180	1184	1203	1218	1214	1205	1188	1183	1177	1175	1177	1174	1172	1176	1180	1187	1193	1192	1188	1171	1153	1143	1142	1161	1177	1180	1186	1184	1176	1163	1163	1156	1148	1143	1144	1149	1144	1145	1147	1138	1127	1124	1123	1125	1121	1120	0	0	0	0	0	0	0	0	0
2155	2155	2194	2218	2229	2226	2198	2198	2223	2228	2226	2202	2176	2176	2185	2193	2213	2221	2213	2213	2165	2168	2196	2223	2239	2214	2214	2206	2202	2193	2178	2182	2207	2206	2206	2191	2184	2177	2192	2207	2212	2200	2185	2185	2157	2152	2175	2181	2181	2190	2201	2204	2197	2179	2179	2175	2151	2143	2147	2150	2138	2116	2102	2084	2030	1894	1747	1677	1454	1363	1332	1332	1327	1324	1332	1338	1327	1311	1302	1316	1317	1317	1322	1328	1328	1328	1331	1334	1334	1324	1321	1326	1336	1338	1337	1331	1320	1311	1309	1317	1327	1336	1332	1325	1325	1328	1335	1339	1339	1336	1322	1319	1312	1306	1305	1316	1322	1323	1312	1296	1303	1315	1315	1318	1327	1352	1343	1330	1328	1324	1313	1305	1318	1334	1350	1369	1369	1379	1409	1427	1441	1442	1442	1392	1411	1449	1487	1585	1654	1705	1708	1706	1690	1684	1680	1678	1667	1652	1598	1581	1599	1617	1610	1610	1622	1639	1686	1672	1651	1640	1646	1690	1738	1783	1830	1822	1784	1783	1774	1771	1764	1748	1749	1756	1757	1763	1764	1762	1784	1806	1798	1775	1780	1773	1744	1733	1728	1730	1725	1695	1664	1662	1715	1718	1722	1694	1708	1698	1684	1681	1689	1674	1650	1647	1657	1672	1681	1669	1655	1667	1671	1672	1675	1672	1553	1438	1385	1394	1375	1351	1360	1379	1381	1367	1379	1386	1385	1384	1381	1385	1392	1392	1392	1394	1393	1398	1403	1407	1406	1399	1399	1387	1380	1378	1383	1401	1415	1416	1413	1405	1393	1387	1408	1420	1433	1429	1420	1388	1368	1364	1368	1376	1397	1429	1411	1399	1383	1417	1419	1418	1423	1430	1432	1413	1403	1403	1410	1420	1425	1435	1447	1454	1428	1421	1415	1409	1409	1412	1414	1413	1422	1446	1445	1430	1440	1462	1443	1431	1426	1432	1486	1509	1533	1554	1541	1522	1509	1507	1500	1488	1497	1495	1488	1481	1484	1493	1501	1509	1493	1463	1457	1451	1450	1454	1458	1461	1464	1459	1455	1447	1468	1484	1489	1483	1478	1457	1454	1465	1484	1491	1489	1480	1476	1473	1473	1469	1477	1492	1505	1503	1482	1465	1455	1437	1437	1442	1443	1442	1443	1434	1436	1432	1438	1444	1463	1467	1449	1455	1475	1471	1472	1483	1486	1477	1458	1439	1434	1436	1442	1447	1451	1450	1449	1451	1456	1463	1463	1464	1463	1453	1439	1440	1443	1444	1458	1465	1462	1464	1467	1471	1459	1455	1457	1462	1461	1462	1456	1444	1423	1423	1440	1444	1449	1456	1456	1444	1415	1405	1401	1410	1414	1412	1415	1422	1431	1439	1445	1452	1455	1453	1452	1447	1443	1451	1458	1452	1454	1447	1442	1440	1443	1447	1454	1443	1439	1387	1376	1366	1351	1346	1346	1349	1345	1337	1308	1307	1327	1335	1340	1342	1355	1348	1364	1355	1366	1371	1373	1351	1344	1342	1330	1323	1325	1325	1317	1307	1303	1298	1310	1326	1330	1333	1324	1310	1296	1290	1288	1286	1288	1297	1303	1313	1299	1301	1307	1309	1298	1284	1282	1287	1288	1280	1274	1269	1264	1272	1291	1278	1276	1280	1287	1292	1298	1303	1313	1316	1290	1272	1259	1249	1231	1216	1220	1227	1231	1235	1235	1235	1242	1238	1230	1211	1211	1203	1200	1200	1198	1190	1165	1173	1185	1193	1198	1195	1190	1192	1203	1214	1221	1232	1233	1226	1219	1216	1217	1211	1208	1205	1189	1184	1184	1180	1176	1177	1162	1172	1185	1195	1188	1187	1191	1179	1165	1163	1165	1168	1173	1183	1198	1194	1187	1165	1165	1173	1174	1170	1169	1163	1162	1165	1174	1175	1175	1173	1160	1145	1138	1144	1153	1161	1170	1172	1168	1160	1151	1151	1145	1133	1129	1125	1121	1122	1117	1126	1126	1115	1111	1109	1116	1120	1121	0	0	0	0	0	0	0	0	0
2080	2080	2125	2171	2151	2158	2151	2151	2153	2167	2132	2115	2116	2116	2127	2136	2145	2147	2147	2147	2129	2136	2170	2199	2185	2141	2141	2117	2131	2123	2147	2155	2160	2149	2149	2134	2128	2119	2098	2116	2119	2112	2092	2092	2091	2099	2110	2108	2111	2116	2137	2145	2145	2134	2134	2125	2103	2091	2096	2108	2096	2088	2080	2058	2029	1913	1773	1696	1475	1340	1326	1326	1339	1338	1330	1323	1300	1283	1281	1298	1308	1316	1326	1335	1334	1330	1332	1333	1333	1339	1338	1339	1337	1333	1332	1327	1320	1311	1313	1320	1331	1333	1335	1333	1328	1331	1339	1338	1336	1337	1329	1328	1326	1321	1321	1325	1324	1317	1308	1297	1300	1315	1321	1316	1324	1360	1355	1327	1323	1330	1324	1322	1329	1347	1359	1366	1354	1357	1375	1381	1401	1409	1413	1381	1405	1436	1473	1570	1647	1696	1702	1691	1683	1692	1693	1681	1661	1624	1576	1572	1596	1618	1611	1608	1619	1639	1655	1664	1674	1695	1703	1724	1755	1769	1767	1757	1731	1744	1748	1745	1728	1710	1697	1696	1688	1684	1687	1697	1704	1727	1714	1730	1730	1729	1676	1668	1670	1681	1681	1657	1631	1634	1644	1641	1639	1623	1638	1649	1657	1655	1655	1641	1630	1624	1615	1606	1610	1616	1619	1628	1633	1637	1653	1660	1581	1513	1468	1344	1368	1340	1340	1336	1368	1381	1381	1388	1383	1383	1379	1382	1384	1393	1401	1400	1393	1389	1399	1405	1405	1405	1408	1409	1402	1393	1382	1399	1400	1405	1406	1399	1394	1383	1399	1420	1424	1424	1418	1416	1395	1366	1372	1390	1424	1419	1405	1391	1386	1397	1413	1430	1435	1444	1425	1409	1401	1407	1416	1421	1416	1419	1429	1443	1437	1424	1416	1408	1409	1408	1417	1420	1425	1432	1429	1438	1438	1452	1430	1424	1431	1441	1486	1515	1532	1507	1493	1480	1467	1458	1465	1478	1481	1476	1456	1448	1443	1436	1432	1438	1441	1433	1435	1438	1443	1440	1438	1444	1444	1435	1424	1435	1453	1473	1484	1459	1444	1434	1425	1438	1444	1446	1445	1441	1450	1455	1454	1447	1453	1448	1455	1457	1451	1454	1459	1452	1434	1408	1397	1401	1410	1415	1418	1423	1423	1427	1441	1443	1437	1440	1453	1458	1457	1466	1473	1461	1443	1431	1416	1402	1387	1390	1391	1392	1407	1429	1445	1458	1465	1461	1450	1423	1419	1413	1410	1412	1426	1443	1454	1451	1447	1434	1411	1408	1439	1447	1445	1432	1422	1415	1416	1420	1428	1407	1389	1400	1425	1420	1406	1402	1394	1401	1396	1397	1400	1403	1410	1426	1423	1431	1444	1438	1434	1427	1419	1428	1446	1445	1436	1430	1435	1418	1407	1402	1355	1344	1335	1324	1324	1321	1318	1322	1322	1318	1307	1288	1278	1286	1307	1312	1308	1307	1301	1317	1327	1331	1332	1324	1312	1314	1323	1325	1317	1314	1314	1309	1301	1297	1292	1287	1280	1291	1321	1321	1300	1288	1275	1271	1270	1265	1263	1269	1287	1293	1288	1286	1288	1277	1256	1262	1273	1274	1269	1266	1262	1258	1255	1248	1249	1246	1244	1245	1259	1261	1260	1276	1279	1276	1274	1253	1239	1226	1210	1210	1217	1221	1224	1225	1222	1217	1220	1221	1211	1201	1199	1200	1198	1193	1183	1170	1163	1168	1179	1191	1201	1198	1189	1186	1193	1200	1204	1205	1214	1209	1200	1182	1179	1188	1192	1196	1188	1179	1166	1163	1156	1153	1157	1173	1167	1158	1151	1150	1166	1164	1155	1150	1157	1157	1168	1172	1173	1164	1153	1148	1149	1154	1158	1163	1162	1158	1155	1155	1161	1163	1160	1154	1145	1139	1137	1140	1143	1142	1146	1148	1144	1142	1136	1136	1132	1125	1110	1105	1099	1101	1106	1109	1112	1099	1087	1088	1101	1108	1106	0	0	0	0	0	0	0	0	0
2065	2065	2054	2076	2077	2090	2079	2079	2085	2077	2063	2050	2057	2057	2077	2104	2085	2047	2014	2014	2030	2066	2122	2146	2129	2090	2090	2060	2065	2086	2110	2138	2133	2115	2115	2096	2067	2039	2054	2086	2084	2053	2032	2032	2026	2032	2032	2048	2061	2073	2076	2091	2087	2084	2084	2058	2032	1987	1988	2008	2038	2059	2050	2030	2008	1932	1770	1674	1502	1324	1316	1316	1345	1347	1332	1302	1277	1271	1277	1288	1304	1308	1324	1330	1335	1336	1336	1339	1340	1340	1343	1340	1328	1322	1316	1313	1309	1309	1311	1318	1330	1330	1334	1333	1330	1334	1338	1332	1328	1319	1324	1330	1333	1336	1339	1338	1333	1328	1317	1302	1302	1335	1338	1317	1329	1369	1357	1328	1328	1331	1335	1335	1339	1348	1358	1359	1349	1342	1341	1343	1357	1382	1404	1390	1394	1413	1441	1532	1636	1677	1673	1686	1701	1704	1714	1704	1679	1612	1571	1580	1600	1621	1616	1619	1631	1653	1669	1684	1696	1711	1713	1724	1739	1740	1727	1714	1689	1688	1693	1695	1695	1686	1671	1656	1652	1656	1652	1648	1645	1638	1610	1634	1653	1627	1616	1618	1625	1626	1639	1624	1624	1629	1635	1630	1615	1591	1594	1607	1613	1618	1625	1626	1622	1599	1580	1572	1577	1590	1602	1597	1588	1588	1620	1629	1564	1494	1410	1195	1216	1254	1267	1318	1340	1362	1369	1379	1390	1390	1387	1383	1386	1396	1401	1401	1393	1385	1393	1400	1400	1405	1409	1411	1409	1401	1393	1392	1405	1400	1397	1392	1388	1390	1401	1397	1415	1421	1426	1428	1413	1397	1392	1418	1418	1404	1393	1386	1382	1394	1406	1412	1404	1402	1401	1404	1408	1415	1431	1419	1404	1408	1418	1429	1439	1441	1439	1415	1404	1405	1422	1425	1434	1440	1442	1439	1447	1448	1419	1422	1427	1456	1479	1509	1484	1468	1450	1432	1425	1433	1449	1447	1436	1430	1419	1410	1399	1381	1369	1373	1380	1391	1399	1416	1420	1417	1407	1411	1416	1420	1422	1424	1421	1430	1442	1443	1427	1420	1412	1400	1394	1383	1383	1397	1424	1450	1449	1441	1421	1406	1414	1420	1423	1421	1417	1416	1407	1380	1376	1375	1383	1392	1411	1424	1422	1416	1416	1428	1422	1414	1402	1400	1415	1431	1431	1426	1412	1409	1401	1388	1387	1379	1380	1387	1388	1409	1437	1451	1454	1449	1414	1386	1376	1378	1384	1396	1406	1419	1414	1403	1389	1373	1361	1377	1373	1372	1372	1383	1385	1388	1396	1403	1387	1340	1340	1347	1358	1364	1374	1375	1378	1376	1363	1376	1380	1384	1384	1386	1379	1389	1403	1421	1414	1382	1339	1345	1352	1355	1357	1352	1348	1316	1344	1338	1321	1320	1321	1312	1301	1308	1310	1312	1311	1299	1294	1292	1285	1276	1267	1265	1278	1290	1291	1289	1297	1295	1281	1269	1281	1281	1288	1277	1256	1272	1292	1289	1276	1275	1274	1272	1267	1269	1276	1281	1273	1264	1257	1254	1250	1254	1249	1256	1270	1285	1268	1250	1239	1243	1245	1245	1250	1248	1242	1236	1233	1243	1247	1243	1228	1227	1223	1218	1226	1221	1213	1219	1217	1212	1212	1211	1214	1209	1210	1215	1217	1217	1222	1226	1221	1208	1203	1200	1197	1191	1194	1195	1189	1182	1171	1167	1166	1169	1177	1183	1185	1175	1170	1168	1177	1185	1190	1197	1193	1188	1149	1133	1130	1135	1132	1133	1116	1115	1112	1108	1111	1114	1124	1149	1150	1145	1141	1141	1148	1149	1145	1141	1131	1123	1123	1131	1142	1153	1145	1138	1130	1137	1145	1152	1155	1150	1149	1153	1156	1153	1146	1140	1131	1120	1119	1118	1119	1116	1110	1105	1106	1117	1120	1120	1116	1111	1096	1094	1095	1097	1095	1089	1096	1090	1085	1083	1079	1081	1076	0	0	0	0	0	0	0	0	0
2030	1999	1999	1989	2003	2022	2031	2031	2015	2018	2011	2009	2028	2028	2054	2070	2059	2016	1967	1967	1969	2024	2073	2097	2086	2049	2049	2017	2017	2028	2053	2058	2076	2044	2044	2020	1976	1974	1996	2012	2009	1987	1956	1956	1966	1973	1986	2003	2014	1996	1966	1967	1982	1999	1999	1992	1966	1915	1900	1904	1941	1963	1959	1950	1963	1936	1766	1628	1523	1325	1310	1310	1348	1357	1342	1312	1274	1274	1281	1294	1312	1314	1316	1322	1328	1334	1342	1340	1340	1342	1344	1335	1317	1310	1306	1301	1300	1300	1305	1316	1324	1328	1327	1327	1330	1334	1337	1328	1315	1306	1306	1316	1334	1348	1353	1351	1341	1333	1328	1311	1306	1331	1338	1339	1358	1371	1359	1342	1336	1340	1342	1344	1336	1338	1346	1354	1355	1350	1350	1353	1358	1379	1415	1398	1391	1370	1386	1521	1620	1643	1665	1680	1692	1678	1662	1656	1636	1604	1585	1593	1603	1611	1610	1611	1624	1650	1653	1650	1667	1682	1699	1709	1715	1703	1685	1679	1662	1660	1657	1656	1643	1621	1617	1626	1628	1628	1617	1607	1605	1591	1595	1592	1587	1593	1589	1588	1588	1579	1580	1587	1585	1605	1617	1608	1586	1576	1571	1577	1580	1587	1586	1567	1566	1557	1552	1561	1564	1572	1579	1574	1564	1560	1552	1535	1532	1419	1230	1162	1215	1244	1249	1252	1259	1282	1339	1363	1381	1388	1391	1384	1390	1394	1400	1401	1395	1384	1385	1386	1386	1400	1407	1413	1406	1409	1395	1388	1389	1395	1397	1390	1390	1399	1407	1434	1445	1439	1425	1432	1437	1436	1433	1426	1409	1401	1381	1372	1377	1389	1389	1390	1392	1398	1405	1405	1411	1435	1427	1390	1386	1390	1397	1405	1409	1409	1410	1431	1417	1418	1418	1423	1433	1442	1447	1446	1446	1408	1408	1411	1418	1429	1443	1440	1427	1420	1409	1396	1389	1394	1405	1417	1415	1416	1414	1411	1402	1386	1378	1378	1388	1392	1386	1368	1368	1365	1365	1370	1390	1402	1406	1407	1417	1420	1428	1418	1412	1402	1387	1367	1359	1362	1368	1381	1389	1398	1399	1399	1382	1387	1379	1378	1399	1405	1397	1385	1372	1362	1350	1358	1371	1388	1401	1395	1402	1396	1384	1391	1388	1382	1359	1356	1365	1377	1396	1402	1392	1397	1400	1394	1379	1373	1375	1371	1379	1388	1399	1425	1424	1394	1383	1375	1369	1359	1366	1374	1380	1382	1376	1369	1365	1358	1350	1338	1327	1323	1327	1339	1351	1355	1361	1344	1321	1313	1315	1324	1330	1328	1332	1342	1344	1338	1328	1342	1347	1354	1359	1357	1359	1365	1364	1368	1364	1315	1309	1300	1294	1291	1286	1282	1283	1285	1289	1290	1295	1280	1285	1282	1272	1278	1283	1285	1290	1294	1294	1291	1283	1276	1255	1249	1263	1268	1269	1275	1279	1263	1249	1252	1240	1243	1249	1247	1253	1254	1262	1264	1257	1249	1245	1231	1230	1232	1230	1255	1250	1237	1236	1234	1235	1231	1228	1233	1241	1244	1218	1212	1218	1230	1227	1234	1239	1239	1235	1226	1225	1220	1219	1217	1211	1211	1209	1211	1206	1205	1199	1198	1202	1202	1194	1191	1191	1194	1201	1214	1215	1212	1216	1225	1207	1195	1190	1185	1182	1183	1187	1188	1181	1175	1164	1163	1158	1161	1165	1161	1160	1157	1151	1156	1170	1182	1184	1178	1164	1143	1130	1124	1118	1116	1117	1109	1104	1103	1101	1099	1100	1105	1111	1140	1139	1136	1127	1118	1108	1101	1109	1112	1117	1113	1113	1120	1115	1113	1108	1103	1103	1115	1121	1137	1121	1121	1140	1149	1148	1137	1126	1114	1106	1105	1103	1098	1085	1078	1079	1079	1083	1086	1096	1096	1101	1094	1081	1081	1084	1084	1082	1079	1079	1079	1076	1069	1063	1063	1061	0	0	0	0	0	0	0	0	0
1965	1925	1925	1907	1911	1944	1972	1972	1986	1993	1993	2000	2012	2012	2029	2032	2013	1977	1930	1930	1945	1989	2036	2069	2061	2020	2020	1964	1944	1944	1950	1915	1934	1967	1967	1950	1926	1924	1947	1971	1963	1943	1933	1933	1927	1924	1933	1937	1917	1928	1930	1936	1939	1941	1941	1926	1897	1864	1864	1883	1897	1902	1878	1853	1854	1865	1770	1631	1534	1365	1307	1307	1331	1352	1328	1303	1278	1279	1296	1308	1317	1316	1307	1302	1308	1327	1334	1341	1344	1348	1348	1334	1317	1304	1297	1294	1295	1297	1301	1313	1323	1327	1324	1330	1330	1333	1334	1326	1315	1302	1296	1304	1324	1344	1356	1356	1352	1343	1338	1325	1312	1325	1329	1370	1370	1368	1356	1350	1353	1352	1350	1341	1333	1326	1335	1347	1356	1361	1361	1360	1370	1412	1434	1409	1397	1366	1363	1477	1585	1617	1648	1658	1648	1646	1648	1644	1617	1598	1589	1599	1601	1587	1576	1579	1592	1596	1598	1602	1616	1632	1652	1663	1661	1644	1629	1611	1614	1615	1613	1598	1588	1588	1592	1596	1597	1594	1578	1566	1569	1578	1588	1578	1573	1566	1556	1547	1540	1549	1555	1563	1559	1569	1589	1584	1569	1557	1555	1564	1559	1534	1520	1517	1515	1530	1553	1556	1553	1548	1541	1541	1517	1522	1523	1517	1376	1278	1226	1180	1233	1258	1260	1246	1241	1278	1313	1341	1367	1386	1388	1386	1388	1389	1391	1394	1399	1387	1380	1387	1392	1396	1402	1408	1408	1407	1398	1381	1376	1386	1397	1396	1405	1411	1413	1413	1412	1404	1407	1420	1421	1418	1415	1409	1405	1401	1395	1389	1399	1410	1410	1399	1398	1398	1405	1412	1414	1413	1401	1404	1402	1397	1402	1401	1406	1404	1401	1396	1398	1391	1386	1381	1386	1388	1385	1385	1393	1402	1406	1406	1417	1429	1433	1421	1397	1390	1393	1399	1399	1392	1382	1400	1411	1420	1420	1416	1402	1390	1381	1386	1390	1385	1365	1344	1328	1324	1335	1356	1373	1382	1379	1380	1389	1393	1388	1379	1375	1373	1364	1355	1354	1363	1373	1372	1365	1360	1360	1362	1360	1359	1352	1349	1358	1394	1393	1375	1349	1329	1340	1353	1366	1379	1367	1369	1364	1363	1370	1346	1344	1345	1339	1340	1346	1355	1361	1374	1377	1380	1383	1380	1377	1368	1342	1338	1337	1331	1346	1356	1369	1373	1369	1363	1350	1346	1344	1359	1360	1341	1338	1344	1344	1345	1341	1332	1313	1304	1296	1296	1303	1322	1332	1325	1316	1305	1305	1310	1307	1316	1323	1327	1326	1318	1304	1294	1306	1313	1315	1337	1345	1348	1349	1336	1293	1273	1283	1286	1282	1282	1279	1277	1278	1261	1248	1250	1262	1269	1270	1267	1263	1265	1265	1258	1261	1278	1292	1280	1266	1263	1256	1246	1237	1253	1252	1231	1238	1235	1237	1237	1233	1223	1228	1236	1236	1245	1247	1235	1218	1218	1215	1215	1219	1223	1210	1192	1184	1176	1173	1182	1182	1176	1191	1205	1215	1216	1204	1199	1200	1201	1190	1201	1219	1227	1226	1220	1208	1200	1197	1198	1199	1205	1213	1208	1205	1192	1189	1192	1192	1189	1185	1179	1179	1180	1184	1198	1208	1209	1194	1178	1181	1177	1176	1170	1167	1176	1182	1180	1173	1164	1155	1151	1146	1146	1145	1144	1139	1136	1130	1135	1160	1171	1154	1145	1137	1134	1125	1118	1111	1107	1098	1091	1091	1096	1094	1091	1093	1100	1110	1119	1122	1120	1113	1105	1092	1088	1102	1105	1105	1102	1102	1106	1103	1095	1096	1082	1068	1090	1098	1099	1091	1088	1092	1100	1103	1099	1090	1084	1085	1082	1071	1061	1053	1052	1060	1068	1068	1070	1071	1071	1076	1081	1082	1080	1080	1078	1069	1061	1052	1054	1047	1054	1051	1052	1052	0	0	0	0	0	0	0	0	0
1857	1853	1853	1850	1862	1901	1943	1943	1958	1970	1953	1930	1928	1928	1956	1970	1959	1918	1896	1896	1920	1969	2023	2027	1997	1959	1959	1936	1899	1876	1866	1848	1847	1865	1865	1860	1848	1861	1882	1904	1910	1908	1913	1913	1906	1900	1871	1824	1824	1850	1875	1894	1899	1896	1896	1880	1868	1856	1837	1841	1852	1851	1839	1821	1807	1796	1743	1618	1544	1419	1332	1332	1335	1339	1313	1297	1288	1292	1301	1316	1319	1313	1298	1293	1302	1316	1328	1339	1345	1353	1352	1333	1322	1302	1292	1295	1296	1294	1300	1315	1331	1345	1348	1358	1345	1342	1337	1329	1315	1303	1296	1306	1325	1342	1355	1356	1351	1345	1345	1334	1325	1336	1336	1337	1375	1365	1353	1352	1360	1360	1352	1334	1330	1326	1326	1341	1350	1353	1356	1361	1376	1426	1442	1413	1402	1372	1364	1449	1556	1598	1597	1597	1611	1620	1627	1624	1619	1600	1584	1579	1571	1557	1547	1556	1568	1577	1573	1577	1578	1586	1603	1610	1612	1591	1566	1556	1577	1587	1586	1578	1568	1570	1573	1572	1565	1541	1536	1542	1564	1583	1588	1569	1561	1553	1542	1538	1539	1544	1543	1541	1539	1543	1549	1555	1551	1545	1543	1528	1517	1510	1506	1501	1510	1526	1548	1546	1540	1531	1513	1475	1477	1499	1510	1501	1426	1275	1237	1210	1264	1277	1272	1274	1275	1287	1316	1345	1372	1389	1389	1385	1384	1386	1386	1389	1396	1388	1385	1390	1398	1401	1406	1405	1406	1405	1388	1374	1370	1380	1392	1402	1412	1422	1419	1403	1398	1397	1400	1408	1410	1406	1408	1403	1408	1404	1399	1396	1401	1412	1421	1411	1396	1390	1383	1386	1384	1395	1400	1406	1406	1395	1396	1399	1402	1397	1389	1397	1398	1392	1384	1379	1380	1383	1381	1384	1391	1398	1398	1393	1391	1395	1389	1390	1384	1381	1377	1370	1372	1362	1353	1343	1349	1362	1370	1381	1384	1377	1376	1373	1367	1351	1337	1326	1318	1316	1331	1350	1361	1356	1338	1333	1340	1335	1327	1321	1344	1362	1358	1353	1352	1358	1363	1360	1354	1347	1344	1339	1333	1326	1323	1315	1296	1298	1323	1336	1331	1326	1328	1350	1357	1346	1342	1335	1336	1332	1326	1315	1313	1315	1313	1316	1318	1332	1332	1343	1348	1357	1347	1344	1336	1331	1326	1328	1327	1324	1327	1332	1347	1357	1355	1339	1337	1329	1346	1350	1325	1317	1317	1316	1312	1300	1300	1302	1295	1291	1288	1284	1287	1296	1310	1319	1314	1303	1297	1293	1295	1303	1304	1302	1299	1289	1272	1263	1266	1279	1280	1275	1279	1284	1279	1267	1260	1249	1261	1273	1277	1277	1278	1273	1262	1240	1243	1240	1253	1265	1265	1253	1254	1256	1257	1251	1244	1235	1239	1253	1256	1250	1248	1239	1232	1223	1216	1211	1219	1223	1224	1208	1202	1208	1215	1216	1222	1224	1230	1228	1206	1191	1196	1197	1206	1206	1191	1175	1172	1172	1166	1163	1153	1151	1168	1190	1201	1195	1184	1174	1168	1172	1171	1169	1180	1189	1187	1186	1180	1175	1174	1159	1155	1162	1170	1170	1173	1174	1176	1168	1162	1156	1154	1161	1164	1162	1152	1142	1138	1142	1147	1148	1149	1152	1151	1153	1151	1147	1146	1144	1146	1144	1146	1140	1135	1129	1126	1124	1121	1115	1107	1103	1112	1118	1124	1125	1122	1124	1115	1107	1106	1103	1091	1084	1086	1091	1091	1091	1093	1101	1104	1108	1100	1101	1094	1084	1072	1074	1082	1093	1096	1094	1090	1088	1086	1081	1080	1074	1060	1053	1054	1061	1066	1062	1055	1058	1067	1075	1074	1067	1065	1058	1052	1046	1045	1054	1060	1061	1056	1054	1051	1051	1048	1058	1070	1069	1066	1059	1042	1032	1034	1045	1044	1044	1046	1044	1043	0	0	0	0	0	0	0	0	0
1826	1819	1819	1828	1847	1876	1894	1894	1900	1908	1900	1873	1868	1868	1863	1870	1864	1850	1827	1827	1836	1885	1939	1944	1935	1911	1911	1888	1862	1844	1848	1836	1819	1818	1818	1812	1803	1818	1833	1798	1796	1823	1856	1856	1866	1847	1801	1797	1801	1816	1819	1824	1823	1837	1837	1842	1832	1823	1805	1798	1797	1795	1801	1805	1791	1780	1745	1628	1547	1470	1348	1348	1340	1328	1299	1291	1297	1304	1306	1309	1315	1311	1297	1291	1296	1308	1318	1330	1342	1349	1351	1338	1332	1311	1303	1306	1317	1327	1334	1331	1343	1350	1361	1368	1363	1364	1342	1332	1320	1309	1308	1317	1330	1347	1354	1353	1346	1343	1344	1328	1331	1338	1341	1337	1373	1348	1334	1342	1353	1355	1350	1333	1329	1331	1330	1334	1335	1343	1346	1353	1373	1419	1427	1406	1395	1378	1371	1439	1525	1565	1571	1579	1592	1601	1597	1596	1598	1576	1555	1543	1549	1540	1536	1545	1551	1549	1550	1554	1555	1569	1581	1591	1575	1553	1532	1519	1537	1560	1563	1555	1554	1557	1563	1555	1532	1513	1505	1522	1548	1535	1534	1550	1542	1535	1528	1522	1520	1508	1506	1512	1517	1521	1511	1501	1513	1518	1519	1495	1495	1493	1490	1492	1506	1513	1518	1525	1514	1494	1474	1460	1462	1470	1462	1465	1423	1335	1254	1265	1285	1294	1284	1281	1299	1322	1348	1376	1396	1397	1389	1381	1372	1379	1385	1389	1392	1386	1382	1388	1395	1399	1398	1402	1405	1397	1380	1366	1370	1382	1391	1409	1415	1414	1413	1396	1386	1382	1387	1393	1400	1399	1403	1405	1405	1404	1395	1390	1397	1409	1413	1406	1395	1381	1366	1363	1363	1384	1389	1392	1386	1375	1377	1382	1388	1383	1378	1390	1397	1389	1380	1375	1376	1382	1389	1394	1394	1392	1386	1379	1369	1379	1378	1383	1380	1373	1366	1349	1344	1334	1329	1330	1343	1345	1339	1335	1327	1334	1341	1340	1338	1337	1331	1323	1313	1313	1320	1322	1325	1341	1333	1329	1320	1309	1301	1301	1302	1311	1313	1303	1313	1323	1324	1314	1305	1316	1326	1329	1323	1322	1317	1303	1293	1290	1303	1304	1291	1284	1303	1314	1316	1310	1320	1316	1308	1305	1305	1307	1311	1313	1315	1310	1318	1319	1316	1300	1289	1287	1287	1290	1301	1315	1323	1324	1318	1313	1322	1329	1346	1345	1330	1307	1288	1293	1327	1313	1300	1293	1292	1287	1275	1263	1278	1289	1289	1286	1280	1273	1272	1278	1290	1301	1302	1294	1281	1263	1235	1231	1244	1262	1265	1263	1254	1241	1239	1240	1238	1224	1229	1238	1257	1246	1240	1217	1217	1225	1242	1252	1249	1239	1221	1204	1196	1194	1204	1201	1201	1189	1188	1195	1221	1228	1222	1204	1193	1191	1196	1234	1236	1231	1219	1214	1208	1205	1214	1213	1205	1187	1180	1181	1187	1198	1197	1212	1213	1203	1191	1183	1180	1182	1186	1187	1178	1166	1165	1167	1165	1153	1140	1135	1144	1159	1160	1160	1158	1159	1159	1149	1144	1139	1129	1118	1112	1117	1129	1148	1143	1125	1126	1135	1142	1138	1125	1129	1134	1121	1111	1110	1118	1126	1129	1120	1086	1077	1070	1081	1088	1095	1097	1105	1107	1114	1114	1103	1095	1095	1102	1104	1112	1123	1117	1108	1096	1093	1096	1099	1090	1083	1076	1077	1085	1100	1089	1090	1098	1101	1101	1099	1097	1088	1078	1079	1083	1088	1090	1093	1099	1088	1084	1079	1073	1067	1057	1059	1069	1078	1086	1084	1080	1075	1072	1059	1064	1061	1050	1037	1031	1017	1012	1014	1027	1036	1044	1043	1039	1033	1033	1035	1041	1031	1037	1041	1043	1044	1041	1032	1027	1027	1027	1027	1027	1026	1024	1022	1011	1004	1002	1005	1004	1000	995	999	1022	0	0	0	0	0	0	0	0	0
1792	1784	1784	1808	1836	1857	1872	1872	1872	1870	1849	1839	1841	1841	1823	1809	1800	1797	1787	1787	1792	1832	1869	1877	1872	1843	1843	1819	1801	1811	1819	1813	1811	1808	1808	1800	1794	1775	1756	1749	1767	1792	1814	1814	1806	1801	1785	1782	1792	1804	1802	1795	1785	1787	1787	1793	1784	1771	1757	1740	1727	1718	1740	1763	1765	1760	1733	1613	1541	1480	1367	1367	1336	1326	1298	1292	1301	1317	1308	1301	1301	1309	1307	1295	1297	1303	1314	1322	1333	1338	1341	1344	1334	1320	1313	1321	1324	1327	1329	1329	1337	1353	1357	1358	1366	1362	1345	1334	1329	1322	1322	1326	1339	1351	1354	1348	1341	1340	1335	1317	1332	1340	1336	1334	1349	1339	1323	1328	1335	1330	1327	1328	1336	1336	1340	1339	1338	1345	1357	1365	1381	1397	1398	1387	1381	1383	1419	1464	1516	1539	1555	1570	1580	1572	1548	1542	1532	1517	1509	1509	1514	1527	1532	1540	1542	1530	1529	1527	1536	1545	1557	1560	1552	1528	1504	1496	1503	1509	1503	1514	1529	1538	1550	1533	1506	1487	1460	1461	1485	1488	1494	1492	1499	1516	1515	1506	1498	1481	1471	1473	1480	1485	1486	1477	1477	1484	1483	1479	1477	1475	1476	1483	1494	1503	1484	1455	1430	1421	1429	1443	1451	1450	1441	1427	1396	1341	1294	1276	1298	1299	1287	1300	1319	1343	1372	1393	1397	1400	1388	1380	1376	1374	1375	1378	1383	1383	1372	1374	1372	1379	1385	1379	1380	1375	1370	1368	1371	1375	1397	1408	1416	1407	1397	1388	1378	1375	1375	1379	1383	1378	1370	1378	1393	1405	1392	1380	1380	1389	1394	1394	1376	1357	1350	1348	1338	1337	1358	1348	1334	1335	1349	1365	1367	1360	1362	1372	1380	1378	1375	1371	1374	1386	1392	1394	1392	1383	1369	1356	1355	1357	1362	1371	1373	1343	1321	1312	1310	1311	1319	1319	1332	1330	1308	1293	1297	1313	1319	1322	1324	1325	1327	1320	1310	1305	1306	1277	1287	1301	1315	1307	1300	1289	1279	1289	1296	1290	1279	1271	1285	1303	1309	1298	1292	1306	1315	1317	1319	1318	1313	1300	1290	1295	1302	1297	1284	1277	1273	1270	1274	1272	1273	1274	1276	1273	1277	1300	1304	1305	1299	1290	1306	1315	1301	1291	1277	1268	1262	1260	1276	1290	1279	1276	1273	1279	1292	1319	1339	1334	1307	1285	1272	1268	1285	1286	1285	1282	1286	1278	1267	1261	1261	1280	1283	1283	1280	1275	1268	1257	1250	1245	1244	1240	1236	1219	1223	1211	1218	1223	1237	1243	1240	1230	1222	1224	1210	1202	1207	1192	1201	1211	1207	1194	1199	1202	1213	1208	1197	1193	1197	1192	1190	1189	1184	1180	1175	1165	1156	1150	1157	1168	1178	1178	1172	1167	1159	1171	1187	1198	1185	1186	1175	1174	1172	1177	1178	1172	1172	1169	1171	1168	1169	1166	1171	1168	1171	1165	1160	1163	1148	1141	1131	1158	1165	1167	1161	1147	1134	1132	1131	1133	1133	1122	1132	1135	1135	1125	1126	1127	1124	1110	1100	1098	1110	1118	1122	1113	1110	1113	1108	1099	1096	1092	1093	1093	1092	1090	1089	1090	1097	1090	1082	1075	1070	1066	1071	1076	1084	1092	1070	1067	1065	1065	1068	1067	1072	1077	1090	1089	1090	1086	1081	1083	1076	1052	1058	1058	1058	1052	1056	1063	1065	1071	1077	1087	1091	1086	1079	1070	1068	1072	1073	1068	1074	1063	1067	1063	1059	1050	1042	1042	1046	1047	1049	1046	1056	1063	1064	1059	1048	1052	1052	1049	1040	1027	1013	1007	1005	1010	1019	1027	1029	1027	1020	1019	1025	1023	1018	1011	1012	1014	1012	1018	1018	1013	1004	1004	1000	1001	1002	1003	1003	1012	1008	1000	999	996	997	992	980	986	1001	0	0	0	0	0	0	0	0	0
1740	1738	1738	1746	1770	1807	1826	1826	1818	1810	1802	1817	1800	1800	1771	1753	1753	1754	1749	1749	1752	1769	1793	1806	1789	1765	1765	1775	1774	1778	1786	1769	1751	1770	1770	1773	1758	1744	1729	1729	1742	1757	1777	1777	1790	1765	1763	1757	1758	1753	1751	1738	1727	1724	1724	1731	1730	1729	1709	1691	1673	1672	1683	1703	1726	1720	1693	1616	1509	1459	1365	1365	1325	1324	1317	1303	1303	1314	1317	1322	1324	1324	1320	1325	1333	1338	1335	1327	1320	1320	1322	1325	1326	1325	1326	1326	1327	1329	1320	1319	1326	1350	1367	1369	1355	1347	1334	1333	1337	1338	1338	1336	1340	1344	1339	1342	1340	1334	1309	1309	1330	1330	1326	1322	1352	1340	1322	1319	1320	1304	1301	1312	1330	1345	1345	1349	1352	1367	1383	1388	1386	1382	1375	1369	1366	1405	1456	1497	1512	1504	1493	1503	1520	1519	1511	1505	1495	1493	1490	1483	1486	1494	1519	1513	1513	1503	1509	1519	1513	1516	1525	1529	1523	1510	1487	1485	1490	1481	1476	1475	1478	1482	1492	1502	1485	1463	1442	1448	1463	1472	1474	1471	1458	1463	1468	1474	1477	1466	1462	1460	1467	1461	1452	1444	1446	1448	1456	1465	1467	1468	1461	1456	1461	1450	1429	1404	1397	1401	1407	1414	1417	1408	1387	1370	1351	1323	1309	1310	1317	1312	1311	1318	1334	1352	1377	1391	1393	1387	1377	1386	1385	1374	1373	1367	1362	1365	1381	1377	1364	1364	1357	1356	1358	1350	1345	1347	1350	1364	1375	1386	1397	1401	1386	1376	1366	1362	1369	1371	1368	1355	1354	1357	1356	1360	1364	1353	1357	1357	1358	1358	1342	1341	1344	1337	1330	1322	1318	1310	1312	1317	1330	1339	1344	1342	1346	1357	1365	1371	1366	1364	1368	1376	1379	1369	1361	1350	1344	1340	1342	1345	1349	1350	1326	1304	1291	1278	1282	1298	1309	1309	1295	1282	1273	1268	1265	1268	1282	1306	1310	1306	1303	1309	1299	1284	1274	1255	1261	1261	1279	1288	1279	1260	1267	1281	1287	1280	1265	1257	1257	1271	1276	1274	1267	1273	1268	1277	1284	1294	1288	1280	1287	1301	1308	1301	1282	1266	1257	1258	1259	1263	1262	1274	1288	1291	1283	1279	1278	1285	1280	1265	1265	1267	1258	1259	1263	1254	1250	1248	1239	1243	1236	1223	1213	1224	1247	1253	1259	1264	1263	1261	1255	1264	1260	1260	1260	1263	1270	1269	1257	1245	1242	1249	1232	1232	1238	1236	1233	1231	1204	1204	1203	1219	1209	1197	1187	1190	1199	1201	1198	1201	1219	1223	1224	1218	1195	1196	1185	1175	1182	1182	1186	1184	1176	1171	1165	1151	1151	1154	1163	1167	1167	1171	1169	1170	1166	1157	1151	1140	1137	1142	1157	1166	1163	1168	1167	1157	1155	1163	1146	1139	1142	1147	1143	1151	1154	1155	1148	1142	1150	1147	1143	1142	1140	1148	1144	1142	1147	1142	1135	1133	1128	1127	1124	1129	1126	1124	1113	1102	1094	1090	1108	1120	1113	1106	1101	1105	1115	1125	1125	1116	1100	1088	1083	1084	1093	1100	1105	1098	1091	1089	1090	1088	1088	1084	1076	1080	1080	1077	1075	1082	1078	1071	1063	1053	1056	1065	1062	1057	1041	1040	1046	1051	1060	1063	1064	1069	1061	1063	1062	1066	1067	1060	1043	1045	1047	1048	1049	1043	1050	1059	1063	1054	1051	1060	1065	1068	1058	1069	1072	1063	1061	1060	1043	1037	1034	1048	1051	1044	1037	1036	1040	1039	1039	1043	1052	1057	1057	1044	1035	1030	1031	1036	1024	1010	1000	998	999	1006	1014	1020	1018	1013	1005	1006	1019	1019	1013	1009	1004	1002	1001	1010	1010	1004	994	994	994	995	992	991	992	991	992	990	986	986	985	984	983	995	997	0	0	0	0	0	0	0	0	0
1701	1696	1696	1715	1733	1750	1766	1766	1760	1745	1752	1740	1712	1712	1717	1729	1723	1713	1711	1711	1721	1715	1715	1724	1722	1722	1722	1731	1741	1752	1742	1718	1690	1695	1695	1711	1722	1722	1704	1694	1690	1697	1714	1714	1705	1697	1697	1708	1722	1716	1712	1696	1694	1700	1700	1708	1690	1679	1668	1654	1634	1634	1660	1648	1639	1616	1585	1557	1460	1424	1368	1368	1301	1331	1327	1314	1296	1303	1313	1325	1333	1334	1325	1328	1335	1342	1339	1335	1330	1327	1324	1323	1321	1318	1318	1316	1319	1325	1322	1323	1336	1353	1368	1374	1364	1348	1338	1331	1334	1339	1337	1334	1326	1313	1325	1336	1340	1329	1314	1310	1323	1326	1326	1321	1367	1345	1325	1321	1307	1286	1294	1305	1333	1347	1358	1353	1355	1383	1398	1404	1398	1377	1369	1363	1363	1428	1476	1456	1438	1424	1439	1465	1467	1488	1496	1482	1481	1492	1491	1480	1472	1476	1485	1480	1474	1480	1483	1491	1491	1487	1487	1495	1495	1490	1478	1474	1474	1467	1467	1470	1468	1463	1453	1459	1451	1444	1439	1440	1448	1456	1456	1446	1434	1432	1442	1437	1430	1424	1432	1440	1447	1440	1427	1428	1426	1429	1420	1434	1440	1428	1426	1417	1406	1403	1393	1370	1370	1383	1392	1397	1395	1393	1375	1355	1345	1331	1324	1318	1313	1315	1328	1336	1348	1365	1380	1381	1375	1366	1367	1379	1367	1367	1371	1360	1356	1354	1362	1356	1356	1325	1316	1313	1319	1322	1318	1323	1329	1347	1352	1359	1368	1374	1369	1360	1350	1348	1350	1360	1346	1340	1334	1341	1340	1344	1349	1335	1330	1328	1325	1316	1317	1330	1334	1330	1330	1322	1316	1305	1304	1303	1311	1327	1327	1332	1334	1343	1349	1350	1350	1344	1334	1325	1340	1342	1338	1337	1332	1324	1285	1313	1321	1318	1297	1278	1263	1260	1268	1281	1289	1284	1272	1262	1256	1253	1246	1237	1234	1256	1267	1265	1267	1275	1273	1264	1249	1246	1244	1245	1242	1240	1246	1254	1267	1267	1271	1269	1258	1251	1247	1247	1241	1236	1244	1251	1251	1238	1244	1245	1238	1243	1251	1255	1254	1248	1258	1252	1249	1254	1254	1247	1257	1282	1282	1258	1233	1217	1216	1229	1244	1236	1220	1225	1235	1248	1256	1253	1241	1228	1218	1217	1217	1216	1202	1198	1200	1203	1205	1210	1223	1221	1223	1249	1251	1251	1241	1236	1233	1212	1206	1210	1208	1209	1209	1201	1202	1208	1215	1200	1185	1177	1183	1185	1175	1164	1153	1156	1174	1177	1179	1181	1200	1206	1170	1168	1166	1169	1167	1161	1156	1161	1162	1153	1162	1141	1144	1135	1129	1135	1142	1150	1154	1148	1127	1146	1154	1150	1134	1112	1103	1105	1131	1142	1144	1146	1144	1142	1133	1130	1134	1133	1130	1133	1139	1132	1126	1112	1108	1113	1124	1132	1129	1125	1126	1124	1113	1103	1103	1130	1133	1129	1120	1109	1107	1113	1117	1116	1103	1088	1082	1077	1073	1077	1083	1086	1085	1087	1091	1104	1103	1094	1086	1071	1060	1058	1061	1075	1079	1088	1084	1082	1080	1078	1074	1072	1068	1068	1070	1071	1066	1064	1070	1069	1048	1046	1046	1047	1042	1034	1030	1034	1040	1046	1052	1049	1051	1053	1049	1044	1030	1026	1032	1037	1036	1026	1018	1018	1017	1014	1021	1028	1034	1039	1047	1043	1033	1026	1029	1040	1046	1045	1046	1044	1038	1026	1017	1016	1016	1009	1004	999	999	994	991	991	997	1003	1000	990	987	994	1003	1010	1003	991	986	990	999	1003	1008	1015	1011	998	989	991	1010	1005	999	998	993	990	994	995	1001	995	995	995	997	993	988	982	975	962	959	962	967	973	976	970	966	966	990	0	0	0	0	0	0	0	0	0
1684	1684	1684	1691	1707	1728	1730	1730	1715	1697	1680	1670	1670	1670	1676	1690	1681	1682	1684	1684	1677	1663	1680	1694	1699	1699	1699	1704	1710	1712	1691	1682	1671	1678	1678	1687	1696	1697	1688	1682	1672	1661	1648	1648	1648	1675	1678	1682	1682	1691	1688	1687	1689	1674	1674	1661	1625	1618	1608	1590	1580	1591	1600	1608	1600	1582	1561	1516	1441	1417	1385	1385	1306	1317	1339	1320	1300	1302	1309	1324	1327	1328	1324	1324	1333	1343	1339	1335	1334	1336	1335	1327	1322	1316	1311	1311	1309	1320	1326	1334	1346	1353	1362	1363	1356	1340	1325	1319	1324	1335	1340	1338	1324	1319	1327	1343	1345	1333	1323	1317	1323	1329	1332	1344	1354	1317	1308	1313	1297	1290	1307	1332	1354	1362	1366	1362	1370	1384	1408	1415	1408	1408	1420	1447	1436	1434	1435	1416	1405	1409	1429	1457	1471	1479	1483	1480	1483	1497	1493	1479	1464	1462	1471	1464	1460	1461	1465	1469	1467	1456	1440	1419	1417	1434	1446	1460	1472	1476	1461	1454	1444	1433	1423	1411	1413	1398	1408	1413	1426	1431	1436	1430	1407	1406	1406	1405	1404	1395	1396	1407	1416	1413	1407	1413	1409	1404	1399	1401	1392	1383	1378	1369	1365	1371	1377	1374	1373	1375	1378	1384	1385	1385	1379	1367	1353	1336	1323	1311	1312	1322	1337	1355	1367	1374	1373	1367	1357	1350	1340	1334	1335	1352	1364	1363	1351	1342	1341	1335	1323	1302	1297	1296	1300	1297	1293	1294	1310	1321	1333	1342	1346	1347	1342	1337	1334	1328	1325	1320	1324	1316	1306	1307	1309	1313	1310	1310	1311	1305	1296	1288	1295	1307	1307	1322	1329	1326	1314	1297	1292	1306	1315	1321	1317	1288	1284	1295	1311	1318	1324	1312	1305	1302	1301	1323	1327	1320	1258	1256	1244	1245	1259	1258	1256	1248	1250	1242	1252	1265	1267	1261	1259	1254	1247	1243	1234	1225	1207	1211	1215	1216	1215	1223	1223	1215	1210	1211	1218	1211	1208	1223	1239	1252	1249	1242	1231	1230	1224	1226	1229	1234	1224	1213	1222	1227	1228	1231	1230	1236	1241	1244	1244	1236	1199	1199	1207	1228	1224	1225	1218	1214	1221	1236	1243	1228	1218	1208	1204	1207	1214	1216	1219	1211	1222	1238	1247	1245	1229	1208	1202	1200	1200	1201	1192	1187	1186	1191	1200	1203	1202	1203	1201	1214	1207	1216	1215	1213	1206	1199	1187	1182	1183	1176	1174	1155	1159	1160	1163	1163	1148	1157	1159	1166	1168	1163	1154	1148	1157	1163	1168	1165	1120	1124	1128	1133	1141	1148	1152	1148	1136	1132	1132	1139	1131	1123	1117	1108	1113	1110	1112	1119	1125	1123	1119	1117	1122	1119	1105	1096	1095	1091	1092	1104	1096	1100	1105	1110	1127	1131	1135	1131	1126	1124	1126	1120	1109	1101	1101	1107	1114	1118	1116	1106	1102	1092	1077	1069	1069	1099	1106	1113	1112	1099	1091	1082	1088	1082	1076	1071	1068	1064	1047	1048	1056	1067	1083	1083	1083	1082	1078	1070	1063	1055	1058	1063	1062	1064	1063	1062	1069	1070	1063	1061	1063	1064	1059	1058	1058	1062	1060	1047	1043	1046	1046	1045	1045	1042	1033	1029	1019	1023	1021	1028	1024	1016	1020	1033	1035	1031	1025	1023	1028	1032	1034	1029	1022	1016	1008	992	993	1011	1020	1035	1042	1028	1017	1010	1017	1030	1035	1035	1034	1018	1006	997	1000	1001	999	993	980	973	968	963	959	958	964	968	971	970	973	975	975	975	978	972	969	976	987	998	1011	1013	1005	988	979	971	977	986	996	997	991	989	988	983	971	977	991	991	998	995	979	963	955	952	952	950	956	958	961	965	957	955	950	0	0	0	0	0	0	0	0	0
1656	1658	1658	1656	1664	1668	1678	1678	1673	1661	1662	1658	1653	1653	1648	1645	1648	1639	1639	1639	1623	1633	1642	1657	1665	1675	1675	1685	1694	1686	1674	1664	1649	1639	1639	1648	1661	1670	1663	1651	1643	1627	1613	1613	1622	1636	1649	1658	1656	1660	1664	1653	1659	1644	1644	1628	1613	1603	1585	1567	1560	1566	1574	1574	1575	1567	1549	1490	1435	1423	1399	1399	1314	1317	1342	1327	1312	1298	1295	1314	1324	1321	1315	1319	1328	1336	1333	1328	1330	1333	1335	1329	1320	1310	1306	1306	1311	1319	1328	1334	1339	1350	1350	1350	1343	1333	1323	1314	1322	1335	1344	1340	1328	1324	1328	1340	1339	1328	1319	1323	1328	1329	1341	1348	1339	1317	1310	1316	1300	1298	1328	1354	1363	1365	1376	1378	1377	1379	1394	1400	1396	1408	1420	1468	1462	1440	1421	1402	1401	1412	1439	1459	1471	1475	1467	1474	1474	1483	1489	1478	1457	1449	1461	1458	1454	1449	1444	1446	1454	1443	1424	1417	1420	1437	1448	1450	1448	1437	1426	1419	1407	1406	1404	1405	1400	1397	1390	1396	1406	1411	1410	1400	1387	1377	1378	1382	1384	1387	1389	1386	1379	1382	1383	1380	1379	1375	1370	1360	1334	1329	1332	1345	1353	1364	1370	1363	1346	1345	1346	1349	1357	1367	1377	1369	1347	1331	1327	1322	1316	1325	1344	1365	1375	1374	1367	1359	1340	1326	1305	1308	1320	1338	1354	1360	1350	1333	1323	1315	1307	1289	1279	1279	1290	1290	1287	1285	1291	1304	1316	1324	1323	1331	1325	1321	1315	1311	1303	1298	1295	1291	1288	1290	1292	1290	1293	1292	1296	1293	1284	1274	1283	1287	1289	1309	1319	1305	1295	1286	1276	1272	1273	1271	1268	1272	1272	1277	1282	1296	1298	1292	1272	1270	1261	1283	1284	1241	1236	1235	1236	1235	1240	1244	1247	1248	1242	1238	1222	1218	1227	1238	1240	1237	1231	1227	1221	1217	1220	1221	1216	1212	1204	1203	1185	1183	1190	1206	1211	1194	1189	1188	1192	1201	1204	1218	1208	1187	1175	1172	1179	1195	1192	1197	1203	1211	1215	1215	1215	1224	1232	1234	1222	1198	1174	1171	1173	1178	1193	1197	1190	1190	1194	1214	1215	1205	1198	1195	1194	1201	1207	1215	1212	1208	1204	1208	1211	1204	1195	1194	1184	1181	1183	1190	1185	1179	1179	1183	1189	1192	1199	1192	1176	1171	1190	1183	1162	1156	1155	1160	1159	1151	1142	1147	1152	1152	1147	1143	1140	1144	1148	1145	1144	1152	1161	1162	1157	1151	1154	1158	1117	1109	1104	1103	1115	1125	1130	1131	1126	1121	1116	1122	1125	1124	1103	1101	1103	1099	1095	1094	1097	1103	1107	1112	1116	1118	1106	1104	1095	1088	1085	1076	1084	1079	1078	1088	1093	1096	1083	1097	1111	1129	1116	1098	1087	1088	1088	1091	1100	1096	1100	1107	1098	1085	1072	1055	1049	1045	1059	1070	1082	1087	1075	1058	1045	1042	1041	1040	1042	1042	1044	1044	1038	1031	1036	1046	1064	1071	1070	1067	1063	1054	1044	1040	1050	1056	1059	1044	1042	1046	1036	1042	1045	1054	1048	1038	1025	1014	1011	1034	1039	1039	1042	1043	1044	1043	1034	1029	1029	1016	1010	1013	1018	1011	998	984	977	976	986	992	1006	1018	1021	1021	1018	1022	1022	1016	1004	996	990	997	1018	1032	1027	1016	1000	997	1000	1019	1024	1019	1017	998	986	975	972	973	979	979	981	982	976	969	962	963	963	958	960	966	970	976	982	988	992	993	988	980	972	967	968	975	977	961	957	952	954	962	970	974	973	967	971	973	971	971	972	972	975	980	975	953	940	939	943	940	942	946	950	950	951	944	932	0	0	0	0	0	0	0	0	0
1617	1626	1626	1626	1630	1629	1645	1645	1663	1674	1657	1641	1629	1629	1630	1626	1616	1607	1610	1610	1612	1615	1610	1611	1633	1651	1651	1659	1665	1664	1657	1639	1624	1619	1619	1622	1626	1622	1619	1615	1591	1587	1585	1585	1599	1612	1626	1597	1594	1606	1627	1641	1653	1646	1646	1620	1603	1586	1542	1518	1516	1537	1553	1554	1556	1557	1541	1490	1450	1428	1407	1407	1325	1324	1337	1332	1312	1303	1305	1312	1327	1323	1315	1312	1318	1325	1321	1319	1325	1332	1335	1327	1324	1313	1311	1308	1310	1315	1323	1327	1327	1326	1336	1341	1351	1353	1343	1332	1321	1320	1329	1335	1334	1328	1330	1336	1327	1322	1323	1329	1337	1342	1345	1344	1325	1321	1321	1326	1306	1303	1314	1359	1376	1377	1350	1357	1349	1349	1355	1354	1356	1369	1380	1393	1410	1447	1448	1404	1401	1411	1425	1433	1438	1440	1434	1429	1431	1438	1444	1448	1434	1429	1455	1453	1440	1427	1418	1429	1435	1406	1401	1411	1420	1430	1436	1435	1426	1407	1405	1398	1396	1392	1383	1378	1375	1387	1385	1373	1361	1355	1359	1359	1379	1378	1358	1342	1343	1353	1357	1359	1359	1361	1361	1360	1364	1374	1376	1363	1323	1319	1332	1343	1352	1351	1349	1338	1336	1338	1340	1344	1351	1354	1354	1358	1346	1328	1327	1330	1330	1332	1346	1361	1370	1369	1361	1342	1319	1295	1291	1294	1305	1326	1342	1350	1308	1288	1287	1281	1276	1269	1264	1268	1272	1269	1271	1271	1280	1288	1300	1311	1320	1323	1325	1314	1298	1284	1283	1282	1284	1280	1276	1270	1260	1250	1254	1262	1262	1253	1251	1264	1261	1260	1268	1276	1249	1264	1262	1269	1265	1260	1243	1241	1249	1254	1256	1259	1256	1257	1257	1260	1259	1258	1250	1241	1216	1216	1224	1225	1222	1226	1224	1223	1224	1228	1230	1215	1203	1197	1203	1213	1222	1220	1212	1212	1203	1194	1196	1198	1200	1199	1199	1190	1170	1168	1179	1195	1203	1196	1181	1166	1166	1172	1174	1179	1164	1156	1152	1158	1164	1189	1185	1177	1175	1185	1192	1193	1183	1184	1192	1198	1196	1166	1166	1151	1156	1155	1167	1183	1182	1181	1188	1188	1183	1167	1163	1167	1177	1175	1173	1168	1156	1152	1154	1159	1165	1171	1179	1194	1195	1171	1170	1176	1174	1167	1166	1171	1182	1189	1174	1158	1124	1123	1133	1141	1142	1133	1132	1141	1150	1144	1140	1140	1143	1144	1138	1135	1136	1140	1138	1126	1118	1122	1128	1132	1144	1143	1113	1118	1112	1098	1091	1089	1094	1124	1122	1115	1112	1112	1108	1111	1110	1094	1083	1088	1088	1089	1095	1093	1091	1093	1100	1096	1085	1079	1094	1106	1099	1093	1082	1071	1075	1072	1072	1075	1083	1081	1073	1063	1062	1067	1054	1053	1058	1064	1064	1070	1077	1081	1077	1063	1052	1044	1043	1040	1046	1046	1057	1065	1071	1070	1040	1028	1022	1031	1029	1031	1031	1035	1035	1035	1024	1020	1022	1032	1030	1032	1036	1059	1050	1041	1038	1033	1044	1049	1043	1027	1019	1017	1018	1013	1017	1020	1019	1013	1003	1005	1012	1006	994	1008	1017	1023	1031	1037	1029	1020	1015	1010	1012	1017	1010	1000	989	977	970	974	980	979	978	986	991	984	981	1009	1015	1010	1001	991	985	993	1008	1014	1010	991	988	988	988	990	999	1002	997	979	973	961	957	961	971	976	981	985	979	972	966	962	958	956	951	957	965	970	963	951	953	958	963	963	945	944	945	939	939	933	931	930	931	937	942	939	928	922	928	944	961	962	957	957	936	941	944	939	928	922	940	937	939	941	942	940	934	922	898	0	0	0	0	0	0	0	0	0
1596	1602	1602	1608	1605	1610	1637	1637	1650	1651	1626	1606	1594	1594	1590	1591	1597	1585	1593	1593	1597	1590	1593	1593	1627	1653	1653	1659	1656	1650	1636	1620	1613	1605	1605	1608	1618	1591	1558	1551	1553	1560	1559	1538	1547	1554	1559	1546	1546	1560	1592	1626	1634	1624	1599	1599	1555	1512	1495	1480	1473	1479	1481	1508	1519	1527	1529	1501	1442	1412	1388	1388	1346	1324	1324	1320	1316	1311	1312	1313	1333	1333	1326	1320	1313	1311	1310	1313	1319	1333	1341	1337	1329	1325	1314	1313	1314	1318	1318	1318	1317	1323	1330	1337	1342	1347	1342	1331	1323	1321	1322	1328	1333	1333	1334	1333	1329	1323	1328	1332	1346	1346	1344	1338	1322	1327	1331	1351	1343	1316	1319	1327	1348	1357	1364	1383	1377	1373	1365	1355	1350	1359	1379	1408	1433	1447	1447	1421	1398	1394	1392	1386	1381	1390	1401	1403	1408	1412	1403	1398	1394	1409	1396	1395	1384	1377	1389	1388	1387	1377	1378	1383	1387	1399	1412	1414	1398	1362	1359	1359	1360	1359	1356	1340	1335	1348	1379	1381	1354	1335	1315	1308	1326	1332	1316	1299	1297	1296	1305	1317	1329	1346	1350	1351	1356	1369	1367	1358	1320	1320	1335	1342	1341	1335	1327	1318	1321	1322	1328	1331	1334	1339	1338	1330	1325	1324	1317	1322	1326	1328	1337	1350	1350	1342	1331	1308	1296	1285	1281	1287	1294	1285	1281	1279	1268	1233	1236	1225	1219	1212	1200	1214	1231	1232	1234	1240	1267	1278	1292	1308	1320	1322	1324	1306	1294	1284	1283	1279	1276	1269	1251	1235	1231	1236	1241	1248	1252	1248	1245	1245	1244	1253	1244	1229	1222	1235	1240	1250	1247	1221	1210	1200	1196	1195	1203	1212	1229	1232	1237	1248	1250	1241	1223	1210	1209	1211	1214	1210	1208	1208	1208	1208	1209	1214	1211	1195	1189	1186	1193	1193	1191	1187	1198	1185	1172	1176	1172	1166	1160	1169	1174	1171	1167	1163	1165	1163	1158	1149	1143	1136	1129	1129	1132	1135	1130	1119	1119	1129	1144	1160	1187	1183	1184	1184	1175	1168	1161	1159	1167	1173	1154	1156	1147	1149	1144	1146	1156	1164	1163	1157	1156	1156	1150	1136	1136	1145	1153	1157	1163	1160	1153	1153	1153	1155	1154	1148	1158	1165	1179	1179	1162	1159	1154	1144	1128	1128	1138	1148	1141	1133	1123	1121	1117	1114	1113	1115	1121	1129	1130	1128	1136	1136	1137	1141	1134	1126	1128	1130	1116	1106	1105	1096	1093	1085	1052	1063	1076	1087	1096	1091	1079	1070	1069	1096	1097	1095	1100	1103	1110	1109	1096	1083	1073	1067	1061	1062	1078	1090	1085	1077	1064	1058	1057	1059	1047	1052	1076	1074	1076	1072	1071	1069	1065	1065	1069	1075	1059	1053	1049	1043	1038	1040	1045	1051	1051	1047	1039	1035	1031	1031	1030	1024	1028	1038	1043	1047	1049	1051	1054	1029	1026	1025	1024	1020	1012	1019	1024	1028	1019	1017	1019	1017	1022	1024	1021	1023	1025	1029	1022	1009	1007	1013	1006	1007	1000	999	998	998	1001	1004	989	986	986	954	951	950	953	941	954	994	994	995	1002	1009	1009	999	999	972	951	949	977	990	973	969	964	966	972	972	975	976	975	970	961	960	961	958	960	968	971	969	987	1001	990	979	976	974	974	985	986	986	976	972	968	962	955	958	963	969	978	984	983	969	960	959	954	938	935	942	948	940	941	940	930	925	921	920	923	932	932	930	926	924	924	920	924	932	931	925	915	903	901	915	927	926	922	922	926	904	902	897	893	896	912	916	920	914	912	911	907	900	872	0	0	0	0	0	0	0	0	0
1579	1591	1591	1595	1584	1593	1605	1605	1613	1604	1583	1565	1554	1554	1538	1538	1549	1567	1568	1568	1563	1561	1566	1580	1608	1635	1635	1646	1638	1624	1611	1603	1593	1594	1594	1599	1589	1558	1538	1531	1532	1529	1526	1526	1524	1527	1523	1515	1517	1522	1539	1542	1553	1546	1524	1524	1500	1472	1459	1458	1464	1465	1456	1458	1468	1485	1507	1496	1450	1389	1361	1361	1343	1323	1312	1312	1317	1312	1314	1317	1330	1337	1332	1323	1310	1303	1302	1311	1321	1331	1333	1336	1328	1323	1311	1318	1321	1324	1321	1318	1318	1322	1323	1324	1324	1328	1328	1321	1318	1326	1328	1334	1329	1332	1336	1336	1329	1329	1333	1335	1349	1349	1345	1333	1325	1332	1337	1343	1353	1357	1359	1370	1396	1396	1392	1386	1376	1371	1366	1361	1358	1362	1375	1401	1410	1417	1404	1395	1387	1383	1377	1361	1348	1341	1349	1363	1367	1367	1382	1381	1380	1378	1337	1333	1341	1357	1389	1399	1393	1370	1352	1351	1361	1380	1379	1355	1360	1364	1360	1358	1355	1350	1341	1330	1323	1321	1327	1331	1329	1325	1320	1312	1305	1294	1306	1308	1306	1307	1309	1314	1317	1321	1331	1335	1341	1352	1349	1343	1294	1311	1325	1334	1334	1317	1308	1309	1310	1311	1308	1311	1312	1319	1322	1313	1303	1293	1288	1293	1293	1288	1285	1259	1253	1257	1273	1284	1273	1266	1264	1262	1267	1255	1222	1210	1206	1215	1216	1202	1201	1198	1195	1195	1200	1204	1207	1212	1220	1235	1281	1289	1291	1264	1278	1283	1279	1269	1264	1265	1261	1247	1233	1223	1223	1233	1237	1240	1237	1234	1224	1220	1221	1230	1218	1209	1210	1221	1229	1226	1199	1195	1191	1190	1198	1205	1194	1192	1198	1213	1217	1228	1227	1215	1208	1207	1215	1215	1203	1193	1188	1187	1182	1193	1201	1201	1198	1180	1176	1175	1175	1179	1170	1158	1158	1143	1144	1141	1142	1145	1157	1129	1132	1141	1135	1124	1120	1120	1123	1126	1117	1111	1107	1118	1125	1126	1123	1112	1114	1121	1117	1124	1124	1154	1148	1141	1138	1156	1148	1139	1141	1146	1145	1140	1141	1135	1120	1121	1119	1113	1107	1101	1112	1127	1128	1128	1130	1133	1136	1139	1140	1143	1148	1150	1150	1151	1145	1131	1138	1137	1137	1146	1136	1111	1108	1110	1110	1105	1119	1130	1122	1121	1116	1111	1109	1102	1096	1096	1102	1102	1094	1086	1083	1080	1077	1067	1072	1082	1096	1106	1103	1097	1096	1074	1048	1040	1033	1037	1045	1055	1067	1068	1051	1040	1035	1046	1051	1054	1057	1063	1068	1062	1062	1061	1056	1052	1056	1055	1060	1066	1064	1055	1044	1047	1047	1048	1036	1030	1035	1038	1055	1065	1068	1066	1062	1054	1060	1057	1055	1045	1040	1028	1026	1030	1036	1035	1036	1025	1020	1017	1020	1021	1020	1020	1019	1031	1044	1043	1028	1021	1012	1010	1016	1024	1027	1019	1014	1002	1005	1006	1008	1008	1002	1013	1019	1019	1016	1013	1005	1003	1006	996	991	982	978	980	964	967	957	954	948	948	944	947	947	936	934	930	925	912	928	962	963	967	971	974	974	967	954	941	938	938	948	968	959	958	954	957	965	965	950	940	941	934	929	930	923	929	934	943	948	954	960	965	990	967	962	964	975	982	981	968	961	960	969	961	952	947	932	939	947	948	933	923	936	941	918	919	923	927	929	928	929	929	929	923	919	915	916	918	922	921	917	917	922	922	924	929	928	921	904	904	904	902	903	905	905	908	906	899	889	880	881	885	892	893	897	896	889	885	881	873	869	0	0	0	0	0	0	0	0	0
1536	1568	1568	1572	1557	1566	1572	1572	1568	1563	1541	1522	1510	1510	1498	1511	1529	1540	1543	1539	1539	1541	1541	1559	1584	1606	1606	1617	1595	1584	1575	1565	1553	1547	1547	1561	1565	1554	1542	1520	1527	1519	1509	1509	1507	1499	1497	1491	1489	1493	1505	1510	1514	1508	1500	1500	1485	1465	1455	1456	1463	1455	1441	1431	1431	1444	1466	1494	1470	1378	1350	1350	1330	1310	1296	1298	1314	1310	1311	1318	1332	1341	1339	1326	1314	1302	1307	1316	1321	1315	1325	1326	1320	1313	1313	1320	1330	1335	1331	1321	1318	1318	1321	1322	1321	1314	1310	1307	1314	1327	1333	1330	1314	1317	1325	1342	1341	1349	1347	1338	1339	1345	1341	1330	1313	1336	1347	1354	1359	1368	1371	1372	1367	1362	1366	1368	1359	1356	1355	1355	1354	1358	1373	1387	1398	1397	1389	1376	1379	1363	1357	1340	1326	1311	1307	1315	1321	1331	1336	1334	1310	1303	1312	1321	1327	1341	1366	1373	1369	1357	1340	1329	1337	1348	1329	1328	1334	1347	1358	1353	1345	1338	1321	1311	1306	1303	1304	1307	1316	1323	1323	1316	1297	1287	1300	1302	1304	1301	1303	1306	1308	1307	1302	1301	1316	1324	1323	1306	1272	1285	1314	1327	1328	1308	1299	1303	1308	1303	1295	1287	1267	1276	1284	1284	1269	1259	1273	1279	1275	1268	1242	1234	1229	1233	1241	1249	1248	1236	1224	1215	1207	1195	1185	1187	1197	1201	1206	1194	1176	1172	1181	1186	1186	1182	1179	1173	1173	1182	1189	1191	1245	1211	1213	1208	1224	1211	1200	1192	1185	1176	1180	1188	1213	1221	1212	1207	1218	1209	1196	1192	1202	1185	1184	1181	1189	1200	1209	1189	1189	1191	1191	1202	1208	1204	1200	1180	1179	1186	1196	1196	1197	1197	1201	1200	1202	1184	1174	1167	1161	1158	1166	1171	1180	1191	1175	1167	1156	1137	1156	1162	1151	1139	1125	1112	1103	1107	1102	1105	1099	1100	1112	1122	1130	1118	1113	1110	1111	1111	1108	1107	1104	1113	1120	1121	1117	1103	1104	1106	1102	1100	1101	1101	1117	1119	1113	1113	1116	1126	1131	1137	1125	1109	1103	1103	1106	1107	1109	1104	1094	1090	1100	1111	1117	1120	1121	1121	1120	1121	1127	1134	1141	1143	1142	1137	1134	1124	1109	1100	1092	1082	1076	1059	1061	1069	1080	1093	1091	1089	1090	1093	1092	1091	1095	1086	1072	1065	1069	1072	1076	1064	1050	1032	1021	1011	1012	1043	1085	1094	1094	1078	1055	1051	1043	1035	1030	1030	1031	1038	1048	1048	1043	1039	1039	1041	1037	1035	1040	1036	1028	1035	1042	1045	1048	1053	1055	1055	1054	1053	1045	1039	1033	1030	1038	1031	1023	1027	1024	1016	1021	1040	1056	1064	1060	1050	1046	1046	1044	1035	1027	1015	1011	1023	1027	1025	1017	1022	1017	1010	1008	1011	1019	1016	1013	1017	1034	1036	1005	999	996	1000	1003	1008	1013	1007	1009	1003	1001	1001	1002	992	990	984	979	979	983	995	989	979	978	975	975	973	975	972	966	959	953	948	951	949	943	934	930	924	921	917	911	904	906	942	956	957	958	956	953	949	947	940	936	940	952	956	973	970	958	953	944	939	930	931	936	931	933	927	920	924	926	931	936	942	949	956	957	950	949	950	960	976	982	946	947	950	950	942	937	936	935	935	936	923	922	911	908	910	908	908	907	911	915	918	921	928	927	917	912	912	910	905	904	909	907	910	918	919	920	921	920	912	903	904	902	901	901	902	902	903	901	895	890	885	882	881	881	881	879	879	878	876	868	864	859	0	0	0	0	0	0	0	0	0
