603	602	601	601	598	595	591	597	597	595	598	594	590	590	590	596	595	587	583	583	589	592	598	595	595	595	596	594	598	592	589	586	586	591	597	602	605	607	599	599	591	586	583	577	580	587	592	593	593	608	610	602	588	587	584	587	585	587	587	588	586	586	582	582	579	585	585	586	585	574	571	571	571	573	577	579	582	582	586	588	586	584	583	582	581	582	585	585	585	578	579	579	576	564	563	572	572	583	583	581	583	582	578	575	577	576	576	576	576	572	573	576	580	584	584	583	580	577	574	572	570	567	565	563	563	568	557	561	561	570	568	563	563	562	562	566	566	567	559	560	564	568	569	565	565	567	573	574	574	567	566	562	561	562	561	575	565	563	558	563	565	564	562	557	551	556	553	548	548	548	550	550	541	543	548	548	553	556	555	553	554	549	545	545	532	540	537	535	536	536	539	537	537	541	542	543	532	532	535	534	535	536	539	541	539	548	543	544	546	544	535	528	530	523	524	524	522	538	539	550	550	546	541	537	523	525	526	527	544	537	537	538	539	542	529	527	527	535	537	535	546	536	533	530	531	537	528	528	528	518	518	524	526	526	528	526	525	536	530	527	529	532	526	528	528	526	527	526	526	527	534	533	532	528	529	529	527	523	526	520	521	522	511	515	523	516	513	514	514	515	517	518	521	522	520	520	517	514	513	513	515	520	521	517	516	517	526	526	527	527	526	525	520	519	518	518	519	511	508	511	514	517	514	514	514	507	507	510	512	514	515	508	508	504	506	508	508	501	502	508	510	512	511	512	510	508	509	512	514	511	515	516	514	510	510	510	514	512	515	514	510	506	502	500	502	505	501	505	502	505	503	504	504	503	500	501	504	509	507	503	500	500	508	508	509	506	499	497	501	507	505	511	509	507	500	497	502	503	509	509	508	505	499	507	509	510	512	511	506	505	502	500	499	503	506	507	500	500	499	499	500	498	493	493	494	496	495	492	490	487	494	496	496	498	497	496	500	498	494	501	500	492	480	484	491	498	501	496	501	499	494	487	487	487	486	489	491	490	488	489	484	485	485	482	482	480	485	485	486	488	488	493	486	485	488	488	487	487	491	489	488	482	483	491	489	490	486	485	485	484	486	486	484	485	481	475	484	485	481	483	484	479	478	479	479	480	479	483	482	486	486	485	480	482	482	472	476	478	471	471	470	471	470	477	464	462	466	472	473	474	475	475	474	473	474	474	473	470	473	471	471	470	468	463	462	464	467	473	473	470	474	471	470	474	475	464	462	460	465	463	468	470	472	475	474	468	465	464	463	460	465	470	471	469	463	462	462	464	469	470	468	467	467	462	459	457	457	457	463	464	464	465	464	462	463	466	466	460	456	457	457	457	456	458	459	457	455	462	471	466	466	462	460	457	457	456	458	458	458	457	457	451	447	459	464	458	459	463	463	452	447	441	441	0	0	0	0	0	0	0
599	594	590	590	590	588	591	590	590	590	590	585	586	586	587	590	583	587	583	583	580	586	594	591	587	587	587	588	584	585	587	586	586	584	588	594	601	603	596	591	588	582	575	576	577	583	586	590	590	593	595	585	586	587	586	584	584	587	584	584	579	581	575	575	579	585	584	585	581	570	569	572	572	573	577	580	582	581	589	590	587	581	582	583	582	580	580	582	579	579	578	575	562	557	560	570	570	576	578	578	575	573	569	568	573	572	566	565	569	569	566	570	554	554	556	565	567	569	571	569	565	560	558	557	557	555	545	542	544	546	548	565	562	560	565	567	563	546	541	538	537	539	543	550	557	556	564	558	549	550	556	555	556	560	558	558	556	559	557	557	560	562	561	558	555	555	552	549	548	546	547	548	541	543	546	546	546	547	544	545	548	544	543	532	526	530	532	532	533	534	536	536	534	536	536	534	531	526	527	530	533	540	540	539	539	539	537	542	545	542	526	522	522	524	527	526	525	525	516	527	531	533	536	529	528	525	523	525	530	522	522	523	526	526	523	521	523	526	527	532	528	525	523	519	520	526	523	526	524	528	524	527	527	528	527	528	531	530	526	528	529	531	520	521	526	526	527	526	526	520	521	519	514	523	525	528	521	518	517	509	507	511	512	518	520	513	512	512	516	516	514	516	518	518	516	517	513	512	513	513	515	519	520	516	511	510	514	513	515	511	510	509	507	504	514	511	510	508	508	509	511	511	512	512	513	508	508	509	511	513	505	504	504	503	502	500	504	502	506	507	513	516	515	508	508	508	508	506	507	507	509	505	504	502	509	510	509	506	494	494	494	494	491	487	489	494	494	502	505	505	503	503	502	502	502	503	502	507	505	502	498	497	497	498	496	496	494	503	503	507	509	509	502	500	496	500	500	503	506	507	506	494	490	493	505	506	510	494	495	494	495	498	497	495	499	500	500	498	498	498	495	494	488	492	494	497	491	490	487	487	490	494	493	494	490	494	496	493	487	495	490	479	479	478	489	496	500	498	494	491	484	485	486	485	485	487	485	484	483	484	482	482	482	480	482	480	478	480	484	486	489	483	483	485	488	487	484	483	485	486	485	489	489	488	488	490	486	485	485	481	484	484	476	471	472	473	475	477	473	473	473	475	476	476	476	476	478	475	481	476	479	477	476	472	469	468	467	469	469	469	470	471	472	466	463	463	469	470	471	475	471	468	470	471	470	470	470	468	467	466	468	464	465	463	460	459	461	459	461	466	470	465	468	468	469	460	458	459	461	461	461	463	465	466	469	469	467	461	460	461	464	469	469	467	463	457	461	467	467	465	460	466	465	461	460	458	456	454	451	445	452	453	461	461	463	463	457	457	458	458	459	456	457	453	454	453	452	450	456	460	460	459	457	455	455	451	454	454	453	453	449	450	447	454	458	459	458	456	456	456	452	442	440	0	0	0	0	0	0	0
581	586	588	588	586	585	587	585	585	581	579	579	581	580	580	578	583	584	583	583	579	582	585	580	577	581	581	581	576	577	582	581	581	583	588	592	596	596	592	588	586	578	575	577	580	574	581	586	589	589	588	585	585	584	581	580	577	576	573	573	571	570	574	577	580	582	582	580	570	571	573	573	573	576	578	581	583	586	585	567	566	578	572	571	569	568	572	577	578	576	571	567	562	560	556	565	572	572	572	574	570	563	553	558	560	563	562	556	555	563	567	557	557	553	557	559	563	567	568	568	571	555	552	547	549	555	542	540	541	541	546	547	549	549	546	541	541	537	535	535	534	534	536	539	544	548	558	555	548	546	545	543	541	540	544	550	558	557	551	538	553	558	560	548	548	547	545	549	548	546	547	550	548	544	541	542	542	537	532	537	544	545	543	534	528	528	530	532	533	540	540	533	533	528	530	528	523	520	522	525	535	535	534	531	532	533	537	548	542	539	527	523	524	522	525	526	524	522	513	513	522	523	529	525	533	535	535	531	528	530	522	519	514	514	512	522	515	523	521	519	516	520	521	518	516	518	519	521	521	521	522	526	522	522	527	528	528	529	530	530	520	520	510	518	525	528	527	525	522	521	516	516	513	511	512	513	521	513	515	512	509	509	512	518	514	512	512	513	516	514	514	514	516	516	513	508	507	508	512	512	516	517	517	513	510	506	513	513	511	510	508	507	503	499	501	508	508	506	503	504	506	506	506	506	509	509	508	509	510	504	503	503	504	502	501	501	502	500	501	509	513	514	512	503	503	501	499	503	503	503	506	503	499	497	496	505	505	490	493	495	497	494	491	486	487	492	493	499	501	503	499	498	498	499	501	501	494	501	503	500	497	496	495	496	492	492	491	485	497	501	503	504	502	497	496	497	497	500	503	506	499	496	493	489	487	488	488	489	491	493	488	489	490	493	495	498	498	496	495	496	496	488	485	482	486	490	488	487	486	490	489	489	488	487	490	494	494	482	482	483	489	488	481	487	489	494	496	490	490	487	477	483	482	485	481	481	477	480	482	483	482	482	482	482	482	477	480	479	483	481	477	478	480	481	483	484	481	481	482	484	482	487	487	487	486	486	487	476	475	474	476	479	474	473	471	471	472	476	475	475	477	474	476	475	475	476	476	477	477	474	472	473	475	474	469	463	462	466	465	465	468	472	471	466	467	467	474	470	468	472	464	463	463	469	472	471	469	460	457	456	459	459	463	463	462	462	462	451	443	442	456	462	460	464	465	455	456	456	458	456	459	460	463	464	465	464	459	457	456	459	462	467	465	464	459	459	458	456	455	457	447	447	456	463	462	456	453	448	444	439	445	445	455	457	454	451	454	457	458	460	459	454	453	448	447	446	443	445	447	457	457	457	456	456	454	451	446	446	447	449	445	441	437	446	454	455	456	456	454	455	449	444	440	0	0	0	0	0	0	0
572	576	582	582	580	582	583	576	575	575	571	571	572	573	573	581	584	585	583	574	574	574	578	576	576	580	580	580	578	571	576	579	582	582	584	589	591	590	586	586	573	573	573	575	572	570	566	575	567	567	570	579	580	577	574	573	573	573	571	571	571	569	570	569	569	578	577	577	572	573	574	575	576	576	580	566	561	566	566	564	559	560	560	560	562	566	573	574	573	572	569	564	563	562	565	559	553	568	568	566	559	549	553	558	559	560	556	552	552	552	554	556	557	553	551	560	559	559	546	537	537	535	532	533	540	546	543	536	535	537	541	543	547	543	543	540	539	533	529	532	533	546	542	540	539	543	543	546	544	543	543	538	535	533	538	544	551	552	543	538	538	534	532	530	529	532	545	545	545	547	548	550	548	543	540	538	537	534	535	539	542	543	539	538	537	530	532	533	534	540	536	528	523	527	521	520	521	520	519	520	530	529	526	526	528	529	544	534	529	524	521	524	523	523	524	523	523	514	512	510	511	519	518	525	527	524	522	522	518	525	533	531	526	524	522	512	522	515	512	511	511	515	515	515	512	512	513	514	517	515	512	520	519	522	524	527	523	517	519	513	516	504	512	514	521	524	527	525	520	513	517	515	514	512	513	509	509	507	506	505	509	511	516	518	514	512	511	511	509	510	514	514	513	512	503	500	501	507	509	513	518	518	516	508	505	506	508	511	511	510	508	505	498	497	502	508	506	503	502	501	502	489	492	493	496	498	501	509	508	500	497	497	501	502	505	499	501	496	496	501	500	491	498	497	504	497	496	497	495	502	495	493	494	493	504	496	492	491	491	495	492	493	495	485	479	481	491	499	501	499	493	500	502	504	503	492	494	496	500	496	491	486	489	493	493	490	488	496	496	495	496	495	495	489	486	483	491	500	497	495	495	495	493	488	489	490	491	490	493	490	486	486	486	488	492	492	491	487	485	485	481	483	482	488	492	488	488	484	484	488	488	485	485	484	489	490	478	478	477	482	487	488	491	490	489	489	490	486	486	480	476	485	482	481	483	478	474	475	481	482	482	482	477	475	477	480	482	479	472	471	472	478	473	475	477	477	474	467	468	479	475	468	468	467	468	470	471	475	473	476	479	471	473	466	464	467	470	472	468	467	473	479	477	472	470	470	471	471	470	470	465	466	470	469	465	462	461	463	463	463	466	468	468	468	467	473	473	467	466	459	465	462	464	458	456	461	462	464	457	455	455	455	459	455	459	454	463	453	455	450	441	450	456	461	454	452	454	454	456	454	456	459	461	464	470	463	457	455	453	456	462	461	461	457	455	458	457	456	454	456	451	443	442	441	442	445	444	448	448	448	438	434	443	441	443	443	451	456	458	459	458	451	449	448	447	443	446	443	443	448	449	448	447	447	454	449	445	454	456	452	450	443	441	441	451	455	448	448	453	457	449	442	445	0	0	0	0	0	0	0
567	572	573	577	577	579	579	569	566	566	564	563	565	574	574	578	583	584	571	564	564	572	573	572	575	579	579	580	572	573	570	574	577	577	580	583	586	586	582	573	570	570	569	569	564	567	568	574	564	564	565	567	569	569	566	566	565	566	566	569	569	569	569	567	564	567	569	568	561	559	559	557	563	563	567	554	548	554	560	561	559	557	559	558	563	569	571	572	570	567	568	558	549	553	563	560	551	550	548	548	550	545	545	549	553	553	550	549	551	549	548	552	555	542	536	544	543	543	539	537	540	533	538	542	536	543	540	539	535	534	535	541	542	541	539	538	537	529	529	530	547	539	529	532	529	530	534	540	541	532	530	538	534	530	531	534	539	534	532	537	534	532	528	525	527	527	521	523	531	520	519	534	532	529	531	533	539	540	536	536	540	538	537	538	538	538	532	533	541	539	533	528	527	523	520	519	520	518	519	523	525	524	520	519	524	527	532	533	528	525	522	524	524	522	517	508	508	516	520	513	514	512	509	513	517	526	525	520	509	511	533	527	525	522	522	519	518	512	515	518	516	515	513	514	512	511	512	514	517	512	512	516	516	515	520	510	516	508	509	502	503	504	506	510	515	517	518	515	512	508	507	512	512	508	505	503	508	505	503	499	499	513	519	518	514	512	509	507	510	508	515	511	500	493	495	496	503	506	507	507	508	509	508	509	507	507	509	509	509	509	508	497	502	497	501	506	506	503	503	501	501	491	495	492	492	490	487	491	496	496	494	495	503	504	505	502	490	488	495	502	498	491	494	492	493	502	495	492	491	496	493	494	496	493	494	494	492	496	491	491	494	489	492	489	484	481	495	494	497	491	500	491	491	494	490	490	488	486	486	484	483	485	484	488	490	488	490	492	491	490	486	493	486	475	479	482	481	479	487	488	484	484	488	484	483	489	490	490	489	488	486	486	484	485	487	487	486	484	483	479	476	477	481	486	491	487	489	480	475	482	482	483	479	482	478	478	477	477	478	481	485	485	487	482	486	486	482	481	479	481	484	480	476	475	473	473	471	474	477	479	478	477	473	473	476	482	482	479	476	469	471	477	474	475	471	470	468	467	468	469	470	469	473	471	466	465	463	462	462	462	468	469	468	467	467	467	468	470	468	462	455	461	461	460	461	461	461	461	461	461	461	460	459	462	458	461	461	461	461	463	464	466	466	467	467	468	466	463	460	464	464	463	460	455	453	453	452	457	458	456	454	454	454	453	457	454	455	454	453	453	445	448	445	444	447	449	449	457	459	452	459	459	460	458	459	453	452	453	453	454	449	448	451	451	454	456	452	455	456	452	443	440	439	440	437	441	446	449	450	446	438	434	439	438	441	442	441	452	456	456	454	451	450	447	444	442	443	443	442	444	442	440	440	439	446	441	438	443	450	452	450	448	446	444	442	444	444	456	450	453	448	447	446	0	0	0	0	0	0	0
559	564	570	574	574	573	563	560	560	560	558	558	564	571	571	573	577	573	552	567	567	569	569	568	569	567	567	567	569	564	566	570	567	567	566	569	572	573	573	572	564	564	565	565	567	559	565	565	563	566	566	568	568	563	562	563	566	564	562	561	561	560	560	560	559	562	566	553	553	546	546	554	559	556	556	557	547	544	549	555	559	556	554	557	560	562	563	570	566	563	551	545	547	547	544	551	549	550	551	550	550	541	540	541	543	545	543	543	536	531	527	539	539	534	529	534	533	535	537	538	529	535	537	536	541	533	535	533	532	535	532	532	536	538	539	536	534	528	525	538	540	538	534	531	524	526	526	526	531	533	527	527	525	524	527	525	522	533	532	534	533	524	523	524	527	527	521	518	515	518	519	521	523	527	524	528	534	535	531	529	531	532	531	531	530	524	531	531	528	525	519	520	524	525	523	515	518	518	522	524	528	522	518	515	519	522	530	529	529	529	524	522	521	516	507	512	513	514	520	521	515	513	512	512	515	516	512	511	510	509	517	512	520	519	518	514	511	512	515	519	515	519	518	512	511	511	512	515	517	515	514	516	511	509	505	505	502	502	496	504	504	501	504	507	515	507	508	504	506	507	504	503	504	503	502	502	502	501	503	500	502	509	509	500	495	503	507	506	507	506	505	504	501	493	494	501	502	506	507	506	505	505	508	507	504	509	509	507	506	504	496	495	501	492	497	508	501	497	489	492	491	496	494	491	493	490	486	489	493	495	494	493	500	503	488	493	491	495	496	499	499	497	498	492	481	484	482	490	492	488	488	488	488	482	482	482	480	486	487	487	481	491	489	487	486	485	488	487	487	488	497	491	491	493	486	489	484	483	487	489	483	483	479	482	490	488	483	489	488	486	483	481	477	475	481	481	477	477	476	477	481	483	483	473	481	487	487	487	486	486	481	475	482	482	477	477	479	477	471	478	468	475	479	483	485	488	482	477	468	480	482	481	477	478	479	478	478	477	475	472	478	482	482	477	474	479	473	475	478	479	478	475	475	474	468	472	470	472	474	478	472	471	473	474	480	478	470	464	462	464	468	472	473	473	472	468	466	470	473	474	476	476	474	465	465	464	462	458	463	463	464	467	464	465	467	467	467	467	460	456	459	459	456	458	459	461	461	460	462	460	460	459	458	456	456	456	458	460	460	460	463	461	459	458	457	457	455	455	455	457	461	461	463	453	452	451	451	458	455	456	457	453	453	453	453	454	455	454	453	451	449	448	448	445	447	447	447	451	452	449	448	444	443	444	449	455	451	449	444	447	442	447	447	447	452	452	451	453	450	443	442	440	438	434	436	439	444	446	451	445	440	438	441	439	439	440	438	441	439	438	440	444	449	447	442	441	442	446	444	444	439	439	439	439	438	435	441	445	437	445	439	445	443	442	440	441	441	444	444	449	447	446	444	0	0	0	0	0	0	0
553	559	567	565	565	562	558	559	560	560	564	563	563	567	569	569	564	549	552	555	557	557	558	556	552	554	557	557	554	555	552	557	563	568	568	572	575	567	565	565	556	556	561	560	562	557	556	561	560	562	562	563	561	560	560	561	563	556	553	555	555	555	555	555	552	555	545	546	549	548	553	558	558	556	556	553	547	541	549	553	557	558	558	556	555	554	557	554	551	547	544	545	544	540	535	537	545	546	551	549	543	543	540	537	537	536	537	528	527	527	528	529	528	524	520	523	534	534	533	529	529	526	534	538	538	535	530	527	527	530	532	530	533	536	538	534	528	524	529	534	529	530	532	533	526	524	520	523	525	528	523	523	523	520	520	521	520	521	531	529	526	522	511	512	518	520	522	515	512	515	519	524	525	526	521	516	521	521	524	527	524	528	529	530	522	521	521	527	526	518	516	516	519	520	522	515	515	514	512	508	515	515	515	511	513	514	526	527	532	518	513	517	514	512	500	509	511	512	513	516	517	513	511	510	507	508	510	511	509	510	513	511	513	506	500	505	505	509	517	516	514	513	506	518	512	512	512	515	516	520	514	516	508	508	506	502	500	499	495	504	505	503	499	510	509	501	507	501	504	506	504	504	504	505	503	501	499	497	498	496	496	510	507	499	499	493	498	499	500	504	505	502	498	492	493	497	502	501	502	505	504	503	499	502	500	503	506	503	502	501	494	491	488	488	494	497	494	491	487	487	490	496	496	492	488	484	489	490	492	490	489	491	493	499	487	492	493	496	489	490	482	487	489	483	480	479	477	477	480	484	481	482	477	479	473	476	475	484	487	485	484	485	487	487	487	485	484	484	484	486	489	495	495	494	481	481	484	484	482	480	486	476	478	483	482	483	481	480	483	483	479	482	477	483	481	477	468	467	470	475	478	481	477	468	470	471	478	479	479	476	477	473	471	469	462	462	463	463	467	467	468	479	481	481	479	479	481	482	468	466	479	478	479	476	481	477	477	474	471	471	471	477	477	476	474	471	472	474	473	474	469	471	471	469	464	462	464	465	471	465	473	467	465	465	467	465	470	465	465	470	471	469	472	472	470	463	454	460	465	467	467	470	461	463	462	460	459	458	463	474	474	473	464	447	451	456	458	453	464	458	459	459	458	457	459	459	459	458	459	461	459	462	456	454	454	450	457	458	460	462	455	458	457	455	455	456	455	454	455	456	458	461	459	455	453	446	452	454	454	454	449	450	450	449	452	451	453	452	446	447	447	446	447	447	447	447	448	451	452	449	447	442	442	442	449	455	452	447	440	442	444	440	442	443	445	448	449	451	449	442	441	438	434	435	435	438	444	445	448	447	444	439	437	440	441	438	435	438	433	437	437	438	441	441	438	438	440	443	444	444	437	437	438	438	438	434	434	433	438	439	438	442	440	440	436	434	438	440	439	435	446	445	439	0	0	0	0	0	0	0
550	557	554	557	558	558	561	566	569	565	565	568	568	563	562	562	549	546	552	552	554	554	550	552	552	555	554	554	555	556	558	561	563	565	565	566	563	561	558	557	551	550	550	557	554	553	558	562	563	563	563	559	559	560	561	549	543	544	545	547	548	548	548	546	545	547	543	548	554	553	553	555	555	548	545	545	537	538	543	554	542	538	547	548	546	545	545	543	543	542	545	545	541	536	536	534	540	545	544	549	542	539	538	538	536	536	531	532	527	526	532	523	521	519	519	519	517	530	528	526	519	522	522	534	533	525	520	520	522	520	520	523	525	527	529	526	525	525	526	524	525	515	522	521	520	521	521	522	523	519	524	520	516	517	518	516	514	511	511	513	509	510	512	512	516	516	512	515	511	515	520	524	526	525	516	516	521	520	522	524	527	527	519	523	518	511	510	512	517	512	509	509	512	510	518	519	517	513	509	508	505	503	505	511	509	507	511	522	520	515	510	514	514	507	498	501	496	500	508	515	509	503	510	503	503	500	503	508	509	508	512	515	512	503	499	498	497	502	505	510	514	507	506	507	508	508	515	509	510	517	515	514	511	504	501	498	499	499	493	497	503	502	500	497	503	500	497	497	492	499	499	503	503	504	503	500	488	489	487	491	492	493	492	493	494	495	494	494	499	498	498	496	492	491	493	496	500	500	500	497	501	502	498	498	496	494	496	493	493	493	491	485	483	484	496	492	488	484	483	490	491	494	493	492	487	486	485	486	488	487	484	486	483	483	481	486	490	484	472	479	488	488	485	482	483	479	475	474	470	474	474	476	475	472	471	472	474	476	482	480	486	482	485	487	486	486	480	478	475	479	484	483	484	482	469	477	477	474	474	474	478	475	473	476	479	479	476	472	475	468	468	472	478	479	477	464	464	465	466	472	480	480	470	467	464	469	474	475	477	470	472	474	471	470	469	468	468	466	464	466	467	463	467	473	470	465	466	469	469	467	462	473	475	475	475	476	476	475	471	467	466	461	467	471	472	469	468	468	458	465	467	466	465	463	462	459	458	461	465	463	464	456	458	456	461	464	467	465	463	463	463	469	468	466	463	459	458	456	458	461	462	459	459	458	457	457	457	464	465	474	460	455	455	450	451	454	455	452	457	452	452	457	457	456	458	459	450	452	450	455	455	449	449	450	450	451	453	456	456	455	453	453	453	454	454	450	448	445	456	456	457	457	453	451	448	451	454	454	446	445	445	444	446	445	446	445	445	452	449	447	447	446	447	447	444	442	445	447	446	444	447	444	443	448	446	439	440	440	440	438	434	434	437	440	443	445	446	447	443	438	435	436	436	437	437	438	441	443	444	444	437	435	441	439	437	435	436	428	430	435	435	436	438	439	436	437	437	437	432	432	434	434	436	438	437	431	429	429	433	435	434	436	437	436	435	435	434	438	435	437	437	443	436	0	0	0	0	0	0	0
550	558	549	552	556	556	565	565	572	569	569	565	558	560	553	553	546	549	550	550	546	546	546	548	553	552	551	551	559	561	560	558	555	558	558	561	561	557	554	555	550	545	545	544	545	553	558	558	561	560	558	558	556	556	549	540	539	539	539	537	541	541	544	546	546	546	550	553	552	551	551	548	550	543	535	535	531	528	535	537	534	533	543	542	540	539	540	534	533	532	542	541	538	533	531	532	526	539	541	546	538	532	532	533	525	527	529	531	533	532	522	512	515	526	520	520	511	511	514	514	513	519	519	522	519	515	513	515	516	516	516	520	515	517	514	518	523	523	519	520	520	513	518	517	516	521	519	517	522	521	512	511	511	507	504	507	510	510	509	509	507	505	506	510	513	512	510	509	509	519	519	519	520	518	514	515	511	518	523	522	516	514	513	511	509	502	504	505	506	506	507	504	506	508	509	516	513	511	508	508	506	503	509	509	506	502	506	505	509	509	505	504	504	503	503	501	495	497	504	513	509	503	509	499	500	502	503	504	507	504	501	510	511	505	501	498	494	489	493	497	505	504	505	506	509	507	506	503	498	503	504	505	507	500	499	496	496	499	497	492	497	499	497	495	493	495	495	495	492	495	499	501	501	504	495	490	486	479	480	485	486	486	491	493	493	497	493	494	492	489	488	488	486	483	485	491	488	483	495	491	493	496	494	496	494	487	485	486	488	489	490	483	484	484	488	489	482	480	486	488	484	487	490	489	489	480	480	484	484	481	479	480	478	476	476	478	479	473	471	476	481	484	483	481	483	478	476	474	475	475	478	478	477	470	468	469	471	466	466	475	481	477	476	473	487	486	476	473	473	468	468	470	475	474	477	471	471	471	473	471	469	467	472	476	478	475	470	471	466	471	472	477	478	477	473	463	463	462	464	474	479	474	468	465	465	467	470	475	476	468	470	470	470	469	471	470	469	464	464	465	464	463	473	472	470	462	466	466	468	467	470	462	471	471	470	465	467	469	465	464	459	457	460	463	464	463	464	460	460	466	464	464	462	461	461	461	460	459	463	458	456	457	460	461	461	464	465	465	461	458	456	458	456	460	458	458	460	458	456	458	460	453	457	459	455	452	454	463	462	461	457	451	449	452	454	455	451	447	445	443	447	449	451	454	454	443	444	445	447	440	440	436	446	446	454	450	447	444	443	443	444	449	451	452	452	449	450	444	446	439	439	451	450	448	446	445	453	450	440	441	444	443	442	444	445	444	445	451	449	447	446	445	445	447	438	437	436	436	438	444	446	444	442	447	447	445	443	441	439	435	433	431	434	436	438	442	443	443	433	432	433	436	435	436	438	434	433	433	438	429	433	428	434	439	428	425	424	424	427	429	428	435	436	436	436	436	436	432	430	430	430	429	430	429	430	429	427	428	427	423	425	430	430	424	429	429	430	433	437	436	434	429	428	0	0	0	0	0	0	0
556	549	548	546	551	551	555	559	565	564	564	559	553	551	549	550	550	549	549	546	544	544	545	547	551	543	548	548	548	556	557	555	552	548	554	554	556	554	555	553	548	544	544	541	544	552	552	554	554	556	553	553	550	549	543	536	533	536	540	537	541	543	543	546	545	549	551	551	552	549	549	546	544	535	530	528	528	527	529	530	533	532	528	532	533	530	528	532	531	531	526	527	536	530	525	522	518	524	527	531	520	518	523	522	522	522	517	518	521	522	513	507	508	526	523	518	510	511	510	511	515	523	524	523	517	511	510	510	511	514	516	518	517	516	513	514	514	516	518	518	518	517	515	513	514	511	511	513	516	515	513	506	501	498	499	502	505	507	504	501	501	502	503	504	507	507	507	500	513	514	512	510	509	516	521	523	523	514	512	506	502	499	502	507	505	496	495	498	499	496	499	507	508	503	511	512	501	500	500	502	504	509	509	509	507	504	502	502	504	500	498	499	499	503	503	500	494	492	491	491	493	497	500	500	502	502	503	504	501	495	496	497	496	500	500	489	488	486	490	494	495	495	495	504	504	503	503	504	503	496	499	499	494	495	495	493	493	493	488	492	494	498	497	494	486	486	485	485	492	491	491	491	489	491	493	495	485	479	477	478	482	484	489	490	492	486	485	486	488	488	482	480	482	482	482	486	486	481	481	483	485	486	484	483	482	488	485	485	484	482	486	490	491	484	482	473	479	484	486	483	475	474	474	474	475	474	477	479	480	478	478	478	477	475	476	477	472	476	481	476	478	478	479	479	483	478	476	475	476	479	480	479	478	470	468	470	466	463	469	469	473	473	472	466	480	480	475	473	472	471	470	469	473	473	474	473	471	470	469	470	466	463	464	476	478	476	469	466	466	470	470	472	476	478	473	463	463	464	475	473	471	464	462	461	462	460	462	459	463	464	463	468	469	470	470	471	470	462	463	463	464	467	470	472	471	461	463	465	468	468	465	462	461	464	464	466	466	465	463	460	457	454	451	452	457	458	459	462	464	464	464	462	462	459	461	460	459	459	458	454	453	451	452	459	459	461	462	459	459	461	461	454	451	450	451	455	455	455	454	454	455	454	453	448	446	447	448	448	449	449	456	454	453	452	454	447	446	438	440	443	443	443	449	451	452	441	441	445	440	436	434	435	442	442	450	453	446	447	440	439	438	436	440	439	438	434	434	439	441	442	445	445	446	448	447	444	453	444	442	441	444	442	442	441	438	440	440	440	440	439	445	444	442	448	438	435	435	434	437	435	432	433	434	440	446	445	444	441	437	433	429	432	432	437	438	436	435	432	429	431	434	434	434	433	433	434	433	430	435	428	429	431	431	429	426	423	423	422	424	427	429	426	426	427	431	433	431	432	430	430	429	428	429	431	429	428	423	426	424	426	428	427	426	424	424	420	427	435	433	433	429	426	427	0	0	0	0	0	0	0
549	546	542	540	544	544	549	561	560	555	555	549	543	543	546	549	549	551	551	540	541	546	546	549	543	535	539	544	544	550	552	553	547	540	547	547	550	551	550	549	551	543	541	541	546	548	548	549	542	542	547	545	545	540	540	535	526	529	534	539	541	544	544	544	535	534	532	533	538	536	542	539	534	530	526	528	528	526	523	529	530	526	524	526	528	526	522	523	529	521	520	518	514	514	511	509	508	520	520	515	516	520	520	517	517	516	514	514	514	513	508	508	507	510	523	517	511	512	512	508	516	523	523	520	518	511	507	507	510	512	515	517	517	511	511	511	506	504	513	513	513	517	512	511	512	511	509	511	511	510	510	498	496	496	497	499	498	509	504	500	501	501	501	500	492	481	488	505	493	505	504	505	507	493	498	502	511	512	509	507	502	494	503	502	502	497	495	494	491	494	494	492	494	502	502	508	502	499	498	501	506	508	510	510	507	501	502	502	498	498	492	497	496	501	502	497	495	482	485	483	486	487	492	490	490	492	493	495	496	495	495	495	495	494	493	489	488	488	494	496	495	494	494	495	495	499	501	501	502	497	490	489	490	492	489	486	489	492	486	489	488	489	488	490	488	481	481	477	480	481	482	482	483	485	487	487	486	480	479	476	480	480	481	487	492	491	488	486	487	482	482	479	479	481	483	482	482	476	474	477	481	481	482	480	479	481	482	481	482	480	487	474	471	468	468	467	470	476	481	469	471	471	469	477	478	473	471	468	469	471	472	475	476	475	475	474	478	477	479	477	474	475	476	484	479	479	475	476	479	479	479	479	479	467	467	467	466	467	464	461	461	462	463	469	471	471	469	465	473	466	469	461	461	463	471	467	463	467	470	466	463	461	457	462	475	478	472	466	465	465	468	471	475	476	470	466	460	460	470	472	468	466	459	457	456	454	447	457	461	463	463	464	464	467	469	469	467	463	461	456	458	465	468	468	464	458	459	460	461	458	463	460	460	459	463	463	463	454	457	457	456	450	448	451	450	450	446	452	462	465	463	461	456	463	463	458	459	459	458	453	452	450	451	453	455	460	458	459	463	462	461	458	455	451	451	456	456	454	452	449	447	441	444	446	443	446	447	448	449	449	448	451	451	447	445	445	436	438	439	440	443	447	446	446	446	438	436	433	440	439	436	435	436	439	444	451	446	445	436	436	435	430	429	429	429	430	431	437	442	440	440	443	444	446	444	434	440	449	443	443	441	442	441	437	435	436	436	437	437	438	436	437	440	435	431	429	436	436	431	431	432	427	438	438	436	434	441	440	442	439	429	425	438	437	436	433	429	428	427	427	433	435	433	430	429	428	432	431	431	431	432	433	432	427	428	423	420	422	423	426	426	425	422	420	417	426	429	430	430	430	429	428	426	427	427	426	423	419	423	424	428	425	424	422	422	419	417	426	427	429	426	423	422	0	0	0	0	0	0	0
546	546	534	536	548	555	555	558	553	540	526	526	524	531	535	543	543	546	550	540	527	530	530	537	533	530	538	543	543	546	546	545	541	539	541	541	542	544	549	550	551	544	544	544	542	541	545	546	549	549	540	535	535	539	537	527	524	527	533	539	541	537	535	535	530	529	533	526	531	535	536	535	531	527	524	526	528	528	524	520	526	525	521	526	527	522	517	519	520	518	515	511	513	507	510	512	512	514	511	515	517	510	512	511	512	507	508	506	506	506	507	510	507	510	517	517	512	508	506	511	515	517	518	517	515	508	507	507	508	510	514	512	509	508	507	503	503	503	504	504	505	509	505	502	503	503	503	507	506	505	499	497	495	490	495	497	499	505	498	502	502	497	496	496	494	494	493	492	492	501	504	499	492	492	497	499	503	505	498	497	492	493	496	503	500	493	492	487	491	488	482	487	489	493	495	499	498	500	497	498	503	501	503	504	504	500	498	498	496	494	493	489	495	497	497	498	496	485	487	486	486	486	490	490	490	489	491	493	496	495	491	489	487	488	490	490	489	496	499	498	496	492	490	485	491	491	493	490	492	499	488	487	487	487	483	481	485	489	486	487	473	476	477	476	475	483	478	477	477	476	477	477	477	477	489	486	485	475	477	482	480	480	482	484	486	486	484	482	480	481	480	479	477	477	476	479	476	469	472	474	476	476	480	474	474	478	481	481	480	475	476	478	475	472	469	468	469	464	466	463	465	472	471	473	473	472	474	474	473	471	476	471	473	472	473	474	472	476	472	472	469	469	470	479	478	478	478	479	480	479	478	480	473	465	465	0	0	0	462	461	461	463	465	467	466	465	462	460	456	455	448	449	448	449	464	466	461	461	460	459	462	458	458	456	462	463	464	461	458	460	465	469	474	468	466	463	464	466	464	469	466	463	459	457	453	449	448	452	458	462	462	462	462	462	463	458	457	449	457	455	459	463	465	460	460	457	459	456	456	453	452	453	453	457	459	460	461	449	450	452	451	450	447	440	440	443	441	442	440	458	462	458	453	462	462	459	457	455	455	452	451	451	451	453	457	457	453	458	448	448	456	454	451	450	447	450	451	449	443	446	443	441	446	446	443	441	439	440	441	443	445	445	444	441	441	434	435	432	436	440	447	449	446	446	441	440	442	443	441	440	437	436	436	435	439	436	435	434	433	434	431	430	429	429	428	429	429	432	431	431	431	427	419	429	430	426	429	432	432	432	433	436	437	434	432	429	433	434	434	436	433	439	439	433	427	428	433	434	434	431	433	437	438	434	431	434	429	429	434	433	430	425	436	432	431	430	430	425	425	424	426	433	433	432	424	424	426	429	433	432	429	424	419	429	426	426	420	421	421	423	419	418	418	417	418	425	429	432	432	430	427	424	424	424	423	422	421	420	415	415	421	422	421	421	420	417	417	415	415	419	417	417	417	0	0	0	0	0	0	0
539	539	536	530	530	538	538	544	542	529	522	522	533	537	541	539	538	538	531	525	518	530	530	535	539	537	531	531	537	537	543	544	540	530	533	535	535	537	544	551	544	541	530	530	530	528	531	535	538	538	535	530	530	536	540	537	532	514	515	518	529	533	534	534	519	521	529	524	522	524	530	524	523	523	524	528	529	529	519	517	514	520	516	517	517	514	514	514	517	514	511	509	507	507	513	513	514	514	517	516	512	507	505	505	505	504	501	501	506	510	512	510	511	511	514	514	505	505	506	510	512	512	511	512	512	507	507	502	500	505	508	507	505	506	507	506	500	499	499	499	499	500	496	491	492	489	496	500	501	499	497	496	495	492	492	494	499	502	496	493	491	488	489	493	491	492	493	494	494	499	502	497	490	491	494	493	497	498	497	490	491	492	495	497	494	491	490	487	483	489	486	489	489	489	491	492	489	491	493	490	497	496	492	497	495	498	498	490	490	492	485	486	490	493	494	494	495	496	494	491	492	491	490	488	485	487	487	492	493	496	490	488	484	489	491	489	486	482	500	500	494	490	486	477	475	484	488	488	489	487	485	484	482	483	482	479	483	481	485	474	480	480	478	477	483	481	479	479	479	476	477	477	477	473	484	485	480	478	476	480	481	479	480	481	484	483	484	482	479	478	479	478	476	474	471	471	472	469	468	469	471	477	472	474	474	474	474	478	475	475	475	477	474	470	470	466	466	463	464	470	468	467	467	470	473	473	475	474	472	472	473	471	468	469	466	470	468	468	473	469	468	467	466	466	467	466	467	467	471	473	475	470	465	466	465	463	464	462	462	460	460	461	464	458	458	453	454	460	457	457	452	451	451	447	449	456	458	457	457	457	463	460	458	456	456	453	456	450	452	454	459	466	468	468	465	466	468	462	466	465	465	463	458	455	450	451	451	451	459	463	462	461	461	460	459	455	455	455	449	455	459	461	460	455	456	454	454	454	453	451	450	452	452	460	458	463	456	451	450	446	447	448	442	440	440	443	439	438	436	440	450	453	449	446	449	449	452	454	453	454	448	443	447	450	446	446	444	445	444	443	442	446	444	441	445	436	442	445	444	444	444	441	440	438	439	439	435	433	435	435	440	441	438	437	438	434	438	438	436	438	448	449	446	442	440	440	440	440	442	440	440	437	434	432	429	430	432	432	433	431	434	430	429	429	429	427	425	431	429	428	427	421	421	429	421	421	428	432	426	432	434	435	427	428	426	426	431	432	434	428	425	435	435	435	431	428	430	432	430	430	429	433	435	434	432	426	429	428	427	430	425	424	428	429	428	427	426	425	419	418	417	423	423	419	417	414	415	418	427	429	425	425	422	417	424	426	425	421	423	419	417	417	421	420	424	427	430	431	431	427	426	424	422	422	422	424	419	420	412	415	415	422	418	418	425	418	417	419	419	419	422	421	420	0	0	0	0	0	0	0
535	535	536	524	522	524	524	536	531	529	527	527	532	531	534	532	528	528	523	518	527	536	544	544	543	539	525	521	529	529	532	527	526	525	526	529	529	531	535	539	534	524	521	524	524	527	527	531	534	534	532	532	531	531	531	522	520	509	510	514	518	522	523	517	517	520	522	516	521	516	515	513	516	519	522	529	527	519	519	514	511	513	512	506	500	500	505	510	507	505	508	505	505	510	510	511	512	514	516	512	506	492	493	492	495	496	498	500	508	509	512	509	510	512	513	504	499	498	500	505	503	503	501	498	500	501	502	505	501	500	501	503	503	505	505	503	499	496	496	497	494	492	489	491	491	490	491	495	499	496	491	491	491	491	492	494	495	498	499	493	488	490	490	484	482	486	489	491	493	498	496	491	490	489	491	491	495	500	496	490	489	491	492	495	494	488	484	476	486	487	481	491	483	486	488	488	491	489	486	491	491	490	485	486	487	492	498	492	488	489	482	483	488	490	489	484	490	495	496	488	489	489	486	486	487	486	483	480	484	495	482	484	482	482	487	488	484	486	488	491	489	484	479	476	473	473	478	479	478	477	485	483	481	478	476	477	477	478	483	481	477	477	478	477	474	476	475	475	476	474	477	476	472	483	481	479	476	473	476	475	479	478	479	481	482	482	484	484	482	478	477	475	473	469	471	471	470	469	475	468	466	477	469	474	473	473	469	469	475	475	475	465	466	467	462	463	463	467	473	471	470	467	468	469	470	470	468	466	463	460	458	461	465	466	459	456	457	468	471	461	458	453	454	451	453	450	458	457	455	455	451	452	466	467	468	464	460	458	460	460	460	462	462	468	457	450	454	460	453	448	447	448	446	444	449	451	454	454	454	456	465	463	459	458	450	448	443	449	453	460	459	465	466	464	469	458	458	463	459	450	449	449	449	446	446	450	449	452	454	461	457	459	449	446	454	454	454	449	451	455	455	452	450	448	447	449	447	450	451	453	452	452	459	458	457	449	447	446	445	445	444	444	445	440	441	446	443	441	436	434	441	444	447	441	438	443	446	453	453	452	451	445	442	444	439	438	440	441	441	440	440	442	437	435	435	434	436	437	437	443	442	444	435	433	434	437	434	434	432	431	432	433	432	434	435	438	438	436	436	437	437	442	441	438	437	435	434	433	433	434	432	431	429	430	428	428	432	429	430	430	430	429	428	429	428	427	423	422	418	418	417	422	418	423	422	420	427	431	425	430	434	436	431	426	425	428	428	430	432	427	423	423	427	432	426	425	426	427	427	427	427	431	432	429	427	426	426	428	427	428	427	427	424	423	422	422	423	419	416	415	423	420	414	413	413	413	420	417	418	422	423	414	414	415	416	419	416	428	420	415	416	418	421	419	421	422	426	426	426	424	425	426	423	420	419	418	417	413	413	412	408	413	413	411	419	417	417	418	419	418	421	421	418	0	0	0	0	0	0	0
534	524	524	528	528	527	529	529	529	527	526	526	526	523	528	530	527	527	527	524	513	521	524	524	527	525	521	517	520	520	520	517	515	518	516	521	521	528	534	538	519	517	522	523	523	522	522	523	522	525	531	528	528	528	520	520	512	512	514	516	518	519	515	516	516	520	522	520	515	516	515	515	514	517	521	529	528	524	511	511	511	514	524	513	506	508	513	510	506	502	501	502	507	508	508	505	506	506	502	499	498	494	495	493	493	496	496	497	504	506	503	497	497	499	501	498	496	496	500	499	500	500	498	494	498	498	497	494	495	491	497	500	497	497	501	498	497	496	493	493	486	486	485	489	489	489	486	492	492	492	490	486	485	490	492	494	495	494	490	493	491	486	486	485	483	482	484	478	478	487	489	490	490	487	490	486	485	492	493	488	487	489	489	489	484	483	482	482	476	489	488	481	476	481	486	487	486	485	483	488	490	490	484	483	484	485	491	493	492	488	486	485	487	489	484	485	475	488	488	480	472	476	480	480	487	480	480	484	487	475	483	481	478	477	481	481	482	485	481	474	475	481	483	476	471	474	470	469	472	474	477	479	477	471	469	470	479	480	478	478	475	475	476	476	468	468	469	469	466	467	471	468	468	473	479	478	475	473	471	470	471	473	475	477	480	486	486	484	481	475	475	473	464	465	474	471	468	467	467	464	465	470	469	468	464	461	463	476	466	462	462	457	461	460	459	462	464	470	473	472	470	462	461	462	461	465	464	464	464	457	459	459	461	456	443	445	454	462	460	455	451	451	447	448	448	449	452	450	449	447	449	452	453	463	457	459	454	461	452	452	453	459	451	447	447	449	449	448	448	446	0	0	0	442	444	440	443	442	446	452	452	452	452	447	444	443	443	453	453	451	451	445	449	447	445	447	448	453	451	449	447	447	447	445	445	446	446	452	453	453	451	451	448	446	447	449	450	453	453	455	454	451	436	438	443	443	447	449	449	451	455	451	450	454	449	447	446	444	443	443	447	444	444	440	440	443	442	441	436	434	434	438	439	441	443	444	446	447	449	451	451	441	440	445	440	440	440	441	442	442	445	442	438	436	434	435	434	435	435	436	439	434	433	431	431	432	438	436	430	425	425	427	428	433	433	436	440	437	437	437	432	434	435	432	429	430	429	433	432	432	430	428	428	432	431	430	429	431	430	428	427	427	427	426	425	426	426	426	426	426	422	423	423	422	422	421	426	426	429	431	432	431	430	429	426	424	420	423	430	424	423	421	422	424	428	422	425	424	428	430	431	430	431	428	423	423	423	422	419	422	423	422	425	422	422	422	422	420	417	417	422	420	414	413	412	416	416	415	413	416	419	415	415	415	414	415	416	413	412	411	415	416	417	417	415	418	419	419	423	423	426	428	423	421	417	415	415	412	411	415	409	412	412	408	409	414	415	416	418	415	409	416	418	418	0	0	0	0	0	0
522	527	527	527	525	526	528	528	525	523	516	522	522	523	533	532	521	521	514	510	513	516	522	522	523	521	517	516	519	514	514	509	509	513	516	522	521	521	530	532	507	507	512	517	507	507	511	514	516	518	517	523	511	518	518	510	511	510	512	513	514	510	512	517	520	520	521	518	516	512	515	515	512	516	518	520	519	512	508	508	509	510	507	510	510	510	508	507	505	506	504	502	500	504	501	502	502	502	496	489	494	494	488	485	492	493	495	497	494	493	498	495	488	487	487	492	490	488	495	498	496	495	494	492	495	494	493	493	493	496	498	496	494	492	492	493	493	487	490	488	483	484	483	482	484	484	489	486	484	491	491	487	483	486	487	490	489	478	483	482	481	483	484	485	482	481	480	481	485	486	485	488	488	485	484	483	483	488	490	487	486	488	480	474	473	480	480	481	480	484	485	477	476	478	483	484	485	483	479	485	484	481	476	477	480	485	483	485	482	483	482	485	484	480	475	475	485	485	483	485	480	474	478	478	485	479	479	478	472	475	477	475	475	473	477	476	474	475	475	480	474	481	477	475	473	473	472	472	468	472	474	474	470	468	469	469	472	465	460	464	474	475	475	472	465	464	463	465	466	473	473	474	466	466	465	466	463	460	465	467	467	469	468	464	465	468	465	468	467	473	472	468	465	465	470	470	464	462	463	463	463	463	468	469	465	463	462	465	460	460	465	456	460	458	455	458	453	449	461	469	458	454	452	452	453	458	456	464	459	458	459	457	460	454	444	447	454	458	456	451	451	448	445	442	442	448	450	450	448	446	447	447	448	447	448	449	450	447	450	448	450	456	447	447	444	445	444	445	446	446	0	0	0	442	440	440	443	444	446	451	451	447	445	442	441	444	442	447	447	448	448	445	436	437	442	445	444	447	443	443	445	444	441	441	442	448	452	454	449	448	445	445	447	445	446	442	455	453	446	446	443	440	440	438	439	443	442	447	448	443	442	442	439	439	445	446	442	441	442	442	443	444	445	439	438	440	440	439	436	434	434	437	438	438	441	442	443	443	446	449	444	439	437	436	440	439	435	437	438	437	438	436	438	435	433	432	434	434	434	433	436	434	431	428	429	429	435	433	430	427	425	427	428	428	432	432	433	437	436	437	430	431	425	431	430	429	431	430	431	427	428	429	428	430	429	429	429	429	429	427	425	425	429	430	427	422	423	418	426	426	418	426	429	427	426	425	427	426	426	427	425	429	428	425	425	424	422	419	423	426	424	419	420	421	423	422	422	423	428	432	430	427	429	426	424	423	418	418	420	421	419	417	416	421	421	422	423	421	420	419	417	420	415	411	410	415	414	415	413	417	417	416	415	414	412	412	408	413	412	413	413	419	419	415	414	416	416	416	421	423	423	430	430	422	415	411	410	411	412	416	417	417	411	407	408	412	408	408	416	413	410	414	414	414	0	0	0	0	0	0
517	528	528	527	521	524	517	517	513	513	518	522	522	529	526	522	516	511	511	506	510	512	518	521	521	520	517	517	520	515	515	510	509	511	514	515	509	509	515	508	493	494	498	502	507	507	516	519	516	515	513	507	512	503	503	510	512	512	513	513	506	510	514	518	520	520	514	509	510	504	507	506	510	511	516	513	504	499	495	495	495	496	495	507	509	510	509	507	506	504	498	499	498	499	500	501	501	496	486	485	487	490	485	481	486	489	490	493	495	490	488	486	490	484	486	488	487	485	484	493	491	495	490	489	481	488	489	486	488	484	486	484	481	480	481	484	487	489	489	480	482	482	481	480	480	480	480	484	484	489	488	481	484	484	485	485	482	477	479	479	478	479	483	484	483	484	484	480	481	486	486	487	484	484	482	480	478	478	480	485	481	480	478	472	473	474	475	481	480	483	480	479	477	476	476	477	472	464	462	472	475	475	474	474	475	474	474	477	479	476	477	478	480	476	470	464	475	477	479	480	474	471	478	479	478	477	477	471	471	474	476	476	473	467	459	472	473	474	472	474	478	476	475	475	475	475	473	473	470	472	472	472	470	469	467	470	463	459	454	454	454	457	461	470	466	462	463	464	469	474	474	476	468	465	464	466	464	460	462	465	466	463	465	464	456	445	461	459	463	464	464	470	468	469	469	460	459	459	464	458	462	464	465	468	465	463	457	455	460	459	459	460	453	452	453	450	450	448	451	458	454	451	450	446	451	451	452	451	450	447	447	453	454	454	447	448	452	453	443	445	447	445	448	444	444	444	445	438	445	445	444	444	438	445	439	439	440	447	446	441	444	446	442	442	442	442	443	444	448	450	448	447	446	451	447	449	449	445	446	444	445	441	442	441	440	439	448	443	446	443	444	442	439	436	439	439	442	445	445	442	441	441	441	434	435	443	448	449	447	445	443	444	445	444	446	445	433	431	435	443	444	444	443	439	434	437	437	437	440	436	438	440	436	435	430	439	439	440	443	443	442	442	437	436	436	438	440	440	437	436	437	437	437	437	441	441	441	441	440	441	441	437	435	436	431	427	425	428	434	435	435	434	434	434	434	433	433	432	431	432	429	430	428	426	425	430	432	435	430	428	427	428	428	427	429	432	429	428	425	420	425	425	425	430	430	429	431	430	427	428	427	427	429	428	426	421	422	426	423	426	417	416	426	429	429	427	425	420	422	421	424	417	419	419	421	423	423	423	425	425	421	420	417	422	423	424	424	419	415	425	421	420	420	420	420	420	421	422	424	427	430	426	425	423	424	424	418	415	415	417	418	417	416	416	415	422	423	422	420	417	416	419	412	412	406	414	414	414	416	416	415	415	414	411	409	408	409	409	413	407	414	417	419	418	413	413	412	412	414	421	426	427	423	420	413	411	411	411	411	411	411	411	407	405	407	398	402	396	401	410	411	410	410	408	0	0	0	0	0	0
508	522	523	523	518	514	510	510	510	510	516	521	524	524	521	512	515	512	512	503	505	509	511	511	511	511	513	520	518	513	513	512	510	509	511	504	496	494	494	493	494	494	497	500	506	506	512	516	516	516	509	503	499	507	507	510	511	515	514	507	505	511	514	513	513	513	510	504	504	502	505	505	507	508	504	500	495	489	485	488	488	494	493	501	506	507	507	495	491	489	486	492	492	499	497	499	500	493	480	480	483	479	478	479	482	485	486	479	486	488	487	486	487	488	486	484	484	484	485	492	490	483	477	476	480	479	480	479	479	478	479	479	479	480	480	481	485	486	484	478	479	481	481	479	477	474	474	485	482	483	482	481	483	484	485	481	481	476	474	478	476	475	471	474	477	477	477	477	478	478	485	484	482	475	474	477	475	476	477	480	473	472	472	471	474	474	476	477	477	478	477	477	471	472	475	477	472	464	466	468	471	474	473	473	473	472	474	474	475	475	474	473	478	476	472	465	464	461	477	467	472	472	473	473	468	468	470	469	469	473	474	474	467	465	459	472	472	471	471	465	467	472	472	471	476	472	473	466	466	473	473	472	463	463	467	472	464	453	457	454	452	455	453	455	448	454	458	460	466	472	473	467	468	467	462	463	460	462	462	462	462	459	461	462	456	446	449	453	453	456	452	457	458	461	457	453	454	457	461	458	463	463	465	467	463	459	454	453	460	460	459	460	452	451	452	451	446	443	441	446	446	447	447	446	447	447	448	448	444	448	447	451	452	447	444	445	448	447	446	442	445	443	442	441	444	447	444	441	440	439	440	438	433	435	436	438	435	438	440	440	441	441	438	437	436	438	438	442	444	434	432	431	439	442	440	441	437	434	440	446	441	440	437	437	437	438	440	442	440	442	441	439	438	436	439	439	438	441	439	437	436	436	436	436	435	436	437	445	444	443	434	439	443	444	432	427	428	427	431	431	444	442	438	430	434	433	433	434	435	440	440	443	438	434	436	433	438	440	443	444	441	436	432	429	436	439	442	439	438	440	440	437	437	436	438	437	437	437	432	435	434	429	433	432	427	423	425	429	433	434	432	433	433	434	433	433	431	429	427	430	429	429	428	424	425	425	427	430	429	428	428	427	425	429	430	429	427	417	417	426	429	430	426	426	428	428	423	422	425	427	427	426	426	426	423	417	417	418	418	418	417	420	425	425	430	428	425	422	422	421	423	416	416	417	421	424	421	417	421	423	418	410	410	417	423	424	423	420	419	417	416	417	418	418	417	419	418	420	422	425	422	420	415	414	417	421	423	424	414	412	416	415	414	409	414	412	414	422	416	416	414	417	406	406	408	404	412	415	415	416	416	415	414	413	412	410	408	408	411	408	415	415	417	417	411	411	412	406	405	411	414	414	412	411	414	411	410	407	407	404	404	404	403	401	399	394	396	399	399	408	409	410	410	408	0	0	0	0	0	0
506	516	518	518	518	508	508	509	509	506	512	516	513	513	508	509	513	515	515	512	510	510	506	505	505	507	511	514	517	512	511	511	514	510	503	499	497	498	498	497	496	495	497	501	506	510	510	510	508	512	511	508	503	501	510	510	511	510	504	502	505	509	508	505	503	501	501	496	494	491	485	495	497	498	502	495	496	489	488	489	489	489	491	499	500	490	494	491	489	488	484	492	489	493	495	494	483	479	474	478	481	487	487	480	482	483	482	481	479	478	479	480	487	492	487	484	483	483	488	492	490	485	477	477	476	475	472	475	474	474	476	477	479	479	479	479	481	481	481	476	477	477	478	476	473	473	474	482	481	481	479	477	483	482	482	482	480	473	472	474	473	465	469	477	478	476	475	479	475	475	482	482	474	473	473	471	473	474	476	474	471	471	471	470	471	473	474	475	467	464	477	471	468	469	472	475	476	472	466	468	473	473	472	470	469	468	468	467	470	465	466	470	472	458	461	460	460	461	460	468	469	465	467	466	464	465	466	467	470	472	473	467	465	464	463	465	483	475	464	464	471	467	467	467	467	464	467	465	461	463	462	463	461	462	463	467	468	458	454	454	454	455	456	455	455	447	451	457	461	465	465	466	466	466	464	461	461	461	463	462	462	459	460	461	454	446	449	453	456	457	455	458	459	462	452	453	454	453	457	459	461	461	466	463	461	455	453	454	460	458	460	451	451	452	451	447	447	446	441	448	447	447	446	441	441	441	444	445	446	447	446	453	451	446	452	451	452	453	450	445	444	445	444	444	444	451	446	442	442	442	441	436	435	437	438	437	438	440	437	437	437	438	435	441	442	435	441	449	444	438	434	433	434	439	439	437	435	435	438	440	441	437	442	436	435	436	439	441	441	441	438	435	434	434	440	437	441	443	440	436	432	426	429	433	434	434	434	432	437	431	433	433	431	434	432	428	429	428	429	431	440	435	428	427	430	431	432	431	433	437	441	443	440	431	430	427	428	429	433	439	443	435	432	430	436	439	441	437	440	439	440	435	431	429	427	428	426	427	427	423	429	426	422	421	418	418	418	426	430	428	428	427	433	433	429	426	428	427	427	426	425	426	426	424	422	420	420	413	413	416	417	424	424	424	425	426	425	417	417	428	431	430	423	425	425	422	416	415	414	414	423	417	427	424	420	414	412	410	414	417	419	424	425	424	416	418	418	417	421	420	409	412	414	421	421	415	417	416	419	416	416	412	412	413	416	422	422	422	423	419	412	418	417	415	414	415	418	420	419	419	418	418	413	411	414	418	423	425	413	410	412	409	404	405	404	411	415	414	414	410	402	402	405	404	406	405	413	415	415	414	417	415	408	407	408	410	409	409	408	410	410	413	413	412	412	406	402	403	400	405	404	401	404	404	407	405	405	403	399	401	401	404	403	401	396	397	397	398	398	400	403	403	408	407	0	0	0	0	0	0
510	514	513	513	511	504	507	504	504	502	507	509	504	504	501	506	512	515	516	516	513	510	504	499	500	500	508	510	511	509	514	514	513	500	497	501	499	499	499	499	497	495	496	495	493	490	490	493	497	495	497	495	496	495	500	500	503	501	497	496	502	507	502	496	493	493	493	491	489	479	476	476	479	500	494	488	486	500	498	492	489	489	489	493	489	487	489	490	488	487	486	486	489	489	489	480	469	471	475	475	480	480	488	489	477	475	476	476	476	476	471	472	482	486	485	481	479	480	485	486	482	485	479	475	475	475	472	471	471	473	474	475	475	476	474	482	477	475	474	474	475	476	476	473	472	472	476	478	477	477	475	472	470	469	471	481	480	475	469	462	461	463	472	473	473	478	481	479	475	475	481	479	472	471	474	472	472	471	473	474	472	472	470	466	468	471	470	463	462	474	475	470	467	472	477	478	477	471	462	463	467	469	469	469	463	461	460	463	463	463	460	467	470	457	455	454	457	459	460	460	457	466	465	460	463	465	470	469	467	463	462	463	465	463	463	467	470	467	463	464	462	462	464	465	464	470	469	467	462	461	457	458	458	459	459	463	463	462	453	452	456	456	453	453	452	446	449	457	457	458	458	454	455	459	456	456	457	458	458	457	462	462	461	461	454	455	454	454	455	456	456	454	457	457	453	447	449	449	454	456	456	458	455	458	458	455	453	452	454	456	449	448	447	448	445	444	441	443	443	439	437	438	440	440	443	445	446	446	446	446	448	447	442	450	448	453	451	453	451	446	443	441	443	443	446	446	442	441	441	442	441	438	437	437	439	436	437	439	436	436	435	435	443	439	435	436	437	444	444	440	434	433	433	440	440	442	441	440	436	442	436	438	439	433	429	430	436	440	440	439	439	436	435	434	432	432	437	437	433	430	427	422	425	428	431	430	425	424	425	431	428	431	430	431	428	427	428	428	430	431	428	428	424	423	431	431	431	431	433	430	427	424	429	423	419	418	422	422	423	431	431	425	424	429	429	432	435	435	432	429	430	435	430	428	427	426	424	426	426	428	422	419	417	417	413	416	419	421	423	423	426	424	420	420	417	422	422	425	419	417	417	417	416	420	422	415	414	411	416	413	416	419	422	420	427	426	419	416	416	423	429	428	425	425	423	421	415	414	413	413	413	417	417	417	420	423	419	415	416	415	409	0	397	404	400	413	419	418	416	413	414	417	420	421	422	424	415	410	414	414	417	417	418	409	412	407	411	416	416	414	412	413	415	420	416	411	414	412	414	411	410	413	411	408	410	413	418	408	407	405	403	404	404	404	404	405	410	408	411	408	403	402	400	402	404	405	411	412	412	411	409	405	404	404	406	407	406	406	404	404	403	403	403	411	409	402	402	402	403	398	397	400	401	402	402	401	394	393	397	397	400	400	400	398	398	398	397	396	394	398	399	399	406	403	0	0	0	0	0	0
499	500	501	501	503	502	503	501	501	499	502	499	493	495	495	502	505	511	515	515	514	509	494	492	494	494	505	518	508	503	500	498	498	495	497	501	498	500	498	498	495	494	492	489	492	494	495	495	494	497	494	487	487	488	496	500	500	500	499	498	500	501	495	486	485	483	486	486	484	481	479	479	482	491	483	482	494	496	495	493	491	486	486	480	485	487	487	487	487	486	477	476	482	483	482	475	473	471	474	473	479	477	474	473	471	471	477	476	475	476	476	470	468	475	482	480	477	478	478	478	477	476	476	475	473	472	469	468	468	471	470	475	477	481	469	461	458	458	465	473	474	474	470	469	469	472	473	475	476	474	472	470	466	466	467	469	470	470	469	468	463	464	466	468	472	470	475	479	476	471	473	468	468	467	472	468	467	465	469	471	469	470	469	467	467	468	464	465	469	470	466	461	470	472	474	476	474	468	465	462	467	463	459	462	462	462	460	462	467	464	457	456	450	450	451	455	448	457	458	448	452	457	465	460	461	458	462	459	457	459	459	457	462	460	453	464	459	466	465	462	462	462	464	469	469	468	469	464	461	452	455	458	460	457	456	454	455	452	453	453	459	453	456	450	449	447	448	452	454	453	449	450	455	453	451	452	449	453	451	450	450	460	460	459	459	457	455	454	454	451	451	451	451	449	452	449	445	445	447	448	450	448	448	448	449	447	449	447	446	451	447	447	448	446	445	443	442	443	442	437	436	439	439	439	441	445	442	441	443	444	443	447	445	443	445	453	448	449	448	443	439	441	442	441	440	440	440	442	439	438	435	431	433	436	436	436	438	432	436	440	437	439	439	439	430	432	431	441	439	434	427	429	431	434	434	435	437	436	436	435	432	438	431	423	427	435	433	435	437	437	437	437	436	433	430	436	438	435	431	429	425	421	426	426	424	425	426	424	424	426	427	430	431	431	431	431	426	430	431	431	431	418	421	427	427	430	430	427	429	429	426	424	426	421	419	418	420	421	420	422	425	425	424	420	420	423	431	429	431	425	422	430	428	425	426	424	424	425	423	424	424	423	423	421	420	419	419	419	420	420	423	421	416	415	419	420	420	419	416	417	416	415	412	410	408	412	416	415	415	418	417	413	413	421	423	416	412	411	409	409	419	419	418	423	422	421	411	418	410	414	413	414	417	418	400	407	410	409	410	0	0	0	395	401	408	412	411	411	413	418	413	414	416	418	418	416	407	405	409	411	414	416	416	415	413	411	410	412	413	412	411	411	412	411	404	408	410	412	412	410	406	403	403	404	406	418	416	412	407	407	404	404	405	404	405	410	410	407	408	403	400	397	396	399	401	401	405	406	405	403	399	398	398	401	403	405	404	398	400	404	403	401	400	403	399	401	404	402	400	400	398	399	402	403	404	397	393	395	394	394	401	402	402	398	397	396	396	396	394	396	395	395	396	396	0	0	0	0	0	0
501	502	502	501	501	502	497	495	495	495	497	494	488	491	491	496	500	505	507	507	513	503	487	477	482	482	497	504	501	501	494	494	494	493	497	499	498	500	500	500	493	492	489	489	492	494	494	494	493	496	494	489	483	484	495	501	501	500	499	498	498	497	492	484	480	479	483	483	484	484	483	485	486	484	481	481	493	493	495	492	489	487	482	482	479	480	476	477	476	474	474	475	474	475	476	473	472	474	475	478	478	475	473	473	473	474	475	478	478	479	477	474	473	468	470	472	473	473	474	474	474	477	478	477	476	469	470	463	460	466	472	476	478	477	476	467	458	458	464	467	468	468	468	466	467	470	472	473	471	472	468	467	465	465	466	467	470	469	467	469	466	464	467	469	469	469	463	473	469	469	467	457	458	464	465	467	466	465	471	462	460	460	467	464	466	467	466	466	468	464	465	461	462	465	464	464	460	465	464	453	463	462	458	460	461	462	458	455	453	454	454	456	456	451	452	454	453	450	446	444	447	454	463	456	455	456	468	464	459	457	452	459	457	452	451	454	459	466	459	461	462	463	461	467	461	457	459	462	451	451	455	457	462	461	455	452	451	450	453	458	459	451	448	448	445	444	439	450	449	442	451	448	447	450	449	448	449	450	446	447	447	450	458	453	453	453	452	450	450	449	449	447	450	441	443	443	442	442	443	441	444	434	436	443	446	446	446	444	445	440	439	447	445	445	442	441	439	438	442	437	435	439	441	443	441	441	435	435	437	441	438	441	443	441	437	439	439	437	436	432	434	437	439	441	438	437	438	438	439	434	432	429	433	436	435	435	430	429	429	436	436	434	437	437	439	431	432	436	435	434	435	429	427	427	427	427	432	435	435	435	431	435	427	428	433	432	436	436	433	434	436	436	432	429	426	431	431	434	431	423	425	425	426	428	427	423	424	424	425	425	424	424	423	419	420	425	426	421	422	432	431	425	420	421	428	427	425	423	425	424	424	422	424	421	418	413	423	420	421	424	427	430	426	423	426	429	428	427	427	423	423	422	427	427	425	424	422	419	419	422	422	416	422	419	423	422	414	416	421	419	419	419	415	416	415	418	414	412	414	415	418	416	412	411	411	413	414	416	418	418	414	407	409	416	418	416	415	413	406	406	406	409	408	412	417	422	418	417	411	411	412	408	408	406	398	404	409	409	412	415	412	402	401	400	405	410	412	413	412	412	411	407	405	406	411	410	404	403	407	411	413	415	415	407	412	408	408	410	411	407	407	405	404	403	403	404	402	401	407	406	403	401	402	402	408	409	411	408	405	405	404	403	404	405	410	410	410	408	409	402	399	394	396	399	400	392	386	404	392	399	395	398	398	399	402	403	401	400	403	402	403	402	402	400	398	405	402	401	398	399	402	400	401	404	406	399	397	395	395	395	397	398	397	393	395	398	397	396	394	394	394	394	395	395	0	0	0	0	0	0
502	502	501	497	497	496	493	490	490	490	491	488	485	490	490	491	494	495	497	497	497	498	481	480	483	492	492	496	493	495	495	494	494	496	497	496	497	498	496	496	490	489	487	488	492	488	485	485	491	494	491	485	484	485	493	493	493	493	493	493	495	494	490	479	476	479	483	481	481	479	481	481	483	483	479	479	480	491	492	491	493	492	490	490	484	479	477	475	474	469	473	472	471	472	470	471	473	470	471	473	475	473	467	465	467	471	473	475	475	474	472	470	468	467	475	470	469	473	475	473	478	478	479	477	475	472	465	463	467	474	475	477	476	475	475	465	462	462	463	465	466	465	462	459	458	457	464	466	465	463	463	465	466	466	466	469	470	470	464	463	462	463	464	464	459	461	462	463	466	462	455	458	458	456	460	456	459	460	458	459	456	454	455	459	462	458	464	467	466	463	462	461	464	462	461	461	461	461	460	455	447	447	447	449	453	455	445	448	448	453	454	455	456	450	452	454	452	452	444	444	448	449	454	457	459	457	452	450	446	446	451	457	457	451	451	451	463	452	455	460	460	462	459	456	450	450	451	452	450	451	451	452	446	448	452	450	450	446	448	456	454	451	450	448	447	439	438	439	439	440	437	441	445	447	447	447	448	449	445	447	447	444	444	449	449	450	444	442	442	442	445	439	448	437	441	441	443	441	441	438	432	432	434	437	441	439	443	443	438	439	438	444	445	442	441	440	439	437	438	436	434	434	436	437	437	435	434	435	436	438	439	436	433	425	428	428	426	421	419	419	420	421	421	433	435	432	435	433	434	436	431	428	431	432	434	435	427	429	425	440	435	435	0	0	0	431	435	434	0	0	0	0	0	0	0	0	0	430	428	430	434	430	430	433	434	435	435	435	431	432	432	436	431	429	424	424	423	424	424	422	422	425	423	426	426	416	422	425	424	424	424	421	420	420	424	419	419	420	420	422	430	428	422	421	421	419	417	418	422	424	424	422	422	418	416	411	424	423	421	423	423	429	426	423	427	428	426	422	420	419	420	420	419	419	420	421	419	417	418	416	416	417	418	418	415	420	419	412	410	409	414	415	415	415	408	405	407	407	412	416	419	419	413	409	409	412	409	411	408	406	405	406	411	406	411	411	413	406	406	405	407	408	408	411	408	410	406	410	407	409	410	411	410	409	402	405	409	415	412	411	412	412	410	411	413	408	412	411	412	407	406	406	403	403	403	405	404	405	405	407	412	413	414	407	405	410	408	410	404	404	403	402	400	399	407	407	404	401	399	399	401	401	401	401	405	406	404	400	400	399	403	402	402	407	398	407	410	409	407	400	396	394	392	397	394	392	392	392	395	391	394	396	397	398	398	396	397	392	398	397	396	396	397	400	401	400	400	398	397	399	397	398	398	400	404	401	398	395	395	395	395	394	393	391	391	392	397	396	394	395	394	394	394	394	0	0	0	0	0	0
497	495	489	484	484	489	493	485	486	486	491	485	482	488	487	487	489	489	491	490	490	490	481	482	488	491	491	492	488	494	495	495	489	489	491	491	492	491	491	490	485	484	484	490	490	482	481	479	479	478	479	479	480	487	491	493	493	493	490	488	490	490	485	481	475	479	480	479	479	478	476	479	481	481	478	475	478	481	486	490	489	487	480	476	476	476	477	475	462	461	467	471	469	466	466	466	466	465	466	470	472	470	464	463	466	468	469	467	466	469	464	463	459	463	467	468	468	464	467	469	473	477	476	476	471	470	455	460	464	471	468	460	460	460	460	468	461	461	462	464	465	465	457	455	455	455	453	449	452	455	455	460	462	468	468	469	468	467	463	462	462	462	459	458	456	454	456	454	454	454	458	459	460	462	454	459	458	461	462	458	455	453	450	450	452	448	457	456	457	456	451	451	452	454	458	459	459	459	458	454	450	447	446	449	453	452	448	443	447	451	452	449	453	444	444	448	451	447	444	437	440	446	453	455	453	451	450	450	448	448	452	454	455	456	448	451	451	453	459	458	454	450	447	446	447	446	445	445	443	447	451	448	445	445	446	447	447	445	443	450	448	450	448	448	442	439	439	438	432	436	437	440	441	443	443	443	447	447	442	441	438	439	442	443	443	446	437	438	439	439	440	438	437	437	436	438	435	435	437	433	433	433	436	441	436	438	440	441	444	435	431	432	434	436	436	437	438	437	436	0	0	435	433	432	434	432	432	432	433	434	432	436	429	427	427	426	422	422	421	419	421	421	425	429	427	436	437	422	425	424	429	428	429	432	434	429	431	430	425	429	424	424	0	0	0	423	422	0	0	0	0	0	0	0	0	0	0	426	427	428	430	428	432	433	434	432	430	424	429	430	422	422	424	426	423	419	424	423	421	421	421	424	418	422	423	416	419	422	421	424	422	421	421	421	420	419	420	419	419	419	416	414	414	415	418	418	414	418	419	423	422	422	420	417	414	417	421	422	418	418	419	424	423	423	414	416	419	419	418	420	419	418	419	417	416	418	416	415	412	412	412	417	417	415	412	415	416	415	414	409	413	412	409	407	404	401	402	407	410	415	421	414	411	408	409	408	409	407	406	404	403	403	405	406	406	407	405	403	402	404	404	406	404	403	401	400	400	402	405	405	406	408	408	408	408	412	413	412	406	406	407	408	407	410	413	405	405	411	406	405	406	403	403	403	405	404	405	404	403	404	404	403	403	401	403	407	406	405	400	400	405	404	399	398	407	407	406	401	398	401	405	403	402	398	400	400	398	395	396	396	400	399	400	394	399	391	394	395	394	393	392	386	396	399	394	391	389	391	392	393	395	396	395	394	393	395	396	392	398	396	395	395	396	394	393	399	391	388	388	396	394	396	399	397	394	397	398	398	394	394	390	392	391	391	387	386	386	386	389	389	395	395	394	393	0	0	0	0	0	0
490	487	484	481	483	483	486	481	491	488	488	483	483	487	487	487	485	483	482	490	486	486	482	483	487	487	485	485	485	489	486	485	485	485	483	484	484	486	486	485	485	483	486	487	480	479	479	478	478	478	478	479	483	486	489	489	489	483	483	483	488	486	484	472	475	470	477	476	475	475	474	475	477	476	473	474	470	469	471	474	473	471	461	464	466	466	463	461	461	462	466	469	464	463	465	466	464	463	462	460	461	461	461	461	462	464	463	465	467	466	464	462	459	460	463	465	460	458	462	464	465	459	461	466	465	463	462	460	461	462	460	456	455	458	462	463	459	456	454	450	446	453	449	451	451	452	454	452	450	448	445	444	450	452	458	454	456	460	454	454	456	458	455	451	449	445	444	450	450	452	451	454	459	462	460	456	452	453	457	457	454	452	451	447	445	443	452	447	450	450	450	449	450	452	453	452	454	456	455	450	450	446	444	448	451	451	450	444	447	451	447	446	443	448	448	437	446	443	442	440	441	444	445	444	443	448	450	444	441	441	447	447	450	441	439	437	445	447	454	452	448	443	442	443	443	443	437	439	448	450	447	445	444	444	440	444	445	445	443	445	450	449	448	445	440	440	440	431	433	436	436	438	435	439	442	445	446	439	435	435	436	438	438	438	438	434	438	438	435	435	437	440	434	434	430	429	431	435	433	432	433	436	439	440	439	438	433	434	441	432	432	435	437	435	431	431	0	0	0	0	0	430	433	430	429	0	0	0	0	0	429	432	425	426	424	425	425	424	422	420	422	422	422	424	430	423	424	423	426	431	429	428	429	425	430	433	430	430	425	426	420	426	426	430	429	427	418	0	0	0	0	0	0	0	0	0	423	424	427	426	423	427	428	424	423	421	419	420	422	420	417	418	421	422	417	421	423	419	417	416	416	416	415	417	418	418	417	417	420	420	421	421	419	420	418	420	418	417	414	417	415	412	412	416	419	419	419	420	424	419	420	417	417	419	413	412	418	421	416	415	415	410	410	410	410	413	413	414	414	415	419	418	415	416	415	415	413	411	410	411	412	411	417	414	411	412	412	413	412	409	408	408	407	408	407	407	406	407	409	411	414	411	409	408	406	407	408	408	405	403	402	404	407	407	403	399	401	403	405	404	406	408	406	403	401	399	399	400	400	402	403	406	406	408	408	412	412	410	408	404	407	407	405	406	403	403	403	402	402	403	400	400	402	402	403	402	403	401	402	403	399	392	395	391	399	401	388	397	397	398	401	400	399	397	398	399	401	397	399	402	401	396	396	399	400	400	399	394	394	395	398	397	394	391	391	393	389	389	389	389	392	392	388	388	393	390	390	391	393	395	400	397	395	395	396	395	395	393	395	394	394	394	393	396	392	391	389	386	384	387	392	393	393	393	392	394	393	393	393	392	388	387	388	388	388	386	383	381	383	383	390	395	391	393	0	0	0	0	0	0
486	487	483	483	480	480	481	484	484	481	481	480	482	485	485	485	482	479	481	492	487	487	481	483	483	481	478	478	479	484	483	481	481	481	479	479	482	481	482	481	483	481	480	478	473	473	477	479	481	481	481	477	480	484	485	486	483	482	482	483	486	473	474	469	474	469	468	472	471	471	471	471	474	470	469	468	465	469	469	470	468	465	464	465	465	465	463	461	460	463	465	463	460	462	464	463	460	460	460	460	460	459	454	457	458	459	456	458	459	461	461	459	458	458	459	461	457	458	458	459	458	458	452	461	464	463	458	456	456	456	456	455	452	453	458	461	455	451	447	440	447	446	450	451	452	453	457	454	451	449	446	444	444	451	453	452	449	448	454	453	451	448	449	444	448	450	449	449	445	447	448	448	446	450	456	453	447	449	453	454	451	449	451	449	446	443	445	445	448	447	446	448	446	446	449	451	444	441	442	445	440	441	441	442	445	450	449	445	448	449	445	443	442	442	438	440	442	440	440	443	445	444	441	440	440	445	446	442	441	442	445	449	446	434	433	437	440	440	441	443	443	446	439	442	443	441	441	441	444	445	447	444	445	436	443	443	443	442	443	439	436	434	438	438	437	437	435	433	431	433	434	436	440	435	442	445	437	433	433	435	432	432	434	436	434	433	437	435	431	436	435	433	432	431	426	421	423	423	436	430	435	434	435	431	430	431	433	438	431	425	427	431	433	426	426	426	0	0	0	0	0	430	430	430	430	0	0	0	0	0	430	427	425	423	426	428	427	422	421	419	422	427	420	423	423	422	426	424	429	425	423	426	427	423	424	431	429	428	422	420	414	413	425	428	425	415	421	416	0	0	0	0	0	0	0	417	421	423	426	423	421	425	418	416	415	414	413	420	417	415	414	414	416	416	416	413	413	412	414	414	413	413	411	412	415	416	417	417	419	419	419	418	417	404	419	415	413	416	415	413	413	411	412	415	417	419	419	416	418	417	417	416	417	415	413	415	412	415	412	416	411	410	408	408	408	409	412	412	413	409	413	414	413	413	410	408	406	404	405	407	407	407	407	411	409	411	410	411	411	408	408	406	408	409	409	408	404	408	410	403	412	410	410	407	404	404	404	400	402	403	404	403	404	405	399	399	403	404	404	404	408	409	406	404	403	397	396	396	398	399	398	400	404	406	400	412	413	402	400	401	401	400	406	403	393	395	396	398	401	401	397	401	401	401	401	400	401	400	402	400	400	392	390	385	384	384	395	395	396	395	396	396	397	397	398	402	399	401	395	401	395	391	389	388	388	389	397	396	399	399	399	398	392	389	391	392	395	391	393	392	393	395	391	387	385	384	388	390	394	399	402	399	397	397	398	393	392	393	388	388	391	391	390	388	385	392	387	384	384	387	392	393	392	390	391	391	391	390	390	393	388	385	386	387	386	383	382	382	382	383	383	389	389	384	0	0	0	0	0	0
485	485	482	482	478	478	477	484	475	477	477	481	483	481	481	472	472	474	481	491	486	486	482	481	465	462	470	470	476	482	484	480	479	474	474	474	474	476	483	486	481	471	476	473	473	473	475	478	482	482	477	465	464	467	468	470	472	476	478	478	477	470	471	466	466	466	464	466	466	466	466	470	467	464	469	462	459	454	462	462	462	462	462	462	465	464	465	463	464	464	462	460	457	457	460	461	455	457	457	457	454	452	451	454	456	456	454	455	456	458	458	458	457	457	456	456	458	456	457	456	454	451	454	453	461	459	456	452	449	448	453	450	450	450	447	445	448	450	449	451	448	446	449	450	452	452	457	453	449	446	445	444	445	449	451	449	447	447	444	443	442	439	443	447	451	450	450	448	443	444	445	445	448	449	449	451	449	450	450	444	444	449	437	443	439	441	448	443	443	441	440	436	437	444	442	442	436	437	437	443	440	441	442	445	443	440	439	440	434	444	444	442	439	435	435	437	438	439	441	443	445	437	438	438	438	442	441	439	441	443	445	444	438	432	433	437	443	435	436	438	436	437	439	438	441	442	441	441	442	443	445	445	437	439	441	442	441	441	437	438	432	429	436	435	433	432	430	429	430	433	435	436	435	436	440	440	440	431	432	431	433	434	434	433	433	433	437	435	429	430	433	432	426	421	422	426	424	423	422	421	424	430	433	427	428	434	432	431	422	423	0	0	0	425	426	425	429	431	434	434	0	0	432	431	429	428	429	432	430	429	428	426	423	422	423	423	426	426	420	419	420	418	422	420	422	422	421	424	424	423	422	422	423	423	419	422	422	422	421	418	414	412	424	425	422	411	414	412	0	0	0	0	0	0	0	0	422	416	417	416	421	420	417	415	420	419	421	417	414	414	414	413	413	413	414	411	411	409	409	411	411	411	408	408	409	411	418	418	413	413	412	418	413	405	416	414	414	412	410	409	410	410	414	416	417	420	418	416	413	412	415	416	418	412	411	412	408	405	418	411	409	405	410	410	410	410	410	410	408	407	403	403	404	404	404	406	405	402	401	401	404	405	407	405	404	406	408	409	409	406	401	399	400	403	404	405	403	409	410	407	400	408	405	401	399	397	400	401	399	398	398	401	403	405	399	396	393	393	393	391	392	395	400	399	398	397	396	394	395	397	398	399	400	402	398	402	399	399	398	402	401	400	401	391	392	395	398	402	404	397	396	396	394	394	397	403	400	400	402	395	394	392	388	388	383	385	390	391	394	395	395	394	388	388	389	382	384	399	400	397	391	391	387	388	386	386	390	389	388	388	398	396	395	394	393	393	395	394	393	393	393	393	388	386	385	386	385	388	389	394	396	396	393	393	395	392	391	383	383	387	387	390	390	387	387	385	390	391	393	393	392	387	387	386	389	390	390	389	387	387	383	384	379	383	382	381	378	380	380	380	383	381	377	0	0	0	0	0	0	0
480	480	484	477	473	466	466	474	471	472	478	478	477	474	473	469	469	473	488	487	484	478	478	481	458	458	467	473	473	479	481	480	470	465	465	465	467	471	473	472	471	473	471	470	470	470	473	478	478	477	477	461	465	466	461	462	464	468	473	473	473	469	468	465	463	463	463	463	465	467	466	466	461	465	459	457	455	455	452	454	456	460	461	463	465	465	466	466	467	462	462	460	457	452	454	457	449	450	455	451	451	451	452	451	452	454	454	454	453	454	457	455	456	452	452	453	456	455	444	443	443	444	446	456	456	457	452	445	445	452	446	447	450	451	445	441	440	440	440	447	449	443	444	447	446	438	439	440	436	435	434	435	437	441	443	448	444	445	441	441	440	441	442	441	445	447	448	447	445	435	442	443	446	446	448	448	449	450	449	445	445	437	432	433	435	435	441	442	443	439	440	435	435	437	438	427	433	437	439	437	440	444	443	442	440	438	437	440	433	432	431	435	434	435	437	438	442	442	442	443	449	447	434	438	439	439	439	436	442	445	436	443	440	435	434	435	436	437	436	437	433	433	436	432	433	430	441	441	437	437	445	441	439	437	440	440	439	432	428	435	430	433	425	427	429	428	428	430	430	434	439	439	426	427	433	436	435	434	430	431	432	433	434	434	433	432	434	434	421	421	422	421	426	422	422	427	426	426	425	425	424	429	427	426	424	417	417	422	427	421	416	417	0	423	422	427	428	429	430	0	0	0	0	0	0	429	429	431	425	427	427	425	423	422	419	419	422	420	419	420	419	421	422	421	421	421	421	419	419	421	421	421	423	417	415	413	420	421	418	418	416	412	412	410	413	414	411	0	0	0	0	0	0	0	0	0	0	0	0	0	0	0	0	0	0	0	0	0	0	0	0	414	412	410	411	411	407	411	410	408	407	403	402	404	404	404	405	0	0	0	0	0	0	0	416	417	418	415	409	408	409	410	411	412	413	413	413	410	410	409	410	410	406	408	409	406	405	405	405	403	407	409	408	406	405	405	407	408	407	405	402	402	404	404	404	405	405	402	401	401	402	401	406	404	403	404	405	406	407	404	403	400	400	402	403	405	408	405	409	403	401	401	403	404	393	394	395	394	392	397	397	400	400	400	397	394	387	387	387	385	384	387	394	397	397	397	397	397	396	396	398	397	396	395	396	397	402	400	399	397	395	392	391	392	395	397	399	398	394	394	394	392	392	388	400	401	394	393	392	391	392	391	392	392	388	389	378	381	384	383	385	386	386	387	387	388	382	381	383	389	392	392	392	389	386	385	385	385	388	387	385	388	393	394	394	392	392	392	391	392	391	391	387	384	383	385	380	385	384	383	380	378	380	381	383	383	386	386	386	382	380	383	384	384	384	384	389	389	391	382	387	387	383	383	386	386	389	388	385	385	380	379	380	383	380	379	377	377	376	378	380	378	0	0	0	0	0	0	0	0
478	478	479	474	466	466	466	467	471	464	462	462	462	464	465	475	475	478	486	485	476	476	476	462	458	457	464	472	472	475	477	470	466	464	462	462	463	468	468	471	473	464	464	465	465	468	476	472	471	463	463	461	464	466	467	465	466	463	464	464	470	465	465	460	458	459	461	462	464	466	466	466	461	462	456	455	453	451	452	454	454	455	455	458	461	459	457	457	458	458	452	451	449	447	448	448	447	448	446	446	451	451	451	450	450	454	452	453	453	454	454	454	451	444	445	449	447	446	445	444	444	445	449	453	454	453	446	444	443	443	443	441	444	450	440	430	435	437	440	448	449	450	447	441	438	437	439	430	432	435	433	435	437	440	440	440	442	438	437	439	443	443	438	438	439	439	445	446	446	437	440	442	445	441	441	447	448	448	443	435	441	438	434	433	436	435	433	429	427	429	432	434	436	436	427	430	435	435	434	435	441	435	435	438	439	436	435	437	432	431	437	438	435	431	429	429	432	434	446	446	441	439	438	442	437	438	436	438	441	444	440	430	425	433	434	434	434	436	435	434	428	427	428	431	433	433	427	427	427	435	439	443	438	437	426	436	427	426	426	432	426	426	423	423	426	425	427	429	430	434	430	425	424	424	429	433	433	430	429	428	428	429	432	433	432	433	430	429	421	422	420	420	421	420	426	423	424	427	422	426	427	427	427	425	423	416	417	419	425	420	414	414	415	417	419	421	421	420	0	0	0	0	0	0	0	0	0	0	420	421	424	423	422	421	420	418	420	418	418	418	419	422	423	420	421	421	421	422	420	420	420	417	417	412	410	414	416	0	0	0	412	411	413	413	411	411	0	0	0	414	415	0	0	0	0	0	0	0	0	0	0	0	0	0	0	0	0	0	0	0	0	0	410	413	409	407	406	411	410	410	407	405	403	402	402	409	0	0	0	0	0	0	0	0	0	415	413	411	406	409	409	410	411	411	410	413	412	407	408	401	400	405	406	406	408	403	401	403	404	0	0	0	408	405	404	405	406	406	404	403	402	402	400	403	403	404	402	401	401	400	402	401	405	402	402	404	404	405	404	402	404	403	399	402	401	403	399	402	403	401	398	397	395	395	394	394	390	392	391	395	398	392	0	0	0	0	387	0	0	0	0	0	389	391	391	392	394	394	396	389	388	396	393	396	396	402	399	400	398	397	396	390	391	392	392	396	394	394	392	390	391	387	395	393	388	393	392	391	389	388	386	385	390	387	385	384	380	380	382	382	382	384	383	384	384	385	380	378	386	387	386	390	390	390	385	385	381	380	384	384	384	383	381	394	393	392	391	391	388	388	388	384	379	379	382	380	381	383	383	379	379	377	376	379	381	381	380	380	381	379	384	385	389	384	382	379	373	381	384	382	384	387	383	382	386	386	391	390	385	383	379	375	379	379	380	377	376	376	376	376	377	0	0	0	0	0	0	0	0	0
474	471	471	466	462	465	465	467	471	464	462	462	463	464	463	464	466	466	471	476	474	464	464	459	457	458	460	465	465	467	470	464	463	462	460	460	461	462	467	467	466	462	462	458	464	468	473	465	459	458	458	456	458	461	464	465	465	465	464	463	463	459	458	458	457	455	455	460	463	465	451	450	450	454	454	452	452	450	451	452	454	454	453	457	459	454	455	454	454	455	449	449	447	446	444	442	440	441	443	444	446	451	452	451	451	447	452	451	450	450	451	451	446	444	442	442	445	446	445	443	444	445	446	444	443	440	441	449	447	443	443	442	440	438	427	429	433	434	437	446	447	447	444	442	436	437	439	431	432	433	433	434	436	437	439	440	439	438	431	431	437	437	437	438	437	437	436	434	432	432	437	438	440	440	438	440	445	436	435	435	431	436	435	433	434	434	433	430	429	430	437	439	430	429	431	437	435	435	431	433	440	432	433	434	435	431	439	440	437	436	437	435	435	431	430	428	431	429	431	435	429	433	433	433	433	434	437	439	441	440	439	431	428	435	430	426	421	429	433	432	431	429	430	430	431	429	428	427	426	424	433	433	433	423	423	428	425	420	422	426	425	423	420	420	423	423	425	435	433	430	427	419	422	421	423	426	428	419	419	428	426	423	423	422	431	431	431	427	428	420	419	420	421	420	422	419	421	422	425	429	429	427	425	425	421	416	419	417	419	413	413	413	0	0	0	416	416	414	415	417	420	416	0	0	0	0	0	0	0	0	0	0	0	0	0	0	0	0	0	0	0	0	419	417	414	420	421	421	416	410	407	411	410	410	410	410	411	413	0	0	0	411	412	413	412	407	409	407	405	406	408	0	0	0	0	0	0	0	0	0	0	0	0	0	0	0	0	0	0	0	0	408	408	411	407	407	411	411	409	411	411	406	402	402	402	408	0	0	0	0	0	0	0	0	0	0	0	408	407	406	405	403	404	406	407	407	406	398	396	395	396	0	0	0	0	0	0	0	402	0	0	0	0	404	400	401	402	401	398	401	401	401	400	398	400	398	400	399	405	400	400	400	399	400	400	401	401	399	401	399	401	401	402	401	401	401	399	393	398	398	398	396	394	392	391	394	391	391	392	389	391	391	0	0	0	0	389	0	0	0	0	0	394	391	390	393	390	386	388	388	394	395	0	0	0	0	397	397	395	392	391	392	393	396	396	387	388	387	387	390	390	392	394	393	387	391	389	389	386	385	384	380	0	0	0	376	379	382	379	380	382	380	384	382	384	384	383	381	379	379	378	381	384	393	391	382	379	378	384	384	379	377	377	378	387	391	391	390	389	387	389	383	379	375	381	383	382	383	383	379	377	378	375	381	381	379	379	379	377	376	377	378	376	378	377	371	371	376	387	384	384	387	384	373	373	376	382	390	383	375	377	374	373	379	378	375	375	375	378	376	375	0	0	0	0	0	0	0	0	0
469	465	465	460	463	465	467	467	463	465	464	464	464	464	463	464	465	465	471	471	464	466	460	460	457	460	460	460	460	460	458	456	457	457	458	458	459	459	459	459	462	458	454	454	455	462	467	459	453	451	451	451	452	451	453	454	455	457	460	460	460	456	454	451	449	448	452	450	450	449	447	451	451	443	435	437	440	443	446	449	452	453	452	456	456	447	448	453	453	453	452	446	444	443	441	438	438	443	447	444	447	449	450	445	445	446	449	450	449	449	449	446	446	444	442	441	445	444	436	434	435	437	436	436	433	443	444	444	447	444	439	438	439	435	433	427	433	432	439	442	442	441	443	436	436	436	436	434	434	433	433	434	435	433	438	439	438	432	431	431	437	437	440	438	444	433	437	432	430	431	429	435	439	437	436	434	437	434	432	432	433	429	433	434	428	426	428	428	428	430	437	430	422	428	429	429	423	423	430	429	432	426	424	423	425	437	432	431	430	436	436	435	435	431	429	428	425	425	425	425	421	428	428	421	426	426	428	434	431	428	430	425	426	426	424	423	426	426	430	435	431	429	427	426	424	427	428	426	425	424	425	426	424	422	420	416	419	415	419	419	425	422	418	419	417	417	419	427	429	420	418	414	417	418	421	417	420	417	418	420	422	416	417	419	419	420	421	422	419	419	420	0	0	0	411	417	417	417	418	0	0	0	419	420	421	420	411	419	412	411	413	0	0	0	0	412	413	413	415	414	415	416	415	0	0	0	0	0	0	0	0	0	0	0	0	0	0	0	0	0	0	0	0	412	0	0	0	410	410	408	407	402	404	406	409	410	410	408	408	0	0	411	410	413	412	409	409	407	402	405	408	0	0	0	0	0	0	0	0	0	0	0	0	0	0	0	0	0	0	0	400	408	409	410	409	409	409	409	410	412	414	410	401	401	404	405	404	0	0	0	0	0	0	0	0	0	0	0	406	405	400	398	398	405	0	0	0	0	0	0	0	0	0	0	0	0	0	0	401	402	0	0	0	397	396	400	401	397	400	401	401	401	400	399	395	395	398	399	405	401	400	399	396	395	399	399	399	397	399	399	400	400	399	400	401	389	390	390	391	393	393	386	388	390	391	391	393	389	386	391	389	389	390	393	391	389	388	392	387	387	388	389	394	391	388	390	389	385	388	388	394	395	0	0	0	0	396	396	395	393	391	392	393	397	390	386	385	384	382	379	387	387	392	391	384	386	388	383	380	385	378	379	0	0	0	375	375	378	378	378	380	383	382	379	380	378	378	376	375	374	382	381	384	388	388	379	372	375	375	379	376	375	376	376	383	387	384	384	387	385	384	384	380	379	383	380	378	380	382	379	377	378	375	381	373	373	377	377	374	371	375	373	375	372	371	370	373	373	381	382	382	378	377	377	374	371	374	373	373	376	375	374	378	379	378	370	370	376	378	376	376	375	374	370	0	0	0	0	0	0
465	463	463	458	460	460	460	460	462	465	462	461	461	461	461	464	465	465	464	460	461	461	463	463	463	462	462	462	454	454	455	454	452	454	457	458	458	458	458	459	459	458	452	452	453	458	457	456	451	446	446	446	446	448	453	454	455	456	452	456	456	458	454	451	449	445	443	442	442	444	449	448	444	444	440	441	441	442	443	445	443	450	449	451	446	444	445	447	450	450	450	443	440	440	440	445	444	444	446	447	446	445	441	435	435	437	440	439	439	441	442	439	441	442	442	441	440	441	436	432	436	433	431	433	432	440	443	442	441	444	438	436	435	435	432	427	430	431	435	438	436	434	434	434	435	435	436	435	435	430	433	434	437	426	426	433	440	432	427	427	427	436	437	435	430	432	434	434	429	429	428	437	432	430	431	430	436	435	434	428	428	427	430	429	432	429	427	427	422	422	428	429	429	429	428	430	426	426	431	428	429	425	428	425	423	435	428	434	430	430	431	433	430	430	430	426	424	423	420	424	422	428	426	419	424	420	425	423	424	428	425	425	425	425	423	423	423	424	428	429	424	422	426	424	419	420	422	427	426	423	423	423	421	420	414	411	412	416	417	420	422	418	421	421	422	424	423	424	427	424	417	412	413	417	419	417	420	415	412	412	414	415	418	419	419	418	419	420	420	419	423	0	0	0	411	412	0	0	0	0	0	0	0	0	0	418	417	410	410	411	0	0	0	0	406	409	412	413	415	414	415	416	416	413	0	0	0	0	0	0	0	0	0	0	0	0	0	0	0	0	0	0	0	0	0	0	0	0	410	406	404	0	0	0	409	408	409	406	0	0	0	407	412	409	409	408	401	401	401	407	0	0	0	408	409	409	408	408	407	410	412	408	409	0	0	0	0	0	0	399	402	0	0	0	408	407	404	405	405	403	405	409	402	399	403	402	401	0	0	0	0	0	401	401	0	0	0	0	403	0	0	0	404	0	0	0	0	0	0	0	0	0	0	0	0	0	0	0	403	400	396	396	398	396	398	393	399	399	395	395	400	401	400	399	396	400	400	399	399	400	399	398	396	394	392	396	395	394	392	397	394	395	399	401	398	395	389	389	388	390	389	385	388	388	389	388	386	386	386	392	388	391	388	392	387	382	375	384	385	386	387	390	388	390	389	380	380	385	386	389	392	391	392	391	387	388	386	387	388	389	388	390	392	389	386	384	381	379	375	385	386	386	385	385	381	382	385	383	381	386	386	379	375	374	371	374	375	377	377	377	379	378	0	0	0	376	375	374	373	371	379	376	374	375	379	379	374	378	377	377	377	373	375	377	376	378	375	381	380	382	381	383	379	377	382	378	377	377	371	372	377	372	373	369	369	375	374	374	371	370	369	371	371	372	370	373	373	373	379	378	377	375	372	372	374	376	376	369	368	369	374	374	369	368	370	370	377	375	375	374	370	371	373	370	0	0	0	0	0	0
463	459	457	457	458	456	457	457	461	464	459	455	455	453	459	462	462	457	457	454	458	459	464	464	464	462	462	462	449	454	454	454	454	455	456	456	456	457	459	458	455	452	450	452	452	454	456	455	449	445	445	452	452	454	455	455	454	451	451	453	458	452	453	449	447	442	443	444	442	445	444	444	444	444	443	441	440	440	437	439	440	443	447	445	444	443	442	440	437	438	438	439	443	444	445	442	443	446	445	449	443	444	434	433	431	429	432	422	424	424	426	432	438	439	437	432	428	431	441	442	435	435	432	428	428	435	443	444	444	436	434	433	433	432	429	427	427	431	433	436	431	428	428	433	433	435	437	438	437	431	431	425	434	425	425	432	437	436	425	423	428	433	433	432	427	429	431	429	428	428	429	428	427	429	430	428	424	431	429	428	427	426	427	428	429	430	427	425	426	421	422	422	424	428	427	426	424	426	427	433	427	426	427	427	420	414	414	421	422	428	429	426	426	428	421	420	420	420	420	422	424	423	420	419	419	419	422	422	421	422	426	425	420	424	420	423	422	425	428	414	413	420	420	422	419	420	419	424	422	424	419	416	418	415	413	412	412	417	415	418	417	421	420	422	424	424	422	418	415	408	412	411	412	416	420	418	412	409	408	409	412	413	417	417	418	414	419	419	420	416	422	417	414	412	408	407	0	0	0	0	0	0	0	0	0	417	415	404	409	410	0	0	0	407	407	407	409	412	412	414	415	416	411	413	0	0	0	0	0	0	0	0	0	0	0	0	0	0	0	0	0	0	0	0	0	0	0	0	0	0	0	0	0	0	0	0	0	0	0	0	0	0	0	0	412	406	402	402	408	0	0	0	0	0	408	408	404	407	408	407	411	409	408	0	0	0	0	0	0	399	400	0	0	0	403	403	403	404	404	404	400	400	399	398	396	397	0	0	0	0	0	399	403	403	403	402	402	401	0	0	0	0	0	0	0	0	0	0	0	0	0	0	0	0	396	396	399	398	394	396	394	396	397	396	393	396	397	396	394	394	395	401	399	400	400	399	395	397	397	395	395	392	390	393	394	395	394	392	391	388	390	390	388	390	391	393	390	389	387	384	385	385	385	383	382	382	383	386	386	387	391	393	393	389	384	382	376	383	385	385	386	387	385	386	384	380	380	379	381	389	386	385	386	385	386	387	385	385	386	377	378	386	388	385	385	381	379	377	375	375	382	383	383	383	375	371	377	381	378	381	382	380	380	384	379	371	370	372	376	376	377	374	0	0	0	372	368	373	372	372	367	372	372	374	377	374	374	0	0	0	368	375	371	375	375	374	374	375	377	379	379	378	379	375	370	374	377	375	374	372	374	373	375	369	369	370	371	374	369	368	370	369	373	372	373	373	372	370	376	376	370	369	369	372	370	373	374	375	375	373	372	370	369	365	364	364	366	364	365	367	369	369	368	368	0	0	0	0	0	0
458	454	454	454	456	454	455	459	459	463	459	447	449	449	456	460	451	452	452	455	457	457	460	460	460	462	460	451	442	454	454	453	451	452	451	452	448	448	450	451	451	451	448	448	448	458	456	450	446	449	450	453	453	459	454	454	451	449	448	447	452	447	447	446	451	447	442	442	441	443	443	444	445	444	444	442	440	437	435	434	437	439	444	445	438	439	439	437	435	430	434	434	438	440	441	436	437	445	445	448	440	438	433	433	433	429	427	425	424	426	426	428	428	429	425	424	424	433	436	432	432	435	431	426	421	431	432	432	431	425	426	428	432	430	425	426	426	429	432	432	430	425	426	429	430	431	437	440	437	424	424	428	433	434	441	435	429	425	419	422	428	431	428	425	424	423	423	423	419	424	425	427	426	428	430	425	422	421	422	426	427	426	423	427	424	429	426	428	426	426	422	419	419	418	418	418	419	421	422	431	426	426	423	415	415	413	415	417	413	416	428	423	422	422	419	420	420	418	415	414	417	419	421	419	420	420	422	422	420	420	420	420	423	425	424	421	423	423	0	0	0	417	417	413	414	415	417	417	420	420	415	417	415	413	412	413	415	414	418	416	416	419	418	417	422	422	418	413	408	412	406	410	413	414	418	414	411	408	406	406	410	411	413	417	412	413	409	411	413	419	414	413	413	411	407	405	406	407	412	414	416	414	415	416	415	405	416	407	404	410	411	411	412	409	408	408	407	407	0	0	0	0	0	0	0	0	0	0	0	0	0	0	0	0	0	0	0	403	0	0	0	0	0	0	0	0	0	0	0	0	0	0	0	0	0	0	0	0	0	0	0	0	0	0	0	0	0	0	0	0	0	0	0	0	400	406	403	404	405	406	408	409	404	0	0	0	0	0	398	396	400	0	0	403	403	0	0	0	403	402	404	403	398	0	0	0	0	0	0	0	0	395	396	395	397	399	401	401	0	0	0	0	0	0	0	0	0	0	0	0	0	0	0	392	393	394	394	392	391	392	394	396	398	396	0	0	0	393	393	393	394	394	393	388	396	395	394	396	395	392	386	390	393	393	393	392	394	392	391	388	0	0	0	388	0	0	390	389	388	384	384	385	384	380	378	378	379	0	0	0	388	391	389	389	382	381	377	382	382	384	382	378	380	381	383	383	382	379	378	379	381	379	383	386	387	387	384	382	377	374	377	384	384	379	383	380	381	375	375	375	381	383	383	383	375	371	372	380	383	384	381	381	380	380	382	377	372	376	376	377	375	373	374	374	373	369	368	368	368	370	372	371	371	371	368	367	373	0	0	0	365	368	369	370	368	369	369	371	373	377	377	379	377	368	370	369	368	372	372	371	374	374	375	375	372	373	372	370	367	370	369	373	372	366	0	0	0	376	371	367	367	366	366	368	371	374	373	373	373	373	373	367	0	0	0	0	0	0	0	0	370	368	368	369	369	0	0	0	0	0
447	450	451	451	454	454	455	460	460	460	451	444	451	451	446	448	452	452	452	454	455	454	454	458	458	460	455	451	446	449	449	444	444	444	442	439	436	436	440	445	450	449	455	456	456	458	459	455	450	448	452	453	453	453	454	455	454	448	447	446	446	445	445	447	446	442	441	438	441	440	440	442	444	445	445	445	437	435	434	433	435	438	441	435	435	438	437	430	430	430	425	426	426	429	435	436	437	438	440	440	435	432	429	429	427	425	425	424	425	427	429	428	425	425	427	425	429	431	427	428	430	432	428	426	423	426	427	428	429	424	426	427	432	430	424	420	422	424	435	435	432	429	426	427	426	425	425	421	421	419	418	420	429	430	436	435	431	429	422	423	425	435	428	425	424	418	412	415	418	422	422	420	426	424	424	422	419	419	420	424	426	422	420	421	421	419	424	428	426	420	422	419	418	417	417	415	415	416	415	411	414	414	412	415	415	414	417	419	413	413	416	413	412	410	414	416	413	409	409	412	416	420	420	420	421	422	422	420	416	415	413	415	415	418	414	0	0	0	0	0	0	412	410	411	413	415	419	417	419	419	413	407	406	407	409	410	415	410	409	408	411	411	408	408	422	411	412	414	414	412	407	413	413	415	417	412	414	405	402	405	408	409	412	406	407	410	407	400	407	407	408	0	0	0	408	406	406	407	412	413	415	413	415	413	415	405	405	404	403	409	409	409	411	411	408	0	0	0	0	0	0	0	0	0	0	0	0	0	0	0	0	0	0	0	0	0	0	402	0	0	0	0	0	0	0	0	0	0	0	0	0	0	0	0	0	0	0	0	0	0	0	0	0	0	0	0	0	0	0	0	0	0	0	0	0	400	399	0	0	0	402	400	396	0	0	0	0	0	397	394	0	0	0	399	399	0	0	0	403	404	404	402	0	0	0	0	0	0	0	400	392	392	391	391	389	395	395	397	0	0	0	0	389	388	385	0	0	0	0	0	0	0	390	390	392	392	390	391	390	392	393	396	398	0	0	0	0	0	393	390	389	388	390	394	391	391	391	392	392	387	391	389	389	390	390	392	393	391	388	388	0	0	0	387	0	0	387	389	387	383	383	380	380	379	378	374	373	0	0	0	387	385	387	389	384	381	378	380	377	378	378	382	386	381	381	382	378	378	378	377	377	377	382	382	387	386	383	378	382	376	374	380	380	381	378	378	378	375	373	375	377	382	380	373	371	372	373	373	373	384	381	379	376	377	377	377	375	373	377	376	376	375	375	373	374	372	368	369	370	369	369	368	370	371	371	367	369	368	367	367	365	364	361	368	360	359	360	370	373	377	378	376	370	367	366	367	369	371	371	371	370	373	373	374	378	378	373	372	369	369	372	368	367	366	0	0	0	366	372	367	366	366	367	369	371	372	371	372	373	368	364	362	0	0	0	0	0	0	0	0	0	0	366	369	369	0	0	0	0	0
446	446	452	452	452	451	454	455	455	457	446	444	448	447	447	448	448	450	450	450	451	450	448	451	456	456	449	443	446	444	440	440	441	442	442	439	438	438	438	441	445	446	439	440	445	445	450	451	445	443	442	443	442	442	444	447	449	445	445	443	444	442	442	442	441	436	436	437	438	438	437	438	438	439	437	437	434	433	432	432	436	436	436	433	433	433	431	430	424	423	424	426	430	430	433	436	436	437	435	431	425	426	423	425	424	423	423	424	426	428	426	428	427	428	428	428	429	430	426	426	430	431	430	424	420	424	424	417	421	424	424	423	424	421	417	422	423	425	427	430	422	419	417	419	417	419	419	419	419	417	420	422	422	423	420	424	420	424	426	427	429	424	423	419	417	411	411	413	416	413	415	421	423	421	421	420	418	417	420	426	420	418	422	421	418	417	412	414	415	423	419	419	417	416	408	409	410	410	412	413	418	416	415	410	410	412	411	412	412	413	416	413	410	409	412	413	414	413	411	412	413	412	408	418	409	412	413	416	412	410	410	409	410	414	415	0	0	0	421	415	407	406	410	411	414	416	417	417	419	418	413	406	407	406	407	408	409	412	412	0	0	0	409	405	408	412	410	414	408	409	406	417	410	409	411	413	409	406	402	399	400	397	406	0	0	0	398	400	403	404	407	0	0	0	0	0	0	0	0	0	0	0	0	0	0	0	0	0	0	0	0	0	0	0	0	0	0	0	0	0	0	0	0	0	0	0	0	0	0	0	0	0	0	0	0	0	0	0	0	0	0	0	0	0	0	0	0	0	0	0	0	0	0	0	0	0	0	0	0	0	0	0	0	0	0	0	0	0	0	0	0	0	0	0	0	0	0	0	0	0	0	396	0	0	0	0	0	0	0	0	0	0	0	0	396	398	0	0	0	0	0	0	0	0	0	0	386	386	388	389	391	390	388	388	387	392	393	0	0	0	0	0	390	388	386	387	0	0	0	0	0	0	387	391	390	391	388	390	389	390	0	0	0	0	0	0	0	0	390	389	387	386	386	393	392	390	386	387	387	390	388	387	388	387	390	390	393	390	387	384	380	378	377	382	383	382	382	385	382	382	382	379	378	378	378	374	373	0	0	0	391	384	384	386	384	382	380	379	377	378	376	377	379	381	381	378	378	378	378	377	379	377	379	379	379	383	382	378	375	373	374	374	377	375	376	376	372	370	369	371	378	373	373	371	373	373	375	371	371	373	375	375	374	376	374	377	371	373	375	376	377	374	376	376	372	373	369	370	370	370	369	368	370	373	369	369	369	367	368	367	366	366	363	362	359	358	358	360	364	373	379	375	369	369	369	369	369	370	371	372	373	373	374	374	375	370	366	368	366	363	362	365	365	363	0	0	0	0	0	365	365	366	369	369	371	371	0	0	0	363	362	356	0	0	0	0	0	0	0	0	0	0	0	0	0	0	0	0	0	0
442	447	450	450	450	449	453	450	442	442	442	453	447	445	445	446	445	445	445	445	444	443	444	446	450	450	449	441	445	442	438	438	439	442	441	439	435	437	437	445	445	443	439	439	440	440	438	439	434	438	440	437	437	442	442	446	448	449	448	444	442	434	432	428	428	431	434	435	436	436	434	432	432	431	430	431	431	430	428	431	436	437	435	429	428	429	429	423	420	420	420	421	426	426	431	425	423	426	420	421	423	425	422	422	419	421	421	421	423	425	427	427	424	424	420	418	427	428	427	429	430	430	429	422	419	413	412	417	419	422	422	421	420	415	417	422	423	425	425	426	422	419	417	418	417	418	419	419	418	418	417	418	419	417	418	418	414	417	417	421	419	418	415	415	416	420	411	415	410	410	409	411	420	416	417	419	418	414	415	415	417	411	411	416	412	411	406	408	411	415	414	413	412	412	410	407	409	409	411	412	417	417	410	408	411	410	410	411	412	410	412	412	409	409	412	413	415	412	412	409	405	407	406	407	409	0	0	0	413	407	409	409	409	414	408	412	413	413	409	408	407	412	412	410	414	416	415	416	408	408	407	409	0	0	0	0	0	0	0	0	0	0	404	405	404	407	407	405	410	405	414	408	408	410	412	414	415	406	404	402	400	395	404	0	0	0	0	398	0	0	0	0	0	0	0	0	0	0	0	0	0	0	0	0	0	0	0	0	0	0	0	0	0	0	0	0	0	0	0	0	0	0	0	0	0	0	0	0	0	0	0	0	0	0	0	0	0	0	0	0	0	0	0	0	0	0	0	0	0	0	0	0	0	0	0	0	0	0	0	0	0	0	0	0	0	0	0	0	0	0	0	0	0	0	0	0	0	0	0	0	0	0	0	0	0	0	0	0	0	0	0	0	0	0	0	393	0	0	0	388	388	390	390	391	389	386	386	388	388	391	391	383	383	385	0	0	0	0	0	0	0	0	0	386	388	386	387	391	389	0	0	0	0	0	0	0	0	0	0	0	0	0	0	0	0	0	0	385	388	387	385	385	385	386	391	382	380	385	390	386	383	379	381	385	388	390	390	385	384	384	378	380	379	378	379	379	378	377	376	376	379	378	376	376	378	376	377	0	0	0	0	381	381	383	386	387	378	378	379	379	373	374	379	381	382	378	378	378	378	377	377	378	378	376	378	380	381	379	375	373	372	372	373	374	375	373	369	370	369	369	374	367	370	370	371	373	375	370	367	371	370	367	366	362	362	363	368	368	375	375	375	374	372	371	369	373	370	371	370	369	368	367	365	373	363	365	363	367	369	368	368	368	372	0	0	0	358	359	360	361	361	369	364	364	365	369	369	370	370	365	365	366	365	371	372	367	363	360	356	356	354	361	363	0	0	0	0	0	0	0	0	0	0	0	0	0	0	0	0	0	354	0	0	0	0	0	0	0	0	0	0	0	0	0	0	0	0	0	0	0
445	445	446	445	445	446	442	438	439	439	444	447	439	441	441	442	441	439	435	438	438	432	435	439	438	438	437	437	442	439	438	439	439	441	438	434	433	438	438	444	445	440	438	442	439	431	431	430	433	434	438	435	435	440	440	443	443	438	435	432	432	427	421	424	424	430	433	434	438	434	434	429	427	426	429	426	426	425	429	432	435	438	437	420	425	422	425	424	419	418	418	417	420	424	424	421	422	420	420	421	424	425	418	418	418	416	417	421	422	424	426	424	420	419	417	416	418	417	418	419	422	429	431	426	419	414	414	416	419	422	421	418	414	410	415	415	417	419	420	420	421	422	414	415	420	418	421	421	411	411	412	414	412	412	414	415	414	414	416	417	418	415	410	415	414	416	416	423	419	406	407	416	418	413	412	414	415	411	413	413	415	412	413	413	412	410	410	410	407	405	406	405	412	412	409	408	409	407	406	406	412	409	407	407	409	409	411	412	412	412	405	402	404	404	404	402	402	405	405	401	407	411	403	407	405	0	0	0	406	407	407	410	410	409	410	410	410	408	407	407	407	408	412	407	408	410	403	407	402	401	402	0	0	0	0	0	0	0	0	404	406	403	399	402	405	407	407	405	404	402	398	397	397	407	411	413	413	402	402	404	401	398	399	398	0	0	0	0	0	0	0	0	0	0	0	0	0	0	0	0	0	0	0	0	0	0	0	0	0	0	0	0	0	0	0	0	0	0	0	0	0	0	0	0	0	0	0	0	0	0	0	0	0	0	0	0	0	0	0	0	0	0	0	0	0	0	0	0	0	0	0	0	0	0	0	0	0	0	0	0	0	0	0	0	0	0	0	0	0	0	0	0	0	0	0	0	0	386	386	0	0	0	0	0	0	0	0	0	0	0	0	0	0	0	0	0	0	0	385	385	385	388	390	391	389	385	384	385	387	388	0	0	0	383	0	0	0	0	387	383	0	0	0	0	0	0	388	389	392	0	0	0	0	0	0	0	0	0	0	0	0	0	0	0	0	0	0	0	0	0	0	0	0	0	0	0	0	379	378	378	377	378	377	379	0	0	0	0	0	380	381	380	379	380	377	373	375	375	374	374	376	373	372	374	375	376	375	374	0	0	0	0	0	0	0	381	0	0	0	375	371	369	369	376	374	373	377	380	380	377	373	371	375	375	376	379	381	380	374	369	369	371	370	372	372	366	365	369	369	369	374	373	369	369	368	371	372	371	365	366	370	367	366	362	362	363	365	369	373	370	370	370	371	370	370	370	371	371	371	369	369	365	364	361	364	359	358	356	361	364	366	369	372	0	0	0	0	0	0	0	0	364	363	364	365	366	367	368	369	369	365	366	364	370	370	362	362	358	356	356	354	353	359	0	0	0	0	0	0	0	0	0	0	0	0	0	0	0	0	0	0	0	0	0	0	0	0	0	0	0	0	0	0	0	0	0	0	0	0	0
