0	0	0	722	722	726	726	726	718	718	714	714	707	707	707	708	708	708	708	708	708	708	710	710	709	709	709	733	733	742	742	743	743	748	748	748	752	752	696	696	695	695	715	715	715	743	743	753	753	753	753	751	751	715	715	715	719	719	707	707	705	705	699	699	696	696	693	693	704	704	726	726	726	724	724	682	682	723	723	723	723	720	720	719	719	710	710	704	704	705	705	702	702	701	701	700	700	699	699	704	704	702	702	679	679	708	708	694	694	693	693	697	697	695	695	696	696	698	698	698	698	702	702	706	676	676	708	708	706	706	706	706	704	704	704	704	683	683	668	668	706	706	706	706	705	704	704	702	702	694	694	673	673	683	683	680	680	700	700	697	697	686	677	677	675	675	675	675	684	684	668	668	664	664	652	652	653	649	649	690	690	690	690	696	696	644	644	685	685	678	678	668	669	669	667	667	666	666	664	664	670	670	671	671	669	669	658	665	665	647	647	654	654	652	652	653	653	644	644	645	645	644	644	639	637	637	636	636	635	635	634	634	632	632	628	628	626	626	627	627	628	628	629	629	641	643	643	648	648	646	646	616	616	617	617	618	618	609	609	644	644	642	642	636	636	635	635	627	627	626	626	620	620	616	616	616	616	611	610	610	609	609	622	622	626	626	623	623	616	616	615	615	610	610	619	619	620	620	621	621	613	613	621	621	613	613	611	611	612	612	609	609	602	602	612	612	612	612	591	591	586	586	590	590	605	605	591	591	597	597	603	603	598	598	599	599	599	599	600	600	599	599	600	600	602	602	603	603	602	602	602	602	602	602	599	599	593	593	586	586	585	585	595	595	593	593	594	594	601	601	598	598	598	598	598	598	598	598	598	598	598	598	599	599	599	599	598	598	595	595	592	592	582	582	583	583	585	585	588	588	592	592	588	588	588	591	591	592	592	591	591	592	592	597	597	597	597	597	597	589	589	591	591	588	588	586	586	589	589	589	589	587	587	584	584	582	584	584	584	584	585	585	584	584	583	583	582	582	582	582	582	582	576	576	587	587	587	590	590	590	590	559	559	561	561	562	562	563	563	563	563	565	570	570	580	580	582	582	576	576	571	571	563	563	588	588	589	567	567	562	562	571	571	567	567	567	567	567	567	566	566	565	565	565	568	568	570	570	571	571	569	569	568	568	568	569	569	569	569	561	561	561	561	559	559	572	572	572	572	567	567	567	567	567	565	565	564	564	565	565	566	566	565	565	564	564	562	564	564	562	562	559	559	561	561	562	562	573	573	569	569	562	562	555	555	557	557	557	556	556	554	554	551	551	551	551	550	550	548	548	553	553	557	557	561	561	566	566	567	567	561	561	559	559	560	560	560	560	561	561	532	532	533	533	533	533	535	535	537	537	537	537	536	536	535	535	535	534	534	536	536	535	535	535	535	531	531	530	530	524	524	0	0	0	0	0	0	0	0	0
708	708	708	722	722	704	704	704	694	694	703	703	703	703	703	701	701	706	706	706	705	705	705	705	705	705	705	707	707	702	702	699	699	697	697	697	699	699	696	696	695	695	700	700	700	700	700	698	698	689	689	725	725	717	717	717	707	707	707	707	703	703	699	699	696	696	688	688	686	686	686	686	686	684	684	682	682	686	686	721	721	717	717	713	713	708	708	702	702	703	703	702	702	690	690	686	686	682	682	674	674	674	674	679	679	680	680	681	681	683	683	681	681	693	693	695	695	696	696	694	694	695	695	691	676	676	676	676	678	678	697	697	692	692	671	671	671	671	668	668	670	670	701	701	702	701	701	700	700	672	672	662	662	656	656	656	656	671	671	675	675	669	639	639	642	642	638	638	643	643	645	645	651	651	652	652	653	649	649	647	647	644	644	643	643	644	644	649	649	659	659	661	663	663	659	659	636	636	639	639	635	635	635	635	636	636	643	650	650	639	639	639	639	641	641	630	630	631	631	633	633	637	637	639	637	637	636	636	635	635	630	630	628	628	624	624	625	625	624	627	628	628	629	629	641	643	643	648	648	646	646	616	616	617	617	618	618	609	609	644	644	642	642	636	636	635	635	627	627	626	626	620	620	616	616	616	616	611	610	610	609	609	622	622	626	626	623	623	616	616	615	615	610	610	619	619	620	620	621	621	613	613	621	621	613	613	611	611	612	612	609	609	602	602	612	612	612	612	591	591	586	586	590	590	605	605	591	591	597	597	603	603	598	598	599	599	599	599	600	600	599	599	600	600	602	602	603	603	602	602	602	602	602	602	599	599	593	593	586	586	585	585	595	595	593	593	594	594	601	601	598	598	598	598	598	598	598	598	598	598	598	598	599	599	599	599	598	598	595	595	592	592	582	582	583	583	585	585	588	588	592	592	588	588	588	591	591	592	592	591	591	592	592	597	597	597	597	597	597	589	589	591	591	588	588	586	586	589	589	589	589	587	587	584	584	582	584	584	584	584	585	575	569	569	570	570	571	571	568	568	567	567	567	567	581	585	585	587	587	556	556	558	558	560	560	561	561	561	561	561	561	560	561	561	569	569	570	570	567	567	560	560	556	556	559	559	559	560	560	562	562	561	561	562	562	563	563	564	564	564	564	563	561	561	552	552	568	568	568	568	564	564	562	562	562	561	561	566	566	561	561	555	555	557	557	556	556	557	557	559	560	560	562	562	561	561	562	562	560	560	562	562	561	561	559	559	554	551	551	551	551	554	554	552	552	552	552	552	552	550	550	548	548	548	548	545	545	546	546	546	546	546	545	545	545	545	545	545	544	544	543	543	543	543	539	539	520	520	519	519	558	558	550	550	552	552	559	559	533	533	530	530	532	532	531	531	533	533	535	535	535	535	535	535	532	532	532	530	530	530	530	529	529	528	528	522	522	521	521	519	519	0	0	0	0	0	0	0	0	0
708	708	708	722	722	704	704	704	694	694	703	703	703	703	703	701	701	706	706	706	705	705	705	705	705	705	705	707	707	702	702	699	699	697	697	697	699	699	696	696	695	695	700	700	700	700	700	698	698	689	689	725	725	717	717	717	707	707	707	707	703	703	699	699	696	696	688	688	686	686	686	686	686	684	684	682	682	686	686	721	721	717	717	713	713	708	708	702	702	703	703	702	702	690	690	686	686	682	682	674	674	674	674	679	679	680	680	681	681	683	683	681	681	693	693	695	695	696	696	694	694	695	695	691	676	676	676	676	678	678	697	697	692	692	671	671	671	671	668	668	670	670	701	701	702	701	701	700	700	672	672	662	662	656	656	656	656	671	671	675	675	669	639	639	642	642	638	638	643	643	645	645	651	651	652	652	653	649	649	647	647	644	644	643	643	644	644	649	649	659	659	661	663	663	659	659	636	636	639	639	635	635	635	635	636	636	643	650	650	639	639	639	639	641	641	630	630	631	631	633	633	637	637	639	637	637	636	636	635	635	630	630	628	628	624	624	625	625	624	624	626	626	629	629	637	637	637	642	642	616	616	613	613	613	613	615	615	609	609	605	605	603	603	597	597	624	624	620	620	606	606	605	605	600	600	607	607	608	607	607	604	604	604	604	614	614	610	610	587	587	613	613	608	608	604	604	606	606	595	595	604	604	605	605	605	605	600	600	600	600	592	592	591	591	589	589	587	587	586	586	586	586	588	588	589	589	589	589	589	589	592	592	594	594	595	595	593	593	592	592	589	589	590	590	590	590	592	592	593	593	594	594	593	593	589	589	589	589	584	584	582	582	582	582	582	582	588	588	591	591	589	589	585	585	589	589	589	589	584	584	589	589	596	596	595	595	596	596	592	592	583	583	578	578	580	580	583	583	585	585	585	585	585	583	583	581	581	585	585	588	588	589	589	590	590	585	585	578	578	567	567	581	581	581	581	576	576	576	576	576	576	578	578	582	582	575	564	564	570	570	575	575	569	569	570	570	571	571	568	568	567	567	567	567	581	585	585	587	587	556	556	558	558	560	560	561	561	561	561	561	561	560	561	561	569	569	570	570	567	567	560	560	556	556	559	559	559	560	560	562	562	561	561	562	562	563	563	564	564	564	564	563	561	561	552	552	568	568	568	568	564	564	562	562	562	561	561	566	566	561	561	555	555	557	557	556	556	557	557	559	560	560	562	562	561	561	562	562	560	560	562	562	561	561	559	559	554	551	551	551	551	554	554	552	552	552	552	552	552	550	550	548	548	548	548	545	545	546	546	546	546	546	545	545	545	545	545	545	544	544	543	543	543	543	539	539	520	520	519	519	519	519	522	522	525	525	530	530	527	527	529	529	529	529	529	529	533	533	535	535	535	535	535	535	532	532	532	530	530	530	530	529	529	528	528	522	522	521	521	519	519	0	0	0	0	0	0	0	0	0
689	689	689	690	690	685	685	685	679	679	696	696	702	702	702	699	699	699	699	699	701	701	703	703	703	703	703	703	703	694	694	692	692	685	685	685	689	689	695	695	693	693	692	692	692	685	685	679	679	689	689	702	702	703	703	703	703	703	669	669	668	668	675	675	688	688	689	689	683	683	681	681	681	680	680	679	679	678	678	676	676	674	674	683	683	701	701	698	698	664	664	664	664	669	669	670	670	671	671	671	671	673	673	673	673	676	676	676	676	678	678	670	670	668	668	685	685	685	685	692	692	690	690	679	673	673	676	676	676	676	671	671	645	645	645	645	663	663	668	668	667	667	664	664	663	660	660	658	658	645	645	645	645	643	643	641	641	640	640	638	638	637	637	637	638	638	638	638	641	641	644	644	648	648	649	649	652	646	646	645	645	643	643	643	643	644	644	647	647	644	644	633	633	633	636	636	636	636	636	636	635	635	635	635	631	631	631	629	629	628	628	629	629	625	625	622	622	618	618	609	609	607	607	604	604	604	629	629	625	625	610	610	614	614	616	616	618	618	619	619	621	621	621	621	637	637	637	642	642	616	616	613	613	613	613	615	615	609	609	605	605	603	603	597	597	624	624	620	620	606	606	605	605	600	600	607	607	608	608	607	604	604	604	604	614	614	610	610	587	587	613	613	608	608	604	604	606	606	595	595	604	604	605	605	605	605	600	600	600	600	592	592	591	591	589	589	587	587	586	586	586	586	588	588	589	589	589	589	589	589	592	592	594	594	595	595	593	593	592	592	589	589	590	590	590	590	592	592	593	593	594	594	593	593	589	589	589	589	584	584	582	582	582	582	582	582	588	588	591	591	589	589	585	585	589	589	589	589	584	584	589	589	596	596	595	595	596	596	592	592	583	583	578	578	580	580	583	583	585	585	585	585	585	583	583	581	581	585	585	588	588	589	589	590	590	585	585	578	578	567	567	581	581	581	581	576	576	576	576	576	576	578	578	582	575	575	564	562	562	562	562	562	562	562	562	562	561	561	561	561	560	560	560	560	556	555	555	554	554	555	555	557	557	559	559	559	559	560	560	559	559	559	556	556	556	556	562	562	563	563	554	554	554	554	555	555	556	558	558	560	560	558	558	557	557	560	560	560	560	559	559	557	557	557	552	552	551	551	559	559	563	563	562	562	558	558	558	542	542	533	533	550	550	551	551	550	550	548	548	548	554	554	553	553	553	553	556	556	559	559	528	528	557	557	553	553	549	547	547	547	547	550	550	551	551	550	550	548	548	546	546	544	544	544	544	544	544	538	538	538	538	538	537	537	538	538	537	537	535	535	533	533	532	532	527	527	520	520	519	519	519	519	522	522	525	525	530	530	527	527	529	529	529	529	529	529	530	530	530	530	528	528	525	525	518	518	518	524	524	520	520	519	519	519	519	514	514	518	518	516	516	0	0	0	0	0	0	0	0	0
689	689	689	690	690	685	685	685	679	679	696	696	702	702	702	699	699	699	699	699	701	701	703	703	703	703	703	703	703	694	694	692	692	685	685	685	689	689	695	695	693	693	692	692	692	685	685	679	679	689	689	702	702	703	703	703	703	703	669	669	668	668	675	675	688	688	689	689	683	683	681	681	681	680	678	678	678	675	675	675	675	668	668	669	669	678	678	674	674	657	657	661	661	661	661	669	669	667	667	669	669	670	670	670	670	670	670	670	670	678	678	670	670	668	668	685	685	685	685	692	692	690	690	679	673	673	676	676	676	676	671	671	645	645	645	645	663	663	668	668	667	667	664	664	663	660	660	658	658	645	645	645	645	643	643	641	641	640	640	638	638	637	637	637	638	638	638	638	641	641	644	644	648	648	649	649	652	646	646	645	645	643	643	643	643	644	644	647	647	644	644	633	633	633	636	636	636	636	636	636	635	635	635	635	631	631	631	629	629	628	628	629	629	625	625	622	622	618	618	609	609	607	607	604	604	604	629	629	625	625	610	610	614	614	616	616	618	618	619	619	621	621	621	621	622	622	605	611	611	611	611	611	611	612	612	608	608	601	601	597	597	597	597	597	597	607	607	607	607	602	602	600	600	597	597	599	599	600	600	601	600	600	597	597	593	593	589	589	587	587	600	600	603	603	593	593	593	593	589	589	596	596	592	592	598	598	590	590	586	586	587	587	585	585	585	585	584	584	583	583	585	585	584	584	585	585	585	585	586	586	583	583	587	587	588	588	588	588	586	586	587	587	580	580	579	579	588	588	581	581	581	581	582	582	581	581	582	582	581	581	578	578	576	576	574	574	579	579	577	577	575	575	574	574	572	572	572	572	566	566	570	570	567	567	566	566	564	564	564	564	568	568	568	568	575	575	577	577	579	579	579	577	577	577	577	572	572	582	582	585	585	586	586	581	581	565	565	561	561	566	566	568	568	569	569	569	569	570	570	573	573	570	570	565	561	561	562	562	562	562	562	562	562	562	562	562	561	561	561	561	560	560	560	560	556	555	555	554	554	555	555	557	557	559	559	559	559	560	560	559	559	559	556	556	556	556	562	562	563	563	554	554	554	554	555	555	556	558	558	560	560	558	558	557	557	560	560	560	560	559	559	557	557	557	552	552	551	551	559	559	563	563	562	562	558	558	558	542	542	533	533	550	550	551	551	550	550	548	548	548	554	554	553	553	553	553	556	556	559	559	528	528	557	557	553	553	549	547	547	547	547	550	550	551	551	550	550	545	545	543	543	542	542	541	541	538	538	537	530	530	528	528	526	526	524	524	524	524	524	524	525	525	523	523	522	522	519	519	516	516	517	517	518	518	519	519	519	519	526	526	527	527	523	523	510	510	522	522	521	521	511	511	513	513	512	512	512	512	512	516	516	511	511	510	510	511	511	509	509	510	510	0	0	0	0	0	0	0	0	0
682	682	682	682	682	680	680	680	672	672	682	682	685	685	685	696	696	697	697	697	698	698	650	650	657	657	657	672	672	671	671	668	668	674	674	674	673	673	691	691	681	681	687	687	687	674	674	679	679	686	686	691	691	692	692	692	668	668	665	665	665	665	663	663	671	671	678	678	679	679	680	680	680	678	678	678	678	675	675	675	675	668	668	669	669	678	678	674	674	657	657	661	661	661	661	669	669	667	667	669	669	670	670	670	670	670	670	670	670	668	668	662	662	659	659	663	663	659	659	665	665	663	663	665	667	667	661	661	644	644	647	647	645	645	645	645	654	654	665	665	665	665	664	664	663	647	647	635	635	637	637	637	637	638	638	638	638	635	635	635	635	634	635	635	636	636	635	635	639	639	643	643	640	640	619	619	620	625	625	630	630	643	643	643	643	606	606	635	635	637	637	633	633	633	634	634	636	636	636	636	635	635	633	633	631	631	628	628	628	626	626	625	625	620	620	617	617	613	613	609	609	602	602	603	603	601	601	601	599	599	600	600	602	602	605	605	605	605	604	604	591	591	590	590	589	589	589	597	611	611	611	611	611	612	612	608	608	601	601	597	597	597	597	597	597	607	607	607	607	602	602	600	600	597	597	599	599	600	600	601	600	600	597	597	593	593	589	589	587	587	600	600	603	603	593	593	593	593	589	589	596	596	592	592	598	598	590	590	586	586	587	587	585	585	585	585	584	584	583	583	585	585	584	584	585	585	585	585	586	586	583	583	587	587	588	588	588	588	586	586	587	587	580	580	579	579	588	588	581	581	581	581	582	582	581	581	582	582	581	581	578	578	576	576	574	574	579	579	577	577	575	575	574	574	572	572	572	572	566	566	570	570	567	567	566	566	564	564	564	564	568	568	568	568	575	575	577	577	579	579	579	577	577	577	577	572	572	582	582	585	585	586	586	581	581	565	565	561	561	566	566	568	568	569	569	569	569	570	570	573	573	570	557	556	557	557	560	560	560	560	561	561	559	559	560	560	559	559	558	558	558	558	555	555	554	552	552	552	552	553	553	554	554	555	555	555	555	555	555	553	553	553	550	550	549	549	543	543	548	548	546	546	550	550	551	551	553	556	556	557	557	558	558	551	551	539	539	552	552	557	557	554	550	550	548	548	545	545	544	544	552	552	547	547	545	535	535	535	535	533	533	540	540	544	544	545	545	545	545	538	537	537	537	537	525	525	543	543	533	533	528	528	529	529	541	542	542	543	543	544	544	545	545	546	546	545	545	545	545	543	543	542	542	541	541	538	538	537	530	530	528	528	526	526	524	524	524	524	524	524	525	525	523	523	522	522	519	519	516	516	517	517	518	518	519	519	519	519	526	526	527	527	523	523	510	510	522	522	521	521	511	511	513	513	512	512	512	512	512	516	516	511	511	510	510	511	511	509	509	510	510	0	0	0	0	0	0	0	0	0
682	682	682	682	682	680	680	680	672	672	682	682	685	685	685	696	696	697	697	697	698	698	650	650	657	657	657	672	672	671	671	668	668	674	674	674	673	673	691	691	681	681	687	687	687	674	674	679	679	686	686	691	691	692	692	692	664	664	663	663	663	663	662	662	661	661	645	645	645	645	674	674	674	676	676	675	675	674	674	671	671	666	666	652	652	651	651	650	650	652	652	657	657	657	657	660	660	661	661	665	665	634	634	633	633	654	654	657	657	661	661	650	650	659	659	658	658	656	656	654	654	658	658	657	650	650	648	648	644	644	642	642	641	645	645	645	654	654	665	665	665	665	664	664	663	647	647	635	635	637	637	637	637	638	638	638	638	635	635	635	635	634	635	635	636	636	635	635	639	639	643	643	640	640	619	619	620	625	625	630	630	643	643	643	643	606	606	635	635	637	637	633	633	633	634	634	636	636	636	636	635	635	633	633	631	631	628	628	628	626	626	625	625	620	620	617	617	613	613	609	609	602	602	603	603	601	601	601	599	599	600	600	602	602	605	605	605	605	604	604	591	591	590	590	589	589	589	597	597	605	605	595	595	601	601	601	601	592	592	590	590	589	589	594	594	595	595	597	597	597	597	596	596	596	596	596	596	596	596	595	594	594	594	594	587	587	584	584	582	582	584	584	584	584	581	581	583	583	582	582	582	582	578	578	579	579	579	579	580	580	581	581	582	582	581	581	581	581	580	580	581	581	581	581	581	581	580	580	580	580	577	577	581	581	581	581	572	572	579	579	575	575	564	564	563	563	568	568	566	566	570	570	576	576	568	568	563	563	571	571	572	572	572	572	571	571	568	568	568	568	568	568	568	568	564	564	565	565	564	564	565	565	564	564	562	562	561	561	560	560	563	563	566	566	568	568	571	571	572	572	572	570	570	567	567	558	558	557	557	555	555	555	555	555	555	556	556	558	558	557	557	558	558	557	557	562	562	564	564	562	562	557	557	556	557	557	560	560	560	560	561	561	559	559	560	560	559	559	558	558	558	558	555	555	554	552	552	552	552	553	553	554	554	555	555	555	555	555	555	553	553	553	550	550	549	549	543	543	548	548	546	546	550	550	551	551	553	556	556	557	557	558	558	551	551	539	539	552	552	557	557	554	550	550	548	548	545	545	544	544	552	552	547	547	545	535	535	535	535	533	533	540	540	544	544	545	545	545	545	538	537	537	537	537	525	525	543	543	533	533	524	524	527	527	529	539	539	536	536	528	528	542	542	543	543	540	540	508	508	541	541	539	539	537	537	536	536	532	517	517	518	518	517	517	517	517	520	520	521	521	515	515	513	513	516	516	513	513	514	514	513	513	512	512	512	512	516	516	518	518	510	510	518	518	508	508	498	498	498	498	497	497	499	499	502	502	502	506	506	508	508	501	501	502	502	503	503	505	505	506	506	0	0	0	0	0	0	0	0	0
651	651	651	669	669	674	674	674	672	672	669	669	669	669	669	683	683	659	659	659	650	650	650	650	657	657	657	659	659	665	665	665	665	662	662	662	661	661	660	660	658	658	662	662	662	672	672	672	672	667	667	644	644	673	673	673	664	664	663	663	663	663	662	662	661	661	645	645	645	645	674	674	674	676	676	675	675	674	674	671	671	666	666	652	652	651	651	650	650	652	652	657	657	657	657	660	660	661	661	665	665	634	634	633	633	654	654	657	657	661	661	650	650	659	659	658	658	656	656	654	654	658	658	657	650	650	648	648	644	644	642	642	641	641	639	639	637	637	633	633	628	628	626	626	626	631	631	634	634	637	637	638	638	637	637	637	637	634	634	632	632	631	631	631	629	629	629	629	626	626	616	616	615	615	616	616	620	617	617	616	616	613	613	611	611	606	606	607	607	626	626	626	600	600	596	596	600	600	581	581	580	580	580	580	629	629	627	627	625	623	623	615	615	618	618	616	616	605	605	609	609	600	600	599	599	596	594	594	596	596	596	596	599	599	601	601	599	599	597	597	591	591	586	586	586	586	584	584	584	584	584	589	595	601	601	601	601	592	592	590	590	589	589	594	594	595	595	597	597	597	597	596	596	596	596	596	596	596	596	595	594	594	594	594	587	587	584	584	582	582	584	584	584	584	581	581	583	583	582	582	582	582	578	578	579	579	579	579	580	580	581	581	582	582	581	581	581	581	580	580	581	581	581	581	581	581	580	580	580	580	577	577	581	581	581	581	572	572	579	579	575	575	564	564	563	563	568	568	566	566	570	570	576	576	568	568	563	563	571	571	572	572	572	572	571	571	568	568	568	568	568	568	568	568	564	564	565	565	564	564	565	565	564	564	562	562	561	561	560	560	563	563	566	566	568	568	571	571	572	572	572	570	570	567	567	558	558	557	557	555	555	555	555	555	555	556	556	558	558	557	557	558	558	557	557	562	562	564	553	552	552	554	554	555	552	552	552	552	556	556	554	554	554	554	553	553	552	552	550	550	542	542	550	550	550	551	551	551	551	551	551	551	551	551	551	550	550	549	549	548	548	546	545	545	542	542	543	543	540	540	541	541	543	543	544	544	545	533	533	531	531	531	531	534	534	538	538	536	536	537	537	543	546	546	544	544	544	544	542	542	541	541	538	538	542	535	535	535	535	533	533	532	532	537	537	526	526	534	534	534	528	528	527	527	525	525	521	521	522	522	524	524	527	527	529	539	539	536	536	528	528	542	542	543	543	540	540	508	508	541	541	539	539	537	537	536	536	532	517	517	518	518	517	517	517	517	520	520	521	521	515	515	513	513	516	516	513	513	514	514	513	513	512	512	512	512	516	516	518	518	510	510	518	518	508	508	498	498	498	498	497	497	499	499	502	502	502	506	506	508	508	501	501	502	502	503	503	505	505	506	506	0	0	0	0	0	0	0	0	0
651	651	651	669	669	674	674	674	672	672	669	669	669	669	669	683	683	659	659	659	650	650	650	650	657	657	657	659	659	665	665	665	665	662	662	662	661	661	660	660	658	658	662	662	662	672	672	636	636	639	639	644	644	660	660	660	655	655	661	661	661	661	652	652	647	647	637	637	635	635	638	638	638	626	626	629	629	630	630	635	635	650	650	647	647	649	649	646	646	643	643	642	642	648	648	654	654	658	658	644	644	634	634	633	633	624	624	620	620	619	619	619	619	620	620	629	629	652	652	636	636	645	645	638	603	603	644	644	644	644	641	641	640	640	638	638	634	634	632	632	627	627	626	626	624	628	628	634	634	637	637	638	638	637	637	637	637	634	634	632	632	631	631	631	629	629	629	629	626	626	616	616	615	615	616	616	620	617	617	616	616	613	613	611	611	606	606	607	607	626	626	626	600	600	596	596	600	600	581	581	580	580	580	580	629	629	627	627	625	623	623	615	615	618	618	616	616	605	605	609	609	600	600	599	599	596	594	594	596	596	596	596	599	599	601	601	599	599	597	597	591	591	586	586	586	586	584	584	584	584	584	589	589	601	601	590	590	589	589	586	586	588	588	588	588	588	588	592	592	589	589	590	590	593	593	594	594	592	592	592	590	590	587	587	578	578	576	576	579	579	578	578	578	578	578	578	575	575	573	573	574	574	572	572	572	572	573	573	576	576	576	576	575	575	574	574	575	575	575	575	576	576	576	576	576	576	574	574	572	572	567	567	560	560	560	560	561	561	561	561	561	561	558	558	558	558	558	558	557	557	558	558	565	565	558	558	560	560	560	560	562	562	567	567	566	566	565	565	564	564	563	563	563	563	557	557	562	562	563	563	563	563	563	563	561	561	560	560	559	559	560	560	562	562	565	565	564	564	559	559	551	555	555	558	558	555	555	552	552	551	551	553	553	553	553	553	553	554	554	549	549	548	548	548	548	550	550	553	553	552	552	554	554	555	552	552	552	552	556	556	554	554	554	554	553	553	552	552	550	550	542	542	550	550	550	551	551	551	551	551	551	551	551	551	551	550	550	549	549	548	548	546	545	545	542	542	543	543	540	540	541	541	543	543	544	544	545	533	533	531	531	531	531	534	534	538	538	536	536	537	543	543	546	546	544	544	544	544	542	542	541	541	538	538	542	535	535	535	535	533	533	532	532	537	537	526	526	534	515	528	528	528	524	524	519	519	519	519	520	520	524	524	521	521	523	520	520	511	511	509	509	505	505	514	514	508	508	508	508	509	509	509	509	525	525	528	528	510	509	509	516	516	512	512	514	514	514	514	513	513	506	506	506	506	504	504	506	506	507	507	509	509	509	509	509	509	508	508	504	504	508	508	505	505	491	491	496	496	492	492	491	491	490	490	488	488	488	489	489	494	494	497	497	493	493	495	495	492	492	483	483	0	0	0	0	0	0	0	0	0
633	633	633	637	637	657	657	657	648	648	631	631	637	637	637	644	644	645	645	645	641	641	643	643	643	643	643	643	643	661	661	658	658	662	662	662	659	659	653	653	656	656	656	656	656	655	655	636	636	639	639	644	644	660	660	660	655	655	661	661	661	661	652	652	647	647	637	637	635	635	638	638	638	626	626	629	629	630	630	635	635	650	650	647	647	649	649	646	646	643	643	642	642	648	648	654	654	658	658	644	644	634	634	633	633	624	624	620	620	619	619	619	619	620	620	629	629	652	652	636	636	645	645	638	603	603	644	644	644	644	641	641	640	640	638	638	634	634	632	632	627	627	626	626	624	624	628	629	629	634	634	591	591	591	591	613	613	631	631	629	629	626	624	624	624	624	614	614	616	616	613	613	614	614	614	614	615	616	616	616	616	610	610	606	606	602	602	601	601	599	599	597	591	591	589	589	583	583	581	581	580	580	580	580	580	580	579	579	578	579	579	580	580	581	581	581	581	582	582	583	583	587	587	584	584	590	586	586	588	588	586	586	589	589	594	594	579	579	579	579	582	582	584	584	584	584	581	581	581	580	580	580	580	593	593	569	590	589	589	586	586	588	588	588	588	588	588	592	592	589	589	590	590	593	593	594	594	592	592	592	592	590	587	587	578	578	576	576	579	579	578	578	578	578	578	578	575	575	573	573	574	574	572	572	572	572	573	573	576	576	576	576	575	575	574	574	575	575	575	575	576	576	576	576	576	576	574	574	572	572	567	567	560	560	560	560	561	561	561	561	561	561	558	558	558	558	558	558	557	557	558	558	565	565	558	558	560	560	560	560	562	562	567	567	566	566	565	565	564	564	563	563	563	563	557	557	562	562	563	563	563	563	563	563	561	561	560	560	559	559	560	560	562	562	565	565	564	564	559	559	551	555	555	558	558	555	555	552	552	551	551	553	553	553	553	553	553	554	554	549	549	548	548	548	541	548	548	549	549	550	550	551	551	550	535	535	532	532	537	537	540	540	547	547	547	547	545	545	537	537	535	535	532	532	547	548	548	549	549	548	548	547	547	547	547	545	545	542	542	541	541	535	539	539	536	536	536	536	524	524	536	536	536	536	535	535	530	528	528	528	528	528	528	529	529	529	529	530	530	524	521	521	531	531	542	542	542	542	536	536	532	532	531	531	526	525	525	513	513	523	523	520	520	517	517	515	515	515	515	528	528	528	524	524	519	519	519	519	520	520	524	524	521	521	523	520	520	511	511	509	509	505	505	514	514	508	508	508	508	509	509	509	509	525	525	528	528	510	509	509	516	516	512	512	514	514	514	514	513	513	506	506	506	506	504	504	506	506	507	507	509	509	509	509	509	509	508	508	504	504	508	508	505	505	491	491	496	496	492	492	491	491	490	490	488	488	488	489	489	494	494	497	497	493	493	495	495	492	492	483	483	0	0	0	0	0	0	0	0	0
633	633	633	637	637	657	657	657	648	648	631	631	637	637	637	644	644	645	645	645	641	641	643	643	643	643	643	643	643	661	661	658	658	662	662	662	659	659	653	653	650	650	649	649	649	629	629	623	623	626	626	631	631	624	624	624	620	620	620	620	634	634	639	639	636	636	635	635	635	635	635	635	635	626	626	622	622	622	622	622	622	622	622	639	639	640	640	645	645	640	640	635	635	635	635	647	647	640	640	634	634	634	634	631	631	622	622	617	617	616	616	619	619	620	620	621	621	620	620	615	615	606	606	604	603	603	601	601	641	641	639	639	637	637	635	635	633	633	631	631	625	625	600	600	613	613	621	597	597	595	595	591	591	591	591	591	591	593	631	629	629	626	624	624	624	624	614	614	616	616	613	613	614	614	614	614	615	615	616	616	616	610	610	606	606	602	602	601	601	599	599	597	597	591	589	589	583	583	581	581	580	580	580	580	580	580	579	579	578	579	579	580	580	581	581	581	581	582	582	583	583	587	587	584	584	590	586	586	588	588	586	586	589	589	594	594	579	579	579	579	582	582	584	584	584	584	581	581	581	580	580	580	580	593	593	569	569	577	577	579	579	580	580	579	579	579	579	583	583	584	584	571	571	569	569	560	560	559	559	558	558	559	576	576	566	566	572	572	574	574	575	575	574	574	572	572	572	572	571	571	571	571	571	571	571	571	570	570	570	570	569	569	568	568	565	565	565	565	568	568	572	572	570	570	572	572	568	568	563	563	561	561	560	560	559	559	558	558	554	554	554	554	555	555	555	555	556	556	553	553	553	553	551	551	555	555	557	557	558	558	559	559	560	560	563	563	561	561	558	558	551	551	554	554	561	561	557	557	541	541	557	557	558	558	558	558	557	557	550	550	545	545	534	534	533	533	538	538	548	546	546	547	547	550	550	550	550	549	549	541	541	549	549	549	549	549	549	547	547	541	541	540	540	541	541	548	548	549	549	550	550	551	551	550	535	535	532	532	537	537	540	540	547	547	547	547	545	545	537	537	535	535	532	532	547	548	548	549	549	548	548	547	547	547	547	545	545	542	542	541	541	535	539	539	536	536	536	536	524	524	536	536	536	536	535	535	530	528	528	528	528	528	528	529	529	529	529	530	530	524	521	521	531	531	542	542	542	542	536	536	532	532	531	531	526	525	525	513	513	512	512	512	512	512	512	510	510	507	507	526	524	524	520	520	518	518	518	518	518	518	519	519	518	518	518	511	511	503	503	505	505	505	505	507	507	507	507	506	506	506	506	506	506	507	507	506	506	506	508	508	508	508	509	509	509	509	506	506	504	504	503	503	499	499	502	502	503	503	504	504	504	504	503	503	501	501	500	500	499	499	499	499	496	496	491	491	491	491	491	491	489	489	484	484	484	483	483	482	482	485	485	492	492	491	491	484	484	481	481	480	480	0	0	0	0	0	0	0	0	0
632	632	632	634	634	631	631	631	631	631	631	631	634	634	634	636	636	638	638	636	636	636	626	626	629	629	629	628	628	627	627	626	626	635	635	635	655	655	648	648	650	650	649	649	649	629	629	623	623	626	626	631	631	624	624	624	620	620	620	620	634	634	639	639	636	636	635	635	635	635	635	635	635	626	626	622	622	622	622	622	622	622	622	639	639	640	640	645	645	640	640	635	635	635	635	647	647	640	640	634	634	634	634	631	631	622	622	617	617	616	616	619	619	620	620	621	621	620	620	615	615	606	606	604	604	603	601	601	641	641	639	639	637	637	635	635	633	633	631	631	625	625	600	600	613	613	621	597	597	595	595	591	591	591	591	591	591	593	593	596	596	591	591	591	589	589	600	600	615	615	611	611	612	612	606	606	578	578	613	613	613	581	581	586	586	591	591	599	599	599	599	588	588	587	581	581	579	579	578	578	578	578	578	578	579	579	578	578	578	579	579	579	579	579	579	579	579	577	577	575	575	575	575	575	575	585	573	573	572	572	571	571	551	551	552	552	576	576	570	570	571	571	575	575	576	576	579	579	578	578	578	577	577	576	576	569	569	569	569	572	579	580	580	579	579	579	579	583	583	584	584	571	571	569	569	560	560	559	559	558	558	559	576	576	566	566	572	572	574	574	575	575	574	574	572	572	572	572	571	571	571	571	571	571	571	571	570	570	570	570	569	569	568	568	565	565	565	565	568	568	572	572	570	570	572	572	568	568	563	563	561	561	560	560	559	559	558	558	554	554	554	554	555	555	555	555	556	556	553	553	553	553	551	551	555	555	557	557	558	558	559	559	560	560	563	563	561	561	558	558	551	551	554	554	561	561	557	557	541	541	557	557	558	558	558	558	557	557	550	550	545	545	534	534	533	533	538	538	548	546	546	547	547	550	550	550	550	549	549	541	541	549	549	549	549	549	549	547	547	541	540	538	538	533	533	538	538	541	541	542	542	527	527	528	528	528	530	530	530	530	533	533	542	542	538	538	536	536	532	532	533	533	526	526	523	521	521	520	520	544	544	546	546	545	545	538	538	536	536	531	531	533	532	532	530	530	526	526	524	524	527	527	528	528	525	525	525	526	526	527	527	526	526	526	526	520	520	519	519	518	517	517	517	517	517	517	518	518	516	516	518	518	517	517	515	514	514	513	513	512	512	512	512	512	512	510	510	507	507	526	524	524	520	520	518	518	518	518	518	518	519	519	518	518	518	511	511	503	503	505	505	505	505	507	507	507	507	506	506	506	506	506	506	507	507	506	506	506	508	508	508	508	509	509	509	509	506	506	504	504	503	503	499	499	502	502	503	503	504	504	504	504	503	503	501	501	500	500	499	499	499	499	496	496	491	491	491	491	491	491	489	489	484	484	484	483	483	482	482	485	485	492	492	491	491	484	484	481	481	480	480	0	0	0	0	0	0	0	0	0
632	632	632	634	634	631	631	631	631	631	631	631	634	634	634	636	636	638	638	636	636	636	626	626	629	629	628	628	628	627	627	626	626	635	635	635	629	629	633	633	626	626	622	622	622	616	616	615	615	621	621	619	619	619	619	619	617	617	617	617	618	618	622	622	622	622	624	624	626	626	623	623	623	614	614	614	614	617	617	618	618	615	615	612	612	620	620	623	623	625	625	609	609	602	602	598	598	598	598	603	603	629	629	619	619	612	612	607	607	612	612	614	614	615	615	613	613	614	614	608	608	606	606	604	604	601	599	599	597	597	593	593	594	594	595	595	599	599	594	594	594	594	591	591	592	592	593	593	593	591	591	591	591	591	591	591	591	592	592	592	592	591	591	590	587	587	585	585	615	615	611	611	612	612	606	606	578	578	613	613	613	581	581	586	586	591	591	599	599	599	599	588	588	587	581	581	579	579	578	578	578	578	578	578	579	579	578	578	578	579	579	579	579	579	579	579	579	577	577	575	575	575	575	575	575	585	573	573	572	572	571	571	551	551	552	552	576	576	570	570	571	571	575	575	576	576	579	579	578	578	578	577	577	576	576	569	569	569	569	572	572	573	573	572	572	576	576	566	566	557	557	557	557	558	558	557	557	556	556	555	555	555	554	554	554	554	561	561	570	570	571	571	572	572	565	565	538	538	566	566	565	565	564	564	563	563	564	564	563	563	565	565	564	564	562	562	557	557	565	565	539	539	554	554	567	567	564	564	558	558	550	550	559	559	558	558	552	552	552	552	551	551	551	551	551	551	551	551	550	550	548	548	548	548	548	548	550	550	551	551	549	549	545	545	542	542	537	537	538	538	536	536	533	533	537	537	537	537	531	531	533	533	553	553	543	543	535	535	534	534	532	532	534	534	533	533	532	532	538	543	543	543	543	543	543	542	542	537	537	535	535	545	545	546	546	543	543	538	538	540	540	538	538	533	533	538	538	541	541	542	542	527	528	528	528	528	530	530	530	530	533	533	542	542	538	538	536	536	532	532	533	533	526	523	523	521	521	520	520	544	544	546	546	545	545	538	538	536	536	531	533	533	532	532	530	530	526	526	524	524	527	527	528	528	525	525	525	526	526	527	527	526	526	526	526	520	520	519	519	518	517	517	517	517	517	517	518	518	516	516	511	511	511	511	510	512	512	510	510	511	511	511	511	509	509	506	506	503	503	503	504	504	507	507	512	512	512	512	512	512	513	513	513	513	508	501	501	503	503	503	503	501	501	502	502	504	504	505	505	505	505	505	505	503	503	503	503	503	503	503	502	502	502	502	503	503	502	502	501	501	498	498	498	498	497	497	497	497	497	497	499	499	500	500	486	486	497	497	494	494	489	489	495	495	491	491	487	487	486	486	484	484	483	483	483	480	480	479	479	478	478	485	485	484	484	483	483	476	476	476	476	0	0	0	0	0	0	0	0	0
630	630	630	630	630	628	628	629	629	629	629	629	633	633	633	635	635	635	635	632	632	632	626	626	625	625	622	622	622	623	623	623	623	624	624	624	629	629	633	633	626	626	622	622	622	616	616	615	615	621	621	619	619	619	619	619	617	617	617	617	618	618	622	622	622	622	624	624	626	626	623	623	623	614	614	614	614	617	617	618	618	615	615	612	612	620	620	623	623	625	625	609	609	602	602	598	598	598	598	603	603	629	629	619	619	612	612	607	607	612	612	614	614	615	615	613	613	614	614	608	608	606	606	604	604	601	599	599	597	597	593	593	594	594	595	595	599	599	594	594	594	594	591	591	592	592	593	593	593	591	591	591	591	591	591	591	591	592	592	592	592	591	591	590	587	587	585	585	584	584	603	603	582	582	579	579	578	578	578	577	577	576	576	575	575	574	574	575	575	575	575	578	578	579	579	579	576	576	577	577	577	577	578	578	578	578	578	578	578	572	572	578	578	579	579	578	578	574	574	573	573	570	570	563	563	560	558	558	557	557	556	556	551	551	552	552	555	555	565	565	565	565	564	564	562	562	569	569	554	555	555	568	568	569	569	566	566	567	567	567	567	565	565	553	572	576	576	566	566	557	557	557	557	558	558	557	557	556	556	555	555	555	554	554	554	554	561	561	570	570	571	571	572	572	565	565	538	538	566	566	565	565	564	564	563	563	564	564	563	563	565	565	564	564	562	562	557	557	565	565	539	539	554	554	567	567	564	564	558	558	550	550	559	559	558	558	552	552	552	552	551	551	551	551	551	551	551	551	550	550	548	548	548	548	548	548	550	550	551	551	549	549	545	545	542	542	537	537	538	538	536	536	533	533	537	537	537	537	531	531	533	533	553	553	543	543	535	535	534	534	532	532	534	534	533	533	532	532	538	543	543	543	543	543	543	542	542	537	537	535	535	545	545	546	546	543	543	523	523	528	528	530	530	532	532	535	535	537	537	529	529	520	524	524	527	527	528	528	529	529	522	522	528	528	521	521	524	524	525	525	525	525	523	520	520	519	519	518	518	517	517	521	521	522	522	520	520	526	526	527	527	527	526	526	525	525	518	518	518	518	521	521	523	523	523	523	523	522	522	521	521	521	521	520	520	514	514	515	515	515	514	514	513	513	511	511	512	512	512	512	511	511	511	511	510	512	512	510	510	511	511	511	511	509	509	506	506	503	503	503	504	504	507	507	512	512	512	512	512	512	513	513	513	513	508	501	501	503	503	503	503	501	501	502	502	504	504	505	505	505	505	505	505	503	503	503	503	503	503	503	502	502	502	502	503	503	502	502	501	501	498	498	498	498	497	497	497	497	497	497	499	499	500	500	486	486	497	497	494	494	489	489	495	495	491	491	487	487	486	486	484	484	483	483	483	480	480	479	479	478	478	485	485	484	484	483	483	476	476	476	476	0	0	0	0	0	0	0	0	0
630	630	630	630	630	628	628	629	629	629	629	629	633	633	633	635	635	635	635	632	632	632	626	626	625	625	622	622	622	623	623	623	620	624	624	624	626	626	620	620	597	597	601	601	601	602	602	613	613	615	615	618	618	616	616	616	614	614	606	606	610	610	608	608	606	606	608	608	609	609	611	611	611	607	607	601	601	609	609	616	616	612	612	607	607	605	605	602	602	606	606	598	598	598	598	598	598	598	598	603	603	608	608	607	607	605	605	601	601	599	599	591	591	590	590	602	602	607	607	591	591	582	582	594	594	594	588	588	589	589	589	589	591	591	593	593	594	594	594	594	593	593	591	591	586	586	584	589	589	590	590	588	588	591	591	590	590	592	592	592	592	559	559	583	582	582	574	574	575	575	582	582	578	578	578	578	578	578	578	577	577	576	576	575	575	574	574	575	575	575	575	578	578	579	579	579	576	576	577	577	577	577	578	578	578	578	578	578	578	572	572	578	578	579	579	578	578	574	574	573	573	570	570	563	563	560	560	558	557	557	556	556	551	551	552	552	555	555	565	565	565	565	564	564	562	562	569	569	554	555	555	568	568	569	569	566	566	567	567	567	567	565	565	553	553	546	546	547	547	550	550	551	551	552	552	553	553	548	548	553	553	550	550	549	547	547	545	545	543	543	544	544	560	560	541	541	538	538	548	548	549	549	561	561	550	550	543	543	551	551	554	554	521	521	523	523	524	524	536	536	539	539	537	537	535	535	532	532	531	531	530	530	533	533	536	536	539	539	541	541	545	545	545	545	546	546	546	546	545	545	542	542	541	541	540	540	541	541	540	540	540	540	538	538	535	535	533	533	532	532	533	533	531	531	531	531	530	530	527	527	529	529	528	528	530	530	530	530	532	532	532	532	530	530	530	530	530	530	529	537	537	532	532	538	538	530	530	531	531	526	526	525	525	526	526	520	520	523	523	528	528	530	530	532	532	535	535	537	537	529	529	520	524	524	527	527	528	528	529	529	522	522	528	528	521	521	524	524	525	525	525	525	523	520	520	519	519	518	518	517	517	521	521	522	522	520	520	526	526	527	527	527	526	526	525	525	518	518	518	518	521	521	523	523	523	523	523	522	522	521	521	521	521	520	520	514	514	515	515	515	514	514	510	510	510	510	511	511	511	511	510	510	509	509	509	508	508	507	507	507	507	506	506	504	504	503	503	501	500	500	500	500	503	503	506	506	500	500	499	499	492	492	491	491	492	495	495	496	496	497	497	498	498	497	497	497	497	500	500	501	501	501	501	501	501	501	499	499	498	498	497	497	493	493	494	494	496	496	495	495	492	492	488	488	487	487	485	485	484	484	480	480	477	477	477	477	479	479	479	479	474	474	478	478	483	483	483	483	482	482	480	480	478	478	478	476	476	476	476	473	473	475	475	476	476	475	475	476	476	472	472	472	0	0	0	0	0	0	0	0
593	593	593	624	624	626	626	627	627	627	626	626	628	628	628	628	628	628	628	615	615	615	616	616	623	623	617	617	617	617	617	620	620	624	624	624	626	626	620	620	597	597	601	601	601	602	602	613	613	615	615	618	618	616	616	616	614	614	606	606	610	610	608	608	606	606	608	608	609	609	611	611	611	607	607	601	601	609	609	616	616	612	612	607	607	605	605	602	602	606	606	598	598	598	598	598	598	598	598	603	603	608	608	607	607	605	605	601	601	599	599	591	591	590	590	602	602	607	607	591	591	582	582	594	594	594	588	588	589	589	589	589	591	591	593	593	594	594	594	594	593	593	591	591	586	586	584	589	589	590	590	588	588	591	591	590	590	592	592	592	592	559	559	583	582	582	574	574	575	575	582	582	578	578	578	578	576	576	577	576	576	574	574	571	571	568	568	568	568	568	568	575	575	572	576	576	569	569	575	575	571	571	572	572	577	577	550	550	578	552	552	552	552	554	554	559	559	566	566	565	565	563	563	556	556	553	553	552	551	551	550	550	550	550	551	551	552	552	554	554	549	549	543	543	553	553	558	558	554	546	546	552	552	556	556	558	558	565	565	559	559	543	543	541	541	542	542	544	547	550	550	551	551	552	552	553	553	548	548	553	553	550	550	549	547	547	545	545	543	543	544	544	560	560	541	541	538	538	548	548	549	549	561	561	550	550	543	543	551	551	554	554	521	521	523	523	524	524	536	536	539	539	537	537	535	535	532	532	531	531	530	530	533	533	536	536	539	539	541	541	545	545	545	545	546	546	546	546	545	545	542	542	541	541	540	540	541	541	540	540	540	540	538	538	535	535	533	533	532	532	533	533	531	531	531	531	530	530	527	527	529	529	528	528	530	530	530	530	532	532	532	532	530	530	530	530	530	530	529	537	537	532	532	538	538	530	530	531	531	526	526	525	525	518	518	518	518	518	518	519	519	520	520	527	527	514	514	527	527	512	512	509	520	520	522	522	524	524	522	522	517	517	515	515	514	514	514	514	516	516	515	515	517	517	517	517	517	516	516	515	515	515	515	516	516	519	519	519	519	521	520	520	519	519	514	514	515	515	511	511	517	517	517	517	518	516	516	515	515	515	515	514	514	514	514	513	513	512	512	511	510	510	510	510	510	510	511	511	511	511	510	510	509	509	509	508	508	507	507	507	507	506	506	504	504	503	503	501	500	500	500	500	503	503	506	506	500	500	499	499	492	492	491	491	492	495	495	496	496	497	497	498	498	497	497	497	497	500	500	501	501	501	501	501	501	501	499	499	498	498	497	497	493	493	494	494	496	496	495	495	492	492	488	488	487	487	485	485	484	484	480	480	477	477	477	477	479	479	479	479	474	474	478	478	483	483	483	483	482	482	480	480	478	478	478	476	476	476	476	473	473	475	475	476	476	475	475	476	476	472	472	472	0	0	0	0	0	0	0	0
593	593	593	624	624	626	626	627	627	627	626	626	628	628	628	628	628	628	628	615	615	615	616	616	623	623	617	617	617	615	615	594	594	586	586	586	589	589	591	591	592	592	592	592	592	596	596	607	607	610	610	611	611	612	612	612	593	593	591	591	597	597	597	597	603	603	598	598	597	597	599	599	599	595	595	591	591	588	588	592	592	592	592	594	594	597	597	597	597	599	599	594	594	598	598	598	598	599	599	599	599	603	603	598	598	595	595	591	591	592	592	591	591	580	580	580	580	578	578	578	578	580	580	581	581	581	582	582	582	582	586	586	589	589	593	593	593	593	592	592	587	587	583	583	569	569	567	564	564	561	561	560	560	559	559	559	559	559	559	559	559	559	559	562	566	566	566	566	572	572	575	575	575	575	577	577	577	577	576	573	573	572	572	571	571	568	568	568	568	568	568	575	575	572	576	576	569	569	575	575	571	571	572	572	577	577	550	550	578	552	552	552	552	554	554	559	559	566	566	565	565	563	563	556	556	553	553	552	551	551	550	550	550	550	551	551	552	552	554	554	549	549	543	543	553	553	558	558	554	546	546	552	552	556	556	558	558	565	565	559	559	543	543	541	541	542	542	544	544	547	547	549	549	549	549	549	549	548	548	546	546	547	547	545	545	545	539	539	538	538	537	537	536	536	536	536	536	536	538	538	539	539	535	535	539	539	541	541	536	536	519	519	521	521	520	520	520	520	522	522	523	523	527	527	528	528	526	526	528	528	530	530	532	532	533	533	534	534	536	536	538	538	538	538	537	537	530	530	526	526	523	523	535	535	534	534	536	536	539	539	539	539	538	538	534	534	532	532	531	531	530	530	528	528	523	523	523	523	524	524	525	525	525	525	527	527	528	528	529	529	529	529	527	527	525	525	521	521	521	520	520	518	518	518	518	518	518	523	523	523	523	520	520	518	518	518	518	518	518	519	519	520	520	527	527	514	514	527	527	512	512	509	520	520	522	522	524	524	522	522	517	517	515	515	514	514	514	514	516	516	515	515	517	517	517	517	517	516	516	515	515	515	515	516	516	519	519	519	519	521	520	520	519	519	514	514	515	515	511	511	517	517	517	517	518	516	516	515	515	515	515	514	514	514	514	504	504	509	509	506	505	505	500	500	504	504	506	506	506	506	506	506	506	505	505	503	503	502	502	501	501	500	500	499	499	498	498	497	497	497	497	497	496	496	495	495	498	498	496	496	489	489	488	488	488	491	491	492	492	492	492	488	488	492	492	490	490	496	496	497	497	497	497	496	496	495	494	494	493	493	491	491	491	491	488	488	491	491	487	487	480	480	479	479	478	478	482	482	478	478	477	477	477	477	475	475	473	473	474	474	471	471	472	472	473	473	476	476	476	476	475	475	474	474	474	472	472	472	472	471	471	470	470	473	473	473	473	469	469	464	464	464	0	0	0	0	0	0	0	0
589	589	624	624	624	622	622	576	576	576	599	599	619	619	619	613	613	603	603	600	600	600	602	602	602	602	603	603	603	615	615	594	594	586	586	586	589	589	591	591	592	592	592	592	592	596	596	607	607	610	610	611	611	612	612	612	593	593	591	591	597	597	597	597	603	603	598	598	597	597	599	599	599	595	595	591	591	588	588	592	592	592	592	594	594	597	597	597	597	599	599	594	594	598	598	598	598	599	599	599	599	603	603	598	598	595	595	591	591	592	592	591	591	580	580	580	580	578	578	578	578	580	580	581	581	581	582	582	582	582	586	586	589	589	593	593	593	593	592	592	587	587	583	583	569	569	567	564	564	561	561	560	560	559	559	559	559	559	559	559	559	559	559	562	566	566	566	566	572	572	575	575	575	575	577	577	577	577	576	573	573	572	572	561	561	566	566	567	567	563	563	546	546	552	547	547	550	550	552	552	552	552	548	548	549	549	550	550	551	551	549	549	549	551	551	552	552	558	558	559	559	555	555	552	552	552	552	550	549	549	549	549	548	548	548	548	546	546	543	543	539	539	539	539	538	538	552	552	543	532	532	542	542	541	541	538	538	537	537	534	534	534	534	535	535	537	537	540	540	541	541	549	549	549	549	549	549	548	548	546	546	547	547	545	545	545	539	539	538	538	537	537	536	536	536	536	536	536	538	538	539	539	535	535	539	539	541	541	536	536	519	519	521	521	520	520	520	520	522	522	523	523	527	527	528	528	526	526	528	528	530	530	532	532	533	533	534	534	536	536	538	538	538	538	537	537	530	530	526	526	523	523	535	535	534	534	536	536	539	539	539	539	538	538	534	534	532	532	531	531	530	530	528	528	523	523	523	523	524	524	525	525	525	525	527	527	528	528	529	529	529	529	527	527	525	525	521	521	521	520	520	518	518	518	518	518	518	523	523	518	518	517	517	516	516	513	513	513	513	507	507	504	504	505	505	503	503	504	504	504	504	506	507	507	513	513	516	516	511	511	510	510	511	511	508	508	513	513	513	513	509	509	512	511	511	510	510	499	499	509	509	511	511	512	512	511	511	518	518	517	508	508	507	507	507	507	508	508	510	510	510	510	511	511	511	505	505	501	501	510	510	500	500	502	502	504	504	509	509	506	505	505	500	500	504	504	506	506	506	506	506	506	506	505	505	503	503	502	502	501	501	500	500	499	499	498	498	497	497	497	497	497	496	496	495	495	498	498	496	496	489	489	488	488	488	491	491	492	492	492	492	488	488	492	492	490	490	496	496	497	497	497	497	496	496	495	494	494	493	493	491	491	491	491	488	488	491	491	487	487	480	480	479	479	478	478	482	482	478	478	477	477	477	477	475	475	473	473	474	474	471	471	472	472	473	473	476	476	476	476	475	475	474	474	474	472	472	472	472	471	471	470	470	473	473	473	473	469	469	464	464	464	0	0	0	0	0	0	0	0
589	589	624	624	624	622	622	576	576	576	599	599	619	619	619	613	613	603	603	600	600	600	602	602	602	602	603	581	581	585	585	584	584	586	586	586	589	589	589	589	591	591	591	591	591	588	588	595	595	596	596	603	603	587	587	587	587	587	590	590	589	589	596	596	595	595	594	594	588	588	588	588	588	587	587	586	586	586	586	585	585	587	587	587	587	593	593	591	591	591	591	587	587	578	578	589	589	589	589	589	589	583	583	576	576	580	580	584	584	586	586	582	582	580	580	572	572	572	572	575	575	577	577	576	576	575	576	576	578	578	581	581	580	580	583	583	567	567	560	560	558	558	560	560	567	567	562	561	561	559	559	557	557	557	557	557	557	557	557	558	558	558	558	558	561	561	563	563	562	562	569	569	546	546	568	568	574	574	555	545	545	545	545	545	545	552	552	554	554	563	563	546	546	552	547	547	550	550	552	552	552	552	548	548	549	549	550	550	551	551	549	549	549	551	551	552	552	558	558	559	559	555	555	552	552	552	552	550	549	549	549	549	548	548	548	548	546	546	543	543	539	539	539	539	538	538	552	552	543	532	532	542	542	541	541	538	538	537	537	534	534	534	534	535	535	537	537	540	540	541	541	543	543	542	542	543	543	544	544	541	541	537	537	538	537	537	536	536	531	531	529	529	529	529	534	534	531	531	529	529	529	529	521	521	537	537	533	533	531	531	519	519	518	518	520	520	519	519	518	518	518	518	517	517	520	520	519	519	524	524	525	525	527	527	527	527	530	530	523	523	525	525	523	523	525	525	523	523	522	522	522	522	522	522	531	531	535	535	536	536	506	506	506	506	518	518	531	531	525	525	523	523	520	520	516	516	516	516	518	518	519	519	517	517	521	521	523	523	528	528	528	528	519	519	509	509	512	516	516	514	514	512	512	512	512	513	513	518	518	518	518	517	517	516	516	513	513	513	513	507	507	504	504	505	505	503	503	504	504	504	504	506	507	507	513	513	516	516	511	511	510	510	511	511	508	508	513	513	513	513	509	509	512	511	511	510	510	499	499	509	509	511	511	512	512	511	511	518	518	517	508	508	507	507	507	507	508	508	510	510	510	510	511	511	511	505	505	501	501	493	493	492	492	491	491	493	493	495	495	491	486	486	485	485	489	489	496	496	499	499	505	505	499	504	504	501	501	496	496	490	490	490	490	490	490	492	492	492	491	491	489	489	485	485	486	486	490	490	489	489	484	484	485	485	486	487	487	488	488	487	487	482	482	484	484	486	486	491	491	491	491	493	493	492	492	480	487	487	486	486	486	486	485	485	484	484	486	486	479	479	475	475	472	472	472	472	476	476	477	477	476	476	475	475	472	472	466	466	466	466	469	469	470	470	471	471	471	471	471	471	471	471	470	470	470	469	469	468	468	467	467	467	467	466	466	467	467	457	457	458	458	458	0	0	0	0	0	0	0	0
584	584	580	580	580	581	581	576	576	576	576	576	575	575	575	581	581	578	578	592	592	592	597	597	584	584	581	581	581	585	585	584	584	586	586	586	589	589	589	589	591	591	591	591	591	588	588	595	595	596	596	603	603	587	587	587	587	587	590	590	589	589	596	596	595	595	594	594	588	588	588	588	588	587	587	586	586	586	586	585	585	587	587	587	587	593	593	591	591	591	591	587	587	578	578	589	589	589	589	589	589	583	583	576	576	580	580	584	584	586	586	582	582	580	580	572	572	572	572	575	575	577	577	576	576	575	576	576	578	578	581	581	580	580	583	583	567	567	560	560	558	558	560	560	567	567	562	561	561	559	559	557	557	557	557	557	557	557	557	558	558	558	558	558	561	561	563	563	562	562	569	569	546	546	568	568	574	574	555	545	545	545	545	545	545	552	552	554	554	551	551	546	546	545	545	545	545	545	546	546	547	547	547	547	548	548	548	548	548	548	548	546	546	548	548	548	548	552	552	551	551	548	548	546	546	545	545	544	544	544	544	544	544	544	544	544	542	542	537	537	537	537	533	533	533	533	531	531	531	531	532	533	533	537	537	535	535	535	535	533	533	529	529	530	530	527	527	527	527	535	535	536	536	532	532	543	543	544	544	541	541	537	537	538	538	537	536	536	531	531	529	529	529	529	534	534	531	531	529	529	529	529	521	521	537	537	533	533	531	531	519	519	518	518	520	520	519	519	518	518	518	518	517	517	520	520	519	519	524	524	525	525	527	527	527	527	530	530	523	523	525	525	523	523	525	525	523	523	522	522	522	522	522	522	531	531	535	535	536	536	506	506	506	506	518	518	531	531	525	525	523	523	520	520	516	516	516	516	518	518	519	519	517	517	521	521	523	523	528	528	528	528	519	519	509	509	512	516	516	514	514	512	512	512	512	513	511	512	512	512	512	511	511	510	510	508	508	502	502	500	500	499	499	499	499	499	499	502	502	502	502	502	500	500	501	501	501	501	503	503	504	504	506	506	506	506	506	506	506	506	501	501	503	504	504	500	500	499	499	504	504	503	503	499	499	495	495	495	495	494	497	497	504	504	504	504	503	503	500	500	500	500	490	490	497	498	498	494	494	493	493	492	492	491	491	493	493	495	495	491	486	486	485	485	489	489	496	496	499	499	505	505	499	504	504	501	501	496	496	490	490	490	490	490	490	492	492	492	491	491	489	489	485	485	486	486	490	490	489	489	484	484	485	485	486	487	487	488	488	487	487	482	482	484	484	486	486	491	491	491	491	493	493	492	492	480	487	487	486	486	486	486	485	485	484	484	486	486	479	479	475	475	472	472	472	472	476	476	477	477	476	476	475	475	472	472	466	466	466	466	469	469	470	470	471	471	471	471	471	471	471	471	470	470	470	469	469	468	468	467	467	467	467	466	466	467	467	457	457	458	458	458	0	0	0	0	0	0	0	0
584	584	580	580	580	581	581	576	576	576	576	576	575	575	575	581	581	578	578	592	592	592	597	597	584	576	578	578	578	578	578	581	581	585	585	585	588	588	587	587	586	586	586	586	586	586	586	584	584	586	586	586	586	582	582	584	584	584	585	585	586	586	590	590	585	585	592	592	581	581	582	582	582	581	581	583	583	583	583	584	584	584	584	585	585	588	588	579	579	578	578	576	576	573	573	574	574	571	571	571	571	569	569	571	571	576	576	571	571	570	570	571	571	568	568	565	565	568	568	569	569	568	568	565	565	564	553	553	568	568	574	574	573	573	573	573	557	557	553	553	554	554	557	557	560	560	561	560	560	557	557	556	556	556	556	556	556	556	556	556	556	557	557	557	556	556	555	555	554	554	556	556	546	546	541	541	541	541	541	542	542	542	542	544	544	544	544	543	543	542	542	542	542	543	544	545	545	545	546	546	547	547	547	547	548	548	548	548	548	548	548	546	546	548	548	548	548	552	552	551	551	548	548	546	546	545	545	544	544	544	544	544	544	544	544	544	542	542	537	537	537	537	533	533	533	533	531	531	531	531	532	533	533	537	537	535	535	535	535	533	533	529	529	530	530	527	527	527	527	535	535	536	536	532	532	540	540	530	530	520	520	525	525	525	525	529	530	530	528	528	521	521	521	521	526	526	524	524	521	521	519	519	521	521	521	521	511	511	513	513	513	513	515	515	516	516	516	516	515	515	515	515	510	510	512	512	517	517	514	514	514	514	514	514	512	512	512	512	514	514	516	516	517	517	520	520	520	520	521	521	519	519	516	516	512	512	506	506	505	505	506	506	506	506	505	505	508	508	509	509	510	510	511	511	512	512	512	512	508	508	505	505	501	501	504	504	506	506	506	506	506	506	505	505	509	511	511	511	511	511	511	511	511	510	510	511	511	512	512	512	512	511	511	510	510	508	508	502	502	500	500	499	499	499	499	499	499	502	502	502	502	502	500	500	501	501	501	501	503	503	504	504	506	506	506	506	506	506	506	506	501	501	503	504	504	500	500	499	499	504	504	503	503	499	499	495	495	495	495	494	497	497	504	504	504	504	503	503	500	500	500	500	490	490	488	488	488	488	488	488	488	488	488	488	488	487	487	481	481	479	481	481	481	481	485	485	484	484	484	484	484	484	483	483	483	467	467	486	486	486	486	488	488	485	485	488	488	487	486	486	485	485	483	483	478	478	482	482	485	485	480	480	478	478	465	463	463	485	485	483	483	481	481	475	475	473	473	472	472	475	475	478	478	481	481	475	472	472	476	476	478	478	479	479	464	464	470	470	475	475	470	470	470	470	469	469	469	469	467	467	455	455	450	450	454	454	455	455	460	460	454	454	460	460	468	468	469	469	469	469	468	468	468	468	468	466	466	465	465	462	462	457	457	453	453	454	454	451	451	451	451	451	0	0	0	0	0	0	0	0
572	572	575	575	575	574	574	573	573	573	573	573	574	574	574	574	574	574	574	575	575	575	576	576	576	576	578	578	578	578	578	581	581	585	585	585	588	588	587	587	586	586	586	586	586	586	586	584	584	586	586	586	586	582	582	584	584	584	585	585	586	586	590	590	585	585	592	592	581	581	582	582	581	581	581	583	583	583	583	584	584	584	584	585	585	588	588	579	579	578	578	576	576	573	573	574	574	571	571	571	571	569	569	571	571	576	576	571	571	570	570	571	571	568	568	565	565	568	568	569	569	568	568	565	565	564	553	553	568	568	574	574	573	573	573	573	557	557	553	553	554	554	557	557	560	560	561	560	560	557	557	556	556	556	556	556	556	556	556	556	556	557	557	557	556	556	555	555	554	554	556	556	546	546	541	541	541	541	541	542	542	542	542	544	544	544	544	543	543	542	542	542	542	543	543	544	544	544	546	546	546	546	546	546	547	547	548	548	522	522	527	534	534	538	538	540	540	540	540	544	544	538	538	536	536	537	537	538	539	539	539	539	539	539	538	538	536	536	533	533	532	532	531	531	530	530	529	529	526	526	526	529	529	532	532	531	531	529	529	528	528	525	525	524	524	519	519	524	524	524	524	528	528	523	523	519	519	516	516	520	520	525	525	525	525	529	530	530	528	528	521	521	521	521	526	526	524	524	521	521	519	519	521	521	521	521	511	511	513	513	513	513	515	515	516	516	516	516	515	515	515	515	510	510	512	512	517	517	514	514	514	514	514	514	512	512	512	512	514	514	516	516	517	517	520	520	520	520	521	521	519	519	516	516	512	512	506	506	505	505	506	506	506	506	505	505	508	508	509	509	510	510	511	511	512	512	512	512	508	508	505	505	501	501	504	504	506	506	506	506	506	506	505	505	509	511	511	511	511	511	511	511	505	505	505	502	502	505	505	505	505	498	498	504	504	501	501	496	496	497	497	497	497	497	497	498	498	497	497	498	498	498	497	497	496	496	494	494	495	495	495	495	499	499	496	496	496	496	495	495	495	492	492	500	500	493	493	499	499	499	499	499	499	497	497	496	496	490	490	493	495	495	497	497	497	497	494	494	489	489	487	487	487	487	488	488	488	488	488	488	488	488	488	488	488	487	487	481	479	479	481	481	481	481	485	485	484	484	484	484	484	484	483	483	483	467	467	486	486	486	486	488	488	485	485	488	488	487	486	486	485	485	483	483	478	478	482	482	485	485	480	480	478	478	465	463	463	485	485	483	483	481	481	475	475	473	473	472	472	475	475	478	478	481	481	475	472	472	476	476	478	478	479	479	464	464	470	470	475	475	470	470	470	470	469	469	469	469	467	467	455	455	450	450	454	454	455	455	460	460	454	454	460	460	468	468	469	469	469	469	468	468	468	468	468	466	466	465	465	462	462	457	457	453	453	454	454	451	451	451	451	451	0	0	0	0	0	0	0	0
572	572	575	575	575	574	574	573	573	573	573	573	574	574	574	574	574	574	574	575	575	575	576	576	574	574	576	576	576	576	576	577	577	566	566	566	555	555	582	582	583	583	576	576	576	576	576	576	576	583	583	581	581	578	578	579	579	579	579	579	581	581	567	567	565	565	563	563	564	564	561	561	572	572	572	555	555	579	579	569	569	556	556	574	574	574	574	567	567	572	572	571	571	565	565	564	564	559	559	565	565	565	565	566	566	566	566	565	565	557	557	558	558	557	557	556	556	560	560	560	560	557	557	555	555	553	552	552	551	551	545	545	557	557	547	547	546	546	547	547	552	552	551	551	552	552	557	552	552	551	551	546	546	550	550	550	550	551	551	552	552	552	552	551	552	552	538	538	540	540	539	539	536	536	537	537	536	536	537	539	539	540	540	540	540	539	539	539	539	538	538	540	540	539	539	536	537	537	544	544	546	546	546	546	547	547	548	548	522	522	527	534	534	538	538	540	540	540	540	544	544	538	538	536	536	537	537	538	538	539	539	539	539	539	538	538	536	536	533	533	532	532	531	531	530	530	529	529	526	526	526	529	529	532	532	531	531	529	529	528	528	525	525	524	524	519	519	524	524	524	524	528	528	523	523	519	519	516	516	515	515	517	517	523	523	524	523	523	520	520	520	520	519	519	519	519	519	519	519	519	516	516	512	512	511	511	509	509	510	510	511	511	512	512	511	511	510	510	509	509	508	508	503	503	502	502	506	506	509	509	512	512	509	509	509	509	505	505	505	505	516	516	517	517	507	507	511	511	489	489	491	491	489	489	498	498	507	507	505	505	505	505	503	503	505	505	505	505	504	504	508	508	509	509	508	508	506	506	503	503	498	498	498	498	498	498	499	499	498	498	497	497	498	498	497	504	504	505	505	506	506	505	505	505	505	502	502	505	505	505	505	498	498	504	504	501	501	496	496	497	497	497	497	497	497	498	498	497	497	498	498	498	497	497	496	496	494	494	495	495	495	495	499	499	496	496	496	496	495	495	495	492	492	500	500	493	493	499	499	499	499	499	499	497	497	496	496	490	493	493	495	495	497	497	497	497	494	494	489	484	483	483	481	481	482	481	481	483	483	483	483	479	479	473	473	472	472	474	476	476	478	478	480	480	481	481	481	481	480	480	476	476	472	467	467	467	467	477	477	483	483	482	482	482	482	483	483	483	483	483	476	476	476	476	474	474	466	466	469	469	471	471	470	470	465	463	463	462	462	462	462	470	470	470	470	468	468	468	468	471	471	471	471	472	472	467	470	470	473	473	476	476	464	464	457	457	459	459	462	462	460	460	463	463	460	460	454	454	450	450	449	449	450	450	450	450	453	453	453	453	449	449	448	448	444	444	443	443	439	439	439	439	459	459	459	442	442	446	446	450	450	448	448	446	446	447	447	448	448	449	449	449	0	0	0	0	0	0	0	0
568	568	570	570	570	572	572	572	572	572	572	572	573	573	573	574	574	573	573	573	573	573	573	573	574	574	576	576	576	576	576	577	577	566	566	566	555	555	582	582	583	583	576	576	576	576	576	576	576	583	583	581	581	578	578	579	579	579	579	579	581	581	567	567	565	565	563	563	564	564	561	561	572	572	572	555	555	579	579	569	569	556	556	574	574	574	574	567	567	572	572	571	571	565	565	564	564	559	559	565	565	565	565	566	566	566	566	565	565	557	557	558	558	557	557	556	556	560	560	560	560	557	557	555	555	553	552	552	551	551	545	545	557	557	547	547	546	546	547	547	552	552	551	551	552	552	557	552	552	551	551	546	546	550	550	550	550	551	551	552	552	552	552	551	552	552	538	538	540	540	539	539	536	536	537	537	536	536	537	537	539	540	540	540	540	539	539	539	539	538	538	540	540	539	539	536	537	537	544	544	544	544	546	546	546	546	521	521	522	522	525	529	529	534	534	535	535	534	534	535	535	532	532	527	527	531	531	532	532	532	532	532	531	531	524	524	528	528	529	529	527	527	527	527	526	526	525	525	524	524	524	523	523	522	522	518	518	517	517	516	516	517	517	518	518	518	518	517	517	517	517	517	517	516	516	511	511	511	511	512	512	515	517	523	523	524	523	523	520	520	520	520	519	519	519	519	519	519	519	519	516	516	512	512	511	511	509	509	510	510	511	511	512	512	511	511	510	510	509	509	508	508	503	503	502	502	506	506	509	509	512	512	509	509	509	509	505	505	505	505	516	516	517	517	507	507	511	511	489	489	491	491	489	489	498	498	507	507	505	505	505	505	503	503	505	505	505	505	504	504	508	508	509	509	508	508	506	506	503	503	498	498	498	498	498	498	499	499	498	498	497	497	498	498	497	504	504	505	493	500	500	499	499	498	498	493	493	490	490	486	486	485	485	488	488	495	495	492	492	492	492	492	492	492	492	492	492	490	490	492	491	491	492	492	492	492	493	493	493	493	492	492	490	490	489	489	490	490	490	490	491	489	489	481	481	479	479	479	479	493	493	496	496	493	493	492	492	489	488	488	487	487	486	486	486	486	487	487	484	484	483	483	481	481	482	481	481	483	483	483	483	479	479	473	473	472	472	474	476	476	478	478	480	480	481	481	481	481	480	480	476	476	472	467	467	467	467	477	477	483	483	482	482	482	482	483	483	483	483	483	476	476	476	476	474	474	466	466	469	469	471	471	470	465	465	463	463	462	462	462	462	470	470	470	470	468	468	468	468	471	471	471	471	472	472	467	470	470	473	473	476	476	464	464	457	457	459	459	462	462	460	460	463	463	460	460	454	454	450	450	449	449	450	450	450	450	453	453	453	453	449	449	448	448	444	444	443	443	439	439	439	439	459	459	459	442	442	446	446	450	450	448	448	446	446	447	447	448	448	449	449	449	0	0	0	0	0	0	0	0
568	568	570	570	570	572	572	572	572	572	572	572	573	573	573	574	574	573	573	573	573	573	571	571	571	571	571	571	571	570	570	569	569	566	566	555	555	555	565	565	563	563	562	562	558	558	558	560	560	566	566	568	568	565	565	577	577	577	567	567	552	552	554	554	555	555	558	558	556	556	555	555	558	558	558	555	555	554	554	553	553	548	548	551	551	545	545	555	555	567	567	550	550	550	550	552	552	556	556	559	559	561	561	557	557	562	562	552	552	544	544	543	543	543	543	543	543	530	530	531	531	536	536	543	543	544	542	542	545	545	545	545	544	544	544	544	542	542	542	542	544	544	544	544	546	546	540	539	539	539	539	539	539	533	533	538	538	547	547	546	546	546	546	544	533	533	529	529	530	530	532	532	536	536	532	532	528	528	530	530	536	536	536	533	533	529	529	532	532	533	533	531	531	523	523	520	519	519	518	518	517	517	515	515	518	546	521	521	522	522	525	529	529	534	534	535	535	534	534	535	535	532	532	527	527	531	531	532	532	532	532	532	531	531	524	524	528	528	529	529	527	527	527	527	526	526	525	525	524	524	524	523	523	522	522	518	518	517	517	516	516	517	517	518	518	518	518	517	517	517	517	517	517	516	516	511	511	511	511	512	512	515	515	514	514	512	512	511	512	512	512	512	514	514	514	514	516	516	515	515	514	514	503	503	504	504	506	506	507	507	508	508	507	507	506	506	503	503	502	502	502	502	501	501	499	499	495	495	498	498	503	503	503	503	503	503	503	503	496	496	495	495	495	495	491	491	493	493	489	489	489	489	488	488	487	487	486	486	485	485	497	497	502	502	502	502	502	502	503	503	503	503	504	504	504	504	503	503	499	499	494	494	496	496	496	496	494	494	492	492	492	492	490	490	491	491	491	493	493	500	500	499	499	498	498	493	493	490	490	486	486	485	485	488	488	495	495	492	492	492	492	492	492	492	492	492	492	490	490	492	491	491	492	492	492	492	493	493	493	493	492	492	490	490	489	489	490	490	490	490	491	489	489	481	481	479	479	479	479	493	493	496	496	493	493	492	492	489	488	488	487	487	486	486	474	474	470	470	475	475	477	477	477	478	478	478	478	479	479	478	478	476	476	469	469	468	468	470	474	474	474	474	475	475	475	475	470	470	474	474	472	472	466	465	465	465	465	465	465	474	474	473	473	473	473	470	470	463	462	462	465	465	465	465	466	466	466	466	466	466	466	466	465	462	462	460	460	460	460	459	459	460	460	463	463	464	464	465	465	466	466	467	467	458	458	446	447	447	452	452	453	453	455	455	456	456	457	457	456	456	453	453	452	452	448	448	447	447	447	447	447	447	446	446	448	448	449	449	449	449	447	447	445	445	442	442	441	441	439	439	439	439	439	439	439	440	440	441	441	444	444	446	446	445	445	444	444	445	445	444	444	444	0	0	0	0	0	0	0	0
0	0	569	569	569	568	568	569	569	569	569	569	570	570	569	569	569	570	570	571	571	571	571	571	571	571	571	571	571	570	570	569	569	566	566	555	555	555	565	565	563	563	562	562	558	558	558	560	560	566	566	568	568	565	565	577	577	577	567	567	552	552	554	554	555	555	558	558	556	556	555	555	558	558	558	555	555	554	554	553	553	548	548	551	551	545	545	555	555	567	567	550	550	550	550	552	552	556	556	559	559	561	561	557	557	562	562	552	552	544	544	543	543	543	543	543	543	530	530	531	531	536	536	543	543	544	542	542	545	545	545	545	544	544	544	544	542	542	542	542	544	544	544	544	546	546	540	540	539	539	539	539	539	533	533	538	538	547	547	546	546	546	546	544	533	533	529	529	530	530	532	532	536	536	532	532	528	528	530	530	536	536	536	533	533	529	529	532	532	533	533	531	531	523	523	520	519	519	518	518	517	517	515	515	518	518	519	519	521	521	523	525	525	526	526	529	529	528	528	524	524	518	518	523	523	524	524	525	525	525	520	520	520	520	521	521	523	523	523	523	522	522	521	521	520	520	520	520	518	518	518	518	515	512	512	511	511	508	508	507	507	510	510	511	511	512	512	513	513	514	514	513	513	511	511	506	506	506	506	507	507	507	507	507	507	507	512	511	512	512	512	512	514	514	514	514	516	516	515	515	514	514	503	503	504	504	506	506	507	507	508	508	507	507	506	506	503	503	502	502	502	502	501	501	499	499	495	495	498	498	503	503	503	503	503	503	503	503	496	496	495	495	495	495	491	491	493	493	489	489	489	489	488	488	487	487	486	486	485	485	497	497	502	502	502	502	502	502	503	503	503	503	504	504	504	504	503	503	499	499	494	494	496	496	496	496	494	494	492	492	492	492	490	491	487	484	484	490	490	492	492	493	493	489	489	485	485	484	484	482	482	481	481	483	483	482	482	480	480	484	484	486	486	486	486	487	487	486	480	480	480	480	485	485	485	485	486	486	486	486	487	487	487	487	486	486	486	486	486	486	481	473	473	478	478	473	473	473	473	473	473	478	478	477	477	480	480	477	479	479	478	478	476	476	474	474	470	470	475	475	477	477	477	478	478	478	478	479	479	478	478	476	476	469	469	468	468	470	474	474	474	474	475	475	475	475	470	470	474	474	472	472	466	465	465	465	465	465	465	474	474	473	473	473	473	470	470	463	462	462	465	465	465	465	466	466	466	466	466	466	466	466	465	462	462	460	460	460	460	459	459	460	460	463	463	464	464	465	465	466	466	467	467	458	458	446	447	447	452	452	453	453	455	455	456	456	457	457	456	456	453	453	452	452	448	448	447	447	447	447	447	447	446	446	448	448	449	449	449	449	447	447	445	445	442	442	441	441	439	439	439	439	439	439	439	440	440	441	441	444	444	446	446	445	445	444	444	445	445	444	444	444	0	0	0	0	0	0	0	0
0	0	569	569	569	568	568	569	569	569	569	569	570	570	569	569	569	570	570	571	571	570	569	569	569	569	569	569	569	565	565	557	557	557	557	554	554	554	554	554	555	555	559	559	559	559	559	555	555	551	551	546	546	543	543	543	543	543	548	548	548	548	545	545	551	551	553	553	552	552	552	552	552	552	552	554	554	552	552	547	547	545	545	545	545	545	545	544	544	544	544	542	542	542	542	546	546	549	549	548	548	530	530	535	535	537	537	530	530	530	530	525	525	530	530	530	530	530	530	530	530	530	530	530	530	530	532	532	532	532	535	535	542	542	536	536	533	533	533	533	530	530	530	530	529	529	524	524	519	524	524	528	528	523	523	521	521	522	522	530	530	541	541	526	526	523	522	522	521	521	528	528	530	530	527	527	521	521	525	525	527	518	518	517	517	515	515	518	518	520	520	516	516	522	522	519	514	514	514	514	514	514	515	515	516	516	516	516	517	517	523	523	525	526	526	529	529	528	528	524	524	518	518	523	523	524	524	525	525	525	520	520	520	520	521	521	523	523	523	523	522	522	521	521	520	520	520	520	518	518	518	518	515	512	512	511	511	508	508	507	507	510	510	511	511	512	512	513	513	514	514	513	513	511	511	506	506	506	506	507	507	507	507	507	507	507	507	501	501	501	500	500	499	499	492	492	491	491	495	495	495	495	495	495	497	497	500	500	506	506	506	506	505	505	504	504	496	496	477	477	500	500	499	499	496	496	490	490	492	492	491	491	492	492	493	493	494	494	493	493	491	491	490	490	491	491	488	488	488	488	487	487	486	486	484	484	482	482	481	481	482	482	481	481	496	496	499	499	501	501	501	501	502	502	487	487	482	482	483	483	482	482	488	488	490	490	491	491	491	491	490	490	489	487	487	484	484	490	490	492	492	493	493	489	489	485	485	484	484	482	482	481	481	483	483	482	482	480	480	484	484	486	486	486	486	487	487	486	480	480	480	480	485	485	485	485	486	486	486	486	487	487	487	487	486	486	486	486	486	486	481	473	473	478	478	473	473	473	473	473	473	478	478	477	477	480	480	477	479	474	475	475	474	474	466	466	464	464	463	463	457	457	470	477	477	477	477	476	476	475	475	474	474	468	468	467	467	467	468	468	469	469	468	468	464	464	463	463	462	462	464	464	463	463	463	462	462	462	462	464	464	464	464	463	463	462	462	461	460	460	461	461	461	461	463	463	464	464	464	464	464	464	463	461	461	459	459	458	458	456	456	456	456	452	452	455	455	455	455	444	444	450	450	445	445	446	447	447	447	447	450	450	451	451	453	453	453	453	454	454	447	447	443	443	443	443	445	445	445	445	444	444	444	444	444	444	442	442	443	443	442	442	442	442	441	441	439	439	438	438	436	436	436	436	436	438	438	440	440	438	438	428	428	443	443	438	438	436	436	434	434	434	0	0	0	0	0	0	0	0
0	0	531	531	531	533	533	534	534	534	558	558	568	568	529	529	529	570	570	570	570	570	569	569	569	569	569	569	569	565	565	557	557	557	557	554	554	554	554	554	555	555	559	559	559	559	559	555	555	551	551	546	546	543	543	543	543	543	548	548	548	548	545	545	551	551	553	553	552	552	552	552	552	552	552	554	554	552	552	547	547	545	545	545	545	545	545	544	544	544	544	542	542	542	542	546	546	549	549	548	548	530	530	535	535	537	537	530	530	530	530	525	525	530	530	530	530	530	530	530	530	530	530	530	530	530	532	532	532	532	535	535	542	542	536	536	533	533	533	533	530	530	530	530	529	529	524	524	519	524	524	528	528	523	523	521	521	522	522	530	530	541	541	526	526	523	522	522	521	521	528	528	530	530	527	527	521	521	525	525	527	518	518	517	517	515	515	518	518	520	520	516	516	522	522	519	514	514	514	514	514	514	515	515	516	516	516	516	517	517	518	518	519	514	514	513	513	510	510	509	509	513	513	515	515	516	516	514	514	514	508	508	508	508	510	510	520	520	520	520	512	512	509	509	511	511	507	507	509	509	510	510	510	510	510	508	508	502	502	501	501	505	505	505	505	506	506	506	506	509	509	506	506	499	499	501	501	501	501	498	498	495	495	490	490	496	496	494	494	494	500	500	499	499	492	492	491	491	495	495	495	495	495	495	497	497	500	500	506	506	506	506	505	505	504	504	496	496	477	477	500	500	499	499	496	496	490	490	492	492	491	491	492	492	493	493	494	494	493	493	491	491	490	490	491	491	488	488	488	488	487	487	486	486	484	484	482	482	481	481	482	482	481	481	496	496	499	499	501	501	501	501	502	502	487	487	482	482	483	483	482	482	488	488	490	490	491	491	491	491	485	485	484	483	483	483	483	482	482	481	481	481	481	476	476	477	477	481	481	480	480	480	480	478	478	474	474	474	474	472	472	477	477	477	477	477	477	478	479	479	476	476	475	475	475	475	476	476	479	479	481	481	480	480	479	479	475	475	471	471	469	470	470	471	471	471	471	470	470	471	471	472	472	472	472	473	473	473	474	474	475	475	474	474	466	466	464	464	463	463	457	457	470	477	477	477	477	476	476	475	475	474	474	468	468	467	467	467	468	468	469	469	468	468	464	464	463	463	462	462	464	464	463	463	463	462	462	462	462	464	464	464	464	463	463	462	461	461	460	460	461	461	461	461	463	463	464	464	464	464	464	464	463	461	461	459	459	458	458	456	456	456	456	452	452	455	455	455	445	444	444	444	444	443	443	443	444	444	445	445	446	446	448	448	451	451	438	438	434	434	437	437	439	439	442	442	441	441	441	445	444	444	444	444	444	444	442	442	443	443	442	442	442	442	441	441	439	439	438	438	436	436	436	436	436	438	438	440	440	438	438	428	428	443	443	438	438	436	436	434	434	434	0	0	0	0	0	0	0	0
0	0	531	531	531	533	533	534	534	534	558	558	568	568	529	529	529	570	570	570	537	537	532	532	540	540	560	560	560	541	541	545	545	543	543	544	544	544	539	539	546	546	552	552	551	551	551	548	548	542	542	540	540	541	541	541	541	541	542	542	546	546	544	544	542	542	542	542	544	544	544	544	544	544	544	546	546	545	545	538	538	543	543	541	541	543	543	543	543	541	541	514	514	515	515	517	517	520	520	526	526	530	530	532	532	530	530	525	525	522	522	520	520	519	519	520	520	523	523	524	524	524	524	522	522	522	522	522	520	520	520	520	521	521	521	521	520	520	517	517	518	518	521	521	520	520	517	517	516	515	515	516	516	518	518	518	518	515	515	516	516	516	516	515	515	516	517	517	516	516	517	517	519	519	517	517	519	519	517	517	515	514	514	512	512	508	508	506	506	504	504	513	513	517	517	513	513	513	513	513	513	513	513	513	513	513	513	513	511	511	508	508	511	507	507	513	513	510	510	509	509	513	513	515	515	516	516	514	514	514	508	508	508	508	510	510	520	520	520	520	512	512	509	509	511	511	507	507	509	509	510	510	510	510	510	508	508	502	502	501	501	505	505	505	505	506	506	506	506	509	509	506	506	499	499	501	501	501	501	498	498	495	495	490	490	496	496	494	494	494	493	493	493	493	492	492	491	491	491	491	492	492	492	492	488	488	487	487	484	484	481	481	479	479	476	476	476	476	474	474	475	475	476	476	477	477	484	484	486	486	488	488	490	490	485	485	486	486	489	489	489	489	489	489	488	488	487	487	486	486	484	484	483	483	482	482	481	481	478	478	476	476	476	476	477	477	479	479	474	474	474	474	475	475	477	477	478	478	479	479	478	478	478	478	484	484	486	486	486	486	485	485	484	483	483	483	483	482	482	481	481	481	481	476	476	477	477	481	481	480	480	480	480	478	478	474	474	474	474	472	472	477	477	477	477	477	477	478	479	479	476	476	475	475	475	475	476	476	479	479	481	481	480	480	479	479	475	475	471	469	469	470	470	471	471	471	471	470	470	471	471	472	472	472	471	467	467	468	468	468	468	468	467	467	463	463	462	462	458	458	454	454	452	452	452	452	452	453	453	456	456	465	465	459	459	461	461	459	454	454	463	463	459	459	462	462	458	458	457	457	456	457	457	458	458	458	458	456	456	455	455	452	452	443	443	455	458	458	458	458	457	457	461	461	462	462	463	463	464	464	461	461	458	456	456	455	455	453	453	451	451	449	449	446	446	446	446	445	445	444	444	444	444	443	443	443	444	444	445	445	446	446	448	448	451	451	438	438	434	434	437	437	439	439	442	442	441	441	441	441	437	437	439	439	439	439	440	440	440	440	440	440	439	439	438	438	437	437	436	436	435	435	435	435	435	434	434	432	432	432	432	428	428	429	429	429	429	429	429	430	430	430	0	0	0	0	0	0	0	0
530	530	531	531	531	531	531	536	536	536	537	537	531	531	529	529	529	531	531	537	537	537	532	532	540	540	560	560	560	541	541	545	545	543	543	544	544	544	539	539	546	546	552	552	551	551	551	548	548	542	542	540	540	541	541	541	541	541	542	542	546	546	544	544	542	542	542	542	544	544	544	544	544	544	544	546	546	545	545	538	538	543	543	541	541	543	543	543	543	541	541	514	514	515	515	517	517	520	520	526	526	530	530	532	532	530	530	525	525	522	522	520	520	519	519	520	520	523	523	524	524	524	524	522	522	522	522	522	520	520	520	520	521	521	521	521	520	520	517	517	518	518	521	521	520	520	517	517	516	515	515	516	516	518	518	518	518	515	515	516	516	516	516	515	515	516	517	517	516	516	517	517	519	519	517	517	519	519	517	517	515	514	514	512	512	508	508	506	506	504	504	513	513	517	517	513	513	513	513	513	513	513	513	513	513	513	513	513	511	511	508	508	511	507	507	505	505	504	504	505	505	507	507	510	510	511	511	510	510	506	506	501	499	499	498	498	498	498	497	497	497	497	497	497	502	502	502	502	503	503	505	505	505	505	505	503	503	499	499	499	499	499	499	499	499	496	496	497	497	492	492	493	493	494	494	495	495	495	495	490	490	489	489	490	490	490	490	492	492	493	492	492	491	491	489	492	491	491	491	491	492	492	492	492	488	488	487	487	484	484	481	481	479	479	476	476	476	476	474	474	475	475	476	476	477	477	484	484	486	486	488	488	490	490	485	485	486	486	489	489	489	489	489	489	488	488	487	487	486	486	484	484	483	483	482	482	481	481	478	478	476	476	476	476	477	477	479	479	474	474	474	474	475	475	477	477	478	478	479	479	478	478	478	478	484	484	475	475	480	480	482	480	480	474	474	471	471	472	472	476	476	471	471	471	471	471	471	475	475	476	476	475	475	474	474	473	473	472	472	469	469	467	467	467	467	467	467	468	471	471	472	472	473	473	474	474	474	474	475	475	472	472	476	476	467	467	464	464	466	465	465	465	465	465	465	465	465	466	466	466	466	469	469	471	471	467	467	468	468	468	468	468	467	467	463	463	462	462	458	458	454	454	452	452	452	452	452	453	453	456	456	465	465	459	459	461	461	459	454	454	463	463	459	459	462	462	458	458	457	457	456	457	457	458	458	458	458	456	456	455	455	452	452	443	443	455	458	458	458	458	457	457	461	461	462	462	463	463	464	464	461	448	441	450	450	450	450	447	447	441	441	441	441	440	440	441	441	443	443	441	441	440	440	442	442	442	441	441	440	440	433	433	433	433	431	431	432	432	432	432	434	434	435	435	436	436	437	437	436	436	431	431	434	434	435	435	435	435	436	436	436	436	436	439	438	438	437	437	436	436	435	435	435	435	435	434	434	432	432	432	432	428	428	429	429	429	429	429	429	429	430	430	0	0	0	0	0	0	0	0
530	530	531	531	531	531	531	536	536	536	537	537	531	531	529	529	529	531	531	526	526	528	528	528	529	529	531	531	532	532	532	533	533	533	533	535	535	535	533	533	541	541	541	541	515	515	515	526	526	540	540	539	539	539	539	539	539	539	540	540	532	532	531	531	532	532	531	531	534	534	534	534	533	533	533	526	526	534	534	536	536	537	537	537	537	539	539	526	526	512	512	513	513	514	514	515	515	518	518	518	518	522	522	525	525	524	524	521	521	520	520	516	516	514	514	512	512	513	513	515	515	520	520	521	521	520	514	514	514	514	514	514	513	513	511	511	507	507	505	505	503	503	506	506	510	510	512	512	514	512	512	509	509	508	508	513	513	513	513	513	513	511	511	510	510	512	512	512	513	513	512	512	510	510	513	513	514	514	512	512	509	509	509	508	508	503	503	500	500	498	498	496	496	499	499	502	504	504	506	506	506	506	512	512	512	512	504	504	506	506	507	507	506	506	506	504	504	503	503	505	505	507	507	510	510	511	511	510	510	506	506	501	499	499	498	498	498	498	497	497	497	497	497	497	502	502	502	502	503	503	505	505	505	505	505	503	503	499	499	499	499	499	499	499	499	496	496	497	497	492	492	493	493	494	494	495	495	495	495	490	490	489	489	490	490	490	490	492	492	493	492	492	491	491	489	489	488	488	489	489	489	489	488	488	487	487	482	482	479	479	479	479	475	475	474	474	474	474	473	473	473	473	474	474	476	476	478	478	483	483	484	484	484	484	484	484	480	480	483	483	486	486	482	482	485	485	483	483	482	482	480	480	479	479	478	478	477	477	476	476	476	476	475	475	475	475	474	474	474	474	474	474	475	475	477	477	477	477	477	477	477	477	475	475	472	472	475	475	480	480	482	480	480	474	474	471	471	472	472	476	476	471	471	471	471	471	471	475	475	476	476	475	475	474	474	473	473	472	472	469	469	467	467	467	467	467	467	468	471	471	472	472	473	473	474	474	474	474	475	475	472	472	476	476	467	467	464	464	466	465	465	465	465	465	465	465	465	466	466	466	457	462	462	451	451	461	457	457	458	458	457	457	458	458	457	457	457	457	455	455	452	452	450	449	449	452	452	452	452	453	453	453	453	451	451	451	451	451	454	454	452	452	457	457	456	456	455	455	454	454	453	453	453	451	451	450	450	446	446	445	445	444	444	443	443	441	438	438	433	433	433	433	432	432	432	432	432	432	433	433	448	448	441	450	450	450	450	447	447	441	441	441	441	440	440	441	441	443	443	441	441	440	440	442	442	442	441	441	440	440	433	433	433	433	431	431	432	432	432	432	434	434	435	435	436	436	437	437	436	436	431	431	434	434	435	435	435	435	436	436	436	436	436	436	435	435	433	433	432	432	431	431	431	429	429	429	429	426	426	426	426	424	424	426	426	427	427	428	428	428	429	429	0	0	0	0	0	0	0	0
528	528	529	529	529	531	531	530	530	530	529	529	526	526	524	524	524	526	526	526	526	528	528	528	529	529	531	531	532	532	532	533	533	533	533	535	535	535	533	533	541	541	541	541	515	515	515	526	526	540	540	539	539	539	539	539	539	539	540	540	532	532	531	531	532	532	531	531	534	534	534	534	533	533	526	526	526	534	534	536	536	537	537	537	537	539	539	526	526	509	509	510	510	512	512	514	514	515	515	516	516	515	515	512	512	513	513	514	514	514	514	512	512	510	510	510	510	511	511	508	508	514	514	513	513	513	507	507	512	512	513	513	512	512	510	510	505	505	500	500	503	503	506	506	510	510	512	512	514	512	512	509	509	508	508	513	513	513	513	513	513	511	511	510	510	512	512	512	513	513	512	512	510	510	513	513	514	514	512	512	509	509	509	508	508	503	503	500	500	498	498	496	496	499	499	502	502	504	506	506	506	506	512	512	512	512	504	504	506	506	507	507	506	506	506	504	504	503	503	502	502	502	502	501	501	501	501	503	503	497	497	498	498	498	496	496	492	492	491	491	491	491	490	490	490	490	492	492	500	500	493	493	499	499	501	496	496	495	495	494	494	494	494	494	494	491	491	488	488	488	488	490	490	491	491	491	491	489	489	489	489	487	487	487	487	489	489	489	489	489	488	488	487	487	486	486	486	486	485	485	489	489	488	488	487	487	482	482	479	479	479	479	475	475	474	474	474	474	473	473	473	473	474	474	476	476	478	478	483	483	484	484	484	484	484	484	480	480	483	483	486	486	482	482	485	485	483	483	482	482	480	480	479	479	478	478	477	477	476	476	476	476	475	475	475	475	474	474	474	474	474	474	475	475	477	477	477	477	477	477	477	472	471	471	471	471	467	467	470	470	461	461	461	462	462	464	464	463	463	462	462	461	461	462	462	466	466	469	469	471	471	470	470	466	466	467	467	466	466	465	465	464	464	463	463	461	462	462	464	464	467	467	468	468	467	467	467	467	467	467	464	464	458	458	458	458	461	461	463	463	463	462	462	462	462	461	461	461	461	457	457	462	462	451	451	461	457	457	458	458	457	457	458	458	457	457	457	457	455	455	452	452	450	449	449	452	452	452	452	453	453	453	453	451	451	451	451	451	454	454	452	452	457	457	456	456	455	455	454	454	453	453	453	451	451	450	450	446	446	445	445	444	444	443	443	441	438	438	433	433	432	432	431	431	432	432	432	432	433	433	437	437	437	444	444	431	431	440	440	435	435	437	437	438	438	438	438	439	439	438	438	438	438	438	438	438	438	438	435	435	430	430	429	429	430	430	430	430	432	432	431	431	432	432	429	429	429	429	429	429	426	426	429	429	430	430	431	431	431	431	431	431	431	431	430	430	429	429	428	428	428	431	431	429	429	429	429	426	426	426	426	424	424	426	426	427	427	428	428	428	429	429	0	0	0	0	0	0	0	0
528	528	529	529	529	531	531	530	530	529	529	529	526	526	524	524	524	526	520	520	520	524	524	524	526	526	526	526	526	526	526	530	530	526	526	532	532	532	532	532	540	540	517	517	515	515	515	516	516	527	527	534	534	533	533	532	532	528	528	528	524	524	523	523	523	523	524	524	530	530	526	526	524	524	518	518	518	523	523	527	527	534	534	535	535	522	522	508	508	509	509	510	510	512	512	514	514	515	515	516	516	515	515	512	512	513	513	514	514	514	514	512	512	510	510	510	510	511	511	508	508	514	514	513	513	513	507	507	512	512	513	513	512	512	510	510	505	505	500	500	500	500	501	501	502	502	506	506	508	507	507	503	503	502	502	507	507	510	510	511	511	508	508	511	511	508	508	508	508	508	508	508	509	509	509	509	509	509	508	508	498	503	503	499	499	500	500	497	497	495	495	494	494	493	493	494	494	494	493	493	493	493	493	493	492	492	494	494	500	500	500	500	500	500	500	498	498	497	497	495	495	489	489	486	501	501	501	503	503	497	497	498	498	498	496	496	492	492	491	491	491	491	490	490	490	490	492	492	500	500	493	493	499	499	501	496	496	495	495	494	494	494	494	494	494	491	491	488	488	488	488	490	490	491	491	491	491	489	489	489	489	487	487	487	487	489	489	489	489	489	489	488	487	487	486	486	486	486	485	485	485	485	483	483	481	481	479	479	477	477	476	476	472	472	472	472	471	471	471	471	471	471	472	472	474	474	477	477	478	478	480	480	481	481	478	478	479	479	464	464	460	460	463	463	462	462	471	471	476	476	475	475	475	475	474	474	474	474	472	472	472	472	473	473	474	474	472	472	474	474	470	470	470	470	475	475	475	475	474	474	472	472	471	471	471	471	467	467	470	470	461	461	461	462	462	464	464	463	463	462	462	461	461	462	462	466	466	469	469	471	471	470	470	466	466	467	467	466	466	465	465	464	464	463	463	461	462	462	464	464	467	467	468	468	467	467	467	467	467	467	464	464	458	458	458	458	461	461	463	463	463	462	462	462	462	461	457	456	456	454	454	453	453	451	451	452	452	452	451	451	452	452	455	455	452	452	452	452	451	451	449	449	447	448	448	449	449	451	451	451	451	450	450	449	449	450	447	447	448	448	448	448	447	447	448	448	447	447	448	448	448	441	441	442	442	445	445	443	443	441	441	439	439	439	439	436	435	435	433	433	432	432	431	431	432	432	432	432	433	433	437	437	437	444	444	431	431	440	440	435	435	437	437	438	438	438	438	439	439	438	438	438	438	438	438	438	438	438	435	435	430	430	429	429	430	430	430	430	432	432	431	431	432	432	429	429	429	429	429	429	426	426	429	429	430	430	431	431	431	431	431	431	431	431	430	430	429	429	428	428	428	428	428	426	426	425	425	424	424	418	418	422	422	421	421	422	422	424	424	424	427	427	0	0	0	0	0	0	0	0
526	526	526	526	526	525	525	523	523	525	525	525	522	522	519	519	519	520	520	520	520	524	524	524	526	526	526	526	526	526	526	530	530	526	526	532	532	532	532	532	540	540	517	517	515	515	515	516	516	527	527	534	534	533	533	532	532	528	528	528	524	524	523	523	523	523	524	524	530	530	526	526	524	524	518	518	518	523	523	527	506	508	508	504	504	504	504	504	504	506	506	507	507	505	505	506	506	493	493	512	512	507	507	507	507	500	500	506	506	505	505	501	501	504	504	504	504	505	505	504	504	502	502	502	502	501	501	503	505	505	507	507	507	507	507	507	501	501	500	500	499	499	499	499	499	499	499	499	502	501	501	498	503	502	502	507	507	510	510	511	511	508	508	511	511	508	508	508	508	508	508	508	509	509	509	509	509	509	508	508	498	498	503	499	499	500	500	497	497	495	495	494	494	493	493	494	494	494	493	493	493	493	493	493	492	492	494	494	500	500	500	500	500	500	500	498	498	497	497	495	495	489	489	486	486	487	487	488	488	489	489	490	491	491	491	491	490	490	490	490	489	489	487	487	485	485	482	482	482	482	480	480	494	494	495	488	488	487	487	488	488	488	488	488	488	488	488	487	487	484	484	483	483	473	473	473	473	482	482	482	482	483	483	485	485	465	465	487	487	486	486	483	482	482	480	480	480	480	476	476	479	479	477	477	472	481	479	479	477	477	476	476	472	472	472	472	471	471	471	471	471	471	472	472	474	474	477	477	478	478	480	480	481	481	478	478	479	479	464	464	460	460	463	463	462	462	471	471	476	476	475	475	475	475	474	474	474	474	472	472	472	472	473	473	474	474	472	472	474	474	470	470	470	470	475	456	457	457	466	466	467	467	465	465	464	464	459	459	456	457	457	457	457	461	461	462	462	460	460	459	459	456	456	455	455	457	457	461	461	460	460	457	457	455	455	455	455	457	457	460	460	460	460	460	460	460	461	461	462	462	462	462	463	463	458	458	456	456	455	455	453	453	455	455	455	455	458	458	458	459	459	458	458	457	457	457	457	456	456	454	454	453	453	451	451	452	452	452	451	451	452	452	455	455	452	452	452	452	451	451	449	447	447	448	448	449	449	451	451	451	451	450	450	449	449	450	447	447	448	448	448	448	447	447	448	448	447	447	448	448	448	441	441	442	442	445	445	443	443	441	441	438	438	437	437	436	434	434	432	432	431	431	431	431	431	431	431	431	432	432	434	434	433	432	432	431	431	432	432	433	433	433	433	434	434	432	432	431	431	433	433	433	433	434	434	433	432	432	426	426	427	427	428	428	428	428	428	428	428	428	427	427	426	426	423	423	421	421	423	423	424	424	425	425	425	425	426	426	422	422	426	426	423	423	422	422	425	425	424	424	424	423	423	422	422	420	420	424	424	418	418	422	422	421	421	422	422	424	424	424	427	427	0	0	0	0	0	0	0	0
526	526	526	526	526	525	525	523	523	525	525	525	522	522	519	519	519	520	516	518	518	520	520	520	522	522	524	524	525	525	525	525	525	525	525	523	523	523	518	518	516	516	513	513	514	514	514	512	512	513	513	515	515	521	521	521	521	521	521	521	522	522	521	521	522	522	521	521	522	522	523	523	515	515	504	504	504	512	512	506	506	508	508	504	504	504	504	504	504	506	506	507	507	505	505	506	506	493	493	512	512	507	507	507	507	500	500	506	506	505	505	501	501	504	504	504	504	505	505	504	504	502	502	502	502	501	501	503	505	505	507	507	507	507	507	507	501	501	500	500	499	499	499	499	499	499	499	499	502	501	501	498	498	498	498	503	503	485	485	492	492	487	487	499	499	493	488	488	496	496	496	496	499	499	505	505	505	505	492	492	489	489	487	490	490	491	491	492	492	491	491	491	491	490	490	492	492	492	493	493	491	491	488	488	488	488	490	490	484	484	490	490	491	491	491	491	491	489	489	488	488	482	482	481	481	481	481	481	488	489	489	490	491	491	491	491	490	490	490	490	489	489	487	487	485	485	482	482	482	482	480	480	494	494	495	488	488	487	487	488	488	488	488	488	488	488	488	487	487	484	484	483	483	473	473	473	473	482	482	482	482	483	483	485	485	465	465	487	487	486	486	483	482	482	480	480	480	480	476	476	479	479	477	477	472	472	470	470	468	468	468	468	467	467	467	467	467	467	466	466	466	466	458	458	467	467	465	465	458	458	456	456	462	462	458	458	459	459	459	459	460	460	460	460	460	460	461	461	463	463	465	465	469	469	469	469	468	468	470	470	470	470	470	470	451	451	472	472	474	474	456	456	455	455	456	456	457	457	466	466	467	467	465	465	464	464	459	459	456	457	457	457	457	461	461	462	462	460	460	459	459	456	456	455	455	457	457	461	461	460	460	457	457	455	455	455	455	457	457	460	460	460	460	460	460	460	461	461	462	462	462	462	463	463	458	458	456	456	455	455	453	453	455	455	455	455	458	458	458	459	459	458	454	453	453	453	453	452	452	452	452	450	450	450	450	450	450	450	450	450	450	450	448	448	443	443	447	447	446	446	443	442	442	440	440	439	439	446	446	446	446	447	447	446	446	446	445	445	444	444	440	440	439	439	438	438	439	439	438	438	433	440	440	444	444	441	441	440	440	439	439	438	438	437	437	436	434	434	432	432	431	431	431	431	431	431	431	431	432	432	434	434	433	432	432	431	431	432	432	433	433	433	433	434	434	432	432	431	431	433	433	433	433	434	434	433	432	432	426	426	427	427	428	428	428	428	428	428	428	428	427	427	426	426	423	423	421	421	423	423	424	424	425	425	425	425	426	426	422	422	426	426	423	423	422	422	425	425	424	424	424	423	423	422	422	420	420	419	419	418	418	417	417	415	415	411	411	410	410	410	410	410	0	0	0	0	0	0	0	0
513	513	517	517	521	521	521	519	519	519	519	519	514	514	510	510	510	516	516	518	518	520	520	520	522	522	524	524	525	525	525	525	525	525	525	523	523	523	518	518	516	516	513	513	514	514	512	512	512	513	513	515	515	521	521	521	521	521	521	521	522	522	521	521	522	522	521	521	522	522	523	523	515	515	504	504	504	504	504	506	506	502	502	501	501	501	501	502	502	503	503	502	502	502	502	503	503	493	493	493	493	493	493	497	497	500	500	500	500	497	497	498	498	498	498	499	499	499	499	496	496	493	493	493	493	495	495	493	494	494	493	493	494	494	487	487	490	490	491	491	492	492	495	495	495	495	494	494	495	497	497	494	494	492	492	489	489	485	485	484	484	487	487	499	499	493	488	488	496	496	496	496	499	499	505	505	505	505	492	492	489	489	487	490	490	491	491	492	492	491	491	491	491	490	490	492	492	492	493	493	491	491	488	488	488	488	490	490	484	484	490	490	491	491	491	491	491	489	489	488	488	482	482	481	481	481	481	481	481	484	484	480	485	485	485	485	484	484	484	484	484	484	483	483	482	482	480	480	477	477	478	478	480	480	485	473	473	472	472	475	475	477	477	486	486	483	483	481	481	480	480	471	471	473	473	473	473	472	472	472	472	471	471	465	465	465	465	466	466	472	472	481	481	469	469	469	469	469	469	469	473	473	469	469	468	468	465	465	464	464	462	462	467	467	467	467	467	467	466	466	466	466	458	458	467	467	465	465	458	458	456	456	462	462	458	458	459	459	459	459	460	460	460	460	460	460	461	461	463	463	465	465	469	469	469	469	468	468	470	470	470	470	470	470	451	451	472	472	474	452	456	456	455	455	456	456	455	455	454	454	454	454	452	452	454	454	452	452	453	454	454	456	456	456	456	456	456	455	455	455	455	454	454	454	454	456	456	456	456	458	458	453	453	450	450	449	449	449	449	454	454	454	454	455	455	454	454	454	456	456	458	458	458	458	456	456	455	455	449	449	450	450	451	451	452	452	453	454	454	454	454	454	454	453	453	453	453	452	452	452	452	450	450	450	450	450	450	450	450	450	450	450	448	448	443	443	447	447	446	446	443	442	442	440	440	439	439	446	446	446	446	447	447	446	446	446	445	445	444	444	440	440	439	439	438	438	439	439	438	438	433	440	440	444	429	424	424	425	425	432	432	432	432	431	431	431	430	430	430	430	430	430	429	429	430	430	430	430	431	431	431	431	430	428	428	429	429	429	429	430	430	429	429	429	429	427	427	426	426	428	428	429	429	427	427	427	423	423	423	423	422	422	423	423	424	424	424	424	423	423	421	421	418	418	419	419	420	420	420	420	420	420	420	420	420	420	421	421	420	420	420	420	419	419	416	416	417	417	417	417	417	410	410	414	414	415	415	414	414	413	413	413	417	415	415	411	411	410	410	410	410	410	0	0	0	0	0	0	0	0
513	513	517	517	521	521	521	519	519	519	519	519	514	514	510	510	510	503	503	509	509	515	515	515	512	512	519	519	518	518	518	521	521	518	518	514	514	514	511	511	511	511	511	511	511	511	509	509	509	507	507	507	507	515	515	518	518	518	518	518	515	515	514	514	514	514	514	514	515	515	513	513	503	503	504	504	504	504	504	506	506	502	502	501	501	501	501	502	502	503	503	502	502	502	502	503	503	493	493	493	493	493	493	497	497	500	500	500	500	497	497	498	498	498	498	499	499	499	499	496	496	493	493	493	493	495	495	493	494	494	493	493	494	494	487	487	490	490	491	491	492	492	495	495	495	495	494	494	495	497	497	494	494	492	492	489	489	485	485	484	484	485	485	486	486	485	486	486	486	486	487	487	487	487	485	485	485	485	484	484	483	483	480	480	480	480	480	486	486	486	486	485	485	485	485	486	486	487	487	487	487	487	486	486	485	485	482	482	481	481	479	479	478	478	477	472	472	477	477	478	478	479	479	480	480	480	480	479	479	479	479	474	480	485	485	485	484	484	484	484	484	484	483	483	482	482	480	480	477	477	478	478	480	480	485	485	473	472	472	475	475	477	477	486	486	483	483	481	481	480	480	471	471	473	473	473	473	472	472	472	472	471	471	465	465	465	465	466	466	472	472	481	481	469	469	469	469	469	469	469	473	473	469	469	468	468	465	465	464	464	462	462	462	462	462	462	461	461	458	458	456	456	457	457	456	456	457	457	457	457	456	456	456	456	456	456	458	458	458	458	459	459	459	459	459	459	457	457	456	456	458	458	458	458	460	460	458	458	458	458	449	449	448	448	451	451	451	451	452	452	456	456	455	455	456	456	455	455	454	454	454	454	452	452	454	454	452	453	453	454	454	456	456	456	456	456	456	455	455	455	455	454	454	454	454	456	456	456	456	458	458	453	453	450	450	449	449	449	449	454	454	454	454	455	454	454	454	454	456	456	458	458	458	458	456	456	455	455	449	449	450	450	451	451	452	452	453	454	449	449	449	448	448	447	447	447	447	446	446	446	446	445	445	448	448	447	447	447	445	445	438	438	438	438	439	439	438	438	437	437	436	433	433	432	432	432	432	436	436	445	445	442	442	444	444	444	439	439	434	434	432	432	433	433	437	437	436	436	430	430	430	430	430	429	429	424	424	425	425	432	432	432	432	431	431	431	430	430	430	430	430	430	429	429	430	430	430	430	431	431	431	431	430	428	428	429	429	429	429	430	430	429	429	429	429	427	427	426	426	428	428	429	429	427	427	427	423	423	423	423	422	422	423	423	424	424	424	424	423	423	421	421	418	418	419	419	420	420	420	420	420	420	420	420	420	420	421	421	420	420	420	420	419	419	416	416	417	417	417	417	417	410	410	414	414	415	415	414	414	413	413	413	413	411	411	409	409	408	408	408	408	408	0	0	0	0	0	0	0	0
