0	0	0	0	0	0	0	0	0	0	0	0	0	0	0	0	0	0	0	0	0	0	0	0	0	0	0	0	0	0	0	0	0	0	0	0	0	0	0	0	0	0	0	0	0	0	0	0	0	0	0	0	0	0	0	0	0	0	0	0	0	0	0	0	0	0	0	0	0	0	0	0	0	0	0	0	0	0	0	0	0	0	0	0	0	0	0	0	0	0	0	0	0	0	0	0	0	0	0	0	0	0	0	0	0	0	0	0	0	0	0	0	0	0	0	0	0	0	0	0	0	0	0	0	0	0	0	0	0	0	0	0	0	0	0	0	0	0	0	0	0	0	0	0	0	0	0	0	0	0	0	0	0	0	0	0	0	0	0	0	0	0	0	0	0	0	0	0	0	0	0	0	0	0	0	0	0	0	0	0	0	0	0	0	0	0	0	0	0	0	0	0	0	0	0	0	0	0	0	0	0	0	0	0	0	0	0	0	0	0	0	0	0	0	0	0	0	0	0	0	0	0	0	0	0	0	0	0	0	0	0	0	0	0	0	0	0	0	0	0	0	0	0	0	0	0	0	0	0	0	0	0	0	0	0	0	0	0	0	0	0	0	0	0	0	0	0	0	0	0	0	0	0	0	0	0	0	0	0	0	0	0	0	0	0	0	0	0	0	0	0	0	0	0	0	0	0	0	0	0	0	0	0	0	0	0	0	0	0	0	0	0	0	0	0	0	0	0	0	0	0	0	0	0	0	0	0	0	0	0	0	0	0	0	0	0	0	0	0	1264	1262	1273	1293	1290	1280	1323	1352	1379	1427	1497	1592	1585	1656	1658	1653	1638	1626	1629	1631	1625	1615	1631	1638	1644	1650	1641	1634	1625	1623	1625	1620	1625	1622	1616	1610	1600	1604	1630	1650	1662	1659	1668	1656	1643	1634	1624	1619	1612	1614	1629	1651	1655	1650	1642	1630	1625	1624	1628	1638	1645	1658	1669	1650	1624	1576	1563	1546	1538	1543	1537	1533	1524	1557	1576	1563	1556	1553	1560	1571	1573	1593	1605	1602	1555	1537	1528	1515	1502	1491	1483	1479	1454	1421	1392	1371	1368	1405	1414	1432	1443	1436	1424	1414	1415	1412	1418	1422	1417	1414	1414	1426	1449	1474	1485	1483	1459	1466	1478	1476	1465	1471	1488	1489	1473	1460	1444	1431	1419	1416	1429	1437	1448	1463	1502	1432	1427	1418	1460	1440	1424	1416	1417	1420	1424	1428	1438	1436	1428	1406	1396	1397	1405	1425	1438	1433	1438	1441	1445	1445	1437	1435	1453	1463	1594	1792	2186	2581	2627	2635	2614	2554	2563	2584	2628	2684	2700	2681	2640	2604	2556	2547	2565	2559	2538	2496	2487	2489	2494	2491	2456	2434	2424	2498	2582	2631	2649	2692	2696	2699	2704	2672	2582	2412	2257	2150	2091	2034	1981	1951	1959	1974	1976	1989	2012	2037	2046	2025	2010	2003	2011	2011	2018	2009	2005	1991	1972	1961	1931	1912	1914	1930	1952	1957	1949	1932	1954	1949	1947	1938	1932	1938	1920	1907	1873	1881	1880	1893	1892	1878	1863	1850	1846	1870	1879	1883	1902	1890	1889	1889	1883	1869	1854	1837	1820	1798	1784	1769	1769	1758	1743	1727	1722	1733	1741	1741	1734	1738	1742	1733	1730	1714	1702	1690	1680	1671	1655	1638	1627	1627	1628	1640	1644	0	0	0	0	0	0	0	0
0	0	0	0	0	0	0	0	0	0	0	0	0	0	0	0	0	0	0	0	0	0	0	0	0	0	0	0	0	0	0	0	0	0	0	0	0	0	0	0	0	0	0	0	0	0	0	0	0	0	0	0	0	0	0	0	0	0	0	0	0	0	0	0	0	0	0	0	0	0	0	0	0	0	0	0	0	0	0	0	0	0	0	0	0	0	0	0	0	0	0	0	0	0	0	0	0	0	0	0	0	0	0	0	0	0	0	0	0	0	0	0	0	0	0	0	0	0	0	0	0	0	0	0	0	0	0	0	0	0	0	0	0	0	0	0	0	0	0	0	0	0	0	0	0	0	0	0	0	0	0	0	0	0	0	0	0	0	0	0	0	0	0	0	0	0	0	0	0	0	0	0	0	0	0	0	0	0	0	0	0	0	0	0	0	0	0	0	0	0	0	0	0	0	0	0	0	0	0	0	0	0	0	0	0	0	0	0	0	0	0	0	0	0	0	0	0	0	0	0	0	0	0	0	0	0	0	0	0	0	0	0	0	0	0	0	0	0	0	0	0	0	0	0	0	0	0	0	0	0	0	0	0	0	0	0	0	0	0	0	0	0	0	0	0	0	0	0	0	0	0	0	0	0	0	0	0	0	0	0	0	0	0	0	0	0	0	0	0	0	0	0	0	0	0	0	0	0	0	0	0	0	0	0	0	0	0	0	0	0	0	0	0	0	0	0	0	0	0	0	0	0	0	0	0	0	0	0	0	0	0	0	0	0	0	0	0	0	0	1279	1278	1296	1302	1293	1291	1308	1325	1360	1379	1421	1453	1526	1590	1626	1635	1635	1630	1623	1609	1601	1603	1605	1627	1645	1649	1644	1638	1636	1628	1627	1631	1632	1637	1618	1617	1596	1596	1623	1641	1645	1650	1655	1652	1641	1640	1636	1625	1573	1572	1593	1592	1547	1540	1551	1553	1544	1540	1536	1537	1531	1531	1527	1541	1558	1552	1535	1527	1522	1531	1522	1508	1505	1523	1540	1519	1510	1519	1524	1527	1535	1531	1515	1477	1431	1410	1420	1441	1457	1458	1442	1436	1439	1431	1426	1418	1402	1397	1430	1434	1447	1443	1449	1458	1472	1460	1435	1428	1423	1418	1419	1432	1451	1475	1483	1481	1464	1449	1458	1466	1457	1459	1462	1478	1470	1440	1433	1414	1404	1409	1422	1436	1446	1450	1455	1397	1391	1400	1441	1440	1419	1412	1410	1410	1411	1417	1419	1429	1429	1414	1398	1401	1412	1434	1439	1430	1429	1436	1431	1436	1437	1439	1460	1480	1570	1778	2183	2607	2655	2667	2636	2584	2553	2574	2620	2681	2698	2690	2642	2603	2553	2537	2567	2582	2560	2516	2521	2521	2529	2517	2497	2468	2489	2569	2649	2674	2669	2708	2723	2737	2721	2683	2605	2423	2269	2139	2077	2033	1998	1961	1964	1973	1982	1991	2009	2035	2035	2019	2002	2002	2010	2021	2018	2018	2006	1984	1962	1943	1930	1927	1934	1945	1961	1961	1945	1951	1955	1951	1948	1949	1946	1942	1929	1897	1873	1883	1884	1893	1894	1881	1867	1857	1861	1874	1883	1877	1900	1887	1884	1883	1878	1860	1845	1836	1821	1805	1786	1766	1766	1754	1743	1732	1725	1741	1748	1742	1734	1745	1751	1737	1723	1711	1704	1704	1696	1677	1661	1663	1661	1661	1661	1661	1660	0	0	0	0	0	0	0	0
0	0	0	0	0	0	0	0	0	0	0	0	0	0	0	0	0	0	0	0	0	0	0	0	0	0	0	0	0	0	0	0	0	0	0	0	0	0	0	0	0	0	0	0	0	0	0	0	0	0	0	0	0	0	0	0	0	0	0	0	0	0	0	0	0	0	0	0	0	0	0	0	0	0	0	0	0	0	0	0	0	0	0	0	0	0	0	0	0	0	0	0	0	0	0	0	0	0	0	0	0	0	0	0	0	0	0	0	0	0	0	0	0	0	0	0	0	0	0	0	0	0	0	0	0	0	0	0	0	0	0	0	0	0	0	0	0	0	0	0	0	0	0	0	0	0	0	0	0	0	0	0	0	0	0	0	0	0	0	0	0	0	0	0	0	0	0	0	0	0	0	0	0	0	0	0	0	0	0	0	0	0	0	0	0	0	0	0	0	0	0	0	0	0	0	0	0	0	0	0	0	0	0	0	0	0	0	0	0	0	0	0	0	0	0	0	0	0	0	0	0	0	0	0	0	0	0	0	0	0	0	0	0	0	0	0	0	0	0	0	0	0	0	0	0	0	0	0	0	0	0	0	0	0	0	0	0	0	0	0	0	0	0	0	0	0	0	0	0	0	0	0	0	0	0	0	0	0	0	0	0	0	0	0	0	0	0	0	0	0	0	0	0	0	0	0	0	0	0	0	0	0	0	0	0	0	0	0	0	0	0	0	0	0	0	0	0	0	0	0	0	0	0	0	0	0	1482	1408	0	0	0	0	0	0	0	0	0	0	0	1301	1295	1301	1326	1327	1299	1289	1305	1321	1348	1374	1399	1455	1532	1581	1618	1612	1611	1613	1620	1629	1637	1634	1624	1621	1626	1622	1620	1606	1592	1586	1619	1641	1632	1613	1576	1562	1555	1547	1556	1555	1564	1562	1555	1533	1532	1496	1515	1531	1552	1545	1573	1533	1526	1534	1538	1532	1516	1510	1518	1510	1501	1501	1505	1526	1491	1478	1479	1475	1457	1453	1459	1451	1448	1452	1453	1441	1436	1440	1462	1474	1471	1455	1438	1416	1418	1433	1440	1445	1454	1442	1431	1440	1432	1430	1425	1413	1411	1429	1440	1442	1443	1451	1462	1475	1469	1445	1435	1428	1423	1422	1423	1432	1439	1457	1481	1466	1452	1439	1442	1439	1441	1457	1459	1441	1418	1402	1395	1399	1409	1422	1434	1444	1438	1431	1424	1417	1396	1420	1428	1410	1404	1403	1414	1425	1432	1435	1431	1430	1412	1396	1400	1412	1436	1436	1435	1430	1427	1429	1431	1437	1445	1468	1485	1565	1785	2199	2598	2676	2696	2654	2602	2578	2584	2634	2676	2687	2673	2625	2578	2557	2564	2578	2603	2586	2567	2561	2551	2553	2529	2503	2499	2506	2600	2699	2715	2677	2715	2731	2732	2719	2682	2620	2446	2222	2136	2083	2051	2030	2011	1984	1985	2003	1993	2005	2015	2014	2003	1998	2006	2015	2021	2024	2022	1997	1976	1947	1927	1932	1943	1947	1952	1953	1953	1946	1953	1956	1959	1963	1969	1965	1943	1906	1888	1900	1915	1913	1901	1892	1883	1870	1859	1858	1870	1862	1859	1859	1860	1863	1863	1855	1833	1818	1827	1831	1822	1794	1774	1764	1764	1770	1771	1771	1775	1770	1752	1737	1734	1733	1729	1711	1697	1698	1706	1723	1722	1718	1710	1695	1684	1684	1679	1680	0	0	0	0	0	0	0	0
0	0	0	0	0	0	0	0	0	0	0	0	0	0	0	0	0	0	0	0	0	0	0	0	0	0	0	0	0	0	0	0	0	0	0	0	0	0	0	0	0	0	0	0	0	0	0	0	0	0	0	0	0	0	0	0	0	0	0	0	0	0	0	0	0	0	0	0	0	0	0	0	0	0	0	0	0	0	0	0	0	0	0	0	0	0	0	0	0	0	0	0	0	0	0	0	0	0	0	0	0	0	0	0	0	0	0	0	0	0	0	0	0	0	0	0	0	0	0	0	0	0	0	0	0	0	0	0	0	0	0	0	0	0	0	0	0	0	0	0	0	0	0	0	0	0	0	0	0	0	0	0	0	0	0	0	0	0	0	0	0	0	0	0	0	0	0	0	0	0	0	0	0	0	0	0	0	0	0	0	0	0	0	0	0	0	0	0	0	0	0	0	0	0	0	0	0	0	0	0	0	0	0	0	0	0	0	0	0	0	0	0	0	0	0	0	0	0	0	0	0	0	0	0	0	0	0	0	0	0	0	0	0	0	0	0	0	0	0	0	0	0	0	0	0	0	0	0	0	0	0	0	0	0	0	0	0	0	0	0	0	0	0	0	0	0	0	0	0	0	0	0	0	0	0	0	0	0	0	0	0	0	0	0	0	0	0	0	0	0	0	0	0	0	0	0	0	0	0	0	0	0	0	0	0	0	0	0	0	0	0	0	0	0	0	0	0	0	0	0	0	0	0	0	0	1595	1675	1663	1641	1623	1558	1342	1299	1299	0	0	0	0	0	1306	1303	1326	1354	1349	1309	1276	1270	1285	1318	1363	1413	1474	1521	1469	1547	1554	1562	1575	1575	1559	1543	1526	1503	1509	1549	1575	1581	1576	1567	1566	1603	1624	1623	1600	1556	1545	1545	1535	1539	1536	1542	1543	1538	1528	1523	1477	1489	1502	1507	1493	1468	1436	1432	1439	1445	1450	1449	1469	1468	1464	1466	1465	1469	1459	1459	1454	1453	1463	1448	1444	1440	1439	1441	1452	1451	1447	1434	1435	1437	1456	1471	1470	1442	1426	1429	1442	1448	1452	1455	1446	1444	1438	1440	1437	1435	1429	1413	1419	1428	1433	1429	1426	1423	1421	1422	1427	1417	1418	1414	1408	1405	1411	1387	1377	1447	1452	1441	1436	1435	1440	1448	1453	1454	1440	1419	1412	1404	1401	1407	1419	1431	1454	1430	1389	1406	1421	1398	1408	1413	1404	1399	1403	1422	1438	1442	1443	1439	1442	1426	1397	1396	1406	1433	1436	1440	1443	1433	1427	1427	1436	1445	1462	1481	1564	1787	2204	2611	2680	2698	2673	2623	2610	2625	2660	2677	2683	2658	2598	2584	2591	2600	2632	2630	2609	2592	2587	2574	2548	2529	2501	2498	2516	2601	2686	2716	2691	2719	2725	2706	2684	2660	2620	2496	2251	2157	2109	2074	2058	2045	2009	2013	2011	1994	2002	2001	1999	1996	1996	2012	2038	2055	2043	2026	1999	1971	1895	1871	1870	1943	1949	1952	1949	1939	1924	1927	1967	1972	1970	1966	1953	1940	1932	1920	1915	1909	1908	1911	1911	1896	1883	1879	1877	1876	1864	1854	1849	1852	1855	1849	1838	1827	1822	1833	1840	1838	1818	1796	1786	1786	1782	1783	1778	1777	1770	1748	1734	1729	1724	1719	1701	1690	1691	1702	1718	1722	1722	1723	1702	1690	1690	1687	1692	0	0	0	0	0	0	0	0
0	0	0	0	0	0	0	0	0	0	0	0	0	0	0	0	0	0	0	0	0	0	0	0	0	0	0	0	0	0	0	0	0	0	0	0	0	0	0	0	0	0	0	0	0	0	0	0	0	0	0	0	0	0	0	0	0	0	0	0	0	0	0	0	0	0	0	0	0	0	0	0	0	0	0	0	0	0	0	0	0	0	0	0	0	0	0	0	0	0	0	0	0	0	0	0	0	0	0	0	0	0	0	0	0	0	0	0	0	0	0	0	0	0	0	0	0	0	0	0	0	0	0	0	0	0	0	0	0	0	0	0	0	0	0	0	0	0	0	0	0	0	0	0	0	0	0	0	0	0	0	0	0	0	0	0	0	0	0	0	0	0	0	0	0	0	0	0	0	0	0	0	0	0	0	0	0	0	0	0	0	0	0	0	0	0	0	0	0	0	0	0	0	0	0	0	0	0	0	0	0	0	0	0	0	0	0	0	0	0	0	0	0	0	0	0	0	0	0	0	0	0	0	0	0	0	0	0	0	0	0	0	0	0	0	0	0	0	0	0	0	0	0	0	0	0	0	0	0	0	0	0	0	0	0	0	0	0	0	0	0	0	0	0	0	0	0	0	0	0	0	0	0	0	0	0	0	0	0	0	0	0	0	0	0	0	0	0	0	0	0	0	0	0	0	0	0	0	0	0	0	0	0	0	0	0	0	0	0	0	0	0	0	0	0	0	0	0	0	0	0	0	0	0	1591	1659	1679	1674	1699	1714	1698	1556	1342	1320	0	0	0	0	0	1308	1353	1359	1359	1344	1314	1307	1324	1374	1422	1440	1444	1433	1496	1462	1486	1532	1551	1558	1549	1537	1528	1514	1494	1497	1525	1542	1541	1522	1502	1488	1476	1462	1462	1469	1482	1456	1454	1459	1464	1447	1434	1442	1451	1456	1449	1436	1433	1442	1440	1435	1429	1431	1435	1440	1453	1448	1450	1448	1455	1445	1441	1440	1436	1438	1444	1448	1468	1466	1448	1442	1443	1435	1440	1458	1458	1451	1436	1428	1438	1450	1470	1471	1446	1431	1444	1457	1470	1489	1480	1467	1452	1443	1438	1446	1444	1449	1387	1387	1410	1429	1448	1461	1462	1446	1431	1419	1420	1426	1421	1416	1413	1398	1381	1376	1377	1402	1400	1421	1423	1427	1443	1450	1453	1439	1427	1424	1425	1418	1411	1417	1436	1454	1426	1386	1373	1417	1418	1423	1404	1418	1414	1419	1431	1445	1449	1450	1454	1458	1436	1398	1415	1426	1433	1433	1444	1452	1449	1440	1434	1445	1461	1469	1479	1565	1794	2232	2622	2683	2680	2651	2626	2637	2671	2691	2685	2672	2655	2594	2596	2609	2630	2640	2626	2614	2590	2593	2577	2551	2520	2499	2481	2498	2596	2636	2699	2708	2716	2710	2684	2657	2642	2624	2521	2319	2195	2144	2101	2085	2072	2035	2013	2000	1997	1997	2002	1997	1998	1993	2013	2038	2060	2053	2031	2008	1940	1911	1819	1852	1886	1940	1944	1933	1941	1947	1974	1998	1999	1987	1972	1957	1951	1935	1924	1915	1913	1916	1921	1922	1905	1892	1898	1900	1894	1879	1866	1855	1852	1848	1843	1837	1828	1823	1831	1837	1837	1828	1816	1803	1803	1787	1783	1776	1771	1759	1744	1731	1722	1716	1715	1704	1690	1688	1696	1705	1715	1716	1718	1709	1690	1690	1682	1690	0	0	0	0	0	0	0	0
0	0	0	0	0	0	0	0	0	0	0	0	0	0	0	0	0	0	0	0	0	0	0	0	0	0	0	0	0	0	0	0	0	0	0	0	0	0	0	0	0	0	0	0	0	0	0	0	0	0	0	0	0	0	0	0	0	0	0	0	0	0	0	0	0	0	0	0	0	0	0	0	0	0	0	0	0	0	0	0	0	0	0	0	0	0	0	0	0	0	0	0	0	0	0	0	0	0	0	0	0	0	0	0	0	0	0	0	0	0	0	0	0	0	0	0	0	0	0	0	0	0	0	0	0	0	0	0	0	0	0	0	0	0	0	0	0	0	0	0	0	0	0	0	0	0	0	0	0	0	0	0	0	0	0	0	0	0	0	0	0	0	0	0	0	0	0	0	0	0	0	0	0	0	0	0	0	0	0	0	0	0	0	0	0	0	0	0	0	0	0	0	0	0	0	0	0	0	0	0	0	0	0	0	0	0	0	0	0	0	0	0	0	0	0	0	0	0	0	0	0	0	0	0	0	0	0	0	0	0	0	0	0	0	0	0	0	0	0	0	0	0	0	0	0	0	0	0	0	0	0	0	0	0	0	0	0	0	0	0	0	0	0	0	0	0	0	0	0	0	0	0	0	0	0	0	0	0	0	0	0	0	0	0	0	0	0	0	0	0	0	0	0	0	0	0	0	0	0	0	0	0	0	0	0	0	0	0	0	0	0	0	0	0	0	0	0	0	0	0	0	0	0	1571	1628	1672	1691	1708	1706	1707	1637	1624	1507	1444	1439	1454	1394	1356	1356	1367	1418	1429	1428	1443	1429	1416	1415	1421	1420	1402	1451	1501	1454	1455	1439	1477	1547	1499	1452	1443	1443	1461	1473	1477	1485	1491	1483	1474	1458	1438	1426	1420	1429	1447	1453	1456	1457	1466	1467	1462	1455	1441	1441	1434	1431	1427	1429	1434	1444	1436	1430	1435	1445	1459	1461	1459	1453	1453	1447	1434	1434	1430	1427	1428	1432	1458	1474	1476	1465	1452	1446	1440	1449	1456	1461	1447	1431	1425	1426	1421	1413	1432	1432	1429	1436	1439	1447	1445	1448	1450	1453	1451	1447	1451	1454	1424	1422	1403	1410	1427	1449	1458	1446	1436	1427	1422	1430	1435	1431	1425	1428	1402	1381	1387	1381	1367	1378	1416	1426	1422	1420	1431	1449	1427	1419	1427	1435	1428	1424	1431	1442	1445	1433	1429	1427	1424	1430	1405	1421	1426	1428	1424	1432	1436	1438	1441	1451	1455	1437	1419	1432	1434	1439	1435	1436	1449	1455	1455	1453	1464	1476	1473	1476	1566	1802	2233	2626	2671	2666	2649	2650	2666	2709	2719	2700	2688	2667	2623	2615	2628	2621	2632	2615	2596	2591	2585	2581	2558	2526	2480	2455	2463	2561	2597	2687	2701	2710	2701	2675	2656	2645	2637	2612	2405	2250	2177	2125	2100	2087	2057	2019	1995	1995	1993	2000	2004	1997	1991	2015	2040	2072	2083	2076	2085	2001	1816	1816	1826	1938	1957	1944	1937	1948	1981	1998	2007	1997	1970	1969	1962	1961	1933	1919	1911	1911	1924	1933	1928	1913	1898	1910	1916	1910	1894	1879	1865	1855	1847	1845	1837	1832	1826	1825	1824	1825	1824	1818	1802	1788	1788	1776	1772	1762	1755	1748	1736	1727	1722	1722	1727	1719	1705	1705	1714	1712	1716	1719	1715	1710	1710	1701	1700	0	0	0	0	0	0	0	0
0	0	0	0	0	0	0	0	0	0	0	0	0	0	0	0	0	0	0	0	0	0	0	0	0	0	0	0	0	0	0	0	0	0	0	0	0	0	0	0	0	0	0	0	0	0	0	0	0	0	0	0	0	0	0	0	0	0	0	0	0	0	0	0	0	0	0	0	0	0	0	0	0	0	0	0	0	0	0	0	0	0	0	0	0	0	0	0	0	0	0	0	0	0	0	0	0	0	0	0	0	0	0	0	0	0	0	0	0	0	0	0	0	0	0	0	0	0	0	0	0	0	0	0	0	0	0	0	0	0	0	0	0	0	0	0	0	0	0	0	0	0	0	0	0	0	0	0	0	0	0	0	0	0	0	0	0	0	0	0	0	0	0	0	0	0	0	0	0	0	0	0	0	0	0	0	0	0	0	0	0	0	0	0	0	0	0	0	0	0	0	0	0	0	0	0	0	0	0	0	0	0	0	0	0	0	0	0	0	0	0	0	0	0	0	0	0	0	0	0	0	0	0	0	0	0	0	0	0	0	0	0	0	0	0	0	0	0	0	0	0	0	0	0	0	0	0	0	0	0	0	0	0	0	0	0	0	0	0	0	0	0	0	0	0	0	0	0	0	0	0	0	0	0	0	0	0	0	0	0	0	0	0	0	0	0	0	0	0	0	0	0	0	0	0	0	0	0	0	0	0	0	0	0	0	0	0	0	0	0	1271	1249	1244	1265	1314	1343	1336	1296	1275	1288	1320	1342	1367	1486	1520	1479	1471	1488	1507	1534	1536	1497	1478	1433	1439	1456	1449	1444	1450	1429	1428	1445	1451	1467	1474	1463	1462	1457	1454	1455	1442	1474	1499	1449	1450	1443	1490	1459	1482	1431	1452	1479	1488	1486	1469	1473	1475	1470	1453	1436	1426	1417	1428	1440	1457	1465	1465	1468	1468	1464	1459	1441	1420	1420	1424	1428	1429	1436	1444	1436	1430	1436	1445	1462	1466	1451	1444	1443	1437	1428	1423	1422	1427	1428	1434	1444	1448	1454	1461	1457	1448	1458	1459	1458	1457	1439	1425	1423	1423	1440	1436	1431	1442	1438	1439	1438	1439	1438	1436	1443	1448	1453	1448	1450	1450	1441	1432	1406	1408	1421	1430	1438	1434	1424	1430	1429	1434	1442	1454	1448	1443	1411	1389	1394	1398	1376	1408	1433	1431	1436	1428	1428	1440	1421	1396	1408	1413	1412	1415	1427	1434	1441	1440	1428	1424	1423	1417	1424	1427	1423	1421	1423	1422	1421	1421	1424	1432	1425	1416	1413	1415	1420	1435	1430	1424	1419	1430	1448	1460	1466	1448	1473	1477	1568	1788	2180	2593	2687	2705	2699	2697	2709	2736	2723	2701	2687	2674	2645	2633	2625	2627	2617	2608	2608	2602	2590	2590	2566	2519	2466	2438	2443	2500	2571	2651	2680	2695	2689	2680	2671	2679	2659	2627	2414	2275	2191	2129	2092	2076	2053	2036	2032	2028	2023	2012	1997	1999	2008	2029	2056	2083	2096	2082	2071	1997	1806	1790	1792	1920	1963	1948	1961	1961	1991	2005	2011	1995	1980	1964	1958	1954	1934	1918	1906	1906	1927	1941	1932	1914	1899	1916	1922	1923	1907	1893	1874	1863	1855	1848	1843	1834	1829	1831	1824	1823	1819	1819	1806	1803	1803	1787	1776	1778	1779	1770	1767	1755	1750	1758	1768	1762	1749	1747	1762	1756	1754	1754	1763	1802	1802	1785	1758	0	0	0	0	0	0	0	0
0	0	0	0	0	0	0	0	0	0	0	0	0	0	0	0	0	0	0	0	0	0	0	0	0	0	0	0	0	0	0	0	0	0	0	0	0	0	0	0	0	0	0	0	0	0	0	0	0	0	0	0	0	0	0	0	0	0	0	0	0	0	0	0	0	0	0	0	0	0	0	0	0	0	0	0	0	0	0	0	0	0	0	0	0	0	0	0	0	0	0	0	0	0	0	0	0	0	0	0	0	0	0	0	0	0	0	0	0	0	0	0	0	0	0	0	0	0	0	0	0	0	0	0	0	0	0	0	0	0	0	0	0	0	0	0	0	0	0	0	0	0	0	0	0	0	0	0	0	0	0	0	0	0	0	0	0	0	0	0	0	0	0	0	0	0	0	0	0	0	0	0	0	0	0	0	0	0	0	0	0	0	0	0	0	0	0	0	0	0	0	0	0	0	0	0	0	0	0	0	0	0	0	0	0	0	0	0	0	0	0	0	0	0	0	0	0	0	0	0	0	0	0	0	0	0	0	0	0	0	0	0	0	0	0	0	0	0	0	0	0	0	0	0	0	0	0	0	0	0	0	0	0	0	0	0	0	0	0	0	0	0	0	0	0	0	0	0	0	0	0	0	0	0	0	0	0	0	0	0	0	0	0	0	0	0	0	0	0	0	0	0	0	1283	1395	1410	1405	1374	1331	1297	1282	1308	1376	1408	1403	1402	1402	1405	1411	1441	1400	1376	1355	1358	1400	1421	1398	1377	1376	1404	1398	1393	1388	1409	1435	1421	1413	1415	1428	1429	1442	1488	1470	1478	1444	1452	1441	1444	1442	1443	1451	1452	1455	1457	1467	1447	1421	1412	1424	1437	1441	1457	1488	1453	1448	1450	1487	1483	1440	1436	1438	1469	1487	1482	1472	1475	1475	1474	1447	1428	1425	1418	1420	1442	1458	1470	1470	1472	1471	1470	1453	1422	1421	1432	1441	1460	1465	1461	1450	1432	1427	1434	1444	1452	1445	1441	1440	1436	1437	1431	1433	1433	1439	1440	1444	1439	1438	1445	1456	1459	1460	1469	1473	1465	1451	1435	1429	1428	1447	1460	1452	1441	1440	1448	1446	1448	1445	1447	1444	1443	1445	1456	1453	1452	1454	1450	1433	1414	1405	1408	1417	1420	1416	1422	1431	1440	1448	1452	1458	1460	1457	1426	1397	1399	1397	1398	1426	1442	1453	1453	1444	1440	1448	1422	1395	1386	1383	1401	1416	1425	1434	1437	1441	1443	1453	1448	1434	1419	1415	1413	1421	1427	1428	1423	1412	1409	1410	1414	1410	1410	1409	1409	1411	1419	1415	1424	1434	1443	1453	1438	1427	1441	1470	1581	1746	2124	2580	2751	2823	2842	2837	2811	2784	2746	2732	2724	2696	2643	2635	2652	2649	2648	2637	2637	2635	2634	2607	2561	2504	2451	2445	2445	2484	2630	2646	2713	2716	2731	2751	2762	2742	2688	2598	2394	2231	2166	2122	2086	2075	2080	2072	2050	2050	2046	2020	1997	1994	2001	2029	2065	2082	2089	2075	2061	1975	1803	1775	1767	1862	1958	1999	2000	1985	1988	1989	1992	1988	1978	1970	1962	1976	1999	1987	1973	1979	1994	1998	1991	1975	1962	1966	1976	1981	1977	1975	1974	1961	1958	1941	1930	1921	1940	1952	1958	1922	1885	1839	1834	1838	1838	1843	1845	1882	1871	1853	1838	1835	1831	1818	1812	1807	1806	1806	1812	1811	1811	1810	1838	1847	1847	1812	1801	0	0	0	0	0	0	0	0
0	0	0	0	0	0	0	0	0	0	0	0	0	0	0	0	0	0	0	0	0	0	0	0	0	0	0	0	0	0	0	0	0	0	0	0	0	0	0	0	0	0	0	0	0	0	0	0	0	0	0	0	0	0	0	0	0	0	0	0	0	0	0	0	0	0	0	0	0	0	0	0	0	0	0	0	0	0	0	0	0	0	0	0	0	0	0	0	0	0	0	0	0	0	0	0	0	0	0	0	0	0	0	0	0	0	0	0	0	0	0	0	0	0	0	0	0	0	0	0	0	0	0	0	0	0	0	0	0	0	0	0	0	0	0	0	0	0	0	0	0	0	0	0	0	0	0	0	0	0	0	0	0	0	0	0	0	0	0	0	0	0	0	0	0	0	0	0	0	0	0	0	0	0	0	0	0	0	0	0	0	0	0	0	0	0	0	0	0	0	0	0	0	0	0	0	0	0	0	0	0	0	0	0	0	0	0	0	0	0	0	0	0	0	0	0	0	0	0	0	0	0	0	0	0	0	0	0	0	0	0	0	0	0	0	0	0	0	0	0	0	0	0	0	0	0	0	0	0	0	0	0	0	0	0	0	0	0	0	0	0	0	0	0	0	0	0	0	0	0	0	0	0	0	0	1061	1164	1190	1207	1207	1212	1236	1265	1254	1248	1292	1329	1357	1366	1380	1369	1350	1344	1368	1386	1431	1434	1436	1413	1382	1358	1387	1428	1432	1423	1404	1393	1411	1443	1438	1431	1392	1403	1407	1449	1430	1423	1413	1404	1427	1410	1415	1411	1413	1431	1418	1411	1408	1403	1416	1444	1478	1470	1438	1452	1411	1423	1416	1420	1430	1448	1449	1455	1454	1464	1451	1421	1412	1426	1444	1449	1458	1483	1435	1432	1418	1467	1434	1475	1412	1462	1454	1457	1465	1469	1475	1473	1473	1455	1440	1446	1448	1441	1452	1468	1471	1470	1475	1477	1456	1444	1417	1433	1436	1439	1454	1461	1459	1444	1428	1427	1434	1442	1450	1467	1462	1442	1445	1441	1438	1438	1447	1448	1451	1456	1444	1436	1441	1450	1456	1461	1467	1472	1467	1454	1438	1436	1434	1463	1470	1461	1433	1441	1451	1459	1452	1448	1454	1466	1455	1456	1466	1466	1466	1471	1454	1446	1421	1413	1411	1413	1416	1414	1431	1440	1446	1450	1454	1460	1466	1466	1439	1401	1396	1397	1423	1443	1448	1455	1451	1449	1438	1447	1438	1412	1397	1398	1413	1423	1430	1429	1435	1435	1442	1446	1446	1431	1405	1399	1404	1422	1430	1438	1432	1423	1418	1421	1416	1418	1409	1399	1406	1404	1405	1416	1424	1434	1436	1436	1420	1418	1434	1462	1595	1830	2208	2571	2729	2844	2914	2907	2884	2889	2851	2801	2773	2716	2657	2654	2670	2666	2648	2641	2647	2656	2659	2663	2641	2596	2574	2627	2669	2678	2677	2728	2732	2730	2741	2759	2769	2757	2701	2575	2436	2240	2172	2125	2095	2081	2102	2101	2080	2072	2068	2045	2025	2010	2004	2022	2057	2086	2079	2063	1987	1921	1848	1771	1749	1829	1951	2033	2018	2004	1978	1966	1975	1976	1973	1971	1995	2043	2042	2019	2026	2041	2035	2022	2001	1989	1985	1988	1984	1999	1992	2016	2021	2004	1996	1988	1974	1967	1974	1987	1990	1987	1956	1935	1938	1948	1964	1964	1970	1967	1919	1894	1875	1867	1863	1851	1845	1848	1870	1876	1868	1856	1844	1866	1887	1905	1886	1886	1853	0	0	0	0	0	0	0	0
0	0	0	0	0	0	0	0	0	0	0	0	0	0	0	0	0	0	0	0	0	0	0	0	0	0	0	0	0	0	0	0	0	0	0	0	0	0	0	0	0	0	0	0	0	0	0	0	0	0	0	0	0	0	0	0	0	0	0	0	0	0	0	0	0	0	0	0	0	0	0	0	0	0	0	0	0	0	0	0	0	0	0	0	0	0	0	0	0	0	0	0	0	0	0	0	0	0	0	0	0	0	0	0	0	0	0	0	0	0	0	0	0	0	0	0	0	0	0	0	0	0	0	0	0	0	0	0	0	0	0	0	0	0	0	0	0	0	0	0	0	0	0	0	0	0	0	0	0	0	0	0	0	0	0	0	0	0	0	0	0	0	0	0	0	0	0	0	0	0	0	0	0	0	0	0	0	0	0	0	0	0	0	0	0	0	0	0	0	0	0	0	0	0	0	0	0	0	0	0	0	0	0	0	0	0	0	0	0	0	0	0	0	0	0	0	0	0	0	0	0	0	0	0	0	0	0	0	0	0	0	0	0	0	0	0	0	0	0	0	0	0	0	0	0	0	0	0	0	0	0	0	0	0	0	0	0	0	0	0	1131	1153	1174	1240	1274	1249	1202	1182	1194	1276	1284	1286	1296	1310	1321	1257	1323	1373	1371	1371	1380	1397	1389	1374	1375	1400	1404	1399	1397	1404	1377	1376	1374	1389	1389	1424	1425	1428	1422	1413	1399	1403	1418	1427	1420	1415	1415	1426	1431	1430	1437	1431	1434	1437	1433	1440	1438	1435	1431	1435	1436	1439	1436	1436	1435	1423	1426	1433	1428	1450	1461	1464	1442	1442	1411	1428	1435	1439	1443	1419	1429	1444	1446	1442	1449	1427	1424	1415	1413	1430	1453	1439	1431	1431	1429	1423	1436	1465	1437	1446	1451	1442	1445	1457	1476	1478	1476	1467	1454	1450	1457	1458	1460	1475	1482	1487	1498	1512	1482	1478	1440	1425	1447	1456	1452	1437	1450	1452	1444	1431	1423	1441	1452	1479	1474	1457	1446	1441	1439	1436	1438	1455	1463	1465	1473	1445	1433	1434	1444	1448	1456	1462	1471	1470	1458	1444	1437	1428	1460	1470	1450	1430	1439	1456	1460	1453	1445	1451	1465	1462	1451	1454	1461	1478	1468	1459	1441	1426	1426	1425	1424	1423	1420	1439	1445	1449	1446	1450	1462	1469	1464	1436	1399	1382	1391	1431	1442	1450	1474	1466	1442	1426	1435	1437	1431	1418	1424	1429	1438	1435	1433	1427	1431	1436	1439	1436	1418	1403	1393	1401	1412	1430	1439	1440	1437	1436	1432	1433	1427	1414	1400	1397	1396	1404	1412	1420	1422	1427	1424	1409	1414	1427	1444	1585	1929	2476	2552	2914	3071	3129	3117	3076	3008	2898	2826	2765	2714	2699	2698	2695	2692	2682	2667	2664	2683	2697	2730	2775	2794	2764	2768	2801	2773	2762	2769	2761	2754	2762	2768	2770	2760	2711	2633	2481	2287	2202	2140	2108	2099	2155	2157	2144	2129	2148	2136	2108	2076	2075	2089	2104	2099	2058	2042	2004	1980	1923	1851	1816	1861	1963	2036	2022	2002	1955	1952	1968	1975	1975	1991	2027	2022	1997	1999	2014	2028	2028	2020	2002	1987	1986	1985	1982	1987	1993	2008	2016	2014	2011	2010	2009	2000	1993	1985	1985	1985	1981	1964	1981	1982	1977	1977	1974	1972	1935	1941	1970	1987	1983	1948	1943	1933	1887	1862	1837	1874	1923	2009	2042	2041	2026	2026	2002	0	0	0	0	0	0	0	0
0	0	0	0	0	0	0	0	0	0	0	0	0	0	0	0	0	0	0	0	0	0	0	0	0	0	0	0	0	0	0	0	0	0	0	0	0	0	0	0	0	0	0	0	0	0	0	0	0	0	0	0	0	0	0	0	0	0	0	0	0	0	0	0	0	0	0	0	0	0	0	0	0	0	0	0	0	0	0	0	0	0	0	0	0	0	0	0	0	0	0	0	0	0	0	0	0	0	0	0	0	0	0	0	0	0	0	0	0	0	0	0	0	0	0	0	0	0	0	0	0	0	0	0	0	0	0	0	0	0	0	0	0	0	0	0	0	0	0	0	0	0	0	0	0	0	0	0	0	0	0	0	0	0	0	0	0	0	0	0	0	0	0	0	0	0	0	0	0	0	0	0	0	0	0	0	0	0	0	0	0	0	0	0	0	0	0	0	0	0	0	0	0	0	0	0	0	0	0	0	0	0	0	0	0	0	0	0	0	0	0	0	0	0	0	0	0	0	0	0	0	0	0	0	0	0	0	0	0	0	0	0	0	0	0	0	0	0	0	0	0	0	0	0	1136	1154	1179	1182	1262	1358	1372	1360	1337	1319	1283	1251	1297	1345	1349	1355	1373	1374	1368	1368	1384	1360	1323	1305	1301	1332	1387	1398	1400	1399	1386	1333	1354	1399	1403	1417	1423	1426	1418	1409	1410	1385	1397	1393	1394	1377	1388	1396	1419	1436	1416	1410	1409	1419	1414	1413	1411	1419	1430	1426	1425	1434	1435	1431	1429	1432	1428	1440	1441	1438	1437	1450	1435	1437	1438	1443	1455	1446	1447	1445	1448	1444	1447	1451	1434	1447	1453	1448	1449	1437	1407	1420	1431	1446	1442	1447	1443	1440	1443	1441	1436	1428	1431	1449	1446	1459	1474	1440	1444	1441	1427	1419	1428	1459	1465	1469	1445	1448	1447	1441	1455	1470	1473	1459	1449	1443	1454	1437	1470	1459	1462	1470	1490	1496	1479	1470	1457	1455	1474	1474	1466	1447	1451	1464	1458	1454	1447	1458	1484	1481	1474	1452	1438	1437	1430	1428	1425	1451	1463	1477	1484	1463	1429	1426	1436	1441	1447	1456	1467	1477	1465	1451	1449	1419	1450	1462	1470	1439	1445	1461	1465	1459	1450	1463	1473	1463	1448	1442	1453	1457	1463	1449	1433	1417	1415	1431	1436	1436	1452	1470	1481	1474	1444	1435	1456	1477	1469	1419	1324	1362	1366	1432	1445	1426	1473	1468	1437	1413	1428	1425	1430	1436	1444	1452	1451	1442	1432	1422	1421	1430	1428	1423	1418	1413	1409	1397	1404	1416	1434	1441	1442	1442	1439	1436	1425	1412	1410	1402	1407	1404	1407	1415	1418	1412	1411	1403	1413	1430	1443	1614	2029	2545	2878	3061	3178	3203	3176	3068	3012	2883	2779	2719	2686	2775	2842	2859	2814	2731	2689	2679	2685	2710	2765	2794	2809	2822	2827	2828	2777	2780	2787	2803	2784	2778	2770	2770	2758	2734	2686	2544	2367	2289	2244	2215	2236	2228	2226	2241	2236	2253	2214	2164	2149	2195	2199	2206	2201	2129	2141	2083	2042	2031	1986	1945	2193	2027	2020	2002	1957	1943	1944	1954	1966	1963	1981	1995	1988	1996	2011	2017	2022	2020	2013	2002	1991	1991	1989	1991	1996	2007	2013	2015	2017	2020	2015	2012	1990	1981	1985	1985	1982	1979	1981	1991	1988	1982	1982	1973	1965	2059	2094	2121	2136	2126	2128	2108	2043	1929	1829	1798	1892	1995	2107	2195	2260	2284	2284	2270	0	0	0	0	0	0	0	0
0	0	0	0	0	0	0	0	0	0	0	0	0	0	0	0	0	0	0	0	0	0	0	0	0	0	0	0	0	0	0	0	0	0	0	0	0	0	0	0	0	0	0	0	0	0	0	0	0	0	0	0	0	0	0	0	0	0	0	0	0	0	0	0	0	0	0	0	0	0	0	0	0	0	0	0	0	0	0	0	0	0	0	0	0	0	0	0	0	0	0	0	0	0	0	0	0	0	0	0	0	0	0	0	0	0	0	0	0	0	0	0	0	0	0	0	0	0	0	0	0	0	0	0	0	0	0	0	0	0	0	0	0	0	0	0	0	0	0	0	0	0	0	0	0	0	0	0	0	0	0	0	0	0	0	0	0	0	0	0	0	0	0	0	0	0	0	0	0	0	0	0	0	0	0	0	0	0	0	0	0	0	0	0	0	0	0	0	0	0	0	0	0	0	0	0	0	0	0	0	0	0	0	0	0	0	0	0	0	0	0	0	0	0	0	0	0	0	0	0	0	0	0	0	0	0	0	1019	1057	1087	1108	1161	1166	1178	1232	1279	1304	1324	1326	1314	1315	1319	1330	1351	1355	1361	1354	1348	1357	1479	1465	1408	1373	1355	1358	1372	1391	1381	1368	1366	1381	1380	1370	1364	1363	1371	1370	1357	1345	1386	1418	1435	1434	1425	1406	1388	1387	1405	1425	1455	1466	1462	1452	1412	1405	1406	1383	1370	1369	1379	1411	1395	1423	1430	1420	1410	1416	1421	1420	1421	1419	1426	1448	1459	1449	1431	1430	1442	1448	1443	1438	1433	1450	1454	1454	1419	1434	1433	1436	1445	1453	1448	1453	1435	1431	1430	1430	1436	1454	1439	1437	1455	1462	1441	1445	1433	1430	1445	1443	1437	1442	1442	1446	1443	1441	1433	1444	1449	1450	1465	1470	1467	1486	1446	1421	1413	1415	1449	1458	1432	1441	1444	1454	1449	1463	1474	1476	1463	1465	1445	1441	1441	1466	1480	1462	1469	1479	1475	1452	1451	1464	1471	1482	1490	1483	1465	1468	1479	1483	1467	1469	1471	1480	1475	1474	1452	1436	1432	1429	1422	1421	1442	1458	1483	1481	1456	1425	1421	1427	1437	1439	1462	1477	1489	1489	1479	1418	1435	1441	1451	1466	1470	1474	1470	1452	1455	1482	1508	1494	1471	1448	1439	1456	1467	1457	1473	1464	1421	1414	1426	1441	1428	1399	1399	1402	1404	1404	1416	1431	1416	1403	1378	1355	1331	1387	1446	1455	1428	1473	1468	1436	1408	1435	1428	1429	1439	1448	1449	1446	1435	1421	1421	1418	1420	1428	1428	1425	1428	1420	1404	1401	1411	1415	1423	1437	1441	1437	1435	1428	1417	1413	1413	1410	1411	1414	1411	1413	1405	1403	1402	1415	1429	1433	1650	2071	2506	2892	3103	3201	3221	3198	3151	2978	2840	2732	2682	2668	2787	2836	2855	2823	2759	2715	2696	2691	2701	2744	2783	2801	2811	2828	2837	2794	2794	2797	2809	2800	2789	2771	2755	2760	2760	2759	2732	2542	2362	2323	2314	2323	2362	2379	2373	2366	2394	2447	2470	2470	2360	2327	2334	2400	2409	2425	2434	2455	2486	2457	2368	2236	2127	2004	1987	1953	1950	1953	1952	1957	1957	1971	1994	1990	2003	2015	2023	2018	2008	1998	1996	1999	2002	1999	2002	2010	2016	2019	2021	2025	2023	2019	2015	1998	1984	1987	1986	1986	1981	1979	1980	1976	1968	1979	1979	2079	2113	2262	2340	2336	2320	2313	2265	2148	1985	1814	1709	1771	1969	2086	2260	2390	2463	2463	2484	0	0	0	0	0	0	0	0
0	0	0	0	0	0	0	0	0	0	0	0	0	0	0	0	0	0	0	0	0	0	0	0	0	0	0	0	0	0	0	0	0	0	0	0	0	0	0	0	0	0	0	0	0	0	0	0	0	0	0	0	0	0	0	0	0	0	0	0	0	0	0	0	0	0	0	0	0	0	0	0	0	0	0	0	0	0	0	0	0	0	0	0	0	0	0	0	0	0	0	0	0	0	0	0	0	0	0	0	0	0	0	0	0	0	0	0	0	0	0	0	0	0	0	0	0	0	0	0	0	0	0	0	0	0	0	0	0	0	0	0	0	0	0	0	0	0	0	0	0	0	0	0	0	0	0	0	0	0	0	0	0	0	0	0	0	0	0	0	0	0	0	0	0	0	0	0	0	0	0	0	0	0	0	0	0	0	0	0	0	0	0	0	0	0	0	0	0	0	0	0	0	0	0	0	0	0	0	1280	1267	1244	1230	1240	1256	1262	1212	1061	0	952	1055	1121	1102	1082	1073	1111	1161	1209	1215	1219	1255	1305	1236	1229	1226	1223	1238	1309	1335	1330	1307	1308	1312	1330	1374	1390	1397	1401	1398	1392	1393	1395	1400	1412	1411	1410	1384	1389	1401	1420	1444	1413	1384	1365	1374	1398	1402	1387	1373	1377	1379	1388	1397	1403	1405	1405	1395	1384	1384	1412	1426	1441	1441	1434	1422	1404	1406	1413	1434	1456	1466	1458	1447	1414	1398	1404	1375	1344	1352	1395	1432	1412	1415	1420	1426	1420	1421	1430	1423	1430	1434	1456	1442	1447	1451	1430	1439	1448	1441	1454	1444	1438	1434	1436	1453	1424	1424	1416	1422	1425	1443	1454	1445	1448	1430	1429	1430	1449	1457	1433	1447	1451	1459	1443	1441	1442	1454	1458	1449	1445	1448	1453	1456	1443	1439	1440	1447	1450	1452	1454	1463	1466	1455	1479	1404	1424	1440	1434	1443	1421	1448	1467	1465	1457	1467	1472	1474	1481	1469	1465	1448	1466	1467	1474	1461	1457	1461	1459	1454	1458	1481	1481	1480	1489	1480	1469	1475	1479	1491	1484	1469	1465	1469	1467	1461	1459	1438	1437	1431	1406	1428	1433	1443	1470	1471	1455	1418	1418	1432	1435	1430	1449	1468	1493	1493	1473	1443	1385	1385	1400	1443	1477	1506	1533	1571	1620	1498	1525	1600	1548	1620	1673	1718	1751	1753	1723	1717	1739	1520	1377	1359	1362	1365	1373	1380	1380	1380	1380	1384	1406	1418	1364	1361	1372	1411	1457	1465	1452	1438	1438	1433	1459	1445	1441	1431	1434	1450	1445	1440	1431	1425	1415	1413	1412	1424	1434	1434	1433	1427	1415	1413	1407	1400	1411	1423	1427	1432	1430	1427	1424	1415	1408	1409	1417	1424	1416	1414	1402	1405	1411	1418	1425	1444	1664	2111	2588	2871	3101	3195	3222	3204	3165	3084	2836	2710	2666	2652	2778	2821	2825	2796	2758	2732	2724	2707	2684	2714	2751	2777	2784	2806	2820	2798	2796	2810	2811	2802	2780	2767	2763	2766	2776	2795	2796	2775	2736	2722	2722	2743	2736	2711	2702	2696	2722	2721	2717	2702	2679	2673	2683	2704	2713	2729	2719	2698	2679	2619	2419	2314	2234	2013	1989	1967	1964	1961	1955	1955	1971	1989	1997	1994	2008	2012	2014	2012	2002	1997	2000	2009	2012	2014	2009	2019	2023	2021	2021	2022	2028	2031	2031	2020	2001	1987	1990	1990	1990	1987	1980	1963	1965	1991	1991	2082	2298	2374	2442	2450	2425	2404	2354	2297	2189	1812	1708	1710	1807	2054	2233	2381	2474	2474	2516	0	0	0	0	0	0	0	0
0	0	0	0	0	0	0	0	0	0	0	0	0	0	0	0	0	0	0	0	0	0	0	0	0	0	0	0	0	0	0	0	0	0	0	0	0	0	0	0	0	0	0	0	0	0	0	0	0	0	0	0	0	0	0	0	0	0	0	0	0	0	0	0	0	0	0	0	0	0	0	0	0	0	0	0	0	0	0	0	0	0	0	0	0	0	0	0	0	0	0	0	0	0	0	0	0	0	0	0	0	0	0	0	0	0	0	0	0	0	0	0	0	0	0	0	0	0	0	0	0	0	0	0	0	0	0	0	0	0	0	0	0	0	0	0	0	0	0	0	0	0	0	0	0	0	0	0	0	0	0	0	0	0	0	0	0	0	0	0	0	0	0	0	0	0	0	0	0	0	0	0	0	0	0	0	0	0	0	0	0	0	0	0	0	0	0	0	0	0	0	1264	1276	1252	1236	1251	1318	1376	1447	1434	1407	1386	1366	1370	1374	1336	1300	1275	1255	1257	1279	1288	1287	1285	1286	1308	1334	1347	1331	1344	1378	1410	1355	1345	1331	1326	1329	1354	1371	1357	1336	1327	1336	1372	1377	1372	1388	1397	1396	1390	1397	1408	1417	1396	1374	1370	1383	1396	1410	1418	1419	1407	1386	1377	1378	1395	1411	1402	1388	1378	1373	1381	1391	1410	1422	1425	1423	1409	1402	1416	1432	1446	1449	1444	1434	1412	1415	1422	1436	1440	1429	1411	1400	1392	1389	1403	1390	1356	1365	1395	1439	1434	1429	1436	1440	1437	1428	1431	1429	1434	1441	1453	1436	1442	1451	1432	1431	1448	1448	1451	1432	1428	1407	1459	1414	1406	1402	1412	1411	1414	1419	1413	1447	1451	1430	1429	1431	1441	1451	1425	1433	1445	1453	1440	1443	1463	1456	1458	1460	1450	1448	1412	1448	1441	1449	1443	1447	1437	1444	1432	1440	1455	1447	1423	1419	1412	1411	1412	1429	1414	1452	1470	1467	1467	1469	1466	1470	1468	1482	1476	1471	1467	1464	1457	1459	1464	1463	1452	1450	1463	1473	1477	1466	1481	1475	1467	1486	1480	1473	1464	1451	1455	1465	1447	1431	1442	1481	1496	1481	1406	1420	1443	1459	1463	1479	1486	1477	1458	1434	1438	1463	1457	1460	1458	1460	1448	1433	1415	1423	1471	1538	1665	1744	1719	1590	1660	1639	1760	1694	1735	1694	1734	1768	1790	1790	1748	1748	1575	1448	1424	1405	1385	1356	1346	1352	1369	1381	1383	1404	1425	1431	1429	1362	1373	1420	1456	1469	1458	1449	1433	1428	1442	1449	1436	1428	1429	1454	1460	1453	1447	1431	1422	1415	1415	1422	1429	1436	1431	1415	1406	1411	1404	1402	1409	1420	1427	1433	1433	1428	1427	1416	1411	1418	1430	1437	1432	1421	1418	1417	1418	1418	1432	1459	1656	2102	2588	2882	3098	3201	3218	3200	3171	3122	2972	2721	2676	2663	2742	2772	2795	2773	2738	2729	2730	2719	2690	2703	2735	2744	2759	2783	2804	2797	2802	2791	2802	2797	2779	2769	2775	2784	2803	2809	2806	2797	2783	2760	2750	2756	2765	2759	2777	2764	2759	2765	2770	2778	2797	2803	2786	2762	2727	2723	2736	2739	2717	2663	2532	2389	2281	2020	2007	1991	1991	1983	1972	1966	1979	1993	2006	2010	2012	2015	2015	2009	2003	2003	1996	2004	2023	2024	2021	2021	2021	2019	2021	2023	2025	2037	2041	2031	2013	1994	1994	1990	2000	2001	1988	1978	1979	1992	1992	2075	2303	2507	2489	2471	2467	2416	2385	2312	2209	2072	1732	1704	1779	1940	2132	2311	2417	2417	2456	0	0	0	0	0	0	0	0
0	0	0	0	0	0	0	0	0	0	0	0	0	0	0	0	0	0	0	0	0	0	0	0	0	0	0	0	0	0	0	0	0	0	0	0	0	0	0	0	0	0	0	0	0	0	0	0	0	0	0	0	0	0	0	0	0	0	0	0	0	0	0	0	0	0	0	0	0	0	0	0	0	0	0	0	0	0	0	0	0	0	0	0	0	0	0	0	0	0	0	0	0	0	0	0	0	0	0	0	0	0	0	0	0	0	0	0	0	0	0	0	0	0	0	0	0	0	0	0	0	0	0	0	0	0	0	0	0	0	0	0	0	0	0	0	0	0	0	0	0	0	0	0	0	0	0	0	0	0	0	0	0	0	0	0	0	0	0	0	0	0	0	0	0	0	0	0	0	0	1188	1224	1230	1212	1240	1318	1327	1320	1317	1363	1372	1365	1291	1235	1227	1240	1244	1256	1265	1341	1367	1395	1409	1371	1346	1341	1360	1379	1394	1410	1395	1379	1364	1362	1364	1339	1317	1304	1326	1344	1336	1331	1325	1334	1360	1383	1391	1363	1372	1388	1392	1394	1388	1375	1355	1352	1353	1368	1387	1391	1382	1380	1377	1358	1345	1350	1362	1385	1395	1388	1395	1406	1418	1392	1382	1379	1388	1394	1399	1405	1411	1411	1393	1384	1384	1396	1414	1401	1385	1379	1369	1373	1389	1414	1423	1433	1436	1432	1414	1417	1426	1434	1446	1442	1421	1424	1428	1432	1437	1436	1393	1377	1367	1373	1377	1388	1414	1372	1379	1402	1455	1441	1435	1435	1424	1427	1426	1435	1433	1435	1452	1439	1444	1426	1415	1421	1431	1439	1429	1454	1432	1428	1416	1409	1402	1401	1436	1407	1418	1413	1416	1412	1431	1444	1452	1438	1430	1430	1423	1439	1425	1439	1446	1439	1451	1451	1444	1457	1460	1453	1448	1424	1414	1424	1442	1449	1429	1421	1432	1432	1430	1433	1448	1412	1447	1447	1413	1409	1393	1412	1453	1475	1473	1474	1468	1464	1465	1461	1459	1459	1471	1471	1462	1449	1466	1495	1497	1477	1452	1428	1439	1476	1439	1420	1424	1435	1433	1428	1436	1430	1417	1414	1419	1403	1403	1420	1463	1470	1430	1421	1466	1565	1718	1995	2087	2117	2008	2002	2000	1886	1786	1632	1611	1611	1613	1606	1587	1569	1590	1619	1647	1657	1720	1748	1757	1804	1860	1879	1891	1833	1773	1792	1819	1829	1817	1799	1788	1629	1475	1468	1442	1412	1368	1346	1354	1371	1394	1386	1394	1424	1435	1441	1377	1373	1412	1452	1460	1459	1450	1434	1426	1435	1446	1434	1422	1433	1454	1462	1462	1453	1448	1441	1429	1419	1419	1424	1419	1410	1396	1398	1403	1405	1410	1418	1426	1431	1434	1430	1427	1427	1426	1420	1418	1436	1448	1451	1439	1432	1428	1423	1419	1427	1469	1632	2130	2585	2834	3093	3216	3232	3204	3173	3121	3015	2843	2705	2682	2696	2704	2725	2740	2720	2700	2709	2705	2692	2713	2750	2756	2765	2781	2801	2809	2804	2793	2791	2785	2787	2794	2801	2802	2810	2805	2807	2811	2810	2788	2765	2758	2765	2746	2759	2745	2745	2754	2762	2776	2792	2804	2790	2748	2717	2712	2723	2735	2739	2677	2556	2406	2294	2028	2020	2014	2019	2008	1996	1984	1982	1998	2021	2025	2025	2032	2018	2015	2000	2012	2006	2022	2025	2025	2025	2023	2017	2011	2011	2008	2011	2020	2029	2032	2021	2011	1999	2003	2003	1999	1992	1983	1973	1976	1976	2073	2305	2515	2480	2478	2475	2442	2380	2303	2190	2025	1896	1692	1752	1844	1978	2153	2259	2317	2317	0	0	0	0	0	0	0	0
0	0	0	0	0	0	0	0	0	0	0	0	0	0	0	0	0	0	0	0	0	0	0	0	0	0	0	0	0	0	0	0	0	0	0	0	0	0	0	0	0	0	0	0	0	0	0	0	0	0	0	0	0	0	0	0	0	0	0	0	0	0	0	0	0	0	0	0	0	0	0	0	0	0	0	0	0	0	0	0	0	0	0	0	0	0	0	0	0	0	0	0	0	0	0	0	0	0	0	0	0	0	0	0	0	0	0	0	0	0	0	0	0	0	0	0	0	0	0	0	0	0	0	0	0	0	0	0	0	0	0	0	0	0	0	0	0	0	0	0	0	0	0	0	0	0	0	1216	1218	0	0	0	0	0	0	0	1266	1237	1197	1161	1150	1163	1219	1244	1263	1297	1322	1348	1373	1381	1304	1291	1291	1290	1343	1388	1386	1374	1363	1373	1379	1379	1372	1370	1371	1369	1358	1365	1403	1427	1409	1376	1347	1334	1340	1356	1357	1358	1369	1394	1403	1390	1374	1366	1368	1374	1369	1365	1365	1368	1373	1362	1348	1347	1358	1377	1396	1401	1398	1398	1392	1383	1375	1363	1364	1365	1375	1390	1400	1410	1406	1397	1382	1361	1344	1338	1354	1376	1393	1397	1400	1406	1413	1397	1394	1393	1398	1400	1393	1397	1409	1416	1414	1405	1396	1401	1404	1397	1372	1390	1412	1423	1420	1421	1427	1437	1442	1445	1434	1425	1429	1430	1435	1435	1430	1446	1449	1447	1442	1407	1386	1384	1373	1356	1365	1370	1426	1391	1396	1405	1461	1441	1436	1427	1420	1414	1415	1409	1427	1429	1445	1441	1425	1429	1397	1435	1437	1431	1449	1440	1415	1420	1418	1413	1402	1406	1407	1447	1423	1414	1421	1413	1431	1452	1439	1440	1429	1427	1436	1455	1448	1445	1456	1452	1430	1438	1432	1427	1450	1457	1451	1429	1442	1427	1441	1458	1442	1431	1440	1438	1443	1425	1414	1447	1444	1462	1445	1412	1387	1417	1449	1476	1475	1478	1470	1464	1460	1451	1439	1435	1428	1427	1421	1415	1409	1409	1451	1451	1424	1421	1391	1342	1339	1362	1372	1368	1366	1383	1404	1394	1355	1317	1309	1308	1339	1416	1482	1530	1574	1640	1744	2003	1834	1979	2120	2178	2125	2099	2020	1920	1776	1715	1686	1675	1662	1638	1610	1596	1591	1609	1639	1660	1726	1768	1783	1811	1869	1902	1875	1877	1822	1831	1836	1836	1823	1818	1821	1694	1510	1481	1446	1399	1373	1364	1373	1388	1405	1395	1396	1420	1428	1431	1398	1382	1407	1437	1449	1456	1445	1427	1426	1433	1428	1422	1420	1428	1441	1452	1456	1459	1463	1457	1449	1432	1422	1423	1415	1403	1389	1387	1395	1404	1414	1422	1423	1424	1429	1424	1426	1436	1426	1409	1408	1430	1449	1459	1458	1449	1428	1421	1415	1433	1469	1611	2094	2498	2804	3107	3230	3234	3207	3140	3116	2998	2824	2713	2668	2679	2700	2721	2717	2681	2667	2666	2655	2685	2725	2768	2782	2787	2801	2818	2823	2810	2799	2796	2786	2796	2815	2810	2817	2818	2806	2810	2810	2827	2801	2770	2747	2750	2744	2727	2720	2724	2740	2757	2771	2787	2785	2767	2743	2727	2721	2725	2735	2737	2691	2556	2405	2305	2028	2007	2015	2023	2018	2003	1998	1987	1989	2024	2035	2037	2034	2033	2033	2028	2012	2008	2014	2015	2021	2037	2030	2007	1996	1991	1995	1995	2001	2017	2025	2023	2014	2003	2001	2008	2000	1991	1980	1968	1974	2076	2076	2249	2459	2453	2453	2440	2408	2341	2273	2168	2028	1919	1824	1702	1765	1853	1947	2078	2205	2205	0	0	0	0	0	0	0	0
0	0	0	0	0	0	0	0	0	0	0	0	0	0	0	0	0	0	0	0	0	0	0	0	0	0	0	0	0	0	0	0	0	0	0	0	0	0	0	0	0	0	0	0	0	0	0	0	0	0	0	0	0	0	0	0	0	0	0	0	0	0	0	0	0	0	0	0	0	0	0	0	0	0	0	0	0	0	0	0	0	0	0	0	0	0	0	0	0	0	0	0	0	0	0	0	0	0	0	0	0	0	0	0	0	0	0	0	0	0	0	0	0	0	0	0	0	0	0	0	0	0	0	0	0	0	0	0	0	0	0	0	0	0	0	0	0	0	0	1275	1293	1282	1262	1254	1276	1277	1319	1341	1335	1316	1301	1307	1314	1320	1340	1393	1420	1419	1392	1303	1284	1273	1290	1316	1336	1343	1348	1354	1399	1402	1368	1314	1283	1298	1376	1400	1391	1380	1377	1379	1375	1368	1369	1391	1424	1438	1437	1432	1440	1444	1416	1384	1364	1358	1364	1376	1379	1384	1400	1417	1426	1417	1403	1394	1385	1379	1376	1367	1361	1364	1365	1368	1361	1355	1363	1386	1394	1402	1407	1401	1397	1381	1368	1367	1378	1378	1383	1392	1409	1419	1421	1405	1387	1367	1347	1353	1357	1368	1395	1408	1405	1396	1398	1413	1420	1423	1422	1409	1394	1394	1404	1411	1412	1424	1435	1447	1450	1428	1394	1412	1427	1441	1439	1436	1438	1446	1447	1445	1444	1431	1431	1431	1434	1430	1446	1447	1452	1457	1453	1414	1398	1388	1367	1349	1360	1371	1391	1432	1402	1434	1399	1439	1436	1425	1412	1407	1414	1426	1419	1418	1428	1437	1429	1419	1387	1410	1428	1442	1450	1463	1453	1452	1415	1414	1401	1407	1412	1442	1447	1437	1444	1420	1427	1454	1438	1438	1434	1433	1434	1439	1463	1464	1450	1445	1449	1433	1441	1434	1442	1453	1444	1450	1441	1427	1442	1458	1423	1408	1430	1451	1450	1446	1443	1447	1447	1461	1445	1432	1399	1418	1436	1470	1476	1495	1380	1371	1379	1388	1399	1384	1362	1347	1340	1305	1298	1309	1332	1340	1277	1280	1265	1227	0	0	0	0	0	0	0	0	0	0	0	0	0	0	0	0	0	0	1789	1903	2097	2154	2286	2315	2239	2214	2159	2043	1810	0	0	1720	1699	1654	1630	1615	1605	1606	1618	1648	1696	1774	1813	1812	1841	1875	1881	1877	1852	1849	1847	1846	1839	1836	1843	1736	1537	1487	1441	1403	1383	1380	1394	1416	1422	1415	1409	1411	1418	1429	1407	1395	1410	1428	1435	1449	1450	1429	1427	1424	1420	1421	1420	1420	1428	1438	1447	1459	1465	1470	1459	1449	1431	1427	1416	1396	1385	1389	1394	1406	1415	1421	1423	1416	1415	1418	1437	1428	1413	1402	1403	1425	1451	1463	1464	1458	1437	1419	1416	1431	1470	1607	1980	2453	2800	3040	3177	3181	3154	3127	3018	2858	2729	2683	2664	2695	2727	2736	2722	2672	2623	2624	2624	2661	2728	2773	2790	2803	2814	2836	2846	2834	2812	2797	2787	2793	2805	2809	2802	2806	2793	2804	2802	2826	2798	2765	2742	2742	2726	2704	2705	2708	2724	2741	2755	2765	2769	2757	2735	2729	2734	2733	2727	2724	2691	2473	2362	2273	2010	1991	2003	2013	2019	2003	1998	1986	1992	2013	2027	2025	2020	2016	2017	2025	2009	1999	2005	2010	2035	2040	2026	2001	1991	1987	1988	1989	1996	2007	2019	2019	2009	1996	1992	2002	1997	1986	1971	1962	1975	2069	2069	2208	2380	2369	2369	2383	2342	2272	2215	2161	2049	1960	1857	1750	1698	1742	1813	1945	2097	2097	0	0	0	0	0	0	0	0
0	0	0	0	0	0	0	0	0	0	0	0	0	0	0	0	0	0	0	0	0	0	0	0	0	0	0	0	0	0	0	0	0	0	0	0	0	0	0	0	0	0	0	0	0	0	0	0	0	0	0	0	0	0	0	0	0	0	0	0	0	0	0	0	0	0	0	0	0	0	0	0	0	0	0	0	0	0	0	0	0	0	0	0	0	0	0	0	0	0	0	0	0	0	0	0	0	0	0	0	0	0	0	0	0	0	0	0	0	0	0	0	0	0	0	0	0	0	0	0	0	0	0	0	0	0	0	0	0	0	0	0	0	0	0	1123	1265	1320	1377	1390	1402	1402	1369	1359	1344	1313	1313	1316	1317	1313	1317	1312	1318	1348	1380	1411	1434	1437	1423	1355	1352	1356	1324	1314	1330	1331	1335	1355	1370	1367	1355	1338	1306	1324	1389	1411	1409	1394	1389	1383	1384	1383	1383	1393	1417	1434	1428	1438	1448	1445	1414	1387	1375	1375	1387	1388	1382	1387	1401	1420	1429	1421	1412	1395	1385	1379	1373	1367	1362	1362	1368	1374	1376	1375	1383	1397	1405	1408	1411	1408	1401	1384	1371	1370	1386	1396	1391	1392	1403	1403	1406	1407	1394	1384	1376	1388	1415	1417	1420	1414	1398	1382	1392	1413	1436	1437	1444	1432	1413	1398	1398	1412	1417	1426	1441	1456	1457	1417	1406	1401	1419	1449	1451	1453	1452	1454	1452	1448	1446	1433	1428	1426	1426	1435	1464	1453	1448	1450	1440	1401	1403	1402	1366	1356	1363	1378	1394	1402	1403	1394	1431	1424	1428	1425	1419	1433	1440	1444	1435	1410	1419	1426	1414	1389	1388	1417	1427	1449	1461	1463	1456	1451	1421	1421	1429	1407	1407	1415	1438	1441	1440	1428	1429	1445	1440	1442	1445	1444	1424	1448	1445	1464	1459	1442	1444	1447	1444	1429	1440	1445	1445	1446	1448	1438	1442	1413	1427	1418	1411	1460	1463	1469	1447	1449	1444	1438	1446	1444	1406	1399	1424	1461	1493	1431	1419	1431	1347	1337	0	0	1238	1229	1230	0	0	0	0	0	0	0	0	0	0	0	0	0	0	0	0	0	0	0	0	0	0	0	0	0	0	0	0	1981	2163	2267	2355	2375	2322	2275	2243	2160	1859	0	0	0	1708	0	0	1639	1622	1613	1617	1645	1695	1778	1811	1827	1864	1861	1864	1857	1880	1872	1878	1874	1867	1860	1866	1757	1593	1492	1431	1388	1373	1390	1407	1423	1436	1433	1428	1413	1419	1417	1400	1398	1410	1415	1426	1444	1442	1448	1445	1420	1420	1428	1419	1417	1421	1429	1432	1442	1450	1462	1459	1452	1443	1432	1419	1397	1393	1391	1405	1410	1414	1419	1418	1416	1418	1428	1443	1421	1394	1391	1392	1421	1449	1460	1459	1450	1438	1424	1418	1431	1439	1575	1846	2415	2602	2848	2965	2974	2960	2892	2828	2755	2682	2653	2643	2712	2740	2744	2709	2656	2600	2598	2622	2667	2737	2780	2790	2789	2799	2825	2872	2850	2834	2804	2794	2791	2774	2776	2790	2785	2777	2771	2789	2811	2779	2750	2718	2713	2705	2693	2695	2689	2677	2645	2649	2673	2755	2754	2737	2722	2703	2649	2596	2567	2516	2438	2336	2235	1998	1985	1994	2007	2014	2007	1996	1985	1990	2005	2014	2016	2017	2018	2018	2014	2007	2001	1995	1995	2006	2026	2012	2002	1997	1994	1993	1994	1998	2002	2006	2006	1994	1986	1984	1985	1996	1982	1971	1966	1975	2049	2049	2149	2305	2298	2293	2281	2250	2192	2153	2115	2062	1986	1870	1760	1700	1693	1738	1802	1885	1885	0	0	0	0	0	0	0	0
0	0	0	0	0	0	0	0	0	0	0	0	0	0	0	0	0	0	0	0	0	0	0	0	0	0	0	0	0	0	0	0	0	0	0	0	0	0	0	0	0	0	0	0	0	0	0	0	0	0	0	0	0	0	0	0	0	0	0	0	0	0	0	0	0	0	0	0	0	0	0	0	0	0	0	0	0	0	0	0	0	0	0	0	0	0	0	0	0	0	0	0	0	0	0	0	0	0	0	0	0	0	0	0	0	0	0	0	0	0	0	0	0	0	0	0	0	0	0	0	0	0	0	0	0	0	0	0	0	0	0	0	0	0	1158	1242	1280	1318	1345	1345	1348	1355	1341	1336	1335	1332	1322	1321	1330	1336	1341	1342	1352	1374	1406	1420	1421	1407	1393	1380	1377	1357	1349	1332	1314	1318	1318	1336	1365	1371	1362	1365	1366	1371	1409	1415	1414	1405	1389	1388	1385	1386	1387	1394	1393	1393	1402	1420	1440	1443	1411	1391	1384	1394	1402	1398	1390	1389	1399	1417	1423	1422	1413	1393	1375	1376	1382	1371	1370	1382	1392	1398	1392	1395	1407	1419	1426	1419	1412	1414	1410	1399	1379	1378	1388	1402	1403	1404	1404	1397	1396	1395	1390	1390	1388	1416	1435	1433	1425	1405	1388	1381	1379	1412	1434	1448	1451	1441	1426	1417	1405	1414	1415	1424	1439	1456	1462	1423	1413	1408	1424	1445	1453	1451	1457	1453	1450	1449	1451	1441	1426	1415	1421	1433	1456	1447	1443	1438	1432	1401	1422	1413	1381	1370	1379	1409	1394	1413	1429	1426	1409	1406	1409	1427	1438	1448	1456	1457	1431	1402	1407	1429	1416	1391	1402	1419	1431	1443	1454	1452	1458	1444	1426	1428	1434	1405	1420	1423	1432	1436	1432	1430	1432	1449	1441	1446	1445	1430	1426	1443	1449	1447	1436	1447	1455	1452	1430	1447	1445	1447	1440	1448	1442	1442	1411	1467	1446	1424	1418	1442	1460	1466	1456	1450	1447	1440	1453	1450	1418	1409	1424	1451	1480	1464	1450	1385	0	0	0	0	0	0	0	0	0	0	0	0	0	0	0	0	0	0	0	0	0	0	0	0	0	0	0	0	0	0	0	0	0	0	0	1932	2128	2280	2394	2403	2339	2314	2279	2203	1903	0	0	0	0	0	0	0	0	1656	1634	1653	1705	1785	1813	1855	1893	1857	1859	1853	1885	1900	1901	1894	1886	1880	1877	1772	1604	1494	1424	1384	1358	1353	1378	1427	1451	1461	1444	1440	1428	1417	1392	1406	1417	1411	1417	1441	1465	1448	1447	1419	1421	1433	1424	1419	1421	1424	1431	1439	1439	1449	1454	1453	1449	1436	1413	1399	1398	1405	1417	1421	1423	1422	1429	1429	1428	1431	1438	1410	1385	1372	1385	1413	1440	1448	1449	1444	1436	1429	1420	1430	1437	1536	1708	2180	2530	2662	2692	2709	2723	2754	2731	2682	2636	2623	2622	2665	2729	2720	2684	2621	2592	2608	2639	2671	2706	2726	2726	2756	2712	2727	2846	2858	2833	2809	2782	2765	2740	2728	2735	2731	2730	2710	2748	2745	2641	2539	2542	2548	2554	2552	2559	2546	2511	2495	2501	2505	2513	2496	2478	2487	2511	2521	2524	2501	2457	2396	2315	2199	2007	2000	2001	2006	2013	2003	1993	1985	1985	1988	1997	2009	2011	2017	2014	2008	2000	1999	1993	1996	2001	2013	2013	2011	2006	2003	2001	1999	2002	1999	1999	1992	1984	1982	1991	1991	1989	1981	1971	1966	1972	2018	2018	2097	2147	2236	2234	2208	2177	2126	2092	2067	2037	1963	1860	1762	1680	1695	1707	1752	1816	1816	0	0	0	0	0	0	0	0
0	0	0	0	0	0	0	0	0	0	0	0	0	0	0	0	0	0	0	0	0	0	0	0	0	0	0	0	0	0	0	0	0	0	0	0	0	0	0	0	0	0	0	0	0	0	0	0	0	0	0	0	0	0	0	0	0	0	0	0	0	0	0	0	0	0	0	0	0	0	0	0	0	0	0	0	0	0	0	0	0	0	0	0	0	0	0	0	0	0	0	0	0	0	0	0	0	0	0	0	0	0	0	0	0	0	0	0	0	0	0	0	0	0	0	0	0	0	0	0	0	0	0	0	0	0	0	0	0	0	0	0	0	0	1218	1267	1307	1337	1324	1318	1304	1329	1362	1363	1348	1334	1325	1342	1350	1362	1366	1372	1384	1397	1407	1413	1403	1386	1389	1401	1373	1364	1344	1337	1312	1310	1298	1316	1370	1378	1381	1388	1391	1387	1404	1408	1413	1414	1409	1391	1385	1384	1385	1387	1385	1382	1382	1399	1424	1431	1405	1394	1394	1406	1411	1406	1395	1392	1405	1412	1427	1426	1422	1410	1390	1376	1391	1388	1388	1391	1396	1398	1405	1407	1418	1424	1425	1422	1408	1410	1410	1410	1365	1367	1389	1402	1407	1411	1412	1404	1391	1384	1381	1381	1394	1427	1438	1433	1423	1395	1388	1386	1390	1415	1429	1442	1447	1447	1437	1431	1425	1412	1411	1416	1436	1447	1458	1432	1413	1415	1442	1440	1440	1442	1444	1443	1443	1446	1447	1434	1420	1409	1415	1430	1449	1443	1433	1425	1426	1404	1426	1422	1397	1388	1416	1400	1397	1435	1430	1435	1450	1432	1419	1421	1438	1449	1456	1458	1441	1415	1409	1429	1420	1396	1409	1422	1425	1430	1454	1446	1457	1419	1426	1414	1431	1440	1424	1436	1434	1439	1435	1435	1437	1438	1438	1448	1453	1450	1436	1444	1445	1428	1439	1447	1444	1438	1442	1442	1445	1443	1428	1434	1429	1444	1459	1466	1456	1446	1448	1421	1473	1452	1449	1449	1448	1449	1459	1441	1433	1430	1432	1438	1448	1454	1464	0	0	0	0	0	0	0	0	0	0	0	0	0	0	0	0	0	0	0	0	0	0	0	0	0	0	0	0	0	0	0	0	0	0	0	0	1880	2055	2258	2423	2429	2350	2325	2307	2216	1927	0	0	0	0	0	0	0	1705	1688	1664	1694	1738	1806	1836	1870	1905	1860	1856	1844	1873	1886	1893	1894	1883	1885	1875	1799	1610	1494	1428	1387	1361	1348	1372	1441	1456	1464	1460	1445	1437	1418	1401	1409	1414	1410	1415	1420	1458	1458	1452	1429	1428	1442	1437	1431	1428	1431	1431	1435	1442	1448	1450	1454	1453	1431	1412	1401	1403	1414	1423	1427	1427	1429	1432	1434	1437	1430	1427	1402	1385	1377	1384	1408	1427	1438	1445	1439	1426	1420	1421	1433	1457	1476	1618	1992	2435	2569	2620	2641	2656	2676	2651	2625	2605	2598	2600	2629	2639	2622	2600	2573	2566	2617	2637	2653	2620	2612	2616	2596	2582	2581	2606	2621	2637	2626	2623	2599	2616	2604	2583	2548	2520	2504	2491	2485	2479	2481	2483	2481	2472	2472	2477	2460	2434	2433	2447	2446	2443	2424	2418	2420	2429	2437	2428	2402	2369	2337	2286	2176	2063	2014	2014	2011	2013	2008	2002	1991	1979	1982	1982	1996	2005	2010	2007	2001	1998	2000	1997	1996	2001	2013	2017	2019	2013	2009	2008	2010	2001	1998	1997	1992	1994	2002	2005	2001	1994	1979	1971	1969	1971	1988	2028	2028	2070	2098	2073	2049	2020	2014	2002	1986	1953	1930	1911	1880	1819	1745	1712	1728	1769	1769	0	0	0	0	0	0	0	0
0	0	0	0	0	0	0	0	0	0	0	0	0	0	0	0	0	0	0	0	0	0	0	0	0	0	0	0	0	0	0	0	0	0	0	0	0	0	0	0	0	0	0	0	0	0	0	0	0	0	0	0	0	0	0	0	0	0	0	0	0	0	0	0	0	0	0	0	0	0	0	0	0	0	0	0	0	0	0	0	0	0	0	0	0	0	0	0	0	0	0	0	0	0	0	0	0	0	0	0	0	0	0	0	0	0	0	0	0	0	0	0	0	0	0	0	0	0	0	0	0	0	0	0	0	0	0	0	0	0	0	0	0	0	1253	1285	1330	1330	1286	1275	1306	1320	1347	1364	1369	1358	1347	1349	1348	1357	1369	1377	1385	1395	1396	1394	1386	1380	1396	1417	1391	1356	1342	1337	1316	1310	1296	1317	1376	1389	1399	1409	1407	1397	1381	1385	1400	1404	1404	1400	1389	1401	1399	1395	1393	1379	1378	1397	1400	1409	1402	1395	1396	1404	1403	1404	1397	1397	1400	1411	1417	1419	1415	1407	1385	1372	1393	1395	1395	1396	1399	1399	1400	1409	1412	1416	1414	1412	1405	1409	1410	1415	1362	1370	1389	1405	1412	1418	1424	1410	1397	1387	1380	1386	1402	1419	1425	1426	1417	1406	1402	1413	1421	1417	1425	1434	1440	1445	1446	1434	1425	1415	1409	1405	1413	1431	1446	1434	1410	1413	1450	1439	1431	1423	1429	1432	1435	1441	1444	1437	1424	1408	1412	1423	1448	1437	1428	1428	1423	1437	1430	1424	1393	1400	1424	1418	1430	1433	1430	1435	1437	1453	1436	1428	1435	1443	1445	1447	1447	1424	1415	1427	1439	1423	1405	1422	1416	1419	1450	1447	1450	1423	1413	1437	1437	1428	1436	1448	1454	1435	1443	1441	1440	1424	1425	1462	1429	1443	1450	1463	1452	1448	1444	1453	1451	1437	1442	1435	1412	1411	1433	1418	1404	1414	1431	1456	1450	1438	1447	1455	1445	1439	1451	1451	1448	1447	1465	1455	1444	1435	1431	1421	1395	1418	1467	0	0	0	0	0	0	0	0	0	0	0	0	0	0	0	0	0	0	0	0	0	0	0	0	0	0	0	0	0	0	0	0	0	0	0	0	1866	2015	2213	2411	2436	2357	2341	2315	2204	1909	1836	1802	1793	1804	1800	1782	1758	1733	1710	1694	1696	1762	1825	1863	1885	1910	1867	1867	1842	1851	1863	1864	1867	1867	1865	1873	1803	1581	1474	1437	1402	1379	1384	1407	1438	1457	1458	1460	1436	1420	1410	1405	1405	1405	1421	1430	1413	1434	1451	1449	1435	1438	1445	1439	1437	1437	1436	1435	1436	1442	1447	1448	1450	1450	1439	1417	1399	1398	1409	1417	1422	1427	1428	1430	1438	1438	1434	1429	1398	1383	1379	1381	1404	1413	1419	1424	1408	1394	1401	1404	1425	1465	1459	1591	1921	2372	2490	2555	2560	2557	2545	2538	2545	2543	2543	2557	2600	2608	2581	2530	2507	2515	2574	2593	2530	2489	2492	2494	2499	2495	2494	2504	2536	2537	2518	2510	2524	2534	2543	2527	2495	2475	2452	2427	2416	2410	2410	2421	2421	2412	2408	2399	2372	2355	2337	2370	2390	2383	2354	2348	2345	2339	2336	2317	2292	2276	2244	2210	2139	2069	2031	2023	2012	2003	1995	1993	1994	1981	1976	1978	1989	1986	2006	2008	1999	1992	1994	1995	1996	2000	2003	2005	1983	1984	2003	2011	2017	2007	2002	1997	1998	2005	2021	2016	2005	1989	1972	1969	1971	1982	1960	1934	1934	2018	2019	2005	1991	1993	1991	1975	1953	1940	1937	1955	1961	1913	1791	1725	1662	1661	1661	0	0	0	0	0	0	0	0
0	0	0	0	0	0	0	0	0	0	0	0	0	0	0	0	0	0	0	0	0	0	0	0	0	0	0	0	0	0	0	0	0	0	0	0	0	0	0	0	0	0	0	0	0	0	0	0	0	0	0	0	0	0	0	0	0	0	0	0	0	0	0	0	0	0	0	0	0	0	0	0	0	0	0	0	0	0	0	0	0	0	0	0	0	0	0	0	0	0	0	0	0	0	0	0	0	0	0	0	0	0	0	0	0	0	0	0	0	0	0	0	0	0	0	0	0	0	0	0	0	0	0	0	0	0	0	0	0	0	0	0	0	0	1212	1256	1315	1316	1271	1268	1299	1314	1345	1351	1346	1353	1347	1344	1344	1349	1359	1362	1360	1371	1377	1380	1383	1392	1409	1416	1401	1357	1350	1343	1325	1323	1312	1343	1390	1412	1417	1415	1401	1383	1351	1361	1375	1381	1386	1379	1408	1405	1413	1414	1412	1404	1386	1401	1420	1395	1393	1382	1382	1385	1392	1394	1399	1403	1405	1407	1406	1406	1401	1397	1389	1369	1380	1389	1396	1400	1403	1404	1402	1400	1402	1407	1405	1411	1412	1407	1411	1417	1368	1364	1394	1420	1419	1430	1426	1417	1405	1393	1387	1388	1396	1408	1415	1408	1412	1410	1413	1435	1444	1414	1413	1416	1421	1435	1447	1438	1427	1419	1411	1405	1413	1427	1436	1404	1403	1407	1413	1456	1426	1410	1410	1408	1416	1421	1412	1412	1414	1437	1443	1443	1449	1430	1404	1305	1312	1346	1409	1420	1397	1421	1435	1432	1428	1431	1435	1437	1431	1429	1435	1432	1436	1438	1434	1428	1437	1438	1432	1425	1421	1420	1418	1412	1426	1446	1456	1456	1449	1424	1411	1435	1436	1432	1428	1442	1452	1449	1428	1444	1447	1424	1437	1444	1454	1449	1457	1461	1452	1452	1445	1452	1446	1442	1440	1433	1408	1410	1415	1414	1409	1416	1428	1431	1435	1444	1456	1461	1445	1438	1451	1466	1464	1444	1465	1462	1451	1436	1429	1419	1376	1393	1521	2137	0	0	0	0	0	0	0	0	0	0	0	0	2702	2747	0	0	0	0	0	2696	2765	2814	2907	2933	2944	2925	2903	2865	0	0	0	0	0	0	0	1906	2036	2238	2410	2434	2382	2355	2328	2176	1879	1819	1796	1790	1808	1816	1798	1774	1723	1693	1676	1677	1752	1836	1873	1881	1899	1884	1886	1872	1842	1845	1847	1851	1849	1853	1852	1807	1570	1455	1435	1411	1401	1410	1429	1439	1450	1461	1438	1407	1394	1375	1385	1388	1392	1420	1437	1408	1432	1441	1442	1437	1437	1433	1433	1437	1437	1437	1437	1440	1442	1449	1451	1444	1433	1421	1408	1407	1400	1398	1405	1412	1422	1429	1434	1440	1439	1433	1424	1393	1381	1381	1387	1398	1404	1402	1394	1380	1372	1380	1391	1414	1466	1453	1567	1880	2270	2447	2513	2518	2496	2491	2491	2483	2466	2464	2488	2550	2548	2502	2438	2419	2434	2477	2449	2386	2381	2382	2401	2417	2421	2407	2413	2440	2436	2420	2409	2417	2434	2448	2450	2436	2426	2402	2375	2338	2335	2338	2357	2349	2340	2318	2305	2282	2259	2255	2255	2300	2315	2291	2247	2219	2236	2249	2228	2211	2202	2173	2137	2065	2064	2020	2020	2003	1984	1977	1975	1979	1983	1976	1981	1990	1994	2012	2007	2000	1990	1987	1990	1992	1992	1987	1977	1959	1959	1975	1989	2010	2004	2002	1994	1996	2008	2014	2015	2003	1991	1968	1969	1978	1947	1934	1922	1922	1927	1942	1941	1956	1962	1957	1941	1921	1912	1920	1940	1878	1850	1827	1722	1685	1667	1667	0	0	0	0	0	0	0	0
0	0	0	0	0	0	0	0	0	0	0	0	0	0	0	0	0	0	0	0	0	0	0	0	0	0	0	0	0	0	0	0	0	0	0	0	0	0	0	0	0	0	0	0	0	0	0	0	0	0	0	0	0	0	0	0	0	0	0	0	0	0	0	0	0	0	0	0	0	0	0	0	0	0	0	0	0	0	0	0	0	0	0	0	0	0	0	0	0	0	0	0	0	0	0	0	0	0	0	0	0	0	0	0	0	0	0	0	0	0	0	0	0	0	0	0	0	0	0	0	0	0	0	0	0	0	0	0	0	0	0	0	0	0	1150	1226	1292	1287	1273	1274	1303	1316	1338	1340	1337	1347	1349	1345	1347	1355	1356	1353	1349	1350	1358	1366	1389	1405	1414	1411	1395	1356	1348	1336	1330	1331	1335	1367	1419	1419	1419	1406	1385	1370	1351	1346	1355	1362	1369	1373	1408	1411	1421	1429	1428	1412	1413	1414	1405	1389	1386	1378	1367	1372	1387	1401	1410	1405	1401	1400	1397	1394	1390	1388	1386	1362	1358	1378	1396	1401	1409	1406	1403	1395	1400	1404	1402	1414	1409	1407	1408	1413	1375	1373	1383	1421	1433	1424	1416	1413	1407	1403	1393	1391	1388	1394	1399	1399	1406	1415	1443	1464	1471	1426	1395	1381	1384	1396	1404	1413	1411	1413	1430	1434	1413	1418	1419	1376	1391	1387	1389	1387	1387	1381	1370	1344	1371	1388	1407	1420	1426	1439	1410	1380	1383	1387	1340	1272	1281	1373	1368	1397	1395	1431	1441	1433	1426	1412	1442	1439	1422	1426	1432	1427	1430	1431	1425	1414	1416	1432	1431	1426	1425	1407	1397	1405	1405	1427	1441	1446	1445	1430	1433	1434	1437	1428	1429	1443	1451	1425	1428	1448	1441	1435	1427	1433	1438	1448	1448	1448	1442	1444	1450	1460	1458	1444	1452	1454	1444	1412	1408	1420	1423	1427	1431	1428	1416	1446	1453	1463	1448	1453	1459	1445	1446	1436	1447	1459	1447	1429	1425	1428	1385	1417	1656	2449	2566	2713	2819	2859	2829	2846	2806	2818	2714	2752	2817	2863	2891	2938	2944	2969	2967	2904	2858	2845	2850	2899	2958	3009	3013	2979	2977	2969	2929	0	0	0	0	0	0	1975	2126	2297	2392	2419	2397	2392	2338	2165	1890	1823	1796	1794	1792	1797	1784	1762	1715	1681	1652	1658	1748	1835	1873	1876	1896	1895	1889	1880	1850	1850	1852	1852	1852	1852	1853	1829	1643	1513	1439	1435	1428	1439	1433	1428	1430	1438	1430	1392	1367	1356	1367	1373	1377	1416	1442	1425	1431	1442	1442	1437	1434	1423	1421	1427	1432	1428	1433	1437	1444	1443	1447	1432	1417	1402	1412	1410	1404	1399	1405	1415	1430	1442	1445	1439	1437	1424	1413	1384	1376	1384	1398	1402	1400	1398	1379	1374	1365	1375	1391	1405	1452	1462	1625	1805	2040	2397	2434	2425	2411	2401	2418	2404	2359	2319	2344	2485	2470	2351	2317	2313	2305	2280	2267	2277	2301	2316	2324	2341	2353	2345	2336	2355	2343	2330	2322	2322	2326	2358	2369	2374	2370	2361	2317	2269	2256	2272	2301	2290	2274	2240	2208	2204	2173	2140	2126	2130	2139	2139	2142	2148	2153	2162	2152	2132	2105	2066	2050	2043	2014	2009	1996	1985	1973	1964	1958	1965	1974	1981	1978	1996	2024	2022	2010	1993	1996	1998	2007	2010	1996	1983	1970	1957	1954	1954	1965	1973	1952	1938	1925	1912	1942	1940	1944	1947	1955	1970	1946	1894	1897	1899	1903	1903	1907	1926	1918	1925	1925	1916	1893	1830	1842	1854	1839	1845	1818	1792	1756	1689	1664	0	0	0	0	0	0	0	0	0
0	0	0	0	0	0	0	0	0	0	0	0	0	0	0	0	0	0	0	0	0	0	0	0	0	0	0	0	0	0	0	0	0	0	0	0	0	0	0	0	0	0	0	0	0	0	0	0	0	0	0	0	0	0	0	0	0	0	0	0	0	0	0	0	0	0	0	0	0	0	0	0	0	0	0	0	0	0	0	0	0	0	0	0	0	0	0	0	0	0	0	0	0	0	0	0	0	0	0	0	0	0	0	0	0	0	0	0	0	0	0	0	0	0	0	0	0	0	0	0	0	0	0	0	0	0	0	0	0	0	0	0	0	0	1091	1184	1262	1267	1269	1283	1310	1324	1326	1330	1332	1347	1361	1364	1356	1351	1348	1344	1339	1342	1347	1360	1369	1386	1407	1405	1382	1356	1341	1328	1325	1335	1326	1376	1429	1426	1417	1395	1370	1366	1363	1359	1355	1370	1376	1398	1408	1410	1412	1439	1444	1427	1428	1431	1405	1385	1389	1383	1375	1378	1394	1405	1408	1406	1399	1397	1395	1393	1388	1395	1392	1373	1368	1372	1387	1400	1413	1411	1400	1395	1402	1412	1407	1411	1403	1411	1408	1411	1382	1373	1367	1397	1424	1409	1402	1401	1405	1408	1407	1377	1376	1375	1384	1407	1419	1422	1403	1435	1409	1414	1424	1433	1446	1463	1468	1453	1432	1436	1455	1484	1484	1477	1449	1333	1310	1288	1279	1298	1314	1311	1267	1244	1245	1269	1265	1242	1237	0	0	0	0	0	0	0	1267	1285	1378	1392	1394	1422	1432	1427	1438	1460	1441	1437	1421	1417	1406	1418	1425	1422	1419	1412	1413	1420	1426	1422	1412	1419	1396	1396	1406	1420	1416	1415	1414	1438	1432	1429	1438	1430	1430	1447	1436	1430	1427	1443	1455	1432	1421	1427	1444	1435	1441	1436	1435	1435	1441	1453	1459	1455	1454	1454	1451	1447	1433	1422	1432	1430	1429	1442	1436	1435	1440	1449	1453	1439	1441	1443	1440	1445	1445	1454	1440	1421	1416	1420	1398	1438	1766	2421	2719	2817	2883	2904	2894	2904	2897	2907	2895	2913	2909	2928	2958	3006	3074	3081	3036	2979	2934	2912	2927	2952	2991	3012	3008	2993	3011	3057	2999	2720	0	0	0	0	0	2001	2174	2301	2358	2387	2398	2402	2374	2201	1952	1880	1824	1822	1798	1785	1770	1762	1738	1684	1660	1669	1760	1823	1846	1854	1887	1895	1890	1886	1862	1867	1862	1873	1876	1871	1864	1852	1727	1562	1503	1472	1469	1465	1438	1426	1422	1433	1431	1416	1392	1361	1372	1370	1386	1414	1446	1443	1432	1433	1432	1430	1437	1419	1417	1422	1426	1431	1436	1436	1437	1431	1427	1420	1403	1399	1407	1418	1415	1410	1412	1422	1438	1444	1452	1448	1431	1414	1398	1379	1382	1393	1408	1412	1408	1404	1385	1375	1375	1380	1392	1409	1427	1472	1614	1793	2005	2180	2270	2286	2279	2284	2278	2256	2223	2209	2210	2272	2271	2248	2225	2234	2236	2229	2226	2235	2236	2267	2288	2252	2240	2288	2294	2295	2290	2264	2257	2251	2258	2272	2295	2316	2318	2306	2259	2213	2193	2211	2231	2219	2166	2143	2131	2143	2135	2115	2092	2083	2088	2093	2095	2073	2078	2085	2076	2053	2033	2014	2004	2007	2017	2004	1990	1980	1962	1955	1951	1946	1955	1968	1957	1978	1976	1982	1989	1998	1985	1969	1948	1944	1955	1958	1947	1930	1915	1914	1909	1894	1879	1875	1874	1880	1879	1875	1868	1852	1835	1826	1839	1851	1865	1888	1888	1888	1884	1887	1775	1767	1788	1774	1758	1748	1754	1753	1729	1691	1657	1642	1688	1680	1664	0	0	0	0	0	0	0	0	0
0	0	0	0	0	0	0	0	0	0	0	0	0	0	0	0	0	0	0	0	0	0	0	0	0	0	0	0	0	0	0	0	0	0	0	0	0	0	0	0	0	0	0	0	0	0	0	0	0	0	0	0	0	0	0	0	0	0	0	0	0	0	0	0	0	0	0	0	0	0	0	0	0	0	0	0	0	0	0	0	0	0	0	0	0	0	0	0	0	0	0	0	0	0	0	0	0	0	0	0	0	0	0	0	0	0	0	0	0	0	0	0	0	0	0	0	0	0	0	0	0	0	0	0	0	0	0	0	0	0	0	0	0	0	941	1155	1240	1245	1235	1282	1318	1331	1329	1319	1319	1342	1366	1380	1377	1350	1341	1335	1336	1338	1345	1352	1361	1380	1402	1400	1381	1366	1344	1332	1323	1323	1366	1374	1425	1421	1409	1389	1376	1376	1376	1375	1375	1382	1392	1401	1400	1412	1418	1412	1420	1414	1423	1429	1398	1387	1390	1378	1377	1381	1394	1404	1398	1398	1391	1393	1395	1399	1404	1400	1403	1383	1370	1373	1387	1396	1410	1416	1416	1411	1408	1406	1404	1401	1421	1456	1467	1460	1442	1442	1438	1460	1457	1414	1406	1410	1421	1433	1446	1429	1437	1446	1453	1430	1420	1431	1478	1543	1567	1744	1793	1961	2159	2127	1988	1915	1828	1834	1833	1854	1902	1912	1920	1916	0	0	0	0	0	0	0	0	0	0	0	0	0	0	0	0	0	0	0	0	0	1315	1381	1398	1419	1410	1411	1417	1448	1457	1453	1429	1421	1418	1418	1385	1389	1421	1420	1415	1414	1410	1413	1412	1429	1427	1407	1405	1423	1427	1420	1415	1423	1436	1433	1436	1421	1428	1437	1436	1437	1438	1437	1438	1426	1423	1421	1428	1443	1437	1420	1425	1438	1438	1432	1430	1436	1446	1436	1455	1454	1448	1440	1425	1445	1439	1437	1427	1440	1453	1443	1452	1450	1443	1443	1441	1442	1437	1442	1443	1431	1410	1400	1410	1403	1471	1766	2331	2730	2821	2874	2891	2902	2932	2961	2980	2979	2952	2942	2949	2985	3020	3075	3083	3050	3016	2985	2978	2969	2974	2988	2997	2958	2947	3005	3085	3005	2773	2410	0	0	0	0	1973	2147	2261	2331	2384	2394	2393	2387	2286	2067	1952	1889	1858	1827	1789	1761	1761	1749	1715	1683	1670	1750	1824	1832	1852	1882	1905	1899	1872	1854	1864	1867	1877	1879	1896	1898	1858	1745	1586	1526	1514	1516	1510	1472	1435	1423	1432	1441	1436	1408	1382	1388	1382	1402	1426	1453	1471	1425	1434	1437	1431	1447	1423	1422	1421	1428	1430	1429	1427	1428	1423	1421	1410	1390	1391	1407	1422	1423	1415	1417	1424	1438	1452	1451	1443	1427	1409	1387	1395	1398	1408	1417	1419	1420	1413	1394	1382	1381	1386	1409	1414	1424	1480	1626	1829	1967	2090	2185	2231	2260	2266	2245	2215	2193	2197	2202	2215	2219	2212	2207	2197	2193	2178	2173	2187	2187	2227	2237	2220	2216	2222	2261	2233	2226	2202	2182	2174	2164	2157	2158	2197	2257	2231	2122	2090	2100	2115	2150	2092	2089	2079	2096	2114	2115	2095	2058	2043	2040	2050	2068	2071	2065	2052	2034	2008	1987	1983	1994	2009	2005	2000	1978	1957	1945	1926	1930	1927	1934	1942	1949	1938	1924	1920	1939	1949	1953	1950	1930	1911	1908	1907	1897	1888	1893	1876	1857	1849	1851	1849	1852	1854	1859	1863	1852	1827	1811	1811	1810	1808	1778	1762	1735	1735	1715	1706	1703	1701	1699	1689	1674	1651	1647	1641	1631	1621	1617	1622	1642	1649	1635	0	0	0	0	0	0	0	0	0
0	0	0	0	0	0	0	0	0	0	0	0	0	0	0	0	0	0	0	0	0	0	0	0	0	0	0	0	0	0	0	0	0	0	0	0	0	0	0	0	0	0	0	0	0	0	0	0	0	0	0	0	0	0	0	0	0	0	0	0	0	0	0	0	0	0	0	0	0	0	0	0	0	0	0	0	0	0	0	0	0	0	0	0	0	0	0	0	0	0	0	0	0	0	0	0	0	0	0	0	0	0	0	0	0	0	0	0	0	0	0	0	0	0	0	0	0	0	0	0	0	0	0	0	0	0	0	0	0	0	0	0	0	0	0	1150	1254	1268	1244	1289	1334	1351	1346	1325	1317	1332	1358	1378	1374	1356	1339	1335	1337	1342	1346	1350	1356	1368	1390	1395	1385	1372	1356	1348	1357	1361	1367	1410	1407	1405	1399	1387	1384	1385	1390	1384	1385	1389	1400	1403	1408	1415	1415	1417	1412	1403	1388	1412	1390	1391	1379	1380	1378	1378	1391	1397	1390	1378	1372	1373	1407	1433	1455	1454	1436	1395	1399	1397	1399	1399	1424	1443	1459	1460	1425	1414	1408	1391	1590	1490	1512	1540	1533	1583	1549	1543	1536	1532	1548	1557	1581	1613	1652	1676	1680	1675	1662	1675	1712	1764	1826	1910	1948	1959	1927	2041	2015	2044	2045	1972	1958	1941	1935	1942	1980	1978	1990	0	0	0	0	0	0	0	0	0	0	0	0	0	0	0	0	0	0	0	0	0	0	1345	1381	1397	1426	1422	1405	1412	1434	1434	1437	1425	1420	1415	1411	1415	1398	1425	1444	1428	1423	1415	1407	1413	1427	1428	1421	1428	1428	1441	1441	1419	1424	1416	1435	1428	1434	1442	1425	1425	1421	1434	1434	1434	1421	1423	1423	1432	1440	1432	1437	1442	1437	1435	1433	1442	1438	1436	1437	1448	1450	1450	1445	1468	1457	1447	1448	1451	1443	1445	1442	1435	1446	1440	1439	1462	1457	1442	1437	1434	1416	1398	1398	1407	1417	1497	1780	2273	2741	2830	2868	2897	2907	2927	2957	2982	2959	2950	2938	2907	2906	2946	2974	3032	3044	3011	3007	2999	2974	2980	2975	2953	2931	2884	2860	2844	2873	2811	2539	2198	0	0	1930	2044	2156	2264	2335	2386	2386	2395	2396	2321	2124	1975	1907	1876	1838	1797	1773	1772	1774	1743	1702	1681	1739	1804	1821	1845	1901	1917	1913	1869	1829	1848	1841	1866	1881	1891	1889	1839	1748	1570	1531	1521	1524	1528	1511	1469	1437	1432	1428	1423	1405	1388	1380	1384	1423	1445	1464	1478	1423	1433	1435	1435	1453	1428	1424	1424	1424	1426	1422	1422	1417	1417	1414	1407	1392	1402	1410	1417	1420	1419	1415	1420	1427	1444	1446	1434	1398	1386	1386	1402	1412	1417	1425	1427	1420	1406	1388	1381	1379	1386	1402	1420	1426	1493	1636	1785	1944	2035	2108	2154	2179	2200	2174	2117	2108	2120	2131	2128	2124	2129	2139	2149	2149	2134	2127	2134	2124	2162	2179	2195	2198	2192	2186	2186	2182	2165	2140	2124	2126	2119	2120	2114	2127	2112	2095	2091	2088	2088	2018	2012	2032	2039	2047	2053	2047	2047	2024	2005	2010	2038	2052	2039	2027	2007	1965	1970	1977	1985	2000	2011	1991	1974	1954	1929	1916	1906	1921	1914	1922	1926	1924	1920	1915	1913	1920	1929	1928	1927	1918	1907	1893	1881	1865	1855	1841	1830	1813	1812	1817	1820	1823	1823	1836	1783	1790	1777	1757	1746	1751	1767	1771	1754	1726	1707	1707	1703	1701	1699	1696	1699	1693	1691	1678	1656	1630	1621	1615	1619	1619	1611	1614	0	0	0	0	0	0	0	0	0
0	0	0	0	0	0	0	0	0	0	0	0	0	0	0	0	0	0	0	0	0	0	0	0	0	0	0	0	0	0	0	0	0	0	0	0	0	0	0	0	0	0	0	0	0	0	0	0	0	0	0	0	0	0	0	0	0	0	0	0	0	0	0	0	0	0	0	0	0	0	0	0	0	0	0	0	0	0	0	0	0	0	0	0	0	0	0	0	0	0	0	0	0	0	0	0	0	0	0	0	0	0	0	0	0	0	0	0	0	0	0	0	0	0	0	0	0	0	0	0	0	0	0	0	0	0	0	0	0	0	0	0	0	0	0	1160	1278	1301	1273	1300	1343	1367	1364	1341	1331	1336	1350	1367	1361	1353	1339	1340	1336	1335	1339	1341	1343	1348	1364	1386	1394	1390	1366	1366	1379	1386	1391	1395	1393	1392	1391	1385	1373	1383	1401	1395	1385	1393	1399	1402	1419	1421	1421	1411	1414	1397	1365	1345	1386	1404	1394	1381	1366	1351	1341	1345	1338	1326	1321	1330	1346	1361	1389	1402	1407	1433	1467	1519	1567	1613	1630	1634	1662	1699	1733	1735	1726	1675	1466	1672	1570	1796	1612	1601	1591	1619	1654	1673	1688	1708	1742	1741	1740	1738	1734	1734	1780	1802	1810	1843	1914	1980	2029	2089	2096	2168	2264	2255	2182	2134	2072	2038	2006	2012	2021	2028	2035	2051	0	0	0	0	0	0	0	0	0	0	0	0	0	0	0	0	0	0	0	0	0	1366	1401	1401	1429	1431	1418	1412	1422	1423	1425	1426	1423	1419	1418	1424	1425	1425	1459	1441	1432	1426	1427	1412	1423	1421	1431	1433	1441	1440	1432	1439	1421	1431	1428	1423	1430	1442	1424	1419	1413	1419	1424	1435	1422	1422	1429	1433	1434	1449	1431	1442	1427	1426	1437	1438	1440	1439	1447	1429	1443	1457	1468	1463	1454	1460	1451	1438	1447	1461	1430	1431	1439	1433	1434	1462	1457	1447	1433	1426	1402	1392	1400	1407	1415	1497	1775	2269	2676	2814	2860	2878	2903	2919	2935	2951	2934	2939	2912	2864	2835	2838	2865	2908	2938	2932	2864	2872	2908	2928	2935	2900	2877	2828	2796	2741	2726	2726	2674	2346	2204	2114	2065	2198	2243	2288	2353	2402	2384	2385	2394	2323	2127	1964	1895	1872	1837	1820	1803	1804	1790	1757	1734	1717	1734	1789	1812	1848	1895	1894	1895	1886	1832	1813	1835	1844	1843	1857	1856	1809	1730	1567	1529	1516	1522	1531	1524	1489	1455	1430	1416	1400	1389	1375	1360	1378	1431	1458	1459	1481	1414	1429	1430	1453	1464	1432	1421	1417	1415	1418	1421	1419	1419	1425	1414	1410	1400	1400	1404	1400	1402	1405	1409	1410	1417	1426	1445	1444	1404	1392	1388	1407	1420	1428	1433	1436	1427	1414	1398	1371	1379	1388	1401	1414	1428	1501	1644	1733	1877	1986	2071	2077	2075	2065	2052	2029	2032	2046	2054	2055	2071	2087	2095	2113	2126	2125	2115	2116	2104	2112	2124	2113	2086	2077	2080	2073	2077	2074	2069	2056	2048	2033	2003	2013	2042	2083	2091	2089	2074	2059	1996	1997	2015	2026	2027	2021	2015	2006	2011	2005	2010	2029	2026	1988	1955	1935	1947	1962	1971	2002	2011	2007	1974	1937	1914	1899	1900	1913	1921	1924	1914	1910	1908	1898	1896	1897	1902	1913	1917	1909	1901	1892	1884	1867	1851	1831	1821	1815	1795	1799	1799	1787	1770	1761	1759	1762	1772	1767	1754	1748	1757	1756	1745	1721	1714	1709	1709	1709	1708	1705	1699	1697	1697	1693	1671	1652	1632	1630	1621	1621	1614	1611	1615	0	0	0	0	0	0	0	0	0
0	0	0	0	0	0	0	0	0	0	0	0	0	0	0	0	0	0	0	0	0	0	0	0	0	0	0	0	0	0	0	0	0	0	0	0	0	0	0	0	0	0	0	0	0	0	0	0	0	0	0	0	0	0	0	0	0	0	0	0	0	0	0	0	0	0	0	0	0	0	0	0	0	0	0	0	0	0	0	0	0	0	0	0	0	0	0	0	0	0	0	0	0	0	0	0	0	0	0	0	0	0	0	0	0	0	0	0	0	0	0	0	0	0	0	0	0	0	0	0	0	0	0	0	0	0	0	0	0	0	0	0	0	0	0	1163	1273	1315	1302	1318	1344	1373	1376	1358	1347	1348	1352	1355	1352	1345	1332	1329	1327	1330	1323	1324	1335	1335	1346	1376	1392	1392	1377	1379	1383	1381	1385	1390	1389	1390	1388	1379	1365	1374	1395	1395	1396	1392	1396	1400	1431	1431	1424	1406	1403	1385	1362	1334	1377	1411	1392	1373	1361	1358	1360	1361	1361	1357	1357	1356	1355	1372	1403	1426	1428	1438	1485	1546	1606	1644	1664	1661	1682	1714	1744	1762	1757	1748	1721	1715	1823	1838	1773	1647	1665	1683	1705	1730	1746	1763	1764	1767	1772	1780	1788	1822	1848	1875	1896	1902	1938	2021	2099	2182	2215	2269	2290	2285	2244	2215	2157	2100	2069	2042	2054	2071	2118	2205	0	0	0	0	0	0	0	0	0	0	0	0	0	0	0	0	0	0	0	0	0	1385	1416	1415	1432	1436	1430	1424	1418	1407	1411	1420	1421	1420	1427	1431	1434	1437	1467	1447	1441	1441	1442	1431	1414	1411	1423	1439	1437	1432	1425	1421	1435	1438	1436	1430	1430	1436	1426	1417	1411	1410	1417	1431	1442	1433	1424	1439	1427	1433	1449	1434	1424	1434	1448	1443	1448	1440	1424	1431	1464	1465	1456	1447	1455	1459	1444	1429	1423	1428	1428	1435	1433	1426	1426	1431	1447	1429	1444	1416	1396	1396	1399	1403	1424	1501	1768	2264	2648	2735	2822	2822	2798	2808	2830	2875	2915	2878	2839	2807	2748	2682	2656	2654	2664	2664	2675	2665	2663	2666	2707	2707	2653	2650	2657	2655	2631	2603	2608	2554	2442	2331	2271	2255	2294	2329	2347	2374	2362	2365	2363	2296	2110	1938	1875	1857	1848	1838	1831	1824	1809	1789	1755	1740	1744	1782	1803	1838	1840	1875	1880	1884	1833	1834	1842	1833	1820	1827	1829	1799	1724	1553	1526	1501	1510	1520	1516	1494	1466	1437	1412	1403	1391	1378	1367	1383	1432	1458	1454	1463	1411	1419	1429	1455	1468	1432	1421	1415	1412	1419	1425	1425	1432	1438	1432	1415	1409	1398	1392	1390	1388	1393	1405	1414	1420	1434	1445	1453	1440	1411	1390	1416	1429	1435	1450	1440	1428	1416	1402	1381	1383	1390	1398	1411	1422	1508	1644	1711	1806	1912	1982	2000	2006	2004	2005	2007	2013	2019	2021	1990	1990	2019	2057	2094	2117	2112	2097	2078	2068	2054	2036	2018	2001	1992	2001	2017	2010	1996	2000	1989	1991	1985	1976	1975	1985	1996	2010	2021	2040	2047	1980	1985	1990	1988	1989	1993	1994	1983	1968	1959	1968	1950	1929	1917	1898	1895	1912	1946	1978	1999	1995	1958	1922	1882	1872	1876	1894	1909	1911	1894	1882	1881	1881	1877	1877	1876	1873	1852	1858	1853	1790	1784	1786	1786	1783	1783	1775	1776	1772	1780	1773	1765	1756	1750	1750	1754	1753	1746	1745	1754	1763	1747	1738	1705	1696	1703	1703	1711	1710	1709	1696	1690	1688	1686	1678	1654	1654	1643	1646	1648	1641	1633	1629	0	0	0	0	0	0	0	0	0
0	0	0	0	0	0	0	0	0	0	0	0	0	0	0	0	0	0	0	0	0	0	0	0	0	0	0	0	0	0	0	0	0	0	0	0	0	0	0	0	0	0	0	0	0	0	0	0	0	0	0	0	0	0	0	0	0	0	0	0	0	0	0	0	0	0	0	0	0	0	0	0	0	0	0	0	0	0	0	0	0	0	0	0	0	0	0	0	0	0	0	0	0	0	0	0	0	0	0	0	0	0	0	0	0	0	0	0	0	0	0	0	0	0	0	0	0	0	0	0	0	0	0	0	0	0	0	0	0	0	0	0	0	0	0	1164	1249	1302	1318	1334	1343	1360	1370	1366	1357	1357	1354	1353	1348	1336	1324	1323	1322	1331	1330	1334	1339	1332	1339	1373	1389	1390	1385	1385	1387	1390	1390	1391	1393	1396	1392	1389	1379	1373	1377	1383	1381	1389	1390	1389	1420	1423	1421	1406	1394	1385	1371	1348	1368	1402	1371	1348	1334	1331	1337	1349	1357	1362	1363	1366	1364	1380	1405	1428	1433	1449	1502	1566	1633	1681	1705	1703	1715	1730	1752	1770	1780	1775	1754	1725	1825	1847	1836	1693	1692	1705	1741	1763	1782	1782	1782	1779	1792	1807	1830	1842	1865	1896	1908	1917	1953	2063	2155	2247	2278	2287	2293	2287	2261	2229	2168	2120	2083	2079	2087	2121	2169	2296	2398	0	0	0	0	0	0	0	0	0	0	0	0	0	2628	2645	2553	0	0	0	0	1405	1439	1425	1425	1436	1437	1433	1422	1409	1401	1415	1418	1427	1434	1435	1436	1437	1437	1442	1443	1443	1442	1439	1414	1410	1408	1420	1428	1427	1422	1428	1434	1433	1432	1426	1404	1422	1439	1410	1403	1393	1412	1432	1448	1439	1438	1432	1446	1444	1439	1427	1411	1441	1438	1447	1437	1439	1424	1435	1440	1450	1450	1445	1428	1423	1423	1408	1414	1427	1432	1437	1435	1427	1428	1429	1432	1449	1450	1428	1387	1391	1399	1409	1436	1508	1752	2235	2549	2672	2689	2643	2594	2597	2653	2662	2712	2770	2751	2652	2529	2491	2489	2527	2545	2549	2553	2530	2524	2513	2511	2512	2477	2477	2472	2469	2448	2411	2396	2380	2368	2338	2333	2324	2322	2325	2318	2344	2336	2328	2319	2276	2109	1993	1863	1847	1853	1850	1848	1829	1820	1800	1780	1773	1770	1774	1813	1855	1838	1855	1866	1877	1834	1839	1838	1833	1821	1818	1827	1836	1765	1577	1525	1510	1506	1514	1509	1493	1474	1453	1434	1417	1388	1379	1392	1401	1427	1453	1434	1443	1419	1430	1431	1459	1475	1436	1428	1420	1413	1413	1426	1432	1443	1451	1453	1439	1420	1408	1400	1392	1390	1399	1412	1425	1424	1435	1446	1451	1428	1400	1376	1418	1435	1443	1451	1440	1429	1415	1403	1396	1391	1396	1396	1404	1411	1502	1625	1710	1791	1892	1959	1976	1978	1976	1981	1983	1986	1974	1953	1913	1918	1951	1992	2024	2039	2023	2006	1988	1978	1974	1978	1971	1978	1971	1977	1985	1969	1960	1937	1942	1953	1959	1954	1949	1945	1951	1975	1993	2001	1999	1943	1943	1965	1976	1974	1977	1963	1926	1865	1864	1898	1925	1911	1894	1886	1882	1887	1893	1904	1907	1886	1880	1873	1851	1847	1856	1883	1865	1842	1833	1824	1778	1782	1795	1805	1797	1793	1791	1793	1791	1779	1763	1763	1763	1771	1768	1761	1747	1749	1757	1749	1738	1736	1726	1716	1713	1707	1705	1713	1724	1758	1711	1708	1693	1689	1699	1699	1708	1716	1716	1702	1689	1686	1682	1677	1664	1656	1649	1650	1648	1642	1635	1624	0	0	0	0	0	0	0	0	0
0	0	0	0	0	0	0	0	0	0	0	0	0	0	0	0	0	0	0	0	0	0	0	0	0	0	0	0	0	0	0	0	0	0	0	0	0	0	0	0	0	0	0	0	0	0	0	0	0	0	0	0	0	0	0	0	0	0	0	0	0	0	0	0	0	0	0	0	0	0	0	0	0	0	0	0	0	0	0	0	0	0	0	0	0	0	0	0	0	0	0	0	0	0	0	0	0	0	0	0	0	0	0	0	0	0	0	0	0	0	0	0	0	0	0	0	0	0	0	0	0	0	0	0	0	0	0	0	0	0	0	0	0	0	0	1156	1231	1267	1313	1336	1340	1342	1354	1358	1360	1357	1358	1358	1350	1342	1328	1324	1331	1345	1354	1356	1349	1339	1342	1375	1390	1391	1389	1384	1391	1395	1393	1394	1396	1402	1402	1395	1385	1377	1377	1374	1377	1388	1387	1381	1410	1420	1414	1403	1397	1392	1377	1354	1367	1403	1376	1348	1328	1316	1331	1350	1361	1370	1373	1375	1375	1392	1406	1423	1429	1454	1520	1584	1658	1703	1722	1731	1732	1745	1761	1771	1766	1767	1761	1720	1799	1868	1859	1799	1722	1703	1737	1751	1793	1800	1788	1789	1794	1812	1825	1830	1848	1880	1900	1921	1965	2049	2163	2250	2282	2296	2295	2286	2245	2191	2145	2119	2089	2110	2141	2166	2213	2338	2487	2554	0	0	0	2653	2643	2633	2593	2607	2619	2644	2674	2723	2723	2725	2700	2667	0	0	0	1425	1444	1430	1425	1439	1436	1436	1417	1404	1391	1381	1410	1410	1427	1420	1426	1433	1436	1431	1437	1439	1434	1427	1425	1412	1419	1431	1436	1433	1421	1423	1453	1458	1440	1424	1400	1410	1433	1444	1429	1423	1397	1442	1461	1433	1431	1446	1452	1444	1441	1445	1437	1436	1433	1440	1428	1432	1454	1441	1444	1447	1446	1445	1438	1427	1413	1412	1419	1432	1432	1436	1433	1433	1452	1455	1454	1462	1461	1429	1391	1386	1395	1410	1443	1508	1701	2039	2367	2524	2529	2518	2479	2482	2521	2539	2550	2520	2484	2364	2359	2362	2376	2397	2417	2405	2377	2339	2327	2326	2369	2349	2361	2378	2375	2364	2333	2278	2219	2215	2258	2275	2254	2225	2214	2226	2292	2312	2276	2249	2240	2205	2129	1978	1904	1857	1836	1834	1821	1818	1815	1808	1788	1781	1789	1803	1861	1874	1852	1851	1875	1888	1851	1843	1847	1842	1836	1839	1848	1854	1780	1579	1542	1515	1504	1501	1491	1471	1466	1458	1441	1417	1398	1388	1421	1434	1431	1434	1415	1420	1433	1430	1431	1465	1483	1439	1420	1409	1410	1412	1418	1432	1443	1450	1454	1450	1422	1412	1404	1406	1410	1423	1420	1415	1418	1427	1434	1440	1416	1388	1376	1415	1429	1436	1435	1425	1419	1410	1402	1400	1396	1390	1381	1389	1395	1484	1604	1696	1769	1909	1942	1955	1956	1945	1950	1961	1953	1938	1927	1895	1904	1938	1976	1995	2000	1986	1957	1952	1961	1957	1957	1954	1956	1953	1959	1957	1945	1910	1908	1911	1923	1917	1914	1927	1902	1904	1917	1922	1917	1914	1921	1924	1923	1952	1946	1936	1917	1893	1877	1870	1882	1903	1886	1874	1861	1862	1862	1847	1829	1821	1815	1767	1761	1757	1754	1748	1745	1743	1740	1738	1737	1740	1746	1753	1771	1769	1767	1767	1769	1766	1758	1741	1738	1750	1756	1754	1738	1735	1736	1732	1724	1715	1709	1710	1713	1705	1680	1679	1673	1672	1647	1655	1672	1673	1679	1682	1682	1695	1702	1704	1702	1689	1680	1674	1670	1659	1633	1631	1618	1625	1639	1628	1617	0	0	0	0	0	0	0	0	0
0	0	0	0	0	0	0	0	0	0	0	0	0	0	0	0	0	0	0	0	0	0	0	0	0	0	0	0	0	0	0	0	0	0	0	0	0	0	0	0	0	0	0	0	0	0	0	0	0	0	0	0	0	0	0	0	0	0	0	0	0	0	0	0	0	0	0	0	0	0	0	0	0	0	0	0	0	0	0	0	0	0	0	0	0	0	0	0	0	0	0	0	0	0	0	0	0	0	0	0	0	0	0	0	0	0	0	0	0	0	0	0	0	0	0	0	0	0	0	0	0	0	0	0	0	0	0	0	0	0	0	0	0	0	0	1139	1220	1256	1299	1327	1337	1342	1342	1351	1360	1366	1367	1369	1363	1351	1340	1336	1341	1355	1362	1367	1360	1352	1354	1368	1391	1388	1383	1378	1383	1389	1392	1395	1398	1403	1405	1402	1387	1383	1383	1375	1375	1373	1375	1377	1407	1408	1404	1396	1395	1398	1383	1354	1364	1395	1372	1342	1322	1322	1335	1357	1375	1385	1391	1394	1390	1397	1404	1408	1423	1471	1535	1602	1671	1720	1732	1735	1741	1755	1768	1773	1767	1756	1759	1733	1812	1880	1855	1808	1733	1697	1725	1739	1781	1817	1804	1804	1802	1808	1817	1815	1821	1833	1873	1913	1968	2054	2140	2248	2282	2309	2294	2279	2262	2179	2148	2132	2129	2151	2176	2215	2263	2394	2517	2641	2658	2665	2655	2663	2696	2691	2680	2648	2663	2677	2710	2732	2742	2748	2779	2761	2580	0	0	1450	1419	1443	1443	1441	1439	1433	1408	1398	1369	1389	1392	1404	1413	1413	1412	1429	1431	1424	1420	1424	1426	1422	1416	1424	1429	1434	1433	1431	1412	1436	1443	1465	1447	1426	1406	1413	1433	1435	1438	1435	1441	1448	1442	1428	1429	1433	1429	1408	1431	1456	1455	1460	1461	1460	1459	1460	1436	1451	1444	1441	1438	1436	1437	1433	1412	1417	1419	1435	1433	1441	1437	1438	1453	1460	1464	1462	1469	1428	1400	1384	1395	1406	1446	1493	1637	1939	2280	2358	2431	2429	2387	2359	2343	2343	2360	2323	2292	2251	2267	2270	2274	2275	2284	2286	2273	2216	2183	2182	2193	2187	2190	2237	2248	2239	2212	2186	2156	2141	2148	2169	2172	2162	2152	2131	2135	2166	2161	2157	2157	2110	2082	2030	1953	1879	1829	1808	1791	1789	1805	1799	1792	1791	1803	1830	1860	1859	1851	1880	1898	1904	1892	1870	1857	1857	1859	1868	1875	1850	1775	1589	1552	1525	1501	1480	1458	1445	1447	1451	1433	1411	1392	1396	1428	1436	1434	1424	1411	1392	1438	1446	1449	1473	1490	1444	1420	1405	1396	1407	1413	1426	1436	1444	1443	1443	1420	1412	1411	1430	1445	1444	1427	1415	1401	1409	1415	1423	1406	1385	1388	1411	1419	1419	1419	1417	1414	1407	1399	1395	1393	1384	1376	1377	1385	1468	1604	1674	1764	1870	1909	1930	1928	1897	1877	1865	1861	1904	1915	1906	1908	1908	1927	1935	1947	1935	1915	1915	1938	1937	1937	1935	1928	1911	1927	1927	1908	1868	1857	1863	1878	1872	1879	1869	1860	1865	1875	1866	1849	1903	1907	1889	1873	1872	1886	1892	1893	1883	1869	1867	1804	1795	1785	1773	1755	1761	1758	1747	1735	1739	1743	1738	1724	1729	1722	1724	1727	1727	1717	1708	1697	1687	1693	1708	1729	1729	1732	1736	1737	1722	1717	1712	1715	1718	1721	1725	1730	1733	1732	1710	1679	1664	1698	1702	1701	1674	1658	1661	1652	1639	1630	1633	1641	1652	1660	1659	1659	1657	1647	1653	1672	1663	1640	1606	1582	1594	1589	1589	1600	1602	1607	1602	1587	0	0	0	0	0	0	0	0	0
0	0	0	0	0	0	0	0	0	0	0	0	0	0	0	0	0	0	0	0	0	0	0	0	0	0	0	0	0	0	0	0	0	0	0	0	0	0	0	0	0	0	0	0	0	0	0	0	0	0	0	0	0	0	0	0	0	0	0	0	0	0	0	0	0	0	0	0	0	0	0	0	0	0	0	0	0	0	0	0	0	0	0	0	0	0	0	0	0	0	0	0	0	0	0	0	0	0	0	0	0	0	0	0	0	0	0	0	0	0	0	0	0	0	0	0	0	0	0	0	0	0	0	0	0	0	0	0	0	0	0	0	0	0	0	1104	1208	1257	1287	1315	1333	1344	1339	1345	1363	1375	1378	1374	1369	1360	1357	1352	1354	1357	1362	1362	1358	1359	1365	1384	1391	1381	1374	1373	1365	1370	1381	1390	1395	1401	1398	1395	1390	1388	1386	1369	1364	1368	1369	1375	1406	1406	1404	1402	1401	1414	1395	1360	1361	1376	1357	1326	1325	1331	1347	1364	1377	1385	1389	1392	1394	1395	1401	1415	1433	1492	1555	1627	1682	1716	1729	1739	1748	1766	1781	1787	1780	1776	1768	1757	1818	1817	1828	1788	1739	1705	1711	1733	1760	1828	1846	1835	1829	1831	1823	1806	1794	1816	1847	1904	1972	2053	2130	2241	2280	2303	2310	2294	2286	2198	2154	2144	2156	2179	2218	2253	2297	2397	2540	2655	2734	2698	2686	2690	2699	2716	2717	2696	2679	2677	2689	2705	2714	2708	2771	2758	2673	2293	2031	1589	1424	1456	1459	1452	1434	1408	1393	1394	1388	1398	1397	1407	1407	1408	1414	1420	1424	1429	1423	1424	1429	1430	1422	1417	1418	1426	1432	1430	1424	1420	1445	1451	1450	1448	1423	1422	1435	1436	1440	1449	1444	1447	1436	1431	1424	1433	1436	1422	1428	1448	1458	1461	1460	1457	1453	1444	1436	1438	1433	1426	1428	1436	1445	1434	1450	1433	1429	1433	1434	1452	1445	1437	1450	1452	1453	1456	1464	1459	1427	1390	1389	1406	1434	1468	1625	1930	2080	2285	2294	2280	2251	2227	2246	2242	2200	2147	2151	2188	2222	2237	2221	2209	2187	2166	2161	2145	2134	2145	2148	2147	2149	2163	2185	2184	2154	2132	2107	2080	2080	2096	2104	2117	2124	2118	2117	2116	2117	2115	2117	2085	2035	2022	2043	2011	1950	1895	1887	1876	1869	1817	1807	1809	1824	1827	1846	1833	1819	1855	1917	1918	1916	1899	1872	1864	1872	1878	1886	1825	1771	1614	1574	1539	1505	1478	1456	1435	1428	1445	1438	1415	1399	1419	1431	1421	1438	1434	1399	1377	1438	1451	1462	1476	1478	1439	1414	1403	1390	1398	1409	1412	1412	1426	1430	1431	1411	1407	1418	1440	1459	1454	1430	1410	1406	1412	1411	1406	1397	1389	1401	1416	1417	1413	1413	1412	1414	1410	1400	1392	1386	1382	1379	1378	1384	1447	1582	1649	1733	1834	1873	1898	1895	1873	1826	1789	1802	1832	1860	1858	1859	1859	1840	1841	1876	1872	1851	1847	1871	1884	1868	1844	1843	1816	1822	1829	1876	1862	1840	1832	1842	1852	1852	1837	1829	1842	1852	1839	1808	1866	1789	1776	1763	1759	1762	1763	1782	1801	1790	1786	1779	1767	1752	1728	1712	1710	1721	1722	1721	1717	1702	1683	1688	1678	1700	1704	1709	1709	1703	1692	1680	1681	1694	1696	1712	1710	1715	1698	1688	1688	1681	1679	1681	1685	1686	1697	1723	1728	1726	1699	1669	1643	1656	1679	1670	1638	1634	1625	1627	1625	1622	1621	1611	1618	1620	1610	1610	1585	1598	1611	1628	1630	1593	1549	1533	1535	1548	1557	1556	1566	1574	1576	1561	0	0	0	0	0	0	0	0	0
0	0	0	0	0	0	0	0	0	0	0	0	0	0	0	0	0	0	0	0	0	0	0	0	0	0	0	0	0	0	0	0	0	0	0	0	0	0	0	0	0	0	0	0	0	0	0	0	0	0	0	0	0	0	0	0	0	0	0	0	0	0	0	0	0	0	0	0	0	0	0	0	0	0	0	0	0	0	0	0	0	0	0	0	0	0	0	0	0	0	0	0	0	0	0	0	0	0	0	0	0	0	0	0	0	0	0	0	0	0	0	0	0	0	0	0	0	0	0	0	0	0	0	0	0	0	0	0	0	0	0	0	0	0	0	1074	1198	1289	1313	1323	1339	1337	1334	1341	1361	1372	1373	1369	1366	1363	1368	1372	1369	1365	1360	1356	1358	1363	1371	1386	1391	1376	1366	1356	1353	1357	1370	1382	1391	1394	1388	1385	1385	1387	1381	1360	1356	1358	1369	1382	1413	1396	1407	1403	1405	1411	1403	1385	1349	1337	1318	1327	1338	1346	1363	1363	1366	1367	1373	1379	1389	1392	1398	1417	1445	1517	1581	1641	1686	1715	1730	1741	1761	1781	1801	1809	1799	1793	1783	1786	1829	1811	1792	1780	1754	1715	1705	1715	1726	1806	1860	1874	1874	1869	1840	1817	1800	1807	1841	1890	1977	2100	2182	2251	2273	2288	2305	2304	2285	2213	2178	2147	2146	2182	2223	2263	2321	2405	2518	2603	2682	2685	2672	2665	2675	2694	2699	2686	2665	2659	2654	2631	2632	2643	2615	2639	2652	2303	1941	1658	1429	1458	1446	1443	1428	1406	1394	1397	1401	1411	1410	1417	1410	1405	1403	1413	1432	1429	1420	1418	1429	1428	1421	1417	1412	1421	1438	1431	1414	1412	1431	1431	1442	1445	1437	1444	1421	1425	1426	1425	1447	1429	1432	1429	1430	1435	1455	1443	1439	1444	1456	1457	1458	1455	1447	1448	1450	1440	1436	1437	1439	1440	1442	1443	1453	1446	1438	1442	1449	1451	1470	1422	1420	1426	1430	1448	1454	1455	1432	1402	1405	1406	1401	1438	1603	1851	2008	2137	2195	2184	2173	2162	2167	2141	2114	2092	2102	2132	2158	2173	2178	2187	2186	2159	2121	2096	2096	2100	2096	2103	2120	2126	2120	2124	2112	2088	2069	2052	2040	2050	2056	2070	2092	2091	2091	2086	2064	2058	2042	2015	2000	2012	2025	2008	2003	2023	2006	1988	1969	1948	1859	1838	1831	1843	1838	1828	1805	1864	1918	1934	1935	1914	1903	1875	1876	1882	1872	1806	1774	1653	1602	1558	1523	1489	1469	1452	1437	1437	1447	1435	1437	1434	1433	1413	1452	1442	1390	1401	1428	1453	1470	1468	1460	1429	1419	1409	1400	1394	1405	1407	1406	1409	1418	1421	1412	1412	1425	1426	1425	1421	1421	1420	1421	1416	1409	1396	1384	1385	1397	1415	1414	1412	1411	1412	1418	1410	1407	1396	1388	1386	1392	1391	1390	1438	1568	1623	1698	1796	1839	1867	1864	1841	1803	1790	1784	1791	1799	1794	1798	1814	1822	1828	1815	1822	1816	1800	1793	1771	1769	1798	1795	1787	1795	1806	1818	1829	1824	1780	1777	1771	1767	1764	1758	1772	1779	1773	1738	1744	1765	1761	1752	1736	1728	1718	1725	1739	1746	1746	1746	1742	1718	1697	1694	1693	1708	1706	1691	1669	1649	1628	1632	1636	1648	1660	1690	1688	1666	1654	1656	1664	1673	1688	1688	1678	1667	1648	1643	1645	1647	1658	1661	1647	1641	1650	1676	1684	1694	1659	1637	1624	1614	1613	1613	1587	1583	1583	1590	1594	1599	1595	1569	1558	1553	1554	1554	1539	1547	1561	1590	1592	1550	1538	1516	1511	1506	1503	1495	1502	1536	1549	1543	0	0	0	0	0	0	0	0	0
0	0	0	0	0	0	0	0	0	0	0	0	0	0	0	0	0	0	0	0	0	0	0	0	0	0	0	0	0	0	0	0	0	0	0	0	0	0	0	0	0	0	0	0	0	0	0	0	0	0	0	0	0	0	0	0	0	0	0	0	0	0	0	0	0	0	0	0	0	0	0	0	0	0	0	0	0	0	0	0	0	0	0	0	0	0	0	0	0	0	0	0	0	0	0	0	0	0	0	0	0	0	0	0	0	0	0	0	0	0	0	0	0	0	0	0	0	0	0	0	0	0	0	0	0	0	0	0	0	0	0	0	0	0	0	1102	1213	1296	1324	1334	1334	1323	1321	1327	1328	1335	1342	1356	1365	1368	1375	1394	1388	1377	1362	1358	1364	1363	1372	1381	1376	1361	1356	1349	1346	1355	1370	1387	1391	1390	1386	1383	1383	1384	1377	1358	1352	1354	1358	1382	1422	1419	1408	1418	1408	1402	1395	1381	1342	1309	1307	1322	1338	1359	1367	1351	1340	1346	1354	1378	1390	1394	1411	1433	1461	1533	1587	1642	1689	1716	1732	1752	1772	1798	1815	1813	1815	1805	1800	1802	1836	1805	1776	1770	1751	1702	1712	1710	1728	1767	1843	1863	1875	1872	1852	1833	1824	1821	1855	1892	1979	2144	2226	2254	2268	2277	2294	2288	2289	2226	2188	2145	2122	2149	2208	2268	2333	2404	2488	2538	2585	2617	2626	2613	2611	2602	2606	2625	2605	2544	2486	2513	2531	2525	2498	2545	2561	2382	1911	1719	1418	1414	1425	1418	1422	1425	1410	1417	1424	1415	1419	1429	1436	1411	1398	1422	1439	1423	1417	1418	1418	1422	1423	1418	1414	1416	1427	1448	1423	1412	1427	1443	1443	1455	1452	1455	1444	1426	1414	1414	1419	1428	1427	1436	1436	1457	1457	1441	1444	1438	1444	1439	1452	1455	1455	1442	1448	1443	1441	1443	1447	1447	1446	1441	1442	1448	1448	1445	1445	1437	1461	1393	1385	1398	1400	1412	1443	1448	1429	1422	1418	1420	1419	1442	1570	1811	1937	2021	2094	2110	2121	2120	2091	2081	2071	2072	2078	2080	2083	2099	2105	2137	2141	2120	2086	2059	2057	2042	2042	2049	2076	2086	2076	2059	2042	2029	2025	2027	2029	2017	2021	2040	2051	2046	2040	2027	1977	1947	1921	1918	1936	1955	1970	1989	2002	2005	2001	1999	1990	1949	1870	1847	1848	1844	1835	1833	1836	1890	1936	1945	1943	1924	1912	1900	1898	1898	1890	1831	1793	1684	1619	1578	1536	1506	1483	1469	1458	1456	1460	1466	1460	1444	1428	1408	1453	1451	1395	1414	1422	1441	1465	1462	1450	1423	1424	1429	1423	1413	1410	1411	1401	1405	1414	1417	1421	1425	1428	1421	1418	1418	1418	1424	1428	1422	1410	1396	1387	1386	1389	1395	1395	1402	1401	1411	1420	1427	1416	1394	1393	1396	1404	1408	1402	1431	1553	1595	1692	1750	1781	1804	1802	1794	1791	1787	1775	1769	1758	1738	1749	1775	1796	1806	1790	1792	1792	1773	1750	1736	1718	1728	1744	1734	1733	1738	1753	1758	1756	1749	1743	1742	1735	1731	1715	1706	1698	1698	1711	1738	1745	1741	1731	1714	1693	1684	1656	1638	1643	1655	1663	1657	1666	1676	1680	1671	1651	1642	1631	1614	1605	1609	1622	1632	1622	1615	1620	1633	1634	1629	1631	1639	1656	1662	1656	1616	1613	1613	1611	1612	1616	1606	1592	1589	1593	1594	1590	1584	1592	1593	1591	1579	1577	1575	1569	1562	1562	1569	1574	1573	1567	1557	1535	1535	1528	1519	1515	1515	1516	1518	1529	1531	1520	1504	1501	1500	1500	1491	1487	1487	1491	1493	1485	0	0	0	0	0	0	0	0	0
0	0	0	0	0	0	0	0	0	0	0	0	0	0	0	0	0	0	0	0	0	0	0	0	0	0	0	0	0	0	0	0	0	0	0	0	0	0	0	0	0	0	0	0	0	0	0	0	0	0	0	0	0	0	0	0	0	0	0	0	0	0	0	0	0	0	0	0	0	0	0	0	0	0	0	0	0	0	0	0	0	0	0	0	0	0	0	0	0	0	0	0	0	0	0	0	0	0	0	0	0	0	0	0	0	0	0	0	0	0	0	0	0	0	0	0	0	0	0	0	0	0	0	0	0	0	0	0	0	0	0	0	0	0	0	1136	1226	1297	1325	1340	1323	1316	1314	1317	1324	1326	1345	1361	1366	1371	1379	1377	1380	1372	1361	1359	1363	1372	1375	1364	1351	1355	1355	1354	1350	1352	1370	1383	1388	1392	1387	1382	1375	1371	1365	1366	1361	1351	1345	1371	1422	1424	1414	1413	1399	1388	1377	1366	1344	1305	1307	1323	1341	1347	1360	1342	1332	1338	1358	1377	1402	1418	1437	1451	1476	1537	1591	1647	1688	1717	1736	1758	1792	1817	1828	1821	1810	1805	1805	1806	1834	1815	1770	1753	1742	1717	1717	1715	1728	1759	1817	1831	1847	1859	1857	1852	1852	1857	1888	1923	1977	2188	2247	2257	2261	2266	2286	2287	2288	2228	2203	2138	2085	2119	2184	2263	2335	2399	2463	2508	2529	2544	2534	2537	2518	2497	2437	2410	2377	2391	2386	2399	2410	2399	2408	2459	2453	2333	1903	1738	1404	1405	1404	1396	1416	1414	1411	1423	1438	1416	1419	1435	1447	1443	1424	1421	1441	1422	1422	1420	1423	1422	1423	1417	1416	1417	1425	1440	1433	1424	1438	1443	1448	1451	1464	1463	1445	1426	1414	1407	1453	1439	1425	1441	1445	1448	1448	1438	1434	1436	1438	1434	1451	1440	1436	1446	1448	1446	1447	1441	1448	1450	1435	1438	1435	1449	1455	1450	1446	1425	1359	1355	1362	1376	1385	1401	1427	1414	1407	1403	1404	1416	1431	1459	1577	1827	1918	1978	2016	2041	2063	2072	2068	2050	2046	2042	2028	2042	2040	2051	2047	2073	2081	2075	2044	2025	2016	2003	2003	1998	2009	2017	2013	1987	1965	1947	1957	1970	1980	1991	1997	1999	1977	1963	1962	1974	1949	1920	1901	1893	1906	1918	1942	1957	1959	1946	1941	1940	1935	1906	1871	1846	1900	1904	1880	1853	1888	1928	1949	1958	1944	1924	1921	1927	1934	1938	1941	1863	1825	1701	1635	1584	1543	1513	1495	1480	1466	1469	1473	1472	1461	1439	1405	1393	1423	1451	1422	1421	1408	1436	1440	1441	1415	1420	1427	1434	1435	1434	1424	1427	1422	1414	1417	1412	1423	1430	1428	1419	1410	1411	1415	1423	1423	1415	1410	1406	1400	1393	1387	1376	1377	1382	1388	1401	1410	1433	1429	1409	1394	1399	1412	1409	1404	1441	1544	1585	1669	1745	1760	1770	1765	1759	1751	1773	1769	1762	1748	1714	1700	1709	1719	1720	1715	1723	1741	1749	1734	1721	1708	1702	1707	1716	1709	1709	1707	1713	1714	1723	1711	1716	1710	1692	1673	1665	1660	1667	1683	1708	1713	1693	1661	1645	1649	1633	1616	1598	1599	1593	1595	1597	1619	1639	1637	1618	1602	1607	1600	1580	1575	1577	1593	1593	1592	1583	1584	1586	1596	1606	1609	1610	1606	1603	1596	1590	1585	1580	1581	1577	1563	1558	1558	1556	1560	1566	1565	1556	1544	1542	1550	1560	1565	1562	1550	1545	1544	1550	1554	1553	1548	1523	1510	1497	1499	1489	1490	1490	1492	1480	1496	1472	1473	1477	1473	1480	1501	1495	1484	1478	1469	1456	1444	0	0	0	0	0	0	0	0	0
0	0	0	0	0	0	0	0	0	0	0	0	0	0	0	0	0	0	0	0	0	0	0	0	0	0	0	0	0	0	0	0	0	0	0	0	0	0	0	0	0	0	0	0	0	0	0	0	0	0	0	0	0	0	0	0	0	0	0	0	0	0	0	0	0	0	0	0	0	0	0	0	0	0	0	0	0	0	0	0	0	0	0	0	0	0	0	0	0	0	0	0	0	0	0	0	0	0	0	0	0	0	0	0	0	0	0	0	0	0	0	0	0	0	0	0	0	0	0	0	0	0	0	0	0	0	0	0	0	0	0	0	0	0	0	1149	1246	1310	1330	1337	1334	1329	1327	1330	1320	1321	1331	1353	1363	1372	1376	1377	1375	1367	1359	1355	1364	1368	1365	1354	1346	1358	1361	1362	1364	1362	1349	1361	1367	1373	1378	1380	1363	1357	1361	1378	1375	1363	1355	1359	1381	1403	1413	1411	1400	1387	1377	1370	1353	1324	1319	1328	1335	1340	1344	1337	1342	1353	1364	1389	1411	1428	1448	1467	1491	1547	1594	1642	1690	1721	1738	1758	1785	1813	1819	1805	1798	1803	1807	1794	1825	1821	1784	1732	1723	1731	1729	1720	1727	1762	1792	1801	1830	1840	1854	1861	1866	1893	1912	1944	1996	2187	2244	2246	2244	2242	2279	2291	2290	2241	2199	2156	2114	2112	2162	2237	2317	2389	2446	2490	2496	2500	2485	2452	2419	2383	2348	2342	2348	2335	2342	2356	2360	2348	2344	2320	2288	2246	1922	1788	1422	1414	1405	1400	1403	1409	1402	1426	1436	1429	1425	1442	1453	1456	1449	1426	1445	1449	1436	1430	1424	1423	1418	1411	1412	1420	1431	1446	1445	1439	1432	1442	1442	1448	1464	1468	1451	1432	1424	1422	1432	1416	1431	1447	1447	1456	1450	1438	1438	1439	1440	1434	1414	1423	1423	1441	1449	1441	1445	1460	1465	1457	1447	1438	1432	1454	1426	1459	1417	1404	1344	1334	1333	1344	1381	1363	1412	1402	1391	1379	1393	1434	1462	1476	1607	1742	1905	1966	1998	2005	2009	2025	2035	2033	2017	2009	1990	1983	1995	1990	1988	2015	2019	2002	1971	1959	1962	1974	1980	1978	1976	1974	1974	1968	1950	1940	1940	1936	1925	1918	1932	1933	1932	1923	1923	1940	1939	1916	1890	1875	1883	1901	1914	1918	1916	1902	1895	1893	1898	1896	1876	1861	1863	1880	1884	1871	1885	1910	1938	1946	1948	1930	1928	1934	1929	1910	1896	1920	1835	1681	1615	1579	1551	1516	1500	1486	1478	1483	1479	1469	1443	1422	1410	1390	1387	1401	1425	1425	1409	1431	1437	1438	1415	1422	1435	1433	1436	1433	1430	1430	1432	1432	1427	1417	1422	1428	1424	1413	1408	1412	1410	1411	1417	1420	1417	1417	1411	1393	1379	1362	1367	1367	1375	1390	1405	1427	1422	1406	1400	1402	1408	1412	1408	1476	1544	1575	1648	1749	1763	1755	1704	1680	1678	1690	1711	1718	1716	1684	1678	1691	1693	1690	1688	1692	1701	1734	1735	1720	1704	1686	1682	1692	1676	1665	1662	1656	1654	1656	1653	1655	1662	1656	1651	1646	1639	1645	1656	1666	1648	1617	1586	1577	1579	1580	1588	1588	1579	1579	1578	1575	1575	1582	1576	1577	1584	1593	1584	1572	1562	1542	1536	1534	1535	1543	1546	1559	1571	1578	1579	1580	1581	1576	1566	1554	1551	1552	1554	1554	1552	1549	1542	1538	1540	1539	1537	1530	1515	1514	1519	1521	1520	1515	1502	1502	1504	1505	1510	1516	1517	1492	1474	1456	1453	1466	1464	1464	1468	1468	1459	1445	1417	1403	1414	1460	1471	1477	1461	1442	1430	1418	1412	0	0	0	0	0	0	0	0	0
0	0	0	0	0	0	0	0	0	0	0	0	0	0	0	0	0	0	0	0	0	0	0	0	0	0	0	0	0	0	0	0	0	0	0	0	0	0	0	0	0	0	0	0	0	0	0	0	0	0	0	0	0	0	0	0	0	0	0	0	0	0	0	0	0	0	0	0	0	0	0	0	0	0	0	0	0	0	0	0	0	0	0	0	0	0	0	0	0	0	0	0	0	0	0	0	0	0	0	0	0	0	0	0	0	0	0	0	0	0	0	0	0	0	0	0	0	0	0	0	0	0	0	0	0	0	0	0	0	0	0	0	0	0	0	1181	1277	1355	1335	1324	1344	1340	1340	1349	1337	1327	1329	1339	1355	1367	1376	1386	1374	1369	1357	1360	1364	1362	1354	1349	1349	1354	1362	1368	1372	1371	1362	1359	1368	1366	1370	1375	1378	1371	1371	1386	1394	1392	1372	1370	1366	1382	1413	1415	1407	1382	1388	1391	1374	1349	1334	1342	1333	1332	1336	1340	1353	1365	1363	1384	1403	1424	1446	1469	1490	1548	1596	1650	1693	1725	1745	1755	1779	1793	1796	1793	1795	1799	1798	1779	1783	1817	1783	1728	1721	1734	1741	1717	1719	1762	1773	1776	1789	1813	1836	1843	1858	1893	1922	1945	1996	2148	2216	2213	2205	2203	2243	2275	2267	2262	2241	2190	2143	2146	2170	2221	2300	2352	2383	2392	2406	2409	2406	2383	2346	2305	2285	2283	2266	2249	2275	2322	2321	2318	2286	2236	2240	2168	1885	1780	1465	1423	1411	1409	1408	1406	1402	1409	1396	1424	1441	1449	1459	1455	1448	1436	1442	1461	1458	1438	1428	1424	1409	1407	1413	1425	1432	1436	1441	1436	1435	1437	1447	1447	1452	1461	1453	1437	1432	1432	1426	1416	1427	1446	1446	1462	1444	1465	1431	1433	1441	1444	1429	1420	1413	1448	1452	1452	1450	1437	1436	1435	1438	1433	1437	1433	1453	1409	1401	1380	1364	1310	1340	1354	1370	1381	1399	1392	1384	1378	1401	1447	1483	1498	1634	1766	1869	1924	1937	1929	1922	1932	1932	1955	1957	1946	1935	1931	1928	1921	1923	1934	1945	1948	1931	1926	1939	1951	1962	1944	1914	1892	1911	1919	1923	1913	1909	1906	1893	1887	1872	1879	1885	1886	1894	1927	1927	1912	1897	1888	1889	1888	1874	1867	1878	1872	1867	1865	1862	1881	1866	1850	1823	1806	1819	1816	1813	1832	1855	1872	1886	1873	1850	1827	1835	1825	1834	1858	1766	1635	1569	1558	1542	1514	1499	1486	1481	1483	1487	1474	1444	1417	1405	1401	1367	1388	1413	1425	1416	1430	1424	1430	1424	1419	1428	1438	1440	1435	1432	1434	1438	1440	1439	1433	1424	1424	1417	1409	1405	1404	1409	1415	1420	1421	1425	1430	1418	1401	1382	1378	1386	1385	1375	1385	1400	1416	1418	1408	1402	1406	1407	1419	1418	1448	1492	1541	1612	1694	1707	1706	1674	1659	1658	1664	1667	1679	1676	1639	1642	1654	1665	1664	1658	1657	1661	1684	1701	1699	1685	1669	1672	1654	1641	1640	1637	1641	1641	1635	1636	1626	1637	1625	1623	1621	1621	1620	1608	1592	1584	1575	1566	1548	1550	1561	1562	1569	1558	1560	1561	1561	1557	1560	1566	1566	1578	1579	1569	1559	1537	1509	1509	1511	1511	1515	1513	1533	1542	1546	1545	1548	1556	1550	1547	1534	1524	1525	1533	1537	1540	1533	1526	1520	1517	1513	1510	1498	1492	1487	1486	1487	1480	1468	1468	1468	1463	1459	1457	1460	1467	1451	1432	1408	1406	1418	1420	1420	1423	1412	1400	1392	1377	1376	1383	1397	1405	1395	1387	1400	1392	1379	1377	0	0	0	0	0	0	0	0	0
