747	754	760	760	767	773	775	773	773	774	774	770	769	769	764	753	749	743	738	738	752	755	751	741	739	744	744	756	755	746	738	742	753	753	759	755	741	739	739	743	743	743	748	751	749	763	763	760	767	764	761	761	757	752	743	734	724	721	720	733	739	739	739	739	739	744	742	744	746	744	746	747	737	735	734	736	730	726	721	720	721	728	728	727	739	739	738	737	733	727	732	723	723	721	720	713	713	721	722	722	719	721	724	724	721	709	719	712	708	705	708	708	705	702	699	694	692	707	710	713	719	718	714	705	706	706	704	706	710	715	710	707	700	706	707	708	706	690	687	687	686	688	694	694	698	703	712	714	701	693	698	699	709	710	707	705	701	708	707	703	703	701	697	695	696	697	699	702	708	700	696	695	700	703	700	697	695	695	691	686	690	695	694	679	680	687	691	675	688	692	691	685	680	676	674	674	676	678	675	670	674	673	675	669	668	666	669	672	675	679	689	687	687	684	682	677	676	682	678	681	682	681	683	680	678	676	682	689	692	692	684	673	669	671	672	675	653	653	659	655	667	660	659	660	660	666	668	664	659	653	654	657	658	648	663	654	649	638	639	637	639	635	632	632	635	639	645	657	654	649	642	646	655	637	639	641	649	652	654	637	629	647	646	653	651	631	623	635	641	644	638	634	632	628	628	620	618	624	634	638	637	636	635	630	633	638	639	634	629	627	626	629	634	633	630	628	625	624	627	629	630	630	628	628	627	627	628	624	627	628	632	627	621	615	619	624	628	631	630	623	622	615	618	616	616	622	620	615	611	612	621	624	627	626	617	618	616	620	621	620	625	621	625	620	617	612	613	618	612	612	616	617	616	613	610	608	609	607	601	600	605	608	608	609	605	605	605	606	611	609	607	609	610	612	611	608	612	614	614	612	610	611	612	613	608	598	600	605	597	587	580	578	576	580	586	589	594	595	596	598	600	604	606	608	611	610	607	610	603	607	606	606	598	584	599	602	599	590	592	588	599	592	589	589	591	588	586	585	587	590	585	585	586	590	593	593	593	591	589	588	595	592	588	586	587	588	592	598	586	590	588	583	585	589	582	574	573	571	580	585	584	583	584	589	588	588	586	584	581	575	577	579	578	579	586	587	578	582	586	584	577	577	578	577	577	577	573	571	568	567	565	565	565	566	569	575	575	576	582	580	579	569	568	570	572	574	576	575	569	569	567	557	563	568	569	568	567	570	570	565	573	573	570	565	567	564	569	562	564	566	566	567	569	568	559	548	550	553	552	557	558	558	557	552	554	558	560	561	566	567	564	563	561	558	552	556	561	564	558	555	556	558	557	555	553	551	553	556	555	558	557	557	546	543	539	557	560	561	568	563	559	556	556	551	547	549	554	555	558	557	546	547	545	547	560	551	549	546	551	554	550	554	555	555	554	553	549	558	557	554	550	546	0	0	0	0	0	0	0	0
743	748	756	756	761	763	762	765	765	756	746	741	743	750	750	749	738	725	726	724	724	731	737	733	733	733	733	733	732	728	730	735	737	737	744	733	730	725	724	729	735	740	740	742	742	743	748	750	752	754	753	753	749	745	736	733	728	724	728	737	744	744	739	737	737	737	742	732	727	726	733	739	734	728	724	722	720	713	708	711	713	714	714	714	718	726	727	726	718	720	721	721	721	724	722	715	708	700	697	699	702	700	693	699	700	706	703	699	701	699	703	702	699	696	695	693	689	692	706	710	714	710	703	695	695	697	699	705	705	701	701	699	684	691	694	703	702	697	689	688	686	684	692	691	692	691	687	687	689	705	708	695	686	685	679	680	685	706	707	701	698	692	695	689	690	692	684	689	692	690	694	690	691	693	698	698	692	690	685	683	691	697	696	683	681	685	688	682	687	687	684	681	679	673	665	669	671	671	671	666	662	668	667	653	654	657	658	667	673	672	671	663	661	659	656	657	658	668	666	679	671	671	671	677	669	658	659	660	670	677	674	670	668	668	658	653	652	652	652	647	652	655	651	654	657	658	660	659	658	657	654	651	653	642	642	648	637	630	628	630	633	629	627	626	631	624	623	627	632	631	634	640	643	634	639	638	636	636	639	635	639	640	641	640	633	621	620	631	637	630	629	630	628	626	616	615	616	619	629	629	628	628	626	622	619	621	631	629	628	627	626	625	623	628	627	625	622	623	619	620	619	618	620	619	618	622	622	619	622	622	619	614	609	607	611	613	615	617	618	616	618	619	619	616	619	620	619	614	610	615	616	617	618	618	614	613	617	619	619	623	624	620	620	619	615	612	611	612	611	613	613	612	607	606	610	611	612	606	604	605	608	610	612	610	595	596	601	602	608	607	609	611	610	610	593	595	609	613	611	608	605	606	604	603	594	591	592	596	596	589	583	576	576	577	582	589	593	595	598	598	600	602	603	605	605	604	597	599	595	596	598	594	593	581	576	577	573	575	578	593	595	592	588	586	589	588	586	585	586	582	585	584	583	583	586	589	592	589	588	585	585	586	585	586	585	587	587	583	571	565	575	577	577	573	572	574	578	579	578	580	578	571	569	584	588	588	583	575	575	574	578	578	574	571	571	574	579	584	584	581	580	575	573	575	575	575	571	569	566	562	559	557	557	559	563	563	568	570	571	571	567	571	570	567	566	565	563	563	564	565	565	562	561	574	569	567	565	564	563	573	569	564	564	565	564	568	569	570	573	570	563	560	567	562	556	548	548	551	550	548	550	550	549	549	547	559	559	559	563	563	562	558	552	555	550	547	556	558	556	551	549	548	544	542	546	547	543	548	552	551	551	546	544	540	555	542	548	546	536	536	539	539	551	548	546	546	548	550	556	556	544	547	548	544	542	541	542	543	541	540	547	548	548	550	549	547	558	554	555	548	538	531	0	0	0	0	0	0	0	0
744	749	754	754	751	747	745	742	742	742	742	746	750	750	750	738	731	726	724	724	724	724	734	738	732	731	731	734	730	728	729	730	735	731	731	727	723	722	723	726	725	728	728	731	732	735	745	745	740	736	733	732	732	728	728	727	723	720	725	732	739	738	733	729	729	733	731	725	708	705	709	714	710	706	703	699	702	702	703	708	707	710	722	722	720	713	701	691	694	706	714	717	720	724	719	715	710	702	692	687	684	682	681	680	681	683	684	691	694	696	695	690	690	696	689	689	687	687	695	705	705	701	695	685	678	679	688	693	680	668	688	686	678	686	690	700	697	694	688	692	694	692	692	689	687	687	686	687	685	689	703	700	679	681	682	680	680	685	689	693	692	681	685	684	671	665	670	680	680	679	678	687	687	688	692	692	684	680	684	681	683	685	684	689	689	689	689	678	682	675	675	676	675	670	662	666	675	677	678	666	664	665	663	654	642	647	651	654	651	660	654	655	649	648	654	651	653	655	646	638	642	668	671	671	656	646	645	646	662	664	661	645	644	644	646	647	647	644	639	639	637	632	642	648	650	644	647	650	642	633	648	645	647	633	634	641	641	631	625	625	622	627	626	628	625	623	627	629	627	631	618	621	622	625	623	632	634	639	633	635	635	636	635	631	619	615	616	618	624	624	621	622	625	614	613	614	610	613	620	623	623	623	621	620	615	615	620	627	630	627	623	623	624	619	618	622	621	621	616	614	611	611	612	611	615	616	618	620	619	616	613	600	618	620	619	616	611	611	612	602	613	618	622	615	612	613	613	609	614	614	611	611	612	612	610	610	616	623	628	626	602	602	611	610	609	609	611	611	611	612	609	606	600	597	606	610	612	611	599	604	605	607	609	591	595	596	598	599	603	604	606	610	609	598	600	605	609	612	600	601	601	600	601	592	591	590	594	595	593	588	582	576	575	578	581	587	592	593	596	583	583	588	593	603	603	601	586	591	591	591	588	590	581	573	574	575	570	572	575	588	588	581	574	580	584	584	583	582	578	580	582	582	578	578	577	584	586	580	573	561	574	574	576	575	580	586	586	578	568	562	562	564	567	575	577	573	572	572	576	575	574	566	570	576	585	586	574	574	575	575	577	573	572	571	571	577	581	582	580	571	569	572	574	574	575	572	569	568	562	556	556	555	557	558	557	560	565	567	569	569	567	568	565	563	563	565	563	562	562	563	564	562	561	570	568	566	557	556	566	572	564	562	561	563	561	558	564	567	570	566	559	556	566	562	555	547	546	546	546	545	546	547	548	550	559	563	551	549	554	561	554	551	546	545	546	547	549	543	548	555	566	565	559	552	547	546	544	541	543	542	542	543	543	544	542	546	547	546	544	541	539	539	544	537	537	544	550	549	545	537	540	542	545	548	545	545	540	537	537	535	536	536	536	545	540	526	530	534	534	529	521	517	0	0	0	0	0	0	0	0
741	744	742	742	736	724	727	734	732	732	734	738	746	745	745	732	730	725	716	712	712	716	717	710	708	725	728	728	726	721	721	725	728	726	726	723	720	719	715	713	717	720	720	724	731	738	736	729	715	713	721	725	725	725	725	717	707	704	708	709	707	704	703	702	702	707	710	715	710	709	708	709	715	714	713	707	705	701	698	702	706	715	712	713	713	707	694	685	679	680	692	715	714	715	710	705	697	692	689	678	675	684	690	692	683	680	683	685	689	679	674	674	678	686	688	687	686	688	690	697	697	690	686	694	689	686	684	681	660	664	663	673	679	682	690	696	696	691	688	694	690	688	688	683	682	685	690	688	683	685	697	685	670	684	684	680	677	680	671	666	669	666	670	668	662	663	670	675	675	673	669	642	635	650	656	660	659	660	660	662	661	666	671	687	688	685	678	676	675	666	665	663	664	667	666	663	667	675	679	676	675	660	657	650	640	642	646	645	632	645	651	653	654	650	650	647	644	626	624	624	631	647	641	633	643	643	634	632	641	637	636	634	636	636	634	633	640	636	631	625	623	624	630	634	632	642	641	636	637	628	618	620	624	624	630	638	626	624	624	627	623	623	624	628	623	622	624	631	610	613	616	618	620	616	624	613	619	623	619	622	630	629	622	616	611	611	611	615	620	620	616	619	609	608	615	604	601	605	614	618	618	615	615	615	612	610	609	617	628	625	620	621	621	617	610	610	607	607	603	604	607	606	607	601	597	599	604	608	611	609	606	607	609	612	615	617	607	600	600	597	604	613	615	613	611	608	608	606	609	612	608	603	604	608	606	606	609	612	612	605	597	598	600	604	605	603	603	600	597	605	605	597	587	594	596	594	598	605	601	592	598	604	590	594	599	603	606	604	604	604	606	609	605	593	591	590	591	593	594	595	589	588	588	588	584	584	591	591	589	585	582	581	578	579	582	581	584	587	574	576	572	573	584	585	583	582	580	585	586	587	585	585	575	572	572	572	571	572	573	582	584	572	570	572	576	578	576	572	574	579	578	575	576	575	573	573	577	579	561	559	562	554	564	569	572	575	570	568	563	562	561	559	567	569	570	570	568	570	572	573	562	562	564	567	576	581	580	572	572	566	570	570	567	566	566	569	576	567	560	551	552	555	567	570	570	570	568	566	556	554	552	554	556	556	556	556	557	564	564	568	566	563	563	562	562	563	564	558	562	562	563	561	558	556	566	562	555	556	565	570	562	561	557	541	556	555	556	553	551	549	551	556	561	562	559	553	545	542	540	538	543	545	545	550	556	540	537	541	543	544	545	543	547	547	545	547	545	540	545	538	542	543	546	544	541	541	541	541	539	540	540	543	546	539	543	546	547	545	540	543	543	539	534	534	536	539	537	533	528	526	530	539	537	534	537	533	529	530	529	531	535	532	532	516	513	524	527	524	526	525	524	521	0	0	0	0	0	0	0	0
719	726	725	713	713	710	713	714	721	721	722	724	731	737	737	732	722	711	710	708	708	705	701	704	706	706	711	711	708	714	714	714	717	717	717	712	714	716	710	706	709	712	712	715	720	725	709	714	712	710	713	717	717	711	704	698	694	696	695	692	694	695	697	698	698	698	696	699	708	703	704	701	706	707	706	699	696	701	700	705	709	702	702	702	702	706	697	687	683	682	689	691	694	677	692	688	686	685	676	673	671	671	673	678	679	681	682	683	683	678	671	670	672	682	679	677	673	682	685	685	686	686	689	689	689	688	685	682	654	651	662	668	676	677	683	688	684	681	683	683	680	679	675	675	677	679	680	684	685	690	690	676	657	649	651	655	672	675	666	664	665	661	661	661	657	654	667	668	671	668	667	654	649	648	652	656	659	660	659	655	657	655	655	656	652	648	645	651	652	653	656	658	660	657	657	658	662	667	667	667	666	653	631	631	647	644	635	625	629	644	645	645	648	652	648	646	630	626	625	621	626	639	636	629	634	633	637	637	634	633	634	633	633	633	627	627	631	628	623	621	618	624	630	627	629	630	632	632	629	624	620	618	617	619	608	627	618	624	622	624	627	630	630	630	627	625	617	613	606	610	613	610	609	609	610	604	609	609	611	601	597	600	610	610	604	603	605	613	615	614	610	607	605	606	604	600	598	602	608	610	611	609	609	610	606	600	603	608	616	620	617	599	598	605	605	601	598	595	595	602	603	602	599	598	600	602	602	604	604	600	598	602	603	605	605	601	600	593	594	595	603	610	613	607	596	602	601	599	597	608	600	599	600	600	600	600	593	605	601	604	595	598	593	594	595	597	594	589	590	590	590	587	585	588	588	592	588	592	594	606	587	584	594	596	595	594	597	595	590	575	587	590	588	589	586	576	576	578	572	575	572	572	570	572	571	569	568	580	583	583	582	582	583	581	578	577	579	575	572	572	570	571	571	572	574	577	576	579	579	581	584	584	574	573	572	568	563	568	575	582	582	580	572	568	569	574	572	570	569	571	576	569	570	561	564	570	576	577	565	557	557	556	556	563	565	571	572	568	563	560	559	557	557	558	562	564	564	566	568	566	558	559	559	561	563	564	576	570	559	556	554	559	562	567	570	571	570	560	552	550	558	557	552	555	556	566	566	558	554	552	554	554	555	555	555	551	554	558	559	563	566	563	557	557	560	560	562	562	557	557	559	558	555	551	549	547	552	548	547	542	547	546	537	548	552	555	554	551	550	547	550	553	559	549	551	552	542	539	537	534	531	542	544	545	550	541	543	537	538	543	544	547	548	547	544	548	537	534	533	533	535	538	540	539	537	538	536	537	541	544	543	536	540	539	539	542	545	548	544	536	536	532	532	533	540	536	527	523	524	525	526	528	532	527	525	525	525	526	528	522	524	524	520	517	523	526	525	523	523	524	523	524	0	0	0	0	0	0	0	0
714	718	705	699	699	708	710	707	708	708	711	711	717	725	725	725	707	706	705	701	686	686	689	693	698	705	712	712	718	717	715	704	702	705	705	711	712	701	703	702	703	705	705	705	702	702	700	696	692	692	696	701	701	704	698	689	693	695	693	692	691	691	692	691	692	692	692	695	698	698	692	682	679	681	696	703	695	697	700	699	700	690	690	696	697	697	691	690	690	690	689	685	675	673	665	664	666	671	673	671	668	668	669	673	677	680	679	681	681	674	670	667	668	670	672	671	671	673	675	680	685	685	680	679	676	685	680	668	656	650	653	665	674	677	677	671	671	674	676	674	672	665	664	670	681	667	663	660	653	664	669	666	655	643	645	649	653	658	656	656	649	646	647	641	645	645	650	658	647	653	666	654	650	648	649	651	651	653	652	650	651	652	651	650	640	636	640	644	649	648	648	647	647	649	651	651	650	647	642	642	640	633	629	629	628	629	622	618	622	631	638	638	632	627	624	625	630	626	623	621	615	622	632	626	626	629	629	627	629	630	630	628	626	624	624	624	625	624	620	619	618	619	618	619	613	613	613	626	624	622	624	618	608	602	604	610	612	620	621	620	619	607	608	607	604	605	603	602	597	602	602	599	603	604	606	603	604	605	597	590	595	600	606	607	605	604	606	611	615	616	614	606	606	601	596	598	596	602	606	608	605	602	603	602	599	598	594	605	607	609	604	599	594	596	594	589	590	593	598	602	601	598	591	596	602	605	603	600	592	592	595	595	596	596	597	594	595	589	590	591	599	595	593	600	593	596	597	595	592	595	598	595	600	601	597	592	595	591	592	596	594	589	589	589	590	589	586	582	583	584	584	585	584	585	586	585	582	585	587	593	587	591	592	591	593	595	595	586	577	581	574	584	585	577	575	575	577	572	573	567	568	566	566	567	567	567	569	573	578	581	582	582	581	576	570	565	561	564	571	570	572	573	569	571	570	574	574	575	577	579	581	581	577	573	571	572	570	560	571	572	578	575	571	567	568	573	572	565	561	560	563	553	557	563	563	567	574	564	558	555	556	554	556	560	564	567	569	564	561	559	557	556	555	551	550	552	558	562	562	558	554	555	554	554	554	554	554	554	555	553	552	554	557	565	568	569	562	552	548	548	557	556	551	549	550	546	556	553	552	548	549	554	556	557	553	553	556	557	558	557	554	559	550	549	555	557	557	552	552	550	553	551	549	547	545	545	547	546	542	543	544	541	536	539	549	549	546	547	544	544	547	550	541	543	541	543	544	536	535	533	531	531	536	540	544	537	541	538	541	545	547	543	544	548	553	550	542	536	530	529	528	533	533	537	537	534	529	528	526	530	527	526	524	527	523	531	532	531	528	528	532	531	526	525	526	524	530	523	518	521	522	526	527	521	520	520	512	513	520	516	517	517	518	524	526	525	524	522	521	523	518	522	0	0	0	0	0	0	0	0
711	703	698	696	696	705	708	705	708	708	707	705	708	706	709	709	694	690	682	675	674	674	680	685	693	708	718	718	719	709	702	697	691	693	693	693	697	698	698	699	699	696	701	701	701	698	701	701	696	687	689	695	696	696	689	684	682	683	681	683	687	687	676	675	679	679	687	692	696	695	685	679	674	675	681	693	690	693	691	686	677	676	677	688	687	687	689	691	690	671	668	669	672	666	658	659	663	669	671	670	662	664	670	677	682	683	681	679	675	667	661	661	665	667	668	668	667	667	670	674	678	679	674	671	667	665	656	654	650	644	644	657	665	666	660	648	651	659	666	670	656	655	649	650	656	650	651	650	655	666	656	647	637	640	644	633	647	649	649	651	644	640	642	643	637	632	635	635	636	635	638	655	653	642	643	645	647	644	642	645	647	642	644	638	633	630	633	637	640	642	644	643	641	634	635	634	640	639	637	639	636	632	628	624	623	623	619	614	619	621	615	618	626	623	627	629	627	628	621	613	609	615	622	617	619	626	627	623	620	621	625	620	615	619	620	617	612	612	615	615	611	603	614	610	611	611	614	612	623	624	630	622	616	604	601	602	611	617	620	607	600	585	592	588	590	589	595	596	600	601	601	600	600	601	603	605	603	600	588	588	588	592	602	600	600	597	594	593	608	604	604	604	598	598	596	597	598	599	599	598	598	603	603	602	601	598	597	595	592	599	594	593	592	593	595	584	587	591	598	592	591	591	588	586	591	594	594	594	593	593	592	593	595	594	594	592	589	588	592	593	591	590	589	590	590	588	589	587	581	578	576	582	586	591	589	588	588	586	588	592	588	589	586	587	585	584	584	582	581	578	582	582	582	583	583	580	582	579	586	588	587	581	588	589	591	595	584	578	577	571	573	582	568	572	576	576	572	568	562	564	562	564	566	567	568	570	571	573	574	578	579	578	578	576	572	570	565	569	571	574	572	567	565	567	570	570	577	577	572	577	579	577	575	572	572	572	568	555	553	561	569	573	570	569	572	571	564	561	559	553	551	554	568	560	553	552	558	551	553	556	552	553	553	556	559	563	564	562	558	556	556	554	553	548	542	543	548	559	561	554	549	549	549	549	552	554	554	551	542	537	538	543	550	558	559	559	552	547	546	545	540	537	527	539	546	543	542	540	543	544	544	553	547	542	547	551	556	550	547	541	534	538	539	552	552	552	547	537	544	536	547	549	545	545	543	544	547	546	532	532	527	537	541	541	545	540	540	542	543	537	536	539	546	545	539	546	541	536	531	532	535	536	538	538	536	546	548	547	546	544	537	532	524	529	528	537	534	531	527	526	525	528	530	529	528	526	522	522	516	526	524	517	521	521	525	527	523	527	527	522	528	525	518	516	522	513	519	522	515	513	515	519	518	516	511	517	511	512	511	511	514	514	515	524	526	525	520	516	520	519	522	520	0	0	0	0	0	0	0	0
705	704	691	693	693	702	711	713	712	712	708	699	695	695	697	697	688	680	666	667	665	665	674	681	698	708	712	706	706	703	693	682	678	672	689	689	693	698	699	696	694	696	696	696	684	686	694	699	696	693	687	685	684	684	679	673	677	675	675	673	659	664	667	663	667	679	679	686	693	697	694	690	688	688	681	676	670	666	666	670	674	673	666	676	683	684	677	675	664	663	655	658	663	668	658	662	668	672	665	656	655	666	671	676	675	671	666	664	663	661	656	657	661	662	664	663	661	655	659	661	655	650	649	652	653	646	646	645	647	648	653	659	661	655	648	651	662	659	654	649	647	645	640	636	635	636	641	646	664	661	646	632	621	624	631	643	639	640	639	641	642	640	642	642	641	633	636	634	631	631	630	628	645	632	635	641	641	636	637	642	640	638	635	633	626	624	630	637	638	639	635	629	636	635	633	632	628	632	633	633	633	630	627	621	615	618	614	613	607	604	603	616	625	622	625	627	619	618	612	609	607	607	612	611	610	610	616	614	608	611	612	609	603	601	606	605	606	603	607	604	602	603	604	612	610	610	608	606	614	618	621	614	621	612	604	602	609	617	608	602	589	588	600	602	600	597	593	596	599	601	601	599	597	595	589	591	592	591	585	584	586	587	595	592	593	595	585	586	584	587	593	595	596	596	591	589	589	589	592	589	592	600	601	601	597	602	598	590	596	592	589	590	595	594	587	585	584	583	590	592	589	589	589	585	586	589	591	589	589	589	591	591	593	592	588	590	592	590	591	591	589	589	590	585	584	580	582	580	580	578	578	580	587	586	584	583	581	583	584	587	585	581	579	577	582	583	583	582	580	577	575	573	573	578	583	579	578	575	573	579	578	578	576	583	583	592	584	576	574	568	561	556	562	560	563	566	567	565	563	557	563	566	567	568	564	570	571	571	573	570	571	576	571	570	569	570	570	569	569	571	570	566	562	563	567	568	569	571	569	571	572	566	566	568	567	566	559	560	560	551	559	564	561	561	559	560	560	556	553	549	551	558	558	560	560	559	554	551	550	548	547	545	543	547	540	542	547	544	537	539	552	552	548	539	534	547	552	554	545	545	544	544	546	547	550	554	553	551	544	540	543	546	549	547	547	547	542	540	537	537	531	529	526	538	545	539	537	547	548	542	534	532	538	545	550	547	548	546	543	539	533	541	543	544	541	540	530	531	534	535	537	544	546	550	553	544	541	541	536	530	528	526	533	533	539	535	535	534	537	534	533	548	547	547	540	537	537	537	531	529	530	534	533	532	539	539	531	529	529	528	526	528	525	524	520	521	530	527	522	523	520	520	523	526	525	523	518	516	514	509	515	515	521	520	519	522	520	517	517	516	513	513	518	513	507	508	511	514	511	507	509	510	510	508	516	510	512	511	512	510	510	511	519	527	526	525	519	514	515	518	521	517	0	0	0	0	0	0	0	0
688	692	689	683	683	697	707	711	710	704	704	681	681	682	686	686	678	674	665	665	664	664	673	683	701	694	693	686	686	678	678	670	665	681	684	684	684	689	689	688	690	685	683	684	667	659	663	668	675	684	684	683	678	678	672	667	669	664	660	657	656	657	658	659	659	671	671	667	684	689	690	689	687	685	677	671	667	662	662	666	670	670	667	666	665	656	656	662	662	659	651	653	656	659	670	671	669	667	661	660	663	663	659	667	668	663	658	659	659	658	655	650	650	658	658	658	650	646	649	644	639	644	648	651	652	647	652	648	649	647	651	652	647	644	643	650	654	651	646	642	637	627	630	624	623	620	629	638	642	645	640	633	631	630	632	644	637	638	641	639	639	640	641	642	641	642	638	634	633	628	626	625	630	622	619	619	621	620	619	618	616	623	632	623	620	621	624	629	629	629	629	636	632	631	624	618	626	627	630	629	631	629	623	612	606	615	614	610	605	598	597	605	610	618	620	619	618	617	610	608	607	602	600	604	603	604	611	609	603	611	608	602	600	597	599	605	603	603	603	603	606	603	605	601	605	601	601	603	605	612	601	611	616	616	614	600	600	600	604	595	583	587	594	597	597	596	596	593	596	600	597	591	586	585	585	588	588	587	586	582	582	583	583	583	584	584	588	585	584	584	584	580	583	587	600	598	589	586	585	585	585	590	592	594	599	599	596	586	586	584	585	588	590	588	586	585	586	585	585	586	592	588	586	585	585	582	583	582	580	586	586	586	588	587	586	585	588	586	584	584	588	590	585	582	576	577	578	579	577	577	580	585	585	585	579	581	578	575	576	584	584	580	578	576	581	578	579	580	579	570	571	575	575	578	580	577	576	575	570	576	576	575	574	575	583	576	568	565	559	565	561	555	560	557	557	561	563	560	560	558	569	568	566	566	564	559	568	573	565	565	566	568	567	567	566	567	567	567	568	569	569	567	560	550	551	558	565	566	566	565	563	562	559	559	560	558	556	562	559	559	557	549	554	556	549	556	558	557	547	544	549	536	555	559	561	560	554	552	550	547	543	543	545	545	542	535	537	536	539	540	539	548	543	537	536	536	543	543	541	541	541	545	546	551	552	554	554	551	545	544	547	548	550	546	543	542	542	536	536	536	531	531	531	533	531	535	540	542	537	531	530	531	536	538	542	545	543	541	540	534	527	537	538	537	536	534	528	526	530	532	530	527	536	528	538	527	528	543	538	532	528	527	528	539	542	541	540	537	528	527	536	536	540	545	536	533	533	533	532	528	526	531	531	531	537	531	527	526	527	522	522	522	520	519	518	529	523	521	518	518	517	517	519	521	525	525	516	513	510	508	508	511	523	522	515	515	512	512	511	512	511	510	509	509	503	506	505	503	508	503	498	503	505	509	511	509	505	505	511	509	509	508	510	518	519	520	520	515	513	510	509	512	0	0	0	0	0	0	0	0
683	683	676	681	691	691	699	694	687	673	673	676	672	676	680	680	678	678	672	665	664	665	665	666	686	685	679	674	674	670	664	662	668	676	677	677	678	677	674	672	673	676	670	657	657	656	658	667	671	671	677	678	673	664	664	661	665	660	656	656	658	657	654	648	654	659	659	660	662	666	677	685	682	677	671	666	657	651	650	656	664	662	659	653	651	657	661	661	663	652	649	651	655	659	662	662	660	656	654	654	654	652	650	653	659	659	654	654	653	652	646	647	643	643	649	651	638	640	640	633	637	642	648	651	650	653	657	655	643	639	639	639	637	637	639	642	638	642	645	639	628	628	625	631	625	623	626	630	634	635	636	633	633	634	633	633	636	639	639	641	640	634	634	637	642	642	640	632	626	623	626	622	616	607	609	615	614	611	615	612	610	614	616	617	619	622	626	628	607	604	614	615	617	623	618	613	612	610	605	606	616	619	610	606	607	609	614	609	602	594	592	601	609	612	614	614	614	613	611	605	601	603	594	593	592	599	605	599	608	605	603	598	598	595	591	595	595	602	602	601	600	601	601	596	594	600	602	602	601	600	598	610	606	612	601	602	601	602	599	588	579	580	582	585	589	592	592	592	593	594	591	584	581	578	581	583	578	580	584	581	581	578	575	576	578	580	582	582	583	584	579	577	574	573	572	573	576	581	584	584	583	583	585	572	577	582	584	586	579	580	583	577	575	586	586	586	589	585	583	586	590	587	584	576	570	580	576	573	573	574	573	584	585	587	587	582	582	581	578	581	583	583	578	569	566	566	569	578	577	576	578	584	584	583	580	578	576	573	572	574	574	572	569	571	572	575	571	569	569	568	571	574	573	572	572	570	569	573	569	569	571	569	566	558	552	560	562	563	553	549	550	555	558	559	559	561	564	562	556	554	562	567	565	563	561	561	557	556	554	557	560	561	559	559	558	562	564	566	564	569	567	564	551	547	549	552	552	555	560	562	561	557	553	549	557	557	556	560	558	557	554	553	548	538	543	550	552	548	546	545	537	544	544	533	539	547	547	549	548	539	540	541	543	541	540	527	527	534	533	537	544	544	537	538	535	536	537	539	538	539	540	544	546	552	550	552	550	546	543	545	546	554	540	550	547	541	537	533	533	534	533	537	536	533	529	535	535	539	536	528	527	535	535	535	541	539	540	538	535	531	518	525	531	532	530	528	524	523	522	522	528	525	533	524	532	524	523	525	523	523	529	527	529	530	540	544	542	532	525	523	524	527	533	529	525	525	528	527	526	524	523	522	523	527	528	528	523	523	523	521	521	521	512	518	517	526	523	519	519	513	512	508	508	517	521	523	514	512	510	509	507	510	523	515	513	509	509	509	507	507	508	509	507	505	502	502	499	497	494	492	491	481	495	504	498	503	501	499	499	510	510	511	509	511	511	517	507	505	504	505	499	499	0	0	0	0	0	0	0	0
681	681	672	669	673	673	678	681	682	668	668	666	670	673	677	678	678	673	668	664	660	655	655	670	676	676	673	670	670	665	661	663	664	662	670	673	673	671	660	653	655	658	659	659	659	659	658	661	660	663	669	673	668	658	658	661	658	655	652	653	654	655	653	650	652	639	640	640	641	657	659	662	677	669	664	655	646	644	647	651	661	652	651	655	651	648	649	649	649	649	648	649	653	657	656	652	652	650	650	652	649	644	637	632	627	633	649	648	645	642	643	644	641	642	642	640	639	635	632	628	636	641	643	646	649	652	655	650	637	634	633	634	634	632	632	629	632	640	641	631	625	624	626	627	629	621	623	627	631	631	633	634	635	637	632	632	635	638	640	641	635	631	628	630	636	637	630	625	624	618	624	610	605	606	608	604	602	608	605	602	606	613	616	618	622	610	607	606	606	609	614	607	610	607	601	600	599	594	595	603	608	609	608	604	607	609	614	606	597	592	588	592	598	599	601	605	603	600	596	602	607	606	598	593	591	603	606	594	591	592	593	592	592	592	591	589	592	587	592	596	596	602	590	590	593	597	595	588	583	595	595	596	596	590	593	594	596	594	596	576	575	574	573	579	583	584	590	594	597	588	577	573	564	559	562	562	576	581	581	583	579	574	573	570	575	578	572	569	576	578	579	577	574	573	571	572	573	569	574	575	575	574	568	569	570	570	572	572	571	576	572	574	577	576	585	585	581	583	578	579	581	582	580	575	570	568	566	566	572	566	566	570	585	587	585	581	576	575	571	569	574	565	565	563	554	562	564	565	565	564	562	568	571	572	576	576	573	571	567	568	577	573	569	565	565	569	571	567	565	564	570	574	570	569	564	562	555	551	547	558	562	565	561	552	553	551	553	552	547	546	549	554	556	558	557	563	562	556	555	553	552	562	562	562	561	561	556	556	554	555	558	555	560	557	556	555	562	561	560	557	555	551	546	547	549	547	549	550	557	557	548	548	542	544	551	551	549	553	555	554	546	541	538	539	545	543	550	551	546	540	542	542	534	530	537	538	539	538	537	537	537	537	535	532	527	526	526	528	529	537	541	544	540	538	536	533	533	534	534	534	538	543	542	542	544	546	546	542	538	534	533	534	540	536	541	531	534	528	528	529	532	533	530	525	529	532	531	532	531	530	534	535	534	529	525	538	538	536	535	531	510	507	511	516	519	524	523	523	519	517	523	525	527	523	523	524	520	520	522	516	516	524	525	527	527	537	537	524	523	522	521	523	524	525	527	527	527	526	524	521	521	522	522	523	523	524	522	522	521	518	518	511	505	509	514	510	511	519	520	519	511	507	505	501	508	507	508	507	507	507	507	510	509	507	504	505	505	498	496	504	507	504	503	503	498	494	498	491	492	492	497	497	490	486	500	498	498	498	499	499	497	499	499	504	508	508	499	499	503	502	501	500	500	0	0	0	0	0	0	0
673	676	664	665	669	669	674	679	671	668	668	670	670	677	679	678	671	666	661	655	651	654	654	656	669	672	671	665	662	662	663	663	659	658	665	671	671	670	664	657	655	656	660	663	663	667	658	654	652	656	661	663	660	651	651	650	649	642	643	646	649	649	648	650	648	639	639	639	639	644	651	659	649	647	643	642	642	645	647	652	635	628	633	642	641	638	638	639	639	640	643	647	649	640	640	646	649	650	646	646	642	637	632	629	627	627	626	625	629	630	634	639	640	638	642	644	640	640	642	634	635	640	642	642	643	647	641	636	632	627	625	623	624	628	622	628	631	629	623	618	618	620	619	621	621	615	620	622	624	629	630	630	635	639	626	622	623	627	632	637	637	627	623	623	629	614	613	611	612	620	625	610	609	599	598	606	599	598	599	601	605	609	610	614	609	606	608	609	609	607	612	607	606	605	600	599	597	595	594	594	593	596	609	609	607	594	597	605	600	590	596	592	595	595	596	600	600	598	600	602	601	602	598	596	593	591	591	592	591	589	588	588	586	590	589	589	583	576	574	576	578	581	585	587	594	589	570	566	570	586	588	585	583	585	582	592	594	593	592	574	573	569	566	566	583	584	583	588	591	591	583	578	573	569	564	575	577	580	579	576	571	568	563	557	563	569	576	573	574	572	570	572	574	574	572	569	567	568	568	572	570	568	567	570	568	571	569	561	558	567	569	572	574	578	584	582	576	571	574	570	572	577	578	578	577	569	564	567	569	565	564	565	567	564	569	573	574	572	567	559	551	555	558	564	554	553	560	563	563	562	553	563	568	568	570	567	566	560	560	570	572	573	568	565	571	570	562	562	560	556	558	569	564	557	555	552	556	554	553	548	553	561	558	553	547	546	548	548	547	546	550	554	557	555	555	561	558	555	546	541	552	549	550	554	556	560	554	556	550	545	553	550	549	547	552	554	559	562	559	553	551	544	542	545	547	547	544	545	551	549	544	542	541	542	544	543	546	540	535	543	541	538	537	538	544	537	536	537	537	536	540	536	531	530	532	534	534	533	534	537	534	534	535	535	528	531	529	528	527	535	540	543	538	536	536	534	531	532	533	533	535	538	540	539	540	541	535	532	523	529	532	533	535	534	533	531	521	518	527	529	530	533	529	522	524	528	528	529	530	532	535	534	526	529	524	523	520	521	529	528	520	519	520	526	526	523	518	516	518	518	520	527	528	521	514	510	513	523	521	513	506	509	517	518	520	523	525	522	513	513	514	512	513	514	519	523	521	518	513	514	513	511	518	517	515	516	519	517	515	514	510	509	505	504	507	508	508	507	512	512	508	505	504	504	504	504	507	507	509	510	508	511	510	508	500	500	494	494	492	498	498	498	496	501	502	490	489	487	487	491	494	489	488	486	493	494	493	491	483	483	483	488	489	493	502	503	499	500	496	500	501	500	500	0	0	0	0	0	0	0
660	663	661	663	664	664	669	669	665	671	670	670	670	672	673	671	659	656	649	654	657	655	655	651	659	664	666	666	660	660	657	653	646	652	651	658	658	660	653	652	651	649	648	653	664	664	651	645	646	642	636	651	651	645	643	643	640	633	629	637	641	642	644	650	648	642	641	641	646	661	663	652	638	628	624	630	632	636	641	632	629	630	633	636	638	636	636	637	636	636	636	628	623	628	633	634	638	649	645	641	632	630	630	626	625	625	626	625	628	625	630	634	638	638	638	637	627	624	621	619	622	625	630	631	631	633	631	635	632	628	623	620	621	622	621	625	630	629	621	613	612	615	612	613	612	610	611	612	607	608	610	614	616	615	605	609	613	614	614	625	627	623	615	602	597	596	600	602	599	600	614	606	606	601	605	599	596	601	600	596	602	605	604	594	593	598	610	610	609	606	608	610	609	605	601	599	597	594	590	583	596	600	603	602	590	590	585	598	604	601	594	593	588	589	590	593	598	600	600	602	603	599	587	586	594	586	588	589	588	587	581	579	579	587	592	586	578	573	583	580	583	580	585	579	590	575	571	568	567	566	583	582	571	579	586	587	588	590	576	567	572	573	573	581	579	573	571	580	584	584	578	574	573	574	577	570	574	578	577	573	569	562	555	556	558	566	569	566	563	561	565	568	571	567	567	566	563	562	566	566	567	563	561	568	567	564	553	556	555	561	563	568	570	572	569	582	574	568	568	563	568	577	578	577	572	565	561	563	561	562	561	559	556	562	568	574	574	572	567	557	552	550	552	553	551	551	556	560	559	554	552	554	554	566	566	565	562	559	554	558	564	565	560	557	556	556	558	557	555	551	550	556	555	553	553	556	553	554	551	559	559	555	558	552	545	544	546	548	547	547	552	553	550	550	550	558	553	545	541	541	537	548	548	549	549	550	549	545	543	532	545	545	543	542	553	552	554	547	546	543	541	535	539	539	539	539	537	540	548	548	545	539	540	542	542	535	531	530	529	536	537	536	534	532	533	532	530	528	531	536	536	531	529	529	532	534	534	539	539	530	531	532	530	535	536	529	534	530	528	523	522	533	532	534	533	530	531	527	530	534	533	534	534	537	532	533	531	527	522	522	529	533	533	532	530	525	522	521	520	521	525	528	528	522	526	527	527	526	523	521	517	520	528	524	522	519	517	517	514	517	516	518	518	520	522	519	517	513	515	516	514	514	517	513	511	509	512	514	517	507	504	502	508	512	514	517	518	514	508	507	507	506	504	506	517	518	519	514	512	507	509	514	508	510	509	505	506	511	510	511	510	507	504	503	506	507	507	508	512	512	509	506	504	504	503	504	507	509	508	507	505	506	505	500	500	496	493	494	500	502	504	507	498	496	494	486	484	484	481	488	486	485	490	486	485	485	487	491	491	489	490	487	488	489	489	498	500	499	496	495	499	500	500	0	0	0	0	0	0	0
648	656	660	657	657	657	655	653	659	671	670	670	672	671	667	659	649	649	655	651	648	645	644	644	645	652	665	664	653	653	647	644	639	640	650	653	647	647	644	647	648	649	633	628	626	626	628	632	638	641	633	640	641	640	632	632	629	633	635	626	626	631	641	649	647	647	658	662	662	661	654	645	637	634	631	630	635	631	635	634	631	628	631	636	639	637	632	631	631	631	629	627	620	622	627	633	637	640	645	640	635	632	633	631	623	624	625	629	626	623	624	627	628	625	627	627	624	626	624	620	614	609	609	610	610	613	616	623	625	629	625	622	620	620	618	615	614	613	613	608	610	611	610	610	610	610	608	605	603	601	601	603	606	604	596	592	591	596	610	610	609	608	600	593	591	589	585	581	587	595	598	602	601	594	594	598	594	586	590	594	595	598	599	595	594	592	601	603	609	597	590	599	602	604	589	603	600	588	578	578	585	594	596	589	586	587	591	591	598	596	590	585	587	588	584	585	593	587	594	594	590	589	584	581	578	576	583	586	582	574	573	575	575	574	572	576	579	580	580	579	577	578	579	578	575	569	570	569	565	565	570	570	572	578	584	577	575	568	564	566	567	568	566	563	570	570	568	568	578	579	575	569	568	571	574	562	553	556	554	554	552	552	553	556	558	562	565	561	557	558	561	562	565	564	562	562	554	558	561	556	556	555	553	555	560	562	556	553	553	554	563	563	561	557	562	556	549	562	562	564	566	567	569	570	569	560	561	563	560	558	557	556	554	561	569	570	574	573	568	557	552	550	551	549	548	562	563	553	548	538	540	551	563	560	559	562	562	552	551	551	555	558	556	548	546	545	546	554	555	551	550	557	554	556	554	553	551	551	551	550	556	559	554	548	545	542	545	547	547	546	550	553	550	542	546	540	545	545	543	533	534	539	538	542	543	538	535	533	531	534	538	543	537	542	548	542	545	544	540	539	534	538	540	540	537	538	539	537	543	542	532	531	531	525	532	533	530	529	529	536	535	530	527	527	528	522	524	522	523	522	523	523	524	529	539	537	542	542	537	536	530	528	532	534	534	534	532	530	528	522	521	526	530	527	524	524	524	526	526	530	529	521	516	518	518	519	518	517	516	519	524	530	531	526	498	501	503	509	511	506	511	521	524	519	522	522	518	513	517	519	511	511	512	512	514	515	513	508	510	512	510	508	508	509	499	513	512	513	513	514	514	513	510	507	506	506	512	505	509	510	501	500	502	507	514	517	520	505	504	503	502	502	500	505	506	516	518	512	508	507	506	503	504	505	504	501	502	505	505	506	510	508	502	501	503	506	506	506	498	501	502	504	503	502	502	500	497	498	499	501	499	498	496	496	499	500	496	501	500	501	503	503	493	490	480	482	481	469	472	477	480	479	484	486	486	485	487	490	490	491	490	488	487	486	486	488	494	490	494	494	497	497	498	0	0	0	0	0	0	0
653	653	657	656	653	647	647	647	659	667	665	665	665	662	655	649	654	654	640	627	628	645	650	650	654	659	659	653	647	647	640	641	639	644	643	644	642	642	642	643	641	640	627	627	625	625	626	632	635	643	638	630	622	613	606	606	609	619	627	628	623	625	634	637	642	648	644	649	649	650	648	643	634	630	626	629	619	624	625	626	621	623	622	631	636	633	630	627	627	624	624	617	614	617	612	617	619	636	637	634	631	628	627	626	627	623	625	630	625	621	617	612	610	615	619	622	619	620	618	616	614	610	609	609	605	606	612	611	611	620	623	622	622	618	611	604	607	610	608	605	604	608	609	609	611	610	607	606	601	594	593	596	597	597	593	589	589	591	592	602	605	602	597	595	588	586	583	583	588	595	597	593	591	592	591	582	580	589	590	591	592	596	592	587	592	594	595	605	600	588	577	581	568	570	572	575	569	572	576	578	582	584	585	583	583	584	586	593	591	592	587	583	580	578	573	572	575	578	579	581	579	581	580	569	561	572	577	570	568	569	573	574	573	573	581	573	577	577	578	574	575	578	579	574	572	568	564	563	566	567	571	573	573	577	581	575	563	561	560	564	565	564	566	562	562	566	567	566	564	563	569	565	566	560	563	554	554	554	553	554	550	549	551	556	561	562	553	552	552	554	558	560	561	558	558	556	555	554	553	551	553	553	552	553	551	551	549	547	550	554	560	560	560	557	556	543	545	548	552	555	556	555	556	557	554	553	556	558	556	553	546	549	549	555	563	564	563	570	547	542	548	549	549	550	551	548	560	559	552	543	543	548	552	552	547	547	541	536	539	543	543	546	548	546	543	543	543	541	541	548	531	538	544	546	551	551	548	549	549	546	548	552	552	547	542	541	540	545	546	538	539	541	537	537	533	526	526	539	533	530	527	535	537	533	535	536	538	537	531	531	537	538	538	544	547	540	542	539	538	536	526	530	534	543	542	542	542	541	541	541	523	523	522	529	534	532	531	530	529	533	534	526	525	525	524	517	518	515	526	529	532	526	526	533	532	531	529	530	532	534	526	527	528	528	528	529	521	521	519	521	520	521	524	522	514	512	517	521	527	505	510	512	511	509	507	501	503	502	507	511	515	517	522	513	497	497	501	508	509	505	506	510	510	513	512	506	504	501	508	512	512	504	501	501	505	510	508	505	507	509	509	510	509	498	494	503	507	501	510	514	515	508	507	505	502	506	503	502	502	502	499	499	501	502	507	507	506	502	502	501	498	499	500	502	507	512	514	511	508	506	501	503	504	504	502	497	498	503	503	502	504	501	499	497	498	497	500	497	496	495	495	494	494	496	497	494	492	492	494	498	501	502	502	498	499	500	498	501	500	499	493	499	488	481	483	481	478	476	476	477	478	480	481	486	487	486	483	478	478	481	489	488	487	484	485	483	484	489	488	489	486	486	487	0	0	0	0	0	0	0
650	650	655	652	644	643	643	653	644	642	649	649	654	658	660	659	642	642	634	632	634	640	641	641	639	638	636	638	640	640	640	630	625	628	635	643	642	642	640	638	636	629	624	625	628	627	627	631	636	635	627	625	625	620	607	618	618	623	629	629	624	623	626	621	623	631	638	643	646	646	642	640	631	627	624	612	612	615	614	618	620	618	616	618	628	624	623	620	617	614	614	610	604	606	598	606	610	617	626	626	625	622	621	618	611	616	614	604	600	610	610	608	612	609	613	614	613	608	615	614	614	613	612	607	601	601	607	605	604	606	614	615	609	604	606	601	597	597	607	603	601	602	603	603	603	604	605	601	593	594	589	591	596	592	593	592	586	585	585	589	598	600	600	597	593	589	588	585	590	592	592	592	591	587	579	581	586	583	584	588	592	593	584	581	581	592	595	601	583	579	574	579	577	578	575	573	573	566	567	569	570	580	581	579	577	582	579	578	574	575	577	579	579	577	572	568	566	565	569	573	573	572	567	561	560	558	565	569	572	572	571	572	561	552	563	562	560	561	571	572	574	579	579	574	567	561	559	558	566	569	571	570	569	566	568	563	564	566	563	563	562	562	559	560	560	561	564	562	562	561	561	562	554	553	556	557	554	551	550	549	551	543	544	558	560	554	553	555	558	559	561	559	556	557	550	551	550	553	552	549	546	554	558	556	554	549	545	548	550	551	552	558	549	544	540	544	542	544	550	552	553	559	567	566	560	557	553	551	546	546	542	542	545	544	545	538	546	544	541	532	535	539	545	544	544	546	547	550	547	535	535	538	543	541	542	540	542	539	536	540	541	543	543	546	543	539	540	540	540	542	534	532	530	534	550	547	543	544	544	544	545	547	546	541	541	542	537	535	530	537	535	534	532	533	537	527	526	522	529	531	530	534	532	532	530	536	535	534	530	530	533	533	538	542	543	542	536	535	535	536	532	531	527	532	531	536	535	533	528	525	519	522	522	525	533	530	526	519	525	523	518	515	514	515	514	517	515	520	527	532	525	520	519	522	521	515	514	518	522	524	523	518	524	521	518	521	521	521	519	517	516	517	519	513	513	515	514	514	510	503	502	507	507	507	505	505	504	506	505	505	508	512	514	508	503	498	499	498	502	504	506	509	509	512	510	509	500	505	508	510	509	508	505	502	502	502	509	509	505	506	506	511	501	497	496	493	499	499	500	501	504	506	505	504	503	505	501	495	498	497	493	497	500	500	499	500	502	501	500	498	498	496	493	492	497	500	502	495	495	496	496	502	503	500	500	500	496	491	499	499	497	497	495	495	495	502	502	497	495	492	491	490	490	494	494	493	491	490	490	497	503	502	502	495	496	489	491	484	489	493	487	486	484	481	482	478	474	474	475	476	479	481	481	482	486	480	473	473	478	480	487	485	488	484	482	480	480	475	484	485	485	485	482	0	0	0	0	0	0	0
651	651	646	643	638	638	638	631	633	640	635	638	638	641	645	646	642	636	630	628	630	630	626	626	622	625	626	625	624	625	625	620	618	622	626	627	633	633	636	635	623	620	622	618	623	628	628	630	630	625	615	615	618	618	617	620	620	621	620	614	618	617	614	611	614	619	624	637	638	638	633	631	635	624	608	607	608	608	610	612	616	614	612	614	619	615	613	608	610	608	600	600	592	587	595	607	612	612	612	611	604	609	610	610	604	606	605	601	601	607	616	615	612	610	609	608	606	603	603	609	612	614	613	608	599	605	595	583	586	592	594	592	593	600	605	601	597	590	591	592	596	600	602	601	601	596	595	592	595	595	590	597	590	591	591	588	583	582	582	587	594	595	596	593	587	584	583	585	587	577	587	586	582	583	580	581	580	579	575	571	572	576	580	577	576	581	593	576	574	569	569	579	578	577	568	569	562	560	562	566	567	568	573	565	573	573	572	566	565	564	566	570	573	574	571	567	564	565	570	571	570	566	560	558	555	554	559	565	565	564	554	547	548	559	560	559	553	551	553	567	569	570	573	570	562	557	552	553	555	560	559	556	552	555	560	560	564	564	563	563	561	558	558	556	556	560	561	557	555	560	561	557	550	549	547	547	556	550	547	545	545	535	537	552	549	552	552	554	541	541	550	550	545	544	544	545	547	547	545	546	546	547	554	556	552	545	543	542	547	544	547	542	543	541	538	538	537	539	549	551	547	547	545	546	552	555	547	545	544	546	544	534	534	535	538	542	544	533	528	526	528	541	540	541	541	543	546	548	546	539	531	535	536	537	540	540	540	535	536	537	537	539	540	537	537	538	539	529	530	535	536	532	529	518	533	538	538	539	533	537	534	538	528	528	532	532	532	533	536	532	533	533	533	532	529	526	526	520	518	522	531	531	528	525	528	533	534	533	531	530	527	528	526	539	541	535	532	528	527	524	525	525	524	529	533	536	536	534	529	522	519	516	514	525	523	521	518	519	515	514	514	512	512	517	516	515	516	523	527	525	521	516	515	514	520	516	512	507	512	510	516	513	517	517	514	518	521	521	517	517	514	513	512	506	509	513	513	513	508	504	503	503	502	510	507	504	506	509	505	501	503	507	510	510	501	496	496	497	498	502	505	507	510	515	513	508	504	502	503	507	505	507	505	497	498	503	505	510	504	501	509	505	508	499	498	497	492	491	492	491	490	496	505	503	503	502	500	498	496	494	496	498	504	501	497	498	502	500	496	495	495	494	493	492	498	499	500	492	491	492	496	492	485	485	490	493	489	489	489	490	494	496	494	491	499	495	497	497	494	489	488	487	488	491	494	493	490	485	485	490	503	503	497	487	483	475	482	483	483	487	484	484	481	483	480	478	473	471	471	474	478	479	482	483	480	475	469	469	467	478	481	483	484	483	472	468	468	472	481	481	481	483	480	0	0	0	0	0	0	0
639	639	641	636	625	623	623	623	627	631	624	624	624	629	634	637	636	629	620	619	620	619	615	619	619	616	619	619	609	614	614	615	618	625	630	627	628	629	629	627	619	615	615	618	622	622	622	622	617	609	611	614	617	617	617	619	619	618	617	613	610	609	606	603	604	606	622	629	629	629	623	624	623	614	611	607	605	601	608	613	614	615	610	611	610	611	609	599	603	603	605	595	595	588	591	600	599	604	592	597	597	617	607	606	602	598	599	600	601	602	609	611	609	609	605	602	597	595	594	595	598	605	609	606	601	598	586	582	585	588	587	585	587	595	603	600	597	592	584	587	593	598	599	602	600	603	600	593	595	593	595	585	586	587	589	583	581	580	582	588	587	587	585	585	582	568	564	568	567	567	573	576	575	575	579	582	579	577	569	562	566	572	574	568	570	574	573	562	559	569	568	562	561	560	561	558	554	557	557	560	563	568	567	560	560	562	570	565	568	568	560	560	567	568	573	568	564	561	566	566	564	560	559	556	554	552	555	551	550	552	551	545	546	556	557	558	553	551	554	553	554	558	561	562	556	554	549	550	550	550	553	550	550	552	558	559	560	563	562	561	561	557	552	552	551	553	553	553	555	555	557	553	546	543	543	539	544	543	544	542	542	541	538	547	544	549	548	539	539	541	548	548	545	547	543	542	540	541	543	545	544	544	546	550	549	544	544	543	542	542	535	538	540	540	538	534	533	534	540	540	539	540	542	541	533	542	544	541	539	534	527	525	525	526	528	532	533	532	530	529	528	542	538	537	539	542	545	546	540	535	531	530	535	533	532	533	533	535	535	534	536	535	529	525	522	523	527	526	530	533	530	526	521	522	520	530	533	528	526	527	530	531	528	522	527	531	532	533	528	524	528	528	530	525	525	527	523	514	517	518	519	519	525	525	527	528	533	532	531	520	518	516	526	528	529	527	523	521	519	517	519	523	523	519	525	533	537	536	531	524	516	517	524	527	524	522	519	517	511	511	506	508	505	517	518	518	520	522	524	523	522	517	514	511	516	513	512	507	507	510	504	509	514	518	515	515	515	517	521	520	509	503	504	502	504	507	511	510	506	501	501	501	507	510	506	506	506	506	505	499	500	504	508	508	504	499	497	495	496	499	505	506	513	517	511	507	503	498	503	503	502	505	502	497	496	497	499	501	502	499	501	504	507	507	497	497	493	493	490	491	495	491	495	501	499	494	491	493	492	489	492	495	495	493	494	496	501	496	491	493	492	492	492	494	494	489	486	488	490	490	488	486	481	482	482	493	490	490	489	490	494	493	492	490	489	490	496	496	487	488	487	488	487	487	492	491	487	484	484	497	497	489	477	475	472	473	477	478	478	484	482	482	482	485	488	492	472	468	467	471	475	480	481	484	479	470	470	468	467	466	467	472	476	480	471	466	466	467	477	479	479	480	481	0	0	0	0	0	0	0
632	631	631	614	617	620	619	619	624	622	616	617	617	622	625	631	629	605	605	602	610	606	610	611	611	615	616	617	610	613	614	614	623	629	630	629	626	624	624	617	617	612	612	614	615	614	609	609	608	607	610	614	616	617	617	617	614	614	612	610	607	605	605	603	601	610	613	618	616	616	616	613	610	609	610	601	602	604	604	608	611	612	610	607	605	606	606	596	589	593	594	590	590	587	591	597	599	602	591	599	595	594	611	602	599	597	596	595	597	597	606	607	608	601	598	594	593	593	596	598	601	601	599	590	588	583	583	585	587	591	592	584	583	583	590	592	594	592	586	588	590	594	586	581	584	583	582	595	594	594	594	585	584	575	579	586	583	582	580	580	574	573	580	578	568	565	572	570	567	566	568	569	569	569	580	577	575	570	567	562	563	565	569	563	564	563	562	557	560	558	567	569	561	558	557	554	552	553	560	568	568	569	561	559	561	563	564	563	557	560	557	554	548	553	554	549	555	558	560	561	558	555	556	553	550	552	553	552	552	550	547	546	548	549	549	553	554	554	552	556	556	552	553	548	548	551	551	550	550	551	552	547	546	545	539	540	552	555	555	561	558	556	550	547	547	549	552	552	550	552	551	539	537	537	543	537	536	542	545	544	538	542	546	547	541	541	536	536	539	542	541	542	540	537	535	534	540	542	540	542	542	544	544	543	544	545	545	544	542	532	530	532	538	532	531	533	533	528	522	530	534	530	535	535	532	534	541	542	538	532	526	525	526	524	527	528	526	528	528	527	527	528	533	531	530	530	533	535	535	531	528	529	534	534	532	533	533	534	532	530	528	533	523	521	521	523	525	524	526	530	528	524	520	517	516	527	525	524	524	523	521	525	520	513	520	521	519	520	518	519	519	520	517	516	516	516	508	512	516	515	517	513	515	519	522	522	516	517	517	514	510	513	514	511	511	510	511	515	520	517	521	515	515	519	523	533	532	532	531	520	512	513	522	517	518	520	521	519	510	511	512	510	506	504	512	514	518	521	516	512	516	512	510	510	515	508	508	511	511	511	510	508	514	514	512	511	512	518	517	515	493	498	502	502	501	505	508	508	503	497	502	502	512	506	504	505	506	505	502	496	498	501	503	503	502	499	497	495	494	496	500	505	503	499	499	501	500	498	499	502	503	504	499	501	495	496	497	500	500	498	500	502	506	507	503	496	493	492	492	492	493	493	493	489	489	487	489	492	488	486	481	478	476	477	479	484	491	477	478	483	482	487	485	484	488	488	489	488	490	487	484	477	481	480	481	493	492	483	487	486	486	488	486	485	483	491	492	495	492	496	495	484	483	479	484	481	480	472	472	474	473	473	471	468	470	473	475	475	476	483	482	482	482	484	486	490	468	465	463	462	468	478	483	477	476	471	471	469	468	467	466	465	469	468	467	466	463	463	471	481	481	478	474	0	0	0	0	0	0	0
610	609	609	608	612	615	614	614	620	616	615	617	617	619	621	623	619	593	593	598	601	602	607	611	611	618	618	621	617	614	614	614	617	621	622	620	618	614	614	613	613	606	606	607	605	605	607	607	605	607	610	612	615	616	615	615	611	611	604	607	608	608	605	602	601	607	604	609	608	607	607	612	603	600	595	591	598	597	600	603	608	610	609	604	601	599	595	593	590	590	591	590	587	587	585	595	601	607	594	588	587	610	604	601	601	595	593	593	589	589	589	603	591	589	586	586	590	591	595	589	585	579	570	568	586	585	584	584	585	587	583	581	581	580	584	584	589	588	585	581	583	580	585	577	570	575	577	577	576	582	579	574	564	566	556	580	572	568	566	562	562	566	571	570	570	576	576	571	568	570	568	568	568	565	576	572	569	563	558	558	559	564	567	567	561	560	555	555	554	553	562	563	563	562	561	551	551	554	562	562	559	547	545	547	546	546	547	549	552	548	551	551	547	547	546	545	545	548	556	556	554	554	550	550	547	549	547	552	553	552	547	546	549	548	549	550	552	552	555	555	553	547	546	546	547	545	547	550	550	548	546	546	542	539	536	539	539	548	552	553	553	553	550	548	540	543	546	548	548	547	542	538	533	530	541	539	533	536	538	538	535	535	540	539	538	533	535	536	534	539	540	540	538	526	528	526	536	531	534	537	537	534	536	537	531	532	543	538	533	521	524	532	531	529	527	528	527	529	527	523	527	528	531	534	533	532	535	537	533	525	528	525	527	526	527	526	526	527	524	526	527	526	533	529	528	529	519	521	516	525	527	524	520	524	524	523	522	521	523	523	521	519	511	513	519	520	523	524	526	527	526	523	520	517	515	516	519	522	522	520	521	519	515	516	519	522	521	514	515	513	512	511	511	514	516	508	505	512	513	512	508	514	509	511	513	513	511	513	512	514	513	505	507	503	506	510	512	513	514	513	511	508	509	510	522	521	515	514	515	509	510	514	518	514	510	514	513	511	509	508	505	505	502	501	506	507	510	509	511	508	509	510	511	512	513	504	505	507	511	511	511	507	507	504	510	509	505	504	511	500	500	496	498	497	502	506	507	501	500	499	500	497	507	490	502	501	503	504	496	496	497	502	502	500	501	500	497	494	491	494	497	502	499	493	498	498	497	497	499	499	500	500	502	502	497	495	495	497	494	495	495	495	493	494	498	492	493	493	491	493	495	495	491	486	490	488	486	481	479	478	475	475	474	477	477	475	484	476	477	477	478	483	479	485	483	483	481	480	477	474	472	474	481	484	486	488	489	482	480	485	482	486	485	482	474	479	482	485	485	484	481	482	479	477	476	474	472	472	469	471	470	470	469	468	472	473	473	473	472	472	482	474	474	471	469	471	470	467	463	461	464	471	477	476	470	470	467	468	468	467	467	465	461	461	463	462	460	465	465	465	466	470	465	0	0	0	0	0	0	0
598	598	598	601	608	607	610	610	611	611	612	613	614	614	609	609	595	595	595	596	598	599	605	611	611	616	622	618	614	607	607	607	610	614	616	614	613	609	605	605	606	596	600	597	597	601	602	602	602	602	609	612	612	610	607	602	599	599	598	602	603	604	602	597	596	595	592	591	595	598	603	596	596	594	574	579	582	588	588	589	598	598	595	593	591	593	591	587	588	588	588	586	579	577	577	589	596	603	594	586	583	584	578	575	575	579	583	586	588	586	584	584	585	585	585	585	586	589	588	584	579	575	571	569	569	584	585	585	584	584	581	578	577	576	577	577	580	576	577	574	577	567	576	576	567	570	571	573	581	579	575	570	559	556	555	568	568	567	560	558	559	563	568	570	571	572	574	571	569	572	570	566	563	565	567	566	567	560	556	554	556	566	562	566	561	558	549	545	547	549	552	553	557	556	546	552	550	552	553	555	555	546	543	546	544	545	546	548	551	549	553	554	552	542	543	544	538	544	546	551	550	548	546	547	547	547	550	545	546	543	536	534	543	544	540	540	548	550	547	543	543	544	544	540	539	535	539	548	549	545	544	542	542	540	541	540	543	537	535	532	535	531	532	536	535	540	540	540	537	537	539	537	533	527	542	543	534	537	538	535	532	527	535	534	531	529	529	529	523	526	528	527	526	524	522	522	521	527	530	535	528	527	524	526	527	527	531	525	526	526	526	528	528	525	525	520	526	528	527	524	526	527	532	533	531	530	528	528	522	522	527	527	525	523	524	524	522	524	522	523	524	523	528	532	526	516	516	517	514	512	518	519	518	523	523	521	518	518	520	518	514	516	515	512	511	517	522	522	519	517	523	521	521	519	516	513	517	521	523	518	511	516	512	515	518	515	514	510	513	512	510	511	511	507	504	502	503	505	514	510	506	507	512	507	508	508	508	513	514	515	507	508	503	508	507	507	503	509	507	506	506	492	500	502	505	503	500	499	502	505	507	502	499	498	502	503	509	508	506	504	503	506	502	502	505	505	506	503	504	509	508	507	508	510	503	501	502	500	501	507	510	504	502	503	494	499	502	503	505	505	502	502	498	493	500	501	501	496	491	490	491	496	494	487	486	495	497	492	503	498	487	493	488	488	491	498	500	496	490	490	494	499	496	488	494	493	496	495	493	493	492	492	493	496	492	492	492	493	492	493	494	494	494	489	488	480	473	484	484	484	476	490	489	486	480	480	478	473	475	475	473	474	475	474	473	462	467	475	475	476	478	477	471	473	475	474	469	472	473	473	473	474	481	484	486	480	480	484	478	479	476	478	473	472	473	475	477	482	481	483	477	479	479	473	472	474	474	472	469	471	470	468	466	465	470	473	472	471	471	472	467	467	467	465	461	467	468	465	462	462	462	461	461	460	459	459	464	465	465	464	465	463	462	460	461	460	464	460	461	461	464	466	463	0	0	0	0	0	0	0
592	594	594	600	601	606	612	612	614	612	604	596	592	592	589	590	591	589	598	598	599	599	598	607	614	614	618	617	607	597	597	597	599	609	611	611	611	604	601	601	596	591	594	592	590	594	597	602	602	606	606	610	610	607	598	595	592	591	591	596	596	599	599	595	594	593	587	585	587	591	583	583	577	574	574	578	583	585	582	579	579	587	591	593	595	594	591	585	585	585	586	579	574	579	580	580	585	588	586	585	580	584	579	576	576	579	583	589	588	587	584	583	583	582	584	582	582	581	579	578	574	573	570	568	568	575	572	567	569	568	565	563	562	562	563	559	558	561	571	570	569	559	560	559	558	560	566	563	569	576	573	569	556	554	558	560	567	570	568	558	559	563	568	568	569	568	568	568	565	564	555	555	554	559	563	562	557	564	563	557	557	557	558	558	556	551	544	543	544	544	544	546	548	537	541	546	547	549	550	551	551	547	547	547	547	554	546	548	549	550	551	551	537	527	526	528	531	539	540	546	548	553	553	552	550	546	544	542	544	535	531	532	542	537	537	535	529	530	533	537	536	534	538	538	538	532	532	533	533	528	527	529	540	538	540	541	527	530	529	524	522	523	528	526	525	526	533	534	530	537	539	539	527	525	536	541	534	527	534	530	522	523	521	525	525	531	528	524	525	525	524	525	525	521	520	520	519	518	521	525	525	521	519	523	528	528	528	531	528	527	526	526	525	517	515	520	527	528	528	526	522	519	524	526	526	523	512	513	517	523	523	520	514	511	511	516	516	515	516	517	517	515	515	515	511	512	516	515	515	514	517	517	519	521	520	519	517	517	523	522	516	499	499	503	506	515	515	510	508	510	510	509	509	509	511	509	507	506	511	511	511	508	508	511	510	509	507	506	509	508	511	509	506	502	502	502	502	504	508	507	505	506	510	511	508	505	506	511	514	514	500	501	500	501	504	503	502	502	500	505	504	496	495	493	493	505	499	498	498	500	501	497	495	494	495	498	500	503	502	504	505	507	502	500	501	504	502	501	499	497	496	492	492	490	492	493	492	491	488	490	502	495	496	489	490	485	490	495	501	504	500	496	494	493	498	496	493	489	489	489	491	494	491	489	488	491	492	487	484	483	489	486	480	476	476	486	488	490	491	490	490	486	487	490	481	486	487	491	490	486	483	485	486	492	490	488	488	488	488	489	477	473	473	473	474	470	469	471	472	472	486	489	489	488	484	474	474	471	471	474	473	474	475	472	463	477	469	475	476	476	478	478	472	470	468	466	467	471	473	472	474	476	479	481	480	479	477	478	478	478	469	466	472	478	478	472	473	477	477	477	471	470	468	468	468	469	472	470	463	462	458	459	461	460	460	464	466	460	458	459	460	460	462	464	464	468	465	465	462	461	461	461	460	455	455	455	456	463	463	462	463	457	461	456	456	456	459	457	457	458	465	465	463	0	0	0	0	0	0	0
592	594	594	594	595	605	610	608	608	608	603	593	585	585	583	592	592	578	586	586	595	595	597	602	609	609	616	610	598	588	581	582	582	591	601	602	603	603	596	596	584	589	591	587	586	585	589	594	594	602	606	602	596	599	599	597	592	590	590	588	591	595	590	589	588	587	584	582	581	580	576	572	572	571	575	578	583	582	579	578	573	576	578	581	592	592	589	582	583	578	577	575	573	562	560	572	572	583	579	572	571	577	581	580	579	581	581	582	584	580	579	575	580	580	582	580	577	571	572	572	570	567	566	562	562	566	565	563	569	569	564	559	561	561	562	556	552	552	548	546	546	554	557	554	555	558	565	563	566	572	574	572	555	548	550	558	563	565	558	564	565	564	564	563	560	558	559	563	559	549	546	548	550	546	546	545	553	556	559	557	553	545	545	548	550	547	548	546	545	544	544	544	534	532	534	537	546	547	549	548	545	545	543	545	544	552	544	549	551	549	542	532	527	525	528	530	533	545	543	551	552	552	550	550	550	545	542	539	542	528	526	526	538	534	532	524	527	531	532	524	532	535	530	530	532	529	523	523	525	524	524	526	526	527	528	524	525	528	527	520	519	523	524	526	529	529	531	528	528	527	532	527	527	526	523	533	534	527	522	522	521	520	518	521	529	529	528	525	521	517	517	518	519	518	513	516	519	522	525	525	525	524	521	516	513	521	524	525	525	527	526	526	520	514	518	523	524	516	515	516	525	523	518	523	523	514	510	512	515	516	517	508	504	498	501	507	510	507	507	505	517	518	516	516	515	512	514	516	517	515	515	516	518	518	518	516	515	513	515	512	506	503	497	499	503	508	507	505	506	506	509	516	514	507	509	508	508	506	506	504	501	502	503	506	507	501	500	503	502	506	508	502	501	500	502	501	505	503	505	505	506	503	505	508	506	502	505	506	508	502	494	495	495	498	497	496	490	491	500	494	491	491	491	488	488	491	495	496	495	495	489	495	485	486	492	496	500	494	498	502	504	502	497	496	498	491	489	499	498	494	491	486	486	487	488	492	492	489	488	483	482	483	485	484	484	480	479	483	496	498	496	494	494	495	490	492	490	489	489	486	486	491	490	488	486	488	488	486	485	488	486	486	477	472	474	478	483	489	491	487	484	478	479	480	481	482	480	486	485	481	480	480	480	481	487	463	479	476	480	483	481	475	477	472	471	471	470	471	474	473	484	486	487	486	479	472	472	468	467	468	471	472	470	468	467	473	476	478	477	474	478	476	472	465	466	467	463	465	468	469	466	470	472	478	475	475	473	472	470	469	470	471	462	465	463	460	458	457	472	471	468	461	461	462	463	465	469	469	460	458	455	455	457	456	455	459	452	446	452	455	455	456	455	465	464	457	463	465	461	456	456	457	451	455	455	454	453	456	458	459	458	452	448	457	458	453	457	452	452	455	454	455	454	0	0	0	0	0	0	0
584	581	586	586	586	589	599	603	603	604	601	592	585	585	586	590	579	578	573	573	575	592	595	596	588	588	584	592	587	583	583	583	583	583	587	590	592	594	587	584	581	587	587	585	582	583	589	591	591	592	592	590	594	594	596	596	592	591	592	592	590	589	585	583	584	584	583	583	583	576	575	572	572	571	575	578	580	576	579	578	571	569	571	572	569	577	577	579	574	576	575	572	564	559	560	564	564	566	568	570	568	569	571	571	571	575	578	581	572	567	567	572	563	563	563	566	566	564	567	566	564	558	558	559	558	557	562	557	548	547	545	551	551	552	557	557	558	551	552	552	554	546	542	544	543	544	548	545	543	541	545	549	549	548	544	546	554	553	559	559	560	560	560	558	556	552	554	549	542	542	545	548	550	545	544	542	544	550	548	545	546	548	549	549	548	545	545	547	545	544	544	542	531	529	529	530	540	538	540	540	540	528	531	532	533	533	533	535	538	537	531	527	527	526	531	533	533	535	530	529	532	529	531	533	540	541	538	535	527	520	521	533	533	535	522	522	529	528	521	526	523	521	524	526	525	522	524	527	528	525	524	526	524	523	520	521	522	524	525	525	522	521	520	520	530	530	527	521	521	520	525	524	522	522	521	524	531	526	521	514	513	517	517	518	524	526	523	521	515	512	514	515	514	512	512	511	518	519	523	524	521	522	520	513	508	505	517	521	523	522	520	526	524	517	517	523	513	511	510	513	516	519	520	513	514	511	511	513	515	517	508	503	502	499	503	506	509	501	499	501	508	509	506	509	510	511	508	509	511	516	515	514	514	513	515	514	509	500	500	503	503	500	503	500	499	499	500	505	499	505	508	515	510	508	505	505	503	504	505	502	497	497	496	497	496	495	496	496	498	507	503	502	501	501	503	506	505	505	504	502	503	505	502	504	501	500	501	498	498	492	489	491	491	492	488	488	490	495	498	498	488	483	485	485	485	488	490	491	489	494	490	485	483	484	483	495	497	497	490	494	496	497	495	493	485	489	490	490	496	492	486	484	485	486	489	490	485	487	484	484	482	482	484	485	485	483	478	478	490	492	492	491	492	495	492	488	485	483	483	483	481	486	489	487	483	489	486	486	484	487	488	481	477	474	475	477	479	484	485	483	473	472	476	477	479	481	476	479	482	482	486	482	477	467	458	453	461	470	475	480	479	481	467	479	471	471	470	473	475	476	481	483	484	480	474	470	462	464	463	463	465	465	469	470	468	470	468	459	455	470	476	473	470	468	464	461	460	461	463	462	459	460	462	464	466	469	468	466	456	471	464	462	466	463	453	451	461	460	460	459	460	463	459	457	459	461	468	463	456	447	450	452	457	451	449	447	456	452	450	454	455	455	447	448	449	452	461	461	447	448	448	447	447	453	453	450	450	454	457	457	453	452	447	451	457	457	454	447	447	452	452	452	452	0	0	0	0	0	0	0
584	578	575	575	574	580	592	597	597	599	598	594	591	585	585	574	572	569	569	569	573	589	591	569	573	569	569	588	590	585	587	585	585	582	581	584	585	587	582	581	577	580	580	582	584	589	583	581	579	579	579	580	584	588	591	588	587	588	586	586	584	588	581	580	576	578	580	580	574	577	575	574	574	573	574	575	577	574	576	555	553	561	557	554	557	562	566	567	563	565	566	564	562	555	554	563	565	565	567	569	564	563	562	563	563	566	565	560	557	561	566	562	561	555	561	562	563	564	562	562	550	543	544	546	547	558	561	551	540	540	542	544	552	555	557	550	545	546	546	547	547	542	538	537	537	539	543	543	543	542	542	541	539	540	548	551	544	546	543	532	549	552	553	548	547	547	545	545	539	540	545	553	555	549	544	538	541	534	535	538	544	544	546	543	546	540	537	537	537	538	537	539	530	526	526	528	529	532	535	536	532	527	526	528	531	530	532	528	532	531	528	528	529	527	527	525	532	536	531	531	530	527	526	523	529	529	529	527	527	522	522	520	522	521	521	529	526	523	520	523	520	522	519	521	522	522	524	528	530	529	528	529	523	520	519	516	520	523	531	529	522	519	513	516	526	526	525	520	521	523	522	522	520	516	513	514	526	522	512	513	513	514	516	518	523	523	522	516	508	511	513	513	513	511	512	512	512	508	513	514	519	519	514	511	506	502	510	515	519	518	514	513	506	501	509	512	510	509	510	514	515	515	515	513	508	508	510	513	515	508	505	503	501	502	504	502	501	503	498	503	503	504	505	505	506	503	503	502	507	515	515	511	511	510	507	502	499	493	496	497	497	499	501	498	497	496	496	501	498	496	494	496	496	499	502	498	498	499	496	494	494	496	495	497	498	500	495	497	489	496	500	497	497	502	503	503	503	501	499	494	496	496	494	498	493	490	491	490	488	486	485	483	480	486	486	485	488	494	495	488	485	481	482	481	477	484	486	485	484	489	487	484	479	477	480	492	495	484	486	487	493	487	495	483	484	486	487	493	496	494	487	485	484	487	484	480	477	475	484	483	482	483	484	484	485	480	479	476	480	487	478	481	483	490	486	482	479	481	482	482	479	484	487	485	483	480	484	487	481	479	476	477	478	477	476	477	474	473	472	472	471	468	471	474	475	475	472	472	472	481	481	477	467	467	463	462	466	469	470	474	475	479	482	481	475	473	470	472	474	476	478	473	473	470	467	464	460	460	461	460	464	468	473	474	471	462	446	451	454	453	464	467	464	464	464	460	458	458	458	456	456	458	458	460	459	455	448	448	457	466	461	462	464	461	453	453	457	457	454	455	451	448	451	457	459	462	454	455	450	441	447	448	452	454	456	456	453	450	449	448	450	448	445	445	446	444	448	449	451	454	447	447	449	449	448	447	446	445	452	454	453	448	446	451	455	455	453	453	450	444	447	440	442	0	0	0	0	0	0	0
574	570	569	569	567	571	587	593	596	596	593	591	584	578	578	572	570	566	571	580	580	586	584	575	567	566	566	567	587	589	588	583	580	580	579	581	581	579	576	577	576	575	576	580	581	577	573	570	567	567	575	578	581	584	586	583	581	582	581	581	578	575	575	574	576	575	577	577	574	577	577	574	573	573	572	566	562	566	564	560	549	547	548	548	556	558	557	555	556	557	558	559	561	557	560	555	563	571	571	568	566	559	559	560	559	560	559	556	556	556	558	559	554	550	550	561	559	558	548	532	532	530	529	535	549	550	551	542	542	541	542	550	553	549	546	546	543	542	540	541	539	542	540	540	533	534	538	540	539	538	539	540	544	543	540	545	546	543	540	531	532	531	531	533	535	543	544	544	537	536	548	554	555	550	545	535	533	528	530	537	539	541	535	534	540	537	536	536	536	534	531	528	529	531	522	524	525	530	533	534	528	524	522	527	529	533	531	530	526	525	521	525	525	523	519	529	531	531	527	527	527	524	523	519	521	521	523	531	529	528	525	523	521	521	524	522	523	516	518	518	518	521	519	518	518	519	523	526	529	529	527	523	522	519	513	514	513	522	526	525	522	506	513	515	520	520	521	519	523	519	521	520	517	515	514	510	504	498	500	505	503	509	511	516	521	522	522	516	509	509	517	517	514	514	511	508	508	508	509	511	513	513	510	503	496	496	502	513	516	514	511	507	502	500	510	511	509	508	510	506	502	495	499	502	508	508	511	512	512	506	504	503	503	501	503	502	497	499	491	492	486	490	499	499	499	499	498	498	507	506	497	497	498	498	504	495	495	493	492	495	495	497	496	493	490	491	498	498	498	496	500	503	503	497	497	495	491	491	492	492	490	490	495	498	503	498	491	489	488	489	489	488	489	490	490	490	489	490	488	490	495	493	490	489	488	493	494	492	490	491	490	486	483	479	484	485	486	488	487	484	480	481	482	482	488	483	484	483	482	484	483	479	478	477	482	489	483	482	482	486	489	491	485	485	483	482	482	489	492	484	481	485	483	483	479	477	477	475	475	481	480	481	479	474	481	480	485	477	474	473	473	475	474	477	477	477	471	468	477	482	478	476	477	478	482	480	475	479	475	475	476	477	471	469	468	467	466	465	459	463	465	465	469	466	463	461	461	462	464	464	461	462	466	468	467	467	467	461	466	468	461	464	478	469	473	469	469	473	473	468	466	467	463	463	460	468	468	458	463	463	464	466	469	459	460	445	446	448	453	460	452	457	458	459	459	455	454	455	456	455	453	455	459	461	465	458	453	444	453	460	463	462	461	450	451	453	454	457	454	454	451	445	446	446	456	455	456	447	447	450	448	447	449	445	448	454	448	448	447	446	446	445	448	448	447	444	445	446	444	448	447	447	447	447	450	447	444	445	447	448	449	451	447	445	454	453	453	453	448	441	439	440	447	0	0	0	0	0	0	0
573	569	566	564	564	563	580	588	590	590	587	571	572	572	572	570	566	562	562	567	567	579	582	576	570	567	567	569	585	580	583	581	578	578	577	577	577	575	573	576	568	568	566	568	573	570	568	564	562	562	562	564	569	578	580	576	568	569	571	573	573	572	565	567	570	574	572	570	571	577	578	568	571	571	570	553	554	556	552	553	553	550	550	553	562	557	557	553	552	551	553	558	548	550	557	553	555	559	559	559	557	551	554	557	557	556	555	555	555	555	553	553	548	529	534	547	541	548	540	539	540	527	538	547	545	542	541	542	543	540	538	544	551	550	545	535	537	536	536	537	543	532	532	529	528	529	531	531	531	532	535	542	545	540	534	537	536	534	537	528	532	531	529	531	532	538	538	537	531	524	521	538	535	527	528	530	532	529	525	525	535	529	529	531	531	533	533	534	536	536	528	529	533	526	519	519	525	525	527	528	525	524	523	522	527	533	525	527	524	523	521	518	519	518	520	516	517	520	521	516	520	516	513	511	512	517	521	517	515	517	518	518	518	517	516	517	518	514	521	526	524	521	519	516	517	518	520	523	526	527	523	521	516	513	510	511	518	513	513	520	519	517	514	512	513	508	513	519	518	517	515	517	514	513	512	507	497	494	497	496	495	500	506	505	507	509	513	515	507	505	510	510	511	511	508	508	512	509	507	507	506	507	506	498	496	495	498	503	506	507	503	495	495	497	502	515	509	504	508	503	501	494	497	497	497	498	499	501	501	491	490	498	501	501	501	498	494	489	488	490	486	490	497	496	493	492	497	497	499	493	495	499	495	497	499	497	495	496	493	492	492	496	489	486	490	487	496	494	495	496	502	494	495	493	490	486	487	486	486	483	486	489	479	486	492	491	490	488	486	486	484	490	489	484	484	486	484	478	485	486	488	491	488	484	485	489	491	493	489	484	479	480	479	480	482	483	485	486	485	481	479	480	481	480	486	481	484	482	481	479	480	478	477	479	482	482	482	481	482	483	487	487	487	482	480	480	479	480	478	481	482	480	475	475	473	476	471	471	473	472	476	478	474	471	479	478	483	481	474	472	472	474	473	473	470	471	465	463	469	473	472	466	467	471	472	472	468	469	479	479	475	471	469	464	461	460	459	458	462	459	460	465	465	466	464	463	463	461	467	469	468	465	464	458	457	463	461	459	461	458	458	460	462	470	464	463	467	466	464	462	464	461	463	459	459	461	460	458	455	453	450	454	457	457	455	452	453	453	454	453	459	453	442	443	452	453	453	452	453	451	451	450	447	445	455	460	455	453	456	465	460	460	452	448	450	453	455	455	456	455	450	442	444	449	439	452	445	450	449	449	449	447	447	443	444	445	450	445	445	445	446	447	449	448	449	447	446	442	442	443	442	437	437	435	443	441	439	443	450	454	453	450	449	443	440	448	448	440	447	439	440	449	447	0	0	0	0	0	0	0
566	567	565	565	565	562	573	573	567	567	560	561	565	571	571	571	567	564	565	570	570	574	578	575	572	567	567	582	583	581	579	582	577	577	573	570	571	569	569	567	559	559	560	562	560	560	561	560	557	558	558	560	563	570	573	570	563	560	565	569	569	563	564	563	565	568	572	563	559	559	565	565	559	557	557	551	548	548	546	546	548	549	550	553	557	561	565	556	551	551	550	544	544	543	534	540	549	555	556	552	552	544	543	550	552	550	548	546	538	538	531	534	521	525	525	530	533	539	541	538	528	523	522	536	545	540	540	541	541	536	531	530	528	531	530	527	528	528	530	534	532	528	523	520	525	523	523	518	526	526	532	530	540	530	531	532	536	531	532	525	529	529	526	526	526	531	537	527	523	518	520	522	533	527	532	528	525	523	524	524	526	526	527	524	520	515	525	526	526	522	515	523	524	525	521	519	519	518	513	514	524	525	522	522	522	523	524	525	523	522	519	517	516	517	514	513	518	520	522	522	514	512	512	513	507	509	511	516	517	517	511	508	514	513	514	514	512	512	512	515	515	515	514	513	514	515	517	522	523	523	521	518	507	506	513	509	513	511	504	506	506	508	504	503	506	507	506	508	508	507	500	495	496	499	499	497	497	495	499	497	495	501	505	498	491	493	496	499	501	498	497	498	503	504	505	508	510	507	507	506	505	503	503	502	494	497	500	502	503	502	492	491	493	495	494	507	507	501	493	494	496	495	495	495	497	497	498	499	500	490	489	499	500	500	497	492	489	492	491	489	487	488	490	488	484	492	493	495	491	490	489	487	492	491	490	493	492	486	483	480	492	494	491	486	486	486	491	486	487	490	491	490	489	489	489	485	484	490	483	484	484	478	479	485	489	493	489	486	485	484	482	486	485	481	478	480	482	478	481	482	488	489	482	481	482	487	489	491	486	481	475	474	478	480	480	481	486	487	485	483	479	479	481	483	484	481	478	474	478	474	476	476	478	479	481	482	482	479	478	481	484	486	483	481	476	473	469	472	478	479	473	475	479	473	470	473	469	471	472	471	472	471	475	475	476	468	467	474	476	478	471	465	467	467	471	467	467	471	472	469	467	459	460	462	462	463	463	462	469	478	476	469	466	462	461	460	458	456	451	458	459	460	461	461	459	461	463	460	465	465	465	463	459	456	455	456	456	452	454	454	454	455	457	455	454	452	452	450	451	452	455	456	463	459	459	462	461	459	453	450	448	450	453	455	454	454	453	453	453	453	462	460	455	444	447	444	447	455	456	456	456	454	452	452	444	444	442	444	445	450	447	449	447	447	451	452	452	456	456	454	451	439	436	439	444	442	444	444	446	446	445	443	441	442	441	440	444	442	439	436	440	440	447	448	448	447	446	440	442	443	442	437	437	431	435	439	442	443	442	443	443	448	445	442	440	438	438	442	440	434	440	448	446	0	0	0	0	0	0	0
557	561	564	562	562	566	559	558	559	559	563	562	563	565	566	566	563	563	565	559	566	566	571	573	560	571	574	574	566	562	569	571	563	562	562	564	567	569	566	565	559	559	559	555	557	559	556	555	551	552	552	553	556	562	564	557	554	556	557	558	558	558	556	557	557	560	551	548	555	559	564	561	555	549	549	546	544	543	538	541	544	545	549	552	545	545	550	556	554	543	541	543	542	538	530	528	542	546	550	546	544	544	541	545	547	543	539	533	530	529	526	528	514	516	520	526	538	539	538	531	523	520	519	523	541	536	536	529	531	528	522	518	517	520	524	527	530	533	534	529	527	526	524	517	514	514	513	513	516	523	524	527	531	533	528	530	535	536	525	527	527	530	527	530	523	529	527	523	520	516	517	519	529	531	535	526	518	525	523	525	529	529	528	522	522	521	517	525	523	518	516	514	521	521	521	519	518	518	514	512	514	515	516	515	520	522	523	523	523	519	515	513	512	514	515	513	516	520	519	511	511	511	512	513	507	507	508	512	514	517	515	507	513	511	509	510	508	510	513	515	516	516	513	514	514	513	515	520	524	522	517	515	510	512	514	511	510	511	504	504	505	502	503	509	508	504	504	504	507	506	500	497	497	497	497	498	497	495	498	493	492	499	500	499	498	492	497	498	498	495	496	495	497	498	501	506	508	510	507	503	506	499	495	498	497	498	497	501	500	498	489	489	488	486	494	500	496	494	491	486	489	493	493	496	497	495	486	488	496	494	494	495	496	492	487	491	491	496	495	494	484	486	486	481	485	487	488	487	486	489	478	482	481	476	476	482	486	483	481	485	483	483	488	492	487	488	485	484	485	488	489	490	488	487	481	479	487	488	488	488	480	481	483	483	484	485	485	484	482	483	480	478	476	477	474	479	478	477	478	481	483	484	485	475	478	478	477	482	481	480	472	472	474	474	472	471	472	473	478	474	475	475	483	484	483	481	473	471	470	470	477	477	477	473	477	476	476	476	475	475	481	483	481	477	474	472	472	474	477	470	471	473	473	469	465	464	465	467	470	467	467	463	469	471	474	467	465	465	467	466	466	459	461	462	465	473	472	470	472	471	462	457	458	462	462	460	462	460	465	473	473	472	467	461	460	461	460	452	454	451	459	460	461	461	457	456	455	457	457	458	458	465	458	447	447	446	446	443	448	449	451	453	455	454	453	452	451	449	449	449	452	453	460	460	461	460	460	458	450	447	451	452	455	453	450	450	453	454	451	458	460	456	454	447	447	447	449	455	456	455	454	452	451	449	444	444	443	443	443	442	446	442	444	444	448	451	452	453	454	453	448	444	440	436	440	439	442	445	449	451	448	444	441	439	440	438	439	442	435	435	437	439	441	444	446	445	443	438	442	442	437	437	431	429	428	433	436	437	438	435	434	440	440	441	440	439	439	439	443	437	440	446	437	0	0	0	0	0	0	0
553	553	556	561	561	561	555	555	562	567	567	566	566	566	563	563	559	557	556	548	549	549	551	552	558	564	559	559	558	562	559	556	557	559	559	557	557	561	563	556	556	556	556	556	558	558	555	555	551	550	550	549	550	553	552	542	542	543	547	548	547	547	548	550	549	548	541	547	550	553	562	558	552	543	540	540	538	534	533	537	538	539	541	544	537	536	539	550	549	548	542	542	538	533	529	527	536	542	545	544	541	538	541	541	542	543	537	533	529	526	529	521	516	518	519	524	524	528	531	523	519	516	515	522	529	526	524	528	528	525	522	517	514	515	516	529	534	536	527	526	518	516	514	512	510	513	514	506	515	518	523	527	522	524	528	529	521	522	525	527	528	525	527	528	518	521	523	522	517	515	515	515	518	533	528	520	516	526	521	519	519	519	508	518	518	514	523	516	519	516	515	511	517	518	518	525	524	518	512	509	506	504	500	516	514	511	519	524	523	517	514	513	513	511	516	510	514	511	509	508	510	514	512	508	494	495	498	508	511	511	517	513	512	510	510	509	506	508	506	514	516	515	514	509	506	503	512	515	518	520	520	513	510	505	504	503	508	512	509	504	502	500	500	503	503	502	500	500	497	506	502	502	501	499	497	500	499	498	496	491	488	487	488	491	493	499	498	497	497	494	492	491	490	491	495	500	502	508	505	500	495	490	488	489	489	488	488	487	489	484	484	484	481	483	489	488	488	486	483	482	488	491	492	496	496	494	486	483	484	484	486	485	482	484	487	485	491	493	488	486	483	471	479	477	478	479	475	475	468	474	476	468	472	473	476	477	485	486	486	481	485	483	481	480	483	485	484	483	481	482	482	476	473	473	478	483	484	483	473	473	477	483	482	480	480	479	475	471	469	465	467	471	472	473	474	475	475	471	477	477	479	483	472	473	471	474	470	467	467	466	461	469	470	470	474	473	473	462	457	460	461	462	467	472	471	465	464	472	469	464	466	471	472	476	477	479	477	477	474	472	469	464	479	476	472	470	470	470	470	467	470	467	470	466	465	465	464	465	464	465	465	464	464	468	470	467	462	459	458	462	464	460	458	468	472	471	469	466	465	465	466	462	459	456	458	459	459	463	463	470	460	457	460	460	457	456	455	451	449	449	448	460	462	454	454	456	458	458	455	452	453	456	443	445	446	446	443	443	443	443	446	449	451	452	452	450	448	445	447	447	449	453	450	449	456	457	458	451	444	448	450	452	452	451	449	450	451	452	452	453	454	454	450	447	441	437	445	452	451	448	441	441	442	442	440	439	436	436	438	439	440	437	437	442	447	449	450	452	452	450	445	439	436	435	436	440	440	443	450	449	443	436	438	437	437	437	437	435	434	435	436	436	436	440	441	441	440	435	435	435	436	436	433	429	428	432	433	434	433	434	431	432	432	435	440	440	439	436	438	436	441	445	437	0	0	0	0	0	0	0
553	552	555	557	556	556	554	553	557	562	562	565	566	563	556	556	553	549	546	544	540	540	542	543	552	554	548	548	553	557	555	554	553	555	555	555	542	539	544	551	551	548	548	547	547	552	553	548	547	551	551	551	548	545	539	536	539	538	537	539	540	540	540	540	541	535	540	542	548	557	556	554	549	540	534	534	530	527	528	538	532	532	538	538	536	533	533	537	539	539	542	537	534	530	526	528	530	537	540	539	535	536	542	544	531	530	523	532	532	529	523	512	520	520	516	520	520	515	517	514	516	514	512	511	514	519	521	525	522	520	520	514	509	509	500	516	532	530	520	520	516	510	508	507	504	512	511	510	504	515	515	516	516	521	522	521	519	520	523	524	525	524	523	511	511	517	520	522	519	518	514	513	516	526	520	521	506	518	513	513	517	517	515	513	512	510	519	516	518	515	510	507	511	512	515	524	520	512	508	507	506	500	504	513	514	510	510	509	509	509	505	507	513	518	511	512	512	508	507	507	508	514	512	495	489	497	500	503	506	508	505	502	503	514	511	506	500	500	501	506	510	515	513	508	505	503	499	501	498	498	504	503	503	500	500	499	502	509	507	502	497	497	497	496	498	499	497	497	496	501	502	501	501	501	491	491	490	498	493	488	487	485	485	490	492	500	498	497	490	493	494	497	499	496	492	487	487	483	495	490	483	484	486	487	488	481	480	477	481	481	483	481	481	481	485	487	486	475	473	477	488	489	491	490	492	488	482	482	481	481	482	472	472	464	470	473	489	491	480	478	476	484	467	475	479	478	475	475	472	469	469	469	471	474	473	473	481	469	472	475	477	472	473	475	480	480	479	482	481	477	470	466	467	467	471	472	472	472	472	471	469	473	468	472	473	473	473	470	466	467	471	473	473	471	463	470	473	472	469	466	471	469	469	469	469	468	467	466	466	464	460	464	468	466	468	472	472	464	458	459	456	463	473	471	470	466	463	468	469	464	465	466	470	472	472	465	466	470	469	468	463	459	460	460	462	462	465	472	464	462	464	467	467	466	466	463	462	460	460	461	463	464	465	467	466	463	459	457	456	456	456	460	461	465	465	464	459	458	459	461	463	458	462	458	447	451	459	460	460	466	464	461	462	462	457	456	451	451	444	445	446	443	442	447	448	453	455	453	450	440	441	441	443	449	447	447	445	444	443	443	441	441	441	438	442	449	453	445	450	449	448	449	447	444	451	454	451	446	442	445	450	450	450	443	444	445	447	449	449	450	451	449	446	442	438	437	437	441	441	439	438	440	440	442	437	437	435	433	434	434	433	431	436	440	441	447	448	448	441	446	447	440	436	436	434	437	435	438	439	437	437	433	436	436	431	431	433	435	434	435	434	434	435	436	437	437	436	432	432	434	434	434	434	431	430	429	432	433	431	430	431	430	428	430	431	431	434	434	430	432	432	437	430	0	0	0	0	0	0	0
547	547	551	554	557	557	546	544	553	554	554	560	561	555	553	553	553	546	543	534	536	536	538	542	544	540	543	544	544	552	554	553	552	550	542	542	539	537	542	548	547	544	544	543	546	551	548	547	547	546	548	548	542	539	534	533	534	535	537	536	538	536	536	535	535	531	528	535	538	553	554	551	543	533	528	522	522	522	524	523	527	528	533	538	538	535	536	534	534	535	534	537	526	519	514	512	513	525	527	536	530	528	518	516	516	516	523	522	523	523	514	512	515	521	520	513	510	510	508	510	511	515	513	513	512	512	516	515	516	516	516	511	510	504	501	504	512	514	516	514	508	505	501	500	500	500	507	506	504	502	502	506	504	505	508	506	510	512	514	517	519	519	517	506	505	511	515	517	512	513	512	512	515	513	506	502	500	504	508	510	513	514	519	511	509	507	507	508	507	506	508	507	506	509	520	510	507	505	503	504	503	499	501	508	511	512	507	497	498	493	500	500	504	512	511	507	505	503	502	502	502	497	496	494	494	492	493	496	499	496	502	506	495	499	500	500	502	498	494	491	492	493	496	498	498	501	499	498	499	496	495	496	498	496	496	495	496	500	499	494	494	497	498	496	489	490	491	491	490	490	493	494	494	490	492	490	488	494	487	490	483	482	484	488	491	487	490	488	486	488	486	478	481	483	478	487	487	485	482	483	482	476	477	476	478	486	479	481	477	480	481	479	478	478	480	471	475	471	471	480	477	478	479	482	483	481	479	479	478	478	471	470	467	463	471	473	488	487	483	471	471	471	473	474	479	478	478	473	473	472	470	470	470	475	470	474	472	470	472	472	473	464	463	466	477	476	474	471	468	472	479	471	472	470	471	469	469	468	469	469	469	469	470	469	471	473	472	470	466	469	471	472	472	473	470	466	470	471	470	465	469	464	464	465	466	466	463	464	464	464	463	463	465	469	469	473	472	467	458	457	458	465	467	470	469	459	463	467	468	466	466	464	463	464	460	461	466	465	466	465	463	460	459	455	452	452	454	463	460	460	461	461	464	462	462	461	459	457	454	458	460	461	462	460	463	459	458	459	459	455	454	453	451	452	455	456	457	455	459	455	454	458	446	442	443	444	445	447	448	448	452	453	452	449	454	456	456	452	449	441	445	440	437	442	444	452	452	448	446	442	444	442	441	449	448	449	446	446	443	443	438	434	435	434	435	437	447	442	442	442	442	441	439	443	449	452	449	446	444	444	449	448	441	440	439	441	441	440	440	441	439	445	442	439	438	437	437	439	439	436	438	437	436	435	436	436	435	434	433	429	429	431	431	435	435	436	437	439	437	441	438	434	433	433	435	436	437	435	436	434	434	435	436	435	428	428	431	429	432	429	432	428	427	431	432	433	430	430	430	430	430	431	431	431	430	429	428	430	429	433	437	427	427	426	426	425	428	434	429	431	429	428	433	0	0	0	0	0	0	0
547	542	548	551	543	543	537	543	545	550	550	551	551	553	554	557	557	546	545	531	532	538	538	542	538	537	538	546	546	549	549	550	551	544	540	540	536	539	542	544	548	546	542	542	547	550	544	539	536	537	542	539	539	536	533	531	532	535	536	537	537	536	536	539	529	525	525	539	543	553	543	539	532	522	517	522	522	521	520	521	523	525	527	531	533	531	528	531	530	528	530	531	526	522	512	509	512	522	522	522	521	520	517	514	515	518	519	519	518	515	511	513	514	516	517	511	507	506	504	503	507	515	514	512	510	511	512	513	513	512	512	510	507	504	503	504	504	503	508	505	504	500	496	495	496	500	502	503	505	502	503	500	502	503	501	499	501	511	514	516	512	513	511	508	501	504	507	498	497	500	502	504	509	503	498	498	503	505	507	508	509	501	501	512	506	502	503	499	500	501	503	496	495	507	511	505	508	506	497	497	493	496	500	505	509	506	497	493	491	493	498	499	502	506	506	501	505	497	490	488	487	488	488	490	492	494	494	496	494	493	500	499	493	493	494	497	501	499	494	490	490	492	495	496	492	493	496	498	501	501	493	492	493	494	489	490	495	493	491	489	494	493	492	493	494	486	484	485	486	488	487	489	486	485	484	484	480	481	484	484	482	478	477	485	488	487	482	481	485	483	484	473	475	478	487	487	487	480	478	479	480	476	476	477	480	479	475	477	479	479	482	476	475	473	470	469	469	473	472	469	472	474	478	475	475	468	469	470	470	475	477	475	468	466	472	479	479	484	482	472	471	472	470	479	478	479	478	476	475	474	472	470	469	470	467	458	459	462	469	467	464	460	459	463	477	475	472	457	468	466	473	470	465	464	465	462	462	464	465	467	467	467	473	474	472	473	472	471	467	466	470	471	472	472	467	464	459	460	463	465	465	465	462	463	463	462	462	462	464	466	466	463	463	464	469	473	471	469	460	456	460	462	466	465	457	454	461	462	460	462	465	461	461	461	463	463	464	460	460	462	460	456	453	451	453	455	456	458	460	458	458	458	461	460	455	456	456	455	452	453	457	459	460	450	447	455	456	455	455	453	454	453	454	453	453	453	452	451	449	448	447	444	446	447	442	443	444	446	447	445	446	448	446	448	450	457	449	448	447	446	437	431	433	437	440	444	442	436	437	436	442	445	447	447	449	449	444	444	442	438	433	431	433	430	431	431	432	437	436	435	434	434	433	433	438	439	445	443	445	448	448	442	439	439	437	441	440	440	440	443	441	440	430	432	430	429	434	436	437	437	437	435	434	436	439	431	431	433	433	434	426	426	433	434	435	431	429	430	432	433	436	437	430	432	429	428	425	431	440	446	444	439	437	432	431	428	427	427	424	426	428	427	425	425	425	426	428	428	428	428	429	429	429	428	427	427	428	429	429	429	433	425	425	424	424	424	423	427	427	423	423	428	432	0	0	0	0	0	0	0
542	542	539	542	542	542	542	538	537	539	536	536	540	542	542	541	541	536	532	531	532	537	537	539	541	538	546	548	548	550	546	544	541	538	535	535	531	538	543	544	550	544	541	541	544	548	550	543	545	546	544	538	538	537	535	532	532	532	535	537	537	539	532	532	526	521	524	525	531	536	529	526	522	519	519	520	519	519	519	520	520	523	527	531	532	528	524	524	518	524	526	525	525	521	510	512	513	520	523	516	517	516	515	511	511	509	512	516	509	509	511	517	513	512	511	510	507	503	494	499	504	511	513	509	510	509	511	510	506	505	507	504	505	504	504	502	502	498	495	493	498	502	498	498	500	505	502	505	504	504	497	496	498	500	498	498	498	501	495	506	507	503	502	495	493	490	493	494	498	499	503	504	503	501	501	499	502	498	502	506	500	498	496	500	501	497	497	492	493	491	491	488	487	487	498	508	502	506	504	502	493	492	493	502	508	506	495	491	491	494	497	499	501	500	500	499	496	497	492	488	489	488	487	489	491	491	493	493	494	489	488	490	490	493	495	497	501	494	492	492	493	496	495	492	488	482	484	483	490	498	485	491	491	492	487	488	491	485	484	478	473	473	474	476	476	477	479	479	479	479	478	479	479	483	482	482	481	480	475	485	481	479	479	483	484	479	476	473	474	478	473	469	468	470	471	481	479	474	474	476	477	476	474	469	470	473	476	474	475	475	476	474	472	470	468	473	465	464	466	467	474	475	471	469	466	462	464	468	469	471	474	475	473	470	475	478	477	476	474	474	472	471	472	477	477	477	478	477	476	474	472	468	473	461	460	0	0	0	462	466	463	460	460	461	465	461	460	457	456	453	454	455	456	464	464	466	464	463	466	463	464	461	461	470	472	472	470	466	465	464	469	470	472	465	464	459	459	460	461	464	463	463	459	459	458	457	459	461	462	463	466	461	462	463	466	468	467	462	460	458	460	462	462	459	453	456	460	458	456	456	456	459	457	460	462	462	461	455	455	456	457	454	452	453	453	455	453	454	451	458	458	458	460	457	454	455	450	447	448	449	451	452	457	450	444	452	450	448	440	449	450	451	452	447	447	448	448	445	440	443	440	445	447	447	445	448	447	447	441	442	443	443	446	446	446	451	443	435	440	445	439	433	434	437	448	448	443	437	436	439	442	444	446	436	439	438	437	437	438	437	432	430	430	430	430	430	435	431	426	425	430	428	421	424	428	426	429	431	430	437	443	439	441	439	439	436	438	436	442	445	444	439	436	432	427	426	430	435	437	435	434	431	432	429	430	437	430	430	432	430	429	428	432	433	431	428	426	427	427	426	427	431	432	428	421	419	418	416	421	426	421	422	418	433	428	425	423	423	423	426	425	426	425	423	425	425	425	426	426	427	428	428	428	426	427	426	427	427	427	427	422	424	421	421	420	421	419	419	418	416	419	422	421	0	0	0	0	0	0	0
532	532	536	534	529	525	525	529	529	531	533	533	541	542	534	534	530	530	526	522	529	533	533	529	526	529	528	540	547	547	545	543	537	529	525	530	530	536	539	549	538	536	532	532	538	543	546	547	541	538	537	542	542	541	540	531	528	523	521	519	521	525	529	529	519	517	522	522	524	529	531	521	516	518	518	523	520	520	519	519	519	521	525	528	527	527	524	518	518	520	521	520	517	515	510	508	514	520	510	510	512	515	509	507	505	504	501	506	508	514	512	511	507	507	508	508	495	490	491	497	501	509	510	508	509	508	509	505	502	501	500	500	500	502	498	500	502	497	495	494	495	505	502	498	499	503	510	506	506	499	497	495	501	501	495	496	495	499	493	491	490	493	492	485	493	495	493	494	496	498	502	499	498	498	502	489	492	498	501	496	498	495	491	492	495	492	490	488	478	486	484	481	484	487	489	492	507	499	490	486	491	491	490	493	500	501	495	491	490	493	497	498	498	497	494	495	497	503	500	500	506	507	503	497	486	487	489	491	489	489	485	487	489	494	495	494	490	488	480	482	490	492	492	486	482	481	479	482	484	491	491	479	476	485	485	487	484	480	477	475	476	475	476	474	474	475	479	477	478	475	476	479	480	479	476	478	480	478	475	483	477	480	479	479	485	482	476	475	471	472	470	468	467	468	469	474	477	476	474	474	476	474	463	462	464	467	475	471	475	476	475	474	468	468	467	466	462	463	462	464	468	465	465	466	466	462	463	467	467	470	472	472	470	474	473	476	468	467	468	466	472	472	469	469	466	470	471	468	467	463	460	460	466	466	461	460	456	457	457	451	454	456	461	458	460	457	453	459	457	457	455	454	453	456	462	462	469	465	465	462	465	460	460	458	458	461	462	458	457	455	459	465	463	465	459	461	461	458	459	460	460	460	457	452	450	452	458	457	458	458	463	458	461	460	461	461	462	459	451	453	456	463	461	456	458	455	455	454	450	451	455	455	456	454	452	460	463	454	453	452	454	452	448	448	452	451	453	449	445	445	450	453	458	456	454	449	446	448	450	451	449	447	447	447	444	444	444	439	439	449	445	443	442	444	446	444	438	441	439	443	443	443	442	442	444	447	443	440	437	435	440	441	442	444	441	443	436	432	435	441	439	437	440	446	451	447	447	441	434	430	438	437	434	432	436	434	434	434	438	438	433	429	428	429	430	434	433	430	425	424	429	423	422	423	421	421	426	426	415	421	432	442	441	437	436	436	435	434	440	438	438	440	435	434	428	429	431	434	433	437	428	424	425	425	427	426	431	431	432	433	432	429	429	429	428	425	422	422	422	422	419	424	424	420	417	411	411	411	413	415	430	425	424	420	424	425	421	420	422	421	423	423	423	425	426	424	423	424	424	423	426	426	426	426	425	423	420	421	424	424	422	424	419	419	418	414	412	415	419	422	426	426	423	0	0	0	0	0	0	0
531	531	536	528	527	528	528	525	526	528	533	533	535	527	526	526	524	524	527	525	528	522	519	519	521	526	532	537	538	538	538	535	530	528	525	526	526	533	536	537	531	527	529	533	533	534	535	533	532	529	528	527	526	526	527	528	525	520	517	514	517	522	525	517	517	517	520	524	526	527	527	527	516	516	517	519	518	518	518	517	520	523	523	523	524	525	519	518	511	512	519	511	508	510	505	507	509	509	506	505	506	507	500	495	491	498	503	506	506	509	508	497	499	502	507	509	498	497	493	501	503	507	507	502	498	497	499	498	500	500	498	497	498	497	496	497	500	497	494	495	492	492	491	494	496	499	502	506	506	506	504	501	497	501	492	492	492	494	495	489	488	492	492	493	493	494	495	492	496	494	489	491	493	492	486	486	490	496	496	495	494	491	489	490	492	488	482	484	480	485	481	479	484	484	488	490	494	486	486	488	485	485	487	488	487	494	496	489	490	490	493	497	492	488	487	499	506	507	505	498	501	502	497	494	484	484	487	484	487	488	489	489	487	486	489	490	485	480	481	482	490	491	489	482	480	480	482	480	480	483	490	489	485	486	478	481	480	479	481	480	476	475	476	476	472	474	475	474	472	473	478	479	476	473	473	473	474	474	475	476	474	475	478	481	483	482	477	476	476	473	472	471	465	468	476	478	480	479	476	476	475	470	459	459	461	465	473	473	471	472	471	462	463	466	466	466	462	464	466	466	470	466	465	465	470	468	467	466	466	466	469	468	466	467	470	467	468	473	471	455	453	458	460	457	456	453	458	460	461	459	453	453	454	453	448	456	461	458	458	454	453	456	460	467	458	455	454	458	457	454	459	458	456	452	460	465	471	465	463	465	466	464	457	458	454	446	449	459	458	449	451	458	461	461	457	457	457	458	457	453	459	458	455	447	446	453	453	453	453	455	458	456	454	451	456	457	460	456	450	452	455	457	458	456	454	453	452	453	453	451	452	454	454	453	453	446	450	445	444	448	448	445	442	444	451	449	447	441	440	436	439	444	456	453	449	446	446	448	450	443	446	442	444	445	443	441	439	439	438	438	444	442	442	443	442	442	442	436	434	444	442	435	432	433	443	440	441	436	434	435	437	439	439	441	438	436	433	433	437	439	436	438	441	442	440	439	439	431	428	429	428	428	430	430	436	432	434	433	433	441	436	427	428	433	430	427	423	421	421	422	429	427	426	423	420	420	426	426	415	419	431	431	431	431	433	434	431	430	431	434	435	434	433	434	426	429	431	432	440	430	426	419	422	423	425	426	426	432	432	432	429	428	428	429	429	426	425	426	421	419	420	423	424	420	415	413	413	413	414	414	419	414	414	421	420	419	415	417	420	418	421	421	421	419	424	421	421	421	420	419	421	420	425	427	425	417	416	413	414	419	417	414	414	414	415	414	415	417	418	421	425	422	420	0	0	0	0	0	0	0
531	529	529	527	526	529	533	533	529	533	532	522	522	520	524	525	522	522	527	529	523	524	530	530	530	529	531	532	528	528	524	521	529	525	520	524	524	529	532	533	524	525	530	530	530	523	521	518	518	521	528	526	526	526	527	525	525	524	521	521	522	523	520	517	517	520	522	522	524	526	527	526	513	511	512	513	514	512	510	510	509	507	509	513	513	513	510	507	506	512	513	512	507	506	503	502	501	503	500	500	499	494	494	485	495	502	496	506	502	501	493	489	489	493	497	504	500	500	496	496	502	504	504	498	493	492	492	493	498	500	498	496	496	496	496	497	501	498	495	492	489	486	486	493	496	499	497	503	502	502	495	491	499	491	499	492	491	493	490	491	483	486	489	490	492	493	493	493	483	476	476	478	487	486	483	483	485	488	493	494	491	489	488	487	487	485	479	484	489	494	491	482	482	484	487	487	486	485	486	486	485	486	485	484	484	483	490	496	489	488	486	486	486	485	485	476	467	488	485	479	477	481	488	478	480	477	482	484	486	482	484	481	481	478	483	482	477	477	481	486	486	486	483	484	479	481	478	474	475	477	483	485	485	483	480	472	479	481	478	480	476	475	475	477	470	473	473	475	474	475	475	466	471	474	470	472	472	474	472	474	471	471	474	477	480	480	479	478	477	471	471	468	467	469	470	479	478	476	472	467	466	464	460	460	464	467	469	474	465	461	456	456	463	464	465	467	467	466	465	462	459	457	458	460	461	463	459	461	460	453	456	458	459	461	455	456	454	457	455	457	456	456	451	453	452	450	450	448	449	448	449	448	449	445	445	454	457	455	453	451	451	454	459	451	448	450	447	444	444	456	0	0	0	448	447	445	453	454	455	455	453	452	453	447	445	450	448	454	454	452	451	446	454	454	451	456	454	452	453	452	450	447	446	445	449	444	445	448	449	453	454	454	448	446	449	454	455	453	450	450	454	457	446	447	449	452	451	453	452	450	451	447	446	452	447	447	446	441	437	436	439	437	443	443	444	447	444	435	431	432	434	438	441	442	445	446	444	443	439	448	440	439	436	442	441	438	437	439	439	439	441	443	444	443	442	442	443	440	435	433	437	430	433	437	439	436	440	438	435	435	438	438	438	436	446	442	435	433	431	431	424	423	430	429	429	430	428	428	423	423	422	426	427	432	436	428	428	432	435	436	429	429	429	431	427	423	418	416	422	423	421	423	423	424	424	421	426	428	431	430	430	430	429	429	428	425	426	425	429	426	431	428	428	429	432	425	432	435	433	430	424	426	427	425	425	428	424	424	422	421	419	418	421	428	429	428	427	423	421	418	419	424	423	418	413	412	414	412	412	414	417	414	415	419	419	417	416	415	411	414	418	421	422	416	416	420	416	416	415	415	413	416	421	424	424	420	411	408	408	412	411	410	410	406	410	416	416	419	422	420	415	404	415	415	0	0	0	0	0	0
