0	0	0	0	0	0	0	0	0	0	0	0	0	0	0	0	0	0	0	0	0	0	0	0	0	0	0	0	0	0	0	0	0	0	0	0	0	0	0	0	0	0	0	0	0	0	0	0	0	0	0	0	0	0	0	0	0	0	0	0	0	0	0	0	0	0	0	0	0	0	0	0	0	0	0	0	0	0	0	0	0	0	0	0	0	0	0	0	0	0	0	0	0	0	0	0	0	0	0	0	0	0	0	0	0	0	0	0	0	0	0	0	0	0	0	0	0	0	0	0	0	0	0	0	0	0	0	0	0	0	0	0	0	0	0	1255	1337	1396	1384	1374	1363	1347	1344	1375	1376	1370	1353	1355	1359	1371	1375	1389	1387	1385	1373	1359	1353	1354	1367	1376	1384	1382	1373	1371	1377	1385	1389	1382	1345	1338	1356	1384	1388	1387	1382	1408	1407	1404	1402	1400	1393	1405	1419	1420	1396	1388	1351	1355	1366	1355	1351	1378	1402	1398	1407	1417	1428	1434	1434	1443	1476	1487	1502	1517	1518	1552	1611	1668	1728	1769	1793	1791	1782	1782	1784	1784	1793	1801	1790	1777	1795	1842	1819	1826	1810	1784	1769	1701	1696	1715	1795	1820	1829	1846	1872	1880	1878	1861	1849	1866	1901	1969	2138	2191	2194	2211	2227	2238	2228	2211	2220	2168	2164	2195	2233	2269	2281	2256	2255	2227	2231	2234	2242	2236	2215	2197	2200	2182	2169	2205	2246	2255	2248	2236	2217	2179	2175	2143	1849	1738	1522	1447	1418	1388	1400	1409	1399	1392	1381	1396	1408	1429	1435	1437	1409	1409	1431	1438	1446	1455	1457	1458	1444	1435	1451	1457	1450	1438	1432	1438	1437	1430	1436	1436	1444	1455	1441	1438	1433	1439	1461	1453	1443	1446	1449	1445	1431	1419	1429	1430	1442	1455	1453	1440	1448	1442	1436	1433	1432	1436	1442	1449	1445	1440	1433	1435	1434	1410	1407	1452	1442	1441	1471	1476	1479	1485	1472	1434	1415	1407	1395	1418	1444	1461	1551	1722	1800	1855	1889	1906	1901	1905	1909	1914	1924	1919	1916	1906	1901	1889	1886	1903	1917	1910	1900	1886	1870	1868	1884	1932	1951	1953	1930	1920	1904	1899	1870	1851	1842	1857	1872	1878	1868	1843	1829	1840	1842	1836	1824	1814	1830	1829	1841	1846	1830	1808	1798	1801	1813	1830	1846	1859	1855	1852	1834	1839	1832	1814	1796	1790	1802	1824	1828	1826	1818	1808	1812	1851	1818	1713	1614	1594	1577	1547	1530	1524	1525	1507	1476	1452	1443	1451	1458	1442	1452	1485	1464	1401	1420	1461	1420	1417	1414	1439	1432	1425	1427	1422	1418	1425	1433	1436	1439	1445	1444	1441	1427	1418	1416	1417	1418	1424	1436	1459	1459	1442	1425	1421	1416	1417	1414	1416	1409	1416	1421	1431	1425	1421	1406	1401	1398	1404	1446	1486	1501	1536	1591	1644	1668	1662	1664	1654	1640	1630	1635	1636	1662	1663	1646	1633	1632	1625	1626	1618	1615	1615	1631	1633	1605	1579	1574	1581	1587	1602	1612	1620	1617	1623	1610	1597	1608	1599	1596	1595	1603	1602	1596	1582	1586	1585	1583	1577	1578	1578	1580	1577	1573	1577	1583	1593	1594	1589	1570	1563	1561	1554	1548	1537	1533	1535	1535	1536	1532	1532	1515	1514	1522	1519	1519	1521	1532	1527	1495	1489	1488	1485	1485	1485	1491	1500	1489	1461	1449	1446	1450	1466	1476	1475	1482	1472	1465	1463	1455	1451	1438	1431	1418	1412	1413	1413	1427	1432	1435	1427	1431	1431	1414	1400	1377	1362	1359	1363	1367	1353	1347	1346	1368	1383	1366	1352	1339	0	0	0	0	0	0	0	0	0
0	0	0	0	0	0	0	0	0	0	0	0	0	0	0	0	0	0	0	0	0	0	0	0	0	0	0	0	0	0	0	0	0	0	0	0	0	0	0	0	0	0	0	0	0	0	0	0	0	0	0	0	0	0	0	0	0	0	0	0	0	0	0	0	0	0	0	0	0	0	0	0	0	0	0	0	0	0	0	0	0	0	0	0	0	0	0	0	0	0	0	0	0	0	0	0	0	0	0	0	0	0	0	0	0	0	0	0	0	0	0	0	0	2278	2247	2259	2302	2350	2364	0	0	0	0	2437	2426	2453	2488	2488	2481	2431	2357	0	0	0	0	1253	1333	1422	1406	1374	1366	1346	1344	1353	1374	1367	1359	1343	1347	1359	1369	1382	1393	1391	1373	1360	1363	1364	1369	1372	1379	1372	1368	1367	1368	1376	1373	1366	1358	1358	1368	1396	1398	1397	1390	1404	1402	1395	1391	1392	1383	1388	1427	1430	1399	1386	1392	1370	1360	1384	1371	1392	1419	1420	1414	1430	1437	1437	1436	1432	1447	1467	1473	1490	1504	1547	1597	1664	1735	1787	1798	1800	1805	1814	1812	1806	1803	1797	1784	1783	1788	1819	1815	1796	1768	1778	1780	1725	1720	1734	1808	1833	1836	1836	1841	1855	1864	1868	1845	1844	1864	1929	2095	2162	2188	2185	2182	2175	2174	2167	2198	2190	2177	2185	2210	2214	2239	2227	2206	2176	2179	2190	2214	2216	2199	2175	2152	2127	2122	2115	2119	2097	2101	2106	2132	2097	2092	2076	1793	1643	1535	1433	1398	1365	1386	1419	1425	1402	1379	1399	1416	1439	1443	1445	1436	1419	1431	1437	1448	1455	1457	1461	1458	1462	1468	1456	1448	1435	1424	1427	1422	1423	1427	1429	1438	1460	1473	1436	1425	1424	1439	1456	1454	1444	1443	1447	1437	1427	1433	1435	1436	1450	1452	1436	1447	1444	1441	1436	1436	1442	1452	1466	1466	1466	1463	1457	1428	1416	1436	1437	1443	1465	1460	1476	1480	1479	1439	1428	1423	1428	1440	1431	1457	1469	1568	1656	1773	1810	1849	1871	1885	1891	1899	1909	1920	1923	1916	1899	1893	1881	1877	1882	1895	1911	1883	1863	1837	1823	1835	1858	1871	1878	1863	1862	1859	1849	1841	1807	1800	1798	1809	1818	1814	1802	1798	1823	1835	1823	1811	1798	1795	1786	1792	1802	1807	1785	1763	1764	1785	1801	1803	1789	1774	1781	1814	1813	1800	1774	1762	1768	1786	1802	1813	1804	1779	1741	1729	1782	1770	1736	1673	1550	1508	1503	1512	1519	1507	1494	1474	1461	1469	1468	1466	1460	1459	1482	1463	1405	1424	1457	1438	1427	1420	1438	1432	1424	1426	1425	1428	1434	1437	1441	1448	1435	1432	1434	1432	1422	1422	1421	1416	1418	1434	1462	1465	1454	1439	1433	1426	1425	1436	1432	1424	1425	1427	1430	1434	1440	1440	1438	1428	1449	1462	1514	1529	1563	1606	1639	1638	1638	1640	1629	1619	1617	1621	1619	1624	1617	1605	1584	1574	1567	1584	1591	1595	1604	1613	1604	1589	1569	1558	1567	1578	1582	1579	1584	1575	1545	1548	1566	1571	1569	1577	1581	1582	1576	1564	1555	1556	1553	1544	1539	1538	1543	1547	1550	1550	1549	1550	1550	1544	1537	1506	1526	1529	1520	1512	1513	1514	1512	1516	1512	1514	1517	1510	1496	1471	1449	1432	1453	1478	1477	1463	1451	1421	1419	1440	1450	1440	1423	1410	1407	1412	1406	1418	1437	1447	1439	1412	1391	1390	1398	1416	1410	1397	1384	1374	1384	1400	1414	1424	1422	1408	1391	1378	1378	1376	1366	1355	1349	1349	1349	1340	1338	1328	1321	1315	1313	1303	1304	1319	0	0	0	0	0	0	0	0	0
0	0	0	0	0	0	0	0	0	0	0	0	0	0	0	0	0	0	0	0	0	0	0	0	0	0	0	0	0	0	0	0	0	0	0	0	0	0	0	0	0	0	0	0	0	0	0	0	0	0	0	0	0	0	0	0	0	0	0	0	0	0	0	0	0	0	0	0	0	0	0	0	0	0	0	0	0	0	0	0	0	0	0	0	0	0	0	0	0	0	0	0	0	0	0	0	0	0	0	0	0	0	0	0	2439	2438	2412	0	0	0	0	0	2369	2312	2286	2286	2329	2386	2421	2430	2397	2398	2448	2464	2483	2504	2521	2538	2519	2494	2442	2350	0	0	0	1286	1332	1428	1434	1386	1373	1356	1348	1355	1370	1369	1357	1344	1342	1354	1366	1378	1390	1397	1385	1369	1365	1371	1373	1377	1373	1363	1356	1359	1355	1360	1357	1361	1369	1381	1394	1413	1407	1394	1394	1403	1393	1381	1378	1381	1373	1379	1425	1425	1408	1387	1396	1372	1363	1389	1371	1379	1380	1387	1395	1413	1424	1439	1443	1431	1436	1443	1456	1482	1507	1517	1570	1652	1732	1793	1810	1819	1824	1835	1828	1824	1821	1798	1787	1779	1784	1795	1801	1756	1751	1773	1766	1714	1723	1738	1825	1838	1836	1833	1833	1845	1860	1867	1848	1842	1850	1927	2070	2118	2154	2152	2144	2144	2125	2127	2137	2127	2117	2116	2126	2157	2167	2149	2135	2101	2111	2137	2150	2157	2154	2136	2108	2077	2054	2056	2066	2074	2087	2075	2044	2016	2021	2003	1809	1622	1537	1414	1375	1342	1373	1419	1427	1406	1392	1410	1429	1436	1447	1453	1444	1436	1436	1442	1443	1451	1456	1460	1467	1474	1472	1446	1420	1410	1414	1412	1423	1419	1420	1426	1435	1448	1458	1458	1433	1423	1433	1447	1467	1478	1439	1442	1442	1441	1427	1434	1443	1453	1444	1441	1440	1445	1440	1445	1439	1437	1445	1471	1476	1474	1454	1433	1421	1432	1432	1431	1435	1457	1463	1474	1479	1478	1452	1432	1447	1478	1465	1465	1470	1480	1565	1631	1694	1748	1801	1834	1864	1871	1843	1846	1845	1867	1878	1880	1876	1866	1856	1860	1861	1856	1844	1831	1813	1794	1801	1809	1811	1809	1821	1825	1828	1823	1802	1781	1765	1772	1777	1777	1757	1741	1758	1800	1794	1794	1783	1772	1758	1715	1717	1723	1738	1745	1742	1747	1761	1775	1776	1770	1759	1741	1737	1719	1699	1696	1713	1729	1734	1749	1765	1782	1755	1700	1686	1717	1728	1738	1648	1615	1519	1511	1513	1518	1502	1491	1474	1473	1474	1472	1473	1467	1456	1442	1435	1417	1441	1456	1442	1439	1433	1440	1431	1422	1415	1421	1427	1436	1431	1436	1441	1430	1427	1435	1434	1433	1427	1421	1420	1423	1433	1452	1454	1457	1451	1432	1413	1421	1430	1424	1426	1437	1448	1461	1456	1461	1465	1459	1466	1476	1501	1516	1549	1579	1612	1607	1612	1610	1600	1597	1594	1597	1600	1598	1603	1606	1593	1569	1547	1529	1513	1513	1539	1559	1567	1571	1566	1554	1547	1553	1540	1546	1545	1548	1535	1518	1520	1520	1524	1528	1537	1544	1550	1546	1537	1518	1536	1527	1512	1488	1478	1481	1497	1517	1515	1508	1512	1505	1474	1442	1430	1433	1461	1458	1456	1460	1446	1431	1428	1426	1436	1458	1453	1439	1415	1398	1390	1390	1395	1395	1384	1372	1358	1365	1380	1395	1381	1378	1387	1387	1374	1385	1409	1421	1416	1399	1366	1355	1352	1353	1357	1360	1359	1354	1355	1348	1371	1386	1395	1398	1382	1365	1342	1342	1342	1342	1341	1335	1335	1327	1326	1324	1311	1307	1293	1279	1283	1288	1299	0	0	0	0	0	0	0	0	0
0	0	0	0	0	0	0	0	0	0	0	0	0	0	0	0	0	0	0	0	0	0	0	0	0	0	0	0	0	0	0	0	0	0	0	0	0	0	0	0	0	0	0	0	0	0	0	0	0	0	0	0	0	0	0	0	0	0	0	0	0	0	0	0	0	0	0	0	0	0	0	0	0	0	0	0	0	0	0	0	0	0	0	0	0	0	0	0	0	0	0	0	2482	2516	2545	0	0	0	0	0	0	2595	2547	2509	2492	2469	2438	2387	2373	2408	2429	2406	2383	2356	2347	2341	2369	2417	2450	2456	2444	2421	2460	2485	2502	2521	2532	2530	2518	2496	2446	2397	2254	0	0	1366	1332	1420	1442	1402	1372	1357	1354	1359	1373	1367	1356	1347	1341	1358	1366	1379	1401	1398	1390	1376	1373	1383	1388	1389	1380	1372	1364	1361	1354	1344	1349	1367	1385	1402	1418	1422	1406	1386	1376	1400	1388	1372	1369	1372	1373	1384	1424	1424	1412	1381	1383	1374	1381	1400	1365	1374	1381	1393	1410	1424	1425	1422	1419	1430	1437	1454	1462	1491	1503	1514	1584	1638	1735	1802	1822	1823	1838	1835	1831	1832	1822	1805	1798	1796	1796	1802	1802	1751	1741	1763	1735	1681	1695	1723	1828	1834	1818	1819	1829	1842	1859	1869	1877	1846	1862	1997	2074	2084	2106	2108	2097	2093	2086	2064	2088	2086	2083	2072	2051	2074	2083	2074	2065	2064	2071	2077	2091	2096	2066	2051	2037	2004	1989	2003	2028	2056	2064	2055	2015	1978	1958	1950	1861	1638	1548	1399	1366	1347	1377	1417	1419	1405	1402	1421	1435	1436	1440	1446	1445	1442	1446	1441	1443	1444	1447	1449	1458	1462	1458	1437	1415	1412	1415	1419	1421	1429	1422	1421	1422	1424	1425	1427	1447	1433	1440	1449	1495	1452	1467	1434	1438	1442	1432	1426	1432	1444	1446	1459	1458	1449	1447	1432	1416	1434	1418	1448	1448	1442	1436	1425	1427	1431	1431	1430	1432	1443	1461	1466	1467	1462	1462	1436	1448	1470	1485	1489	1484	1489	1526	1603	1650	1684	1730	1760	1794	1805	1802	1759	1763	1771	1771	1774	1785	1799	1793	1771	1742	1748	1772	1770	1736	1726	1733	1740	1749	1748	1775	1779	1777	1775	1769	1738	1734	1749	1758	1753	1722	1706	1716	1755	1749	1749	1739	1728	1714	1699	1696	1712	1729	1736	1734	1733	1738	1743	1730	1718	1712	1701	1682	1650	1643	1635	1632	1641	1643	1663	1652	1640	1656	1666	1661	1665	1702	1691	1661	1639	1610	1579	1570	1555	1534	1484	1463	1459	1456	1459	1459	1460	1452	1410	1402	1419	1435	1440	1450	1451	1455	1445	1435	1423	1414	1416	1422	1418	1416	1419	1432	1428	1426	1432	1439	1435	1432	1436	1437	1429	1424	1434	1448	1457	1445	1430	1435	1451	1444	1440	1437	1443	1455	1460	1468	1474	1478	1475	1484	1494	1516	1537	1564	1579	1581	1579	1575	1575	1570	1574	1568	1573	1574	1581	1585	1590	1578	1560	1536	1513	1502	1494	1500	1518	1532	1544	1544	1530	1523	1500	1508	1508	1507	1509	1505	1493	1495	1497	1499	1499	1510	1513	1516	1514	1503	1494	1484	1480	1478	1472	1461	1460	1468	1473	1467	1465	1478	1451	1420	1409	1412	1414	1411	1417	1418	1425	1407	1402	1393	1379	1365	1372	1371	1366	1365	1363	1356	1353	1354	1358	1354	1349	1344	1348	1354	1355	1357	1358	1365	1359	1348	1367	1396	1398	1383	1359	1340	1339	1348	1355	1358	1362	1362	1347	1337	1332	1334	1348	1359	1364	1357	1337	1287	1287	1270	1293	1308	1306	1310	1310	1320	1308	1296	1285	1273	1262	1260	1271	1280	0	0	0	0	0	0	0	0	0
0	0	0	0	0	0	0	0	0	0	0	0	0	0	0	0	0	0	0	0	0	0	0	0	0	0	0	0	0	0	0	0	0	0	0	0	0	0	0	0	0	0	0	0	0	0	0	0	0	0	0	0	0	0	0	0	0	0	0	0	0	0	0	0	0	0	0	0	0	0	0	0	0	2429	2426	0	0	2470	2463	2442	2461	2475	0	0	2494	2486	2499	2504	2515	2502	2509	2501	2498	2494	2482	2492	2492	2474	2492	2548	2603	2613	2596	2558	2529	2489	2460	2412	2402	2416	2437	2425	2396	2386	2383	2390	2402	2423	2445	2472	2456	2445	2446	2490	2509	2502	2508	2495	2491	2470	2436	2390	2274	2037	0	1475	1358	1403	1420	1386	1368	1361	1352	1353	1363	1363	1361	1358	1348	1350	1370	1382	1395	1393	1388	1382	1384	1393	1404	1407	1390	1381	1381	1376	1365	1354	1353	1375	1404	1419	1432	1423	1401	1379	1369	1392	1384	1369	1369	1373	1375	1387	1426	1428	1418	1352	1367	1363	1381	1410	1375	1380	1387	1399	1408	1418	1425	1421	1430	1447	1460	1472	1485	1468	1462	1485	1609	1660	1755	1813	1824	1817	1818	1820	1820	1821	1816	1811	1812	1813	1812	1816	1820	1772	1756	1736	1684	1647	1667	1693	1799	1795	1785	1801	1826	1846	1862	1871	1901	1923	1959	2038	2042	2027	2042	2062	2050	2051	2028	2021	2030	2055	2052	2037	2037	2047	2056	2052	2034	2034	2039	2046	2049	2049	2021	2018	1996	1985	1959	1958	1959	1982	2018	2011	1992	1963	1907	1880	1859	1702	1645	1418	1374	1366	1386	1412	1413	1407	1412	1435	1422	1426	1425	1420	1421	1432	1440	1452	1443	1437	1432	1438	1442	1444	1424	1415	1420	1429	1442	1438	1441	1442	1442	1442	1441	1429	1424	1433	1431	1438	1441	1446	1454	1474	1437	1427	1437	1431	1441	1437	1444	1448	1449	1467	1466	1465	1459	1438	1401	1403	1436	1454	1439	1432	1431	1441	1446	1437	1433	1436	1424	1430	1433	1441	1449	1440	1453	1457	1448	1456	1474	1490	1483	1478	1534	1579	1622	1673	1703	1702	1704	1701	1704	1719	1717	1710	1704	1717	1729	1757	1756	1731	1699	1685	1679	1676	1686	1693	1697	1710	1705	1691	1700	1693	1713	1727	1724	1705	1706	1728	1739	1724	1692	1669	1673	1665	1660	1667	1676	1692	1655	1653	1663	1690	1714	1722	1713	1706	1698	1690	1674	1663	1662	1660	1645	1633	1623	1615	1616	1627	1626	1630	1623	1607	1597	1624	1636	1642	1658	1665	1641	1601	1592	1582	1560	1510	1487	1459	1474	1483	1485	1469	1453	1443	1404	1393	1390	1422	1427	1426	1442	1446	1462	1447	1438	1429	1419	1415	1410	1406	1403	1404	1422	1427	1434	1436	1436	1442	1446	1447	1442	1430	1420	1430	1449	1454	1450	1438	1492	1495	1480	1465	1463	1466	1465	1460	1467	1475	1471	1477	1489	1501	1529	1527	1524	1532	1549	1553	1558	1554	1552	1552	1544	1534	1542	1550	1550	1564	1564	1548	1521	1500	1482	1474	1480	1486	1512	1514	1503	1474	1468	1467	1471	1474	1480	1484	1487	1486	1479	1471	1470	1477	1479	1476	1485	1488	1485	1469	1465	1460	1445	1432	1421	1420	1427	1427	1424	1445	1436	1414	1395	1381	1372	1367	1372	1383	1383	1368	1368	1368	1363	1348	1342	1339	1341	1340	1331	1331	1342	1349	1348	1337	1320	1304	1305	1326	1333	1340	1350	1350	1327	1321	1328	1331	1335	1329	1313	1312	1309	1292	1303	1316	1331	1334	1328	1313	1298	1292	1298	1302	1291	1282	1279	1272	1268	1268	1264	1267	1279	1262	1272	1284	1294	1272	1264	1266	1246	1246	1252	1250	1249	0	0	0	0	0	0	0	0	0
0	0	0	0	0	0	0	0	0	0	0	0	0	0	0	0	0	0	0	0	0	0	0	0	0	0	0	0	0	0	0	0	0	0	0	0	0	0	0	0	0	0	0	0	0	0	0	0	0	0	0	0	0	0	0	0	0	0	2471	2469	2458	2450	2472	2498	2497	2495	2500	2524	2520	2495	2468	2468	2471	2467	2460	2462	2475	2464	2483	2502	2513	2506	2476	2467	2465	2456	2452	2485	2524	2524	2512	2509	2480	2481	2465	2454	2443	2425	2423	2434	2470	2509	2532	2524	2504	2483	2466	2425	2405	2428	2444	2440	2425	2410	2407	2404	2402	2415	2436	2441	2442	2427	2419	2420	2431	2442	2442	2443	2398	2368	2373	2340	2242	2030	1835	1596	1384	1376	1380	1367	1369	1369	1362	1352	1356	1363	1370	1373	1363	1367	1372	1380	1389	1387	1383	1383	1394	1402	1406	1406	1402	1390	1382	1376	1377	1370	1366	1380	1408	1422	1417	1410	1392	1386	1377	1381	1375	1370	1373	1373	1369	1370	1409	1412	1406	1352	1355	1355	1370	1403	1378	1385	1391	1397	1404	1413	1423	1437	1454	1468	1479	1488	1487	1460	1464	1517	1555	1671	1789	1804	1807	1810	1806	1806	1813	1812	1810	1802	1809	1820	1820	1833	1835	1791	1766	1715	1632	1622	1639	1661	1755	1767	1771	1795	1820	1860	1902	1943	1987	2026	2026	2008	2010	2015	2011	2018	2008	1985	1996	1999	2008	2015	2013	2008	2001	2003	2009	2000	1998	1997	1980	1936	1913	1913	1928	1941	1942	1910	1886	1864	1874	1893	1939	1957	1955	1936	1874	1858	1801	1696	1639	1442	1391	1386	1405	1412	1415	1418	1419	1435	1430	1415	1421	1413	1415	1425	1434	1444	1443	1431	1426	1432	1435	1415	1390	1385	1403	1415	1429	1438	1440	1441	1437	1442	1448	1447	1440	1433	1420	1428	1435	1442	1427	1442	1428	1426	1434	1426	1429	1423	1429	1439	1447	1452	1473	1464	1446	1407	1402	1416	1447	1467	1450	1444	1442	1444	1450	1447	1440	1433	1420	1427	1429	1429	1430	1437	1442	1455	1440	1432	1442	1474	1471	1465	1523	1562	1604	1654	1647	1660	1669	1680	1681	1693	1704	1688	1676	1681	1708	1734	1738	1711	1677	1637	1618	1621	1635	1654	1665	1663	1644	1660	1664	1668	1671	1675	1668	1673	1679	1696	1707	1701	1672	1651	1640	1644	1646	1643	1641	1608	1597	1596	1626	1666	1687	1692	1679	1661	1652	1641	1627	1618	1626	1618	1610	1595	1600	1600	1599	1610	1622	1613	1596	1580	1561	1558	1583	1605	1622	1625	1615	1593	1564	1540	1498	1484	1490	1495	1513	1526	1508	1477	1466	1428	1410	1393	1424	1421	1423	1458	1439	1454	1468	1447	1434	1434	1431	1426	1414	1408	1412	1414	1412	1432	1441	1439	1439	1446	1456	1467	1468	1471	1474	1475	1469	1454	1442	1434	1470	1482	1478	1473	1467	1467	1469	1464	1456	1466	1467	1473	1481	1493	1510	1500	1495	1504	1515	1521	1534	1531	1523	1514	1489	1476	1470	1468	1484	1484	1477	1480	1468	1446	1439	1448	1453	1442	1436	1439	1434	1437	1433	1420	1422	1428	1425	1430	1449	1453	1450	1455	1441	1424	1439	1451	1461	1469	1459	1433	1429	1432	1424	1409	1398	1398	1398	1402	1396	1378	1361	1348	1350	1342	1334	1343	1341	1349	1351	1343	1341	1352	1348	1337	1322	1321	1324	1323	1309	1306	1324	1338	1338	1323	1302	1289	1287	1296	1313	1331	1336	1315	1302	1297	1304	1302	1309	1281	1258	1260	1265	1266	1262	1277	1293	1303	1302	1290	1277	1272	1268	1262	1252	1246	1245	1255	1271	1271	1272	1260	1261	1250	1245	1259	1262	1251	1243	1241	1231	1227	1237	1243	1240	0	0	0	0	0	0	0	0	0
0	0	0	0	0	0	0	0	0	0	0	0	0	0	0	0	0	0	0	0	0	0	0	0	0	0	0	0	0	0	0	0	0	0	0	0	0	0	2218	2198	2194	0	0	0	0	0	0	2338	2364	2398	2431	2433	2429	2420	2420	2439	2441	2463	2489	2528	2508	2488	2473	2487	2529	2546	2565	2576	2552	2523	2475	2475	2470	2459	2462	2456	2466	2460	2488	2515	2512	2491	2445	2431	2434	2428	2407	2418	2459	2472	2474	2457	2446	2435	2451	2445	2420	2378	2383	2402	2429	2453	2468	2466	2458	2439	2417	2394	2384	2404	2442	2452	2435	2396	2379	2373	2387	2396	2409	2404	2403	2393	2366	2349	2361	2372	2380	2387	2351	2320	2299	2285	2224	1981	1802	1636	1402	1366	1351	1361	1376	1375	1374	1370	1359	1369	1385	1391	1390	1378	1382	1383	1385	1385	1385	1390	1400	1403	1401	1407	1397	1378	1372	1367	1370	1372	1367	1374	1390	1401	1401	1398	1398	1400	1393	1392	1371	1371	1375	1381	1376	1372	1397	1403	1400	1373	1362	1358	1364	1392	1375	1385	1395	1400	1402	1412	1426	1446	1456	1474	1499	1497	1489	1454	1505	1516	1517	1648	1776	1799	1804	1809	1819	1828	1834	1806	1806	1802	1803	1812	1827	1839	1836	1831	1771	1696	1605	1598	1618	1644	1725	1747	1745	1789	1836	1902	1916	1902	1918	1950	1945	1961	1982	1999	1984	1958	1938	1952	1966	1972	1972	1978	1977	1957	1941	1935	1940	1949	1960	1955	1914	1891	1885	1889	1896	1891	1853	1820	1809	1813	1831	1844	1868	1886	1898	1893	1880	1863	1822	1669	1582	1467	1394	1391	1404	1426	1428	1442	1446	1433	1442	1441	1423	1418	1417	1423	1428	1427	1426	1435	1426	1430	1412	1399	1395	1386	1391	1396	1410	1414	1422	1414	1428	1436	1441	1447	1437	1421	1414	1411	1431	1439	1423	1411	1403	1416	1421	1420	1419	1419	1408	1408	1411	1429	1448	1453	1435	1418	1407	1424	1436	1439	1448	1446	1443	1446	1453	1453	1448	1436	1422	1427	1432	1437	1428	1436	1438	1450	1418	1396	1414	1441	1449	1445	1515	1550	1584	1605	1612	1628	1651	1662	1663	1669	1677	1673	1667	1664	1689	1669	1647	1622	1614	1612	1605	1605	1611	1618	1623	1624	1627	1631	1639	1641	1637	1644	1633	1624	1626	1625	1640	1635	1631	1620	1601	1616	1617	1606	1592	1580	1578	1569	1578	1586	1588	1590	1589	1572	1568	1564	1563	1573	1592	1582	1572	1557	1543	1524	1518	1516	1523	1531	1530	1527	1521	1524	1542	1555	1574	1557	1548	1543	1529	1517	1504	1491	1495	1498	1507	1507	1491	1474	1461	1469	1472	1475	1458	1432	1445	1471	1479	1479	1473	1455	1442	1441	1454	1434	1411	1402	1411	1426	1436	1444	1453	1467	1478	1481	1473	1443	1438	1447	1457	1458	1460	1462	1459	1457	1455	1466	1458	1454	1452	1452	1451	1443	1441	1440	1442	1448	1459	1461	1441	1437	1454	1472	1489	1492	1496	1487	1481	1468	1443	1429	1424	1425	1426	1435	1432	1432	1423	1412	1403	1410	1412	1402	1399	1401	1403	1406	1393	1384	1386	1392	1396	1394	1392	1400	1414	1398	1381	1394	1413	1415	1421	1416	1386	1371	1364	1382	1390	1390	1375	1373	1377	1385	1381	1367	1347	1336	1331	1323	1312	1309	1323	1330	1328	1321	1325	1332	1328	1318	1302	1301	1307	1301	1279	1281	1309	1323	1314	1300	1291	1269	1265	1267	1288	1297	1297	1294	1287	1279	1273	1281	1256	1248	1246	1251	1254	1255	1257	1263	1279	1293	1295	1288	1277	1257	1254	1252	1245	1234	1228	1228	1240	1240	1258	1253	1241	1230	1231	1235	1244	1239	1235	1230	1222	1186	1189	1200	1200	0	0	0	0	0	0	0	0	0
0	0	0	0	0	0	0	0	0	0	0	0	0	0	0	0	0	0	0	0	0	0	0	0	0	0	0	0	0	0	2404	0	0	2309	2309	2312	2312	2316	2300	2273	2258	2284	2334	2334	2410	2432	2411	2384	2401	2422	2438	2449	2431	2426	2426	2421	2413	2435	2478	2529	2523	2480	2475	2483	2518	2538	2533	2529	2505	2471	2446	2446	2430	2406	2404	2440	2451	2461	2479	2499	2479	2451	2434	2412	2409	2404	2393	2399	2412	2431	2419	2385	2366	2379	2394	2410	2385	2354	2354	2380	2403	2406	2402	2389	2386	2377	2365	2350	2343	2349	2395	2412	2399	2357	2342	2342	2354	2341	2339	2353	2371	2360	2320	2292	2313	2330	2314	2289	2275	2276	2262	2238	2220	2071	1749	1637	1427	1399	1355	1370	1382	1382	1378	1375	1373	1385	1403	1409	1403	1395	1385	1387	1387	1389	1387	1395	1397	1396	1399	1397	1400	1378	1365	1356	1364	1367	1362	1367	1376	1390	1393	1397	1406	1409	1402	1391	1369	1367	1375	1380	1386	1372	1391	1411	1408	1399	1392	1374	1384	1392	1398	1386	1386	1401	1415	1426	1440	1443	1448	1467	1491	1497	1477	1440	1484	1498	1458	1585	1742	1788	1800	1797	1801	1812	1818	1814	1801	1783	1776	1811	1827	1838	1842	1825	1758	1682	1613	1603	1610	1664	1719	1746	1800	1864	1889	1879	1855	1836	1848	1868	1897	1923	1966	1981	1947	1923	1918	1929	1945	1936	1890	1876	1861	1872	1888	1897	1894	1897	1902	1910	1868	1864	1868	1878	1881	1846	1796	1785	1784	1781	1787	1800	1814	1820	1835	1851	1833	1824	1807	1635	1570	1485	1402	1388	1403	1432	1442	1451	1433	1434	1439	1434	1428	1422	1426	1427	1419	1411	1419	1420	1421	1416	1413	1399	1396	1390	1392	1400	1402	1412	1411	1414	1419	1431	1444	1447	1434	1421	1408	1402	1420	1420	1424	1410	1410	1418	1435	1441	1440	1433	1410	1410	1404	1412	1433	1430	1418	1411	1402	1408	1417	1431	1437	1441	1441	1447	1453	1455	1453	1441	1423	1437	1444	1445	1440	1435	1432	1432	1410	1388	1408	1425	1431	1429	1481	1535	1558	1574	1589	1604	1633	1638	1644	1626	1629	1638	1647	1644	1615	1592	1587	1583	1595	1596	1601	1596	1591	1595	1599	1602	1599	1602	1602	1597	1598	1592	1604	1581	1556	1542	1533	1523	1531	1539	1545	1554	1554	1554	1550	1544	1532	1512	1507	1507	1502	1507	1524	1519	1528	1524	1526	1526	1529	1527	1525	1525	1521	1514	1489	1464	1467	1484	1497	1500	1497	1504	1498	1494	1486	1474	1478	1479	1488	1485	1475	1462	1455	1469	1490	1501	1493	1482	1477	1472	1470	1476	1462	1446	1455	1473	1481	1480	1414	1421	1423	1418	1415	1408	1404	1411	1427	1436	1450	1443	1452	1462	1463	1451	1433	1426	1424	1434	1444	1457	1458	1455	1442	1429	1429	1441	1455	1453	1443	1420	1414	1415	1429	1431	1430	1425	1430	1431	1398	1396	1400	1423	1431	1429	1417	1406	1411	1410	1407	1403	1406	1410	1413	1417	1414	1416	1407	1394	1384	1381	1389	1390	1385	1393	1385	1382	1372	1369	1370	1371	1371	1367	1367	1365	1362	1334	1337	1346	1370	1378	1383	1382	1360	1344	1338	1329	1323	1323	1318	1318	1330	1343	1349	1352	1336	1326	1314	1302	1295	1298	1304	1319	1319	1295	1289	1298	1301	1291	1284	1269	1259	1248	1243	1256	1271	1291	1292	1284	1250	1225	1218	1240	1244	1248	1267	1275	1275	1262	1247	1224	1220	1225	1230	1233	1235	1241	1241	1244	1240	1240	1246	1249	1235	1235	1231	1249	1244	1219	1207	1210	1213	1213	1229	1230	1212	1199	1206	1212	1223	1228	1228	1211	1179	1172	1173	1170	1158	0	0	0	0	0	0	0	0	0
0	0	0	0	0	0	0	0	0	0	0	0	0	0	0	0	0	0	0	0	0	0	0	2320	2329	2360	2360	2431	2471	2461	2434	2404	2392	2362	2362	2345	2346	2356	2358	2350	2335	2356	2403	2403	2452	2469	2456	2431	2428	2444	2446	2439	2423	2386	2386	2379	2392	2422	2449	2462	2458	2447	2463	2480	2493	2508	2480	2470	2460	2440	2399	2399	2378	2317	2302	2317	2405	2436	2445	2440	2405	2396	2392	2387	2382	2379	2368	2382	2397	2397	2366	2328	2311	2322	2349	2354	2316	2296	2295	2316	2335	2347	2347	2340	2323	2322	2315	2308	2287	2280	2321	2349	2361	2302	2293	2310	2317	2307	2299	2307	2317	2298	2228	2199	2209	2209	2191	2198	2200	2201	2211	2185	2163	2062	1724	1636	1454	1420	1385	1375	1369	1373	1370	1370	1386	1405	1417	1411	1405	1397	1389	1389	1385	1386	1393	1395	1395	1394	1398	1394	1400	1383	1369	1357	1364	1366	1369	1366	1386	1392	1392	1395	1401	1401	1397	1385	1365	1365	1371	1379	1388	1388	1398	1419	1419	1424	1416	1401	1394	1395	1394	1382	1384	1413	1436	1452	1447	1438	1430	1450	1461	1481	1458	1421	1462	1476	1474	1593	1740	1784	1782	1780	1784	1788	1795	1799	1784	1758	1769	1797	1825	1831	1848	1812	1748	1723	1673	1619	1635	1689	1763	1799	1821	1851	1848	1836	1821	1814	1820	1839	1872	1899	1915	1901	1863	1857	1863	1866	1869	1853	1821	1793	1781	1793	1841	1857	1839	1812	1801	1802	1788	1743	1754	1760	1762	1769	1776	1774	1788	1798	1796	1776	1764	1768	1806	1811	1770	1738	1768	1724	1542	1506	1418	1386	1399	1421	1431	1428	1424	1426	1440	1438	1432	1427	1427	1411	1417	1422	1420	1417	1415	1425	1420	1407	1394	1387	1380	1390	1411	1422	1426	1424	1427	1431	1444	1446	1440	1432	1414	1415	1413	1415	1405	1405	1417	1428	1440	1440	1435	1429	1424	1420	1412	1404	1429	1429	1417	1409	1422	1424	1413	1420	1430	1437	1439	1441	1447	1450	1453	1432	1423	1426	1445	1447	1457	1443	1440	1436	1405	1381	1401	1402	1415	1430	1464	1506	1533	1545	1548	1552	1568	1582	1589	1588	1581	1580	1579	1567	1556	1553	1563	1564	1567	1570	1580	1577	1578	1577	1564	1560	1562	1569	1564	1517	1505	1514	1532	1538	1533	1518	1505	1489	1482	1478	1493	1499	1499	1499	1510	1506	1501	1489	1484	1485	1487	1491	1499	1513	1521	1516	1505	1485	1474	1478	1489	1485	1481	1465	1443	1437	1438	1443	1446	1445	1473	1476	1467	1463	1458	1453	1451	1446	1448	1440	1430	1412	1421	1448	1462	1472	1473	1470	1456	1437	1426	1416	1422	1422	1399	1416	1419	1408	1395	1375	1374	1377	1396	1409	1419	1429	1433	1424	1416	1419	1428	1431	1421	1406	1397	1402	1413	1423	1428	1434	1403	1388	1378	1372	1366	1363	1360	1368	1380	1386	1372	1381	1383	1377	1376	1383	1387	1388	1375	1378	1380	1389	1394	1386	1380	1370	1371	1379	1396	1386	1380	1380	1385	1386	1385	1385	1381	1378	1371	1371	1377	1383	1384	1380	1349	1345	1353	1357	1354	1352	1349	1335	1330	1328	1320	1295	1287	1272	1276	1292	1321	1324	1312	1304	1303	1299	1289	1278	1263	1259	1255	1259	1264	1288	1281	1263	1250	1253	1258	1269	1282	1291	1288	1268	1251	1265	1265	1261	1247	1236	1234	1231	1233	1239	1249	1260	1246	1238	1198	1192	1197	1209	1220	1231	1242	1250	1253	1243	1232	1218	1211	1216	1215	1217	1219	1211	1213	1214	1217	1210	1195	1187	1176	1175	1198	1219	1218	1213	1203	1183	1166	1166	1151	1145	1140	1138	1144	1146	1173	1185	1184	1172	1162	1161	1160	1152	1147	0	0	0	0	0	0	0	0	0
0	0	0	0	0	0	0	0	0	0	0	0	2279	2279	2239	2248	0	0	0	0	0	2313	2347	2368	2399	2406	2406	2426	2433	2430	2424	2413	2427	2404	2404	2396	2387	2389	2404	2406	2394	2404	2422	2422	2433	2420	2408	2413	2417	2424	2415	2385	2361	2343	2343	2356	2371	2395	2414	2414	2390	2398	2425	2440	2447	2446	2441	2428	2390	2353	2322	2322	2283	2259	2234	2237	2268	2306	2299	2335	2330	2330	2328	2318	2301	2285	2299	2330	2352	2339	2297	2279	2265	2266	2259	2261	2247	2238	2237	2249	2259	2290	2291	2266	2229	2214	2250	2245	2195	2203	2237	2267	2210	2223	2237	2243	2254	2262	2251	2223	2185	2178	2154	2127	2135	2119	2097	2104	2122	2128	2123	2110	2086	2028	1787	1691	1498	1422	1384	1342	1342	1351	1355	1362	1397	1411	1403	1403	1400	1395	1391	1386	1380	1382	1393	1399	1393	1396	1398	1394	1391	1388	1378	1364	1366	1369	1374	1375	1391	1396	1389	1386	1386	1390	1387	1380	1366	1359	1360	1378	1384	1379	1399	1422	1423	1428	1429	1415	1394	1387	1397	1390	1386	1422	1448	1462	1449	1428	1422	1436	1445	1455	1445	1417	1453	1472	1537	1594	1754	1782	1770	1771	1777	1778	1779	1779	1783	1776	1791	1806	1813	1817	1815	1790	1766	1718	1689	1670	1679	1704	1746	1788	1806	1815	1818	1803	1786	1773	1782	1809	1838	1858	1857	1820	1794	1796	1795	1776	1772	1768	1758	1753	1747	1761	1782	1795	1797	1774	1728	1706	1703	1699	1694	1694	1697	1703	1729	1741	1749	1749	1746	1735	1730	1732	1726	1711	1706	1710	1715	1682	1542	1518	1435	1389	1404	1424	1425	1416	1420	1427	1429	1433	1421	1410	1410	1414	1422	1428	1430	1428	1430	1430	1433	1414	1402	1391	1389	1395	1397	1418	1430	1431	1426	1427	1439	1443	1445	1438	1422	1417	1410	1410	1411	1412	1419	1433	1441	1434	1417	1415	1433	1447	1454	1421	1423	1425	1440	1424	1419	1430	1446	1437	1437	1434	1429	1431	1407	1398	1404	1428	1419	1420	1430	1426	1431	1442	1442	1447	1423	1396	1417	1417	1423	1434	1460	1491	1516	1520	1521	1518	1532	1533	1542	1529	1516	1530	1535	1532	1521	1492	1493	1497	1512	1521	1533	1534	1542	1528	1509	1502	1511	1502	1482	1477	1475	1479	1490	1505	1506	1490	1470	1456	1453	1445	1444	1434	1436	1446	1454	1471	1482	1495	1497	1491	1482	1467	1462	1470	1470	1472	1472	1463	1455	1455	1459	1444	1432	1430	1427	1425	1418	1402	1398	1402	1401	1410	1430	1429	1425	1426	1423	1414	1411	1406	1394	1379	1381	1395	1414	1430	1437	1436	1426	1409	1396	1375	1345	1349	1370	1391	1402	1389	1373	1364	1355	1367	1384	1402	1411	1406	1397	1383	1393	1402	1413	1416	1409	1401	1389	1387	1400	1407	1403	1376	1378	1368	1360	1361	1362	1358	1350	1354	1359	1364	1349	1340	1339	1346	1357	1365	1359	1365	1350	1347	1351	1355	1360	1354	1348	1347	1348	1348	1348	1336	1332	1351	1353	1354	1355	1351	1349	1339	1343	1346	1350	1357	1362	1344	1330	1313	1315	1327	1339	1337	1314	1267	1250	1255	1261	1262	1258	1254	1250	1258	1269	1276	1257	1251	1242	1251	1246	1244	1238	1235	1236	1235	1234	1231	1232	1234	1242	1242	1245	1257	1269	1271	1262	1250	1229	1221	1225	1238	1242	1241	1220	1219	1220	1221	1218	1216	1215	1205	1190	1191	1193	1195	1204	1210	1220	1220	1222	1228	1208	1209	1206	1205	1201	1198	1192	1182	1187	1195	1197	1191	1177	1150	1136	1133	1139	1153	1172	1179	1178	1169	1157	1157	1145	1132	1129	1126	1116	1115	1119	1121	1122	1123	1131	1133	1137	1134	1133	0	0	0	0	0	0	0	0	0
0	0	0	0	0	0	2275	2275	2319	2360	2358	2326	2283	2283	2244	2241	2274	2315	2319	2319	2321	2319	2331	2373	2398	2391	2391	2379	2376	2355	2363	2367	2389	2403	2403	2389	2391	2400	2400	2415	2408	2398	2392	2392	2383	2371	2359	2352	2334	2330	2349	2337	2322	2318	2318	2328	2341	2361	2364	2341	2336	2330	2341	2362	2386	2380	2378	2338	2272	2253	2259	2259	2253	2235	2220	2233	2254	2244	2212	2230	2224	2238	2252	2236	2221	2222	2234	2244	2274	2265	2245	2231	2210	2189	2152	2143	2187	2197	2206	2226	2242	2241	2238	2167	2150	2141	2171	2155	2114	2105	2099	2123	2136	2142	2149	2126	2081	2079	2090	2091	2094	2105	2126	2104	2083	2053	2036	2026	2023	1986	1968	1954	1951	1967	1785	1676	1522	1420	1382	1321	1312	1334	1343	1358	1396	1401	1391	1385	1384	1383	1380	1371	1367	1382	1397	1399	1396	1395	1397	1391	1384	1393	1379	1367	1362	1368	1373	1385	1386	1390	1379	1372	1368	1362	1362	1372	1365	1364	1364	1370	1373	1372	1403	1421	1423	1423	1417	1394	1378	1377	1379	1400	1399	1424	1442	1452	1423	1402	1406	1429	1436	1445	1442	1430	1466	1488	1547	1696	1773	1742	1750	1770	1791	1798	1796	1795	1806	1814	1809	1805	1796	1792	1792	1775	1729	1702	1684	1705	1721	1734	1753	1773	1792	1816	1810	1796	1770	1757	1736	1742	1752	1772	1775	1765	1751	1771	1754	1713	1698	1713	1722	1696	1687	1683	1694	1715	1711	1693	1677	1666	1669	1673	1659	1652	1651	1648	1651	1675	1669	1671	1669	1687	1704	1711	1703	1690	1682	1678	1684	1633	1554	1533	1454	1404	1415	1427	1416	1410	1415	1418	1421	1419	1415	1414	1417	1421	1427	1431	1438	1434	1428	1424	1430	1437	1421	1409	1403	1404	1406	1414	1430	1443	1433	1422	1427	1430	1435	1429	1426	1415	1409	1412	1416	1419	1419	1436	1439	1431	1423	1416	1431	1446	1459	1452	1442	1426	1420	1415	1415	1423	1435	1436	1432	1418	1413	1419	1414	1413	1409	1414	1416	1420	1420	1418	1414	1408	1457	1419	1461	1408	1443	1442	1431	1442	1464	1473	1486	1495	1501	1500	1495	1484	1479	1480	1486	1495	1506	1492	1469	1440	1429	1445	1481	1497	1497	1490	1493	1482	1463	1466	1459	1449	1453	1454	1453	1452	1449	1456	1465	1457	1441	1432	1435	1419	1410	1397	1392	1392	1407	1424	1455	1477	1476	1476	1456	1441	1428	1415	1408	1418	1433	1433	1418	1406	1403	1405	1416	1425	1420	1412	1392	1385	1384	1383	1383	1387	1392	1392	1394	1399	1399	1401	1394	1392	1400	1407	1413	1409	1412	1410	1413	1408	1325	1322	1334	1334	1308	1298	1307	1351	1362	1360	1351	1335	1325	1325	1336	1339	1359	1364	1351	1357	1369	1379	1385	1382	1386	1368	1358	1346	1340	1353	1351	1343	1347	1348	1342	1347	1359	1354	1339	1333	1332	1331	1324	1313	1312	1318	1327	1332	1341	1326	1317	1313	1306	1295	1283	1289	1300	1316	1320	1315	1287	1284	1291	1295	1306	1314	1326	1320	1326	1308	1304	1300	1309	1316	1318	1315	1299	1284	1277	1278	1297	1300	1251	1210	1199	1199	1205	1217	1229	1236	1237	1237	1240	1245	1242	1229	1211	1199	1200	1211	1210	1214	1223	1225	1224	1226	1223	1221	1231	1235	1232	1233	1228	1220	1217	1216	1196	1196	1197	1211	1207	1202	1192	1177	1176	1183	1197	1200	1202	1200	1195	1191	1190	1185	1191	1195	1195	1184	1185	1190	1198	1207	1203	1197	1192	1185	1163	1164	1170	1175	1174	1168	1157	1137	1123	1122	1123	1130	1138	1145	1152	1151	1148	1148	1146	1142	1128	1121	1111	1109	1111	1112	1114	1120	1114	1114	1122	1117	1116	0	0	0	0	0	0	0	0	0
0	0	0	0	2242	2246	2255	2255	2275	2261	2302	2286	2270	2270	2245	2264	2289	2309	2307	2307	2300	2305	2337	2350	2346	2324	2324	2326	2322	2321	2268	2287	2323	2378	2378	2385	2377	2377	2401	2415	2387	2352	2345	2345	2328	2310	2295	2265	2254	2256	2270	2269	2252	2248	2248	2266	2292	2312	2297	2267	2259	2251	2255	2262	2265	2255	2248	2232	2226	2238	2238	2238	2227	2224	2226	2237	2233	2222	2204	2189	2184	2178	2189	2187	2180	2173	2184	2188	2180	2157	2145	2142	2136	2125	2104	2098	2105	2119	2143	2180	2216	2226	2180	2111	2097	2098	2113	2106	2088	2082	2085	2089	2104	2105	2083	2040	2013	2014	2023	2031	2043	2069	2090	2054	1994	1971	1950	1927	1934	1922	1900	1892	1889	1886	1760	1645	1554	1427	1370	1319	1309	1336	1352	1367	1392	1390	1385	1384	1379	1374	1358	1350	1354	1376	1395	1403	1401	1393	1391	1385	1369	1388	1381	1372	1370	1366	1375	1383	1387	1381	1370	1366	1358	1348	1356	1365	1363	1357	1362	1369	1373	1379	1409	1422	1423	1412	1387	1377	1371	1377	1384	1397	1418	1423	1426	1416	1398	1396	1408	1424	1446	1456	1452	1451	1485	1506	1518	1651	1711	1704	1714	1744	1771	1768	1760	1767	1779	1796	1798	1784	1770	1766	1770	1748	1695	1670	1661	1659	1661	1696	1708	1750	1752	1753	1741	1740	1739	1730	1708	1700	1696	1698	1696	1684	1685	1693	1701	1690	1674	1666	1668	1664	1645	1639	1638	1646	1663	1650	1646	1639	1638	1620	1618	1619	1625	1627	1629	1643	1644	1637	1637	1650	1659	1665	1657	1637	1629	1641	1645	1615	1549	1499	1454	1420	1430	1429	1414	1409	1410	1413	1414	1412	1415	1419	1427	1429	1430	1425	1434	1430	1423	1420	1424	1433	1434	1413	1404	1412	1411	1410	1415	1435	1426	1425	1424	1430	1428	1417	1417	1433	1440	1437	1411	1410	1427	1432	1439	1441	1436	1426	1420	1435	1446	1440	1424	1414	1404	1412	1419	1427	1432	1427	1430	1427	1422	1424	1430	1429	1438	1428	1420	1421	1424	1401	1395	1412	1445	1463	1426	1451	1466	1446	1457	1436	1430	1431	1457	1444	1448	1448	1448	1447	1451	1452	1456	1457	1461	1460	1446	1426	1425	1445	1460	1460	1440	1431	1427	1427	1434	1430	1428	1422	1417	1412	1398	1399	1415	1431	1428	1419	1406	1396	1387	1389	1394	1391	1386	1387	1390	1414	1425	1418	1430	1437	1403	1389	1371	1358	1350	1356	1370	1369	1363	1361	1358	1362	1375	1387	1380	1361	1338	1343	1356	1374	1379	1374	1372	1371	1373	1378	1382	1385	1379	1375	1375	1384	1390	1382	1378	1340	1332	1318	1314	1332	1335	1324	1302	1295	1298	1306	1313	1320	1325	1324	1323	1326	1328	1328	1328	1328	1323	1310	1308	1325	1333	1346	1349	1342	1338	1331	1310	1313	1304	1304	1298	1309	1325	1336	1347	1345	1333	1320	1316	1311	1299	1290	1288	1291	1298	1307	1301	1303	1297	1296	1283	1271	1256	1251	1269	1286	1297	1270	1259	1263	1275	1288	1274	1272	1280	1262	1268	1259	1270	1269	1258	1259	1262	1264	1259	1257	1253	1251	1252	1233	1214	1200	1187	1184	1189	1201	1214	1218	1213	1214	1219	1224	1229	1220	1202	1190	1183	1182	1193	1200	1214	1218	1221	1215	1210	1209	1212	1223	1220	1208	1194	1187	1184	1178	1171	1178	1178	1180	1184	1182	1175	1164	1170	1176	1183	1183	1189	1192	1187	1186	1181	1180	1175	1167	1174	1181	1184	1184	1183	1184	1176	1171	1158	1149	1152	1152	1155	1157	1155	1150	1144	1126	1119	1118	1119	1120	1129	1139	1146	1156	1153	1153	1143	1137	1125	1114	1107	1105	1106	1105	1106	1107	1105	1103	1095	1101	1098	0	0	0	0	0	0	0	0	0
0	0	0	2222	2221	2235	2237	2237	2233	2227	2227	2245	2232	2232	2243	2267	2296	2316	2304	2304	2290	2287	2297	2288	2268	2267	2267	2258	2243	2196	2180	2204	2239	2281	2281	2331	2352	2359	2343	2317	2318	2296	2285	2285	2257	2235	2226	2201	2185	2185	2204	2212	2211	2203	2203	2217	2235	2249	2231	2224	2227	2232	2244	2243	2237	2215	2193	2204	2215	2220	2220	2220	2196	2183	2194	2200	2200	2194	2180	2186	2186	2166	2148	2129	2128	2131	2135	2134	2101	2089	2068	2067	2094	2086	2075	2054	2055	2056	2049	2088	2125	2131	2063	2026	2039	2054	2081	2075	2065	2070	2075	2074	2077	2062	2011	1948	1948	1967	1976	1986	2003	2030	2027	1966	1945	1918	1905	1881	1864	1879	1880	1883	1878	1858	1734	1641	1576	1442	1361	1340	1331	1355	1368	1373	1387	1381	1383	1380	1373	1356	1343	1334	1346	1373	1392	1402	1397	1392	1387	1375	1368	1384	1391	1390	1380	1374	1376	1384	1388	1376	1366	1365	1363	1359	1354	1358	1361	1355	1357	1363	1366	1376	1409	1421	1421	1408	1370	1364	1372	1390	1390	1409	1422	1419	1410	1400	1410	1387	1403	1428	1440	1458	1459	1461	1474	1498	1491	1597	1684	1686	1685	1692	1719	1718	1720	1730	1748	1766	1762	1746	1732	1731	1718	1715	1670	1646	1640	1651	1655	1644	1638	1636	1653	1672	1703	1705	1702	1692	1688	1677	1674	1666	1664	1661	1667	1675	1678	1669	1650	1640	1634	1619	1604	1624	1631	1642	1646	1638	1626	1619	1611	1605	1597	1595	1597	1603	1597	1596	1605	1608	1612	1608	1597	1590	1584	1589	1595	1607	1614	1595	1509	1475	1458	1442	1442	1422	1406	1405	1406	1410	1408	1408	1413	1423	1435	1438	1433	1427	1424	1421	1419	1414	1418	1424	1424	1410	1402	1405	1402	1394	1396	1402	1409	1417	1425	1431	1443	1451	1456	1454	1437	1423	1405	1411	1420	1434	1456	1468	1465	1451	1444	1435	1427	1427	1422	1415	1413	1411	1415	1414	1415	1418	1420	1419	1418	1420	1428	1434	1432	1420	1404	1410	1415	1408	1408	1416	1409	1418	1434	1441	1449	1464	1434	1417	1409	1425	1432	1430	1428	1431	1431	1430	1432	1434	1419	1413	1408	1415	1422	1419	1409	1397	1385	1378	1354	1360	1367	1376	1373	1384	1390	1386	1379	1361	1360	1360	1361	1362	1373	1382	1378	1370	1372	1383	1383	1376	1369	1360	1363	1377	1375	1363	1362	1370	1363	1363	1359	1346	1343	1342	1343	1340	1330	1326	1323	1335	1354	1366	1361	1346	1335	1340	1348	1357	1366	1358	1353	1348	1350	1355	1362	1363	1359	1357	1349	1351	1352	1308	1305	1314	1321	1321	1328	1320	1319	1311	1292	1288	1288	1296	1302	1294	1298	1312	1313	1314	1310	1310	1308	1306	1296	1296	1297	1289	1289	1292	1297	1302	1309	1304	1295	1294	1291	1284	1272	1263	1258	1261	1261	1281	1282	1279	1265	1259	1258	1253	1265	1270	1277	1269	1251	1244	1235	1235	1243	1236	1229	1226	1234	1239	1248	1248	1244	1240	1254	1247	1235	1234	1233	1224	1222	1236	1243	1228	1209	1206	1202	1209	1227	1239	1244	1238	1223	1203	1187	1182	1177	1172	1178	1184	1195	1201	1195	1199	1205	1211	1207	1202	1196	1192	1186	1175	1166	1174	1188	1198	1202	1202	1192	1181	1173	1161	1161	1168	1174	1173	1167	1154	1155	1157	1162	1163	1159	1158	1142	1148	1158	1167	1158	1151	1162	1172	1173	1169	1164	1155	1143	1150	1160	1166	1179	1182	1171	1174	1167	1155	1148	1137	1137	1140	1142	1139	1138	1134	1130	1126	1120	1119	1116	1115	1121	1126	1137	1149	1148	1148	1131	1118	1104	1106	1097	1095	1095	1095	1091	1086	1082	1080	1081	1082	1081	0	0	0	0	0	0	0	0	0
2144	2171	2171	2195	2207	2208	2201	2201	2190	2196	2206	2205	2207	2207	2214	2230	2271	2271	2246	2246	2245	2265	2267	2223	2208	2187	2187	2175	2142	2133	2144	2153	2170	2209	2209	2236	2236	2172	2167	2169	2178	2201	2220	2220	2216	2204	2197	2179	2146	2165	2171	2188	2170	2169	2169	2165	2179	2187	2186	2197	2198	2215	2221	2225	2200	2177	2166	2166	2191	2195	2160	2160	2134	2110	2135	2141	2147	2140	2142	2156	2173	2150	2093	2061	2054	2048	2048	2055	2057	2052	2048	2049	2052	2065	2049	1996	1989	2008	2032	2055	2068	2037	1938	1939	1978	2007	2018	2026	2031	2009	1974	1966	1993	1972	1939	1923	1926	1938	1950	1944	1948	1942	1885	1875	1877	1883	1868	1852	1836	1838	1858	1873	1876	1858	1746	1628	1570	1459	1381	1355	1350	1367	1381	1384	1382	1385	1384	1379	1365	1347	1333	1329	1339	1366	1389	1396	1389	1383	1379	1374	1370	1392	1401	1397	1390	1380	1376	1381	1386	1372	1363	1362	1365	1360	1355	1360	1361	1358	1356	1359	1362	1377	1416	1424	1419	1401	1373	1370	1381	1400	1393	1397	1409	1402	1391	1393	1391	1393	1405	1426	1444	1455	1449	1456	1467	1478	1482	1571	1662	1658	1656	1646	1658	1674	1692	1706	1719	1721	1697	1653	1626	1624	1645	1660	1656	1638	1629	1636	1641	1621	1616	1617	1627	1635	1644	1650	1641	1665	1661	1653	1650	1644	1635	1633	1642	1647	1648	1623	1617	1606	1594	1588	1586	1594	1616	1632	1633	1624	1613	1604	1606	1599	1591	1586	1584	1586	1564	1555	1563	1580	1589	1587	1574	1560	1555	1557	1578	1597	1584	1562	1517	1474	1471	1469	1454	1407	1389	1404	1414	1417	1410	1401	1410	1423	1435	1437	1433	1419	1416	1413	1414	1415	1417	1418	1417	1416	1408	1399	1392	1385	1379	1387	1391	1406	1419	1431	1442	1447	1440	1446	1429	1419	1405	1401	1403	1426	1439	1451	1448	1447	1442	1431	1429	1419	1415	1415	1409	1406	1407	1405	1404	1413	1417	1414	1415	1419	1428	1431	1426	1410	1406	1399	1387	1392	1401	1398	1392	1400	1410	1420	1422	1415	1415	1415	1412	1390	1384	1386	1396	1405	1414	1419	1423	1417	1401	1389	1377	1365	1367	1372	1365	1363	1352	1349	1345	1347	1351	1360	1363	1366	1361	1355	1352	1338	1344	1345	1346	1338	1326	1328	1339	1342	1353	1372	1370	1358	1348	1329	1325	1324	1355	1354	1346	1345	1354	1361	1361	1354	1351	1353	1351	1339	1329	1323	1325	1336	1339	1345	1340	1335	1325	1333	1340	1341	1347	1334	1337	1333	1331	1330	1334	1326	1323	1327	1290	1294	1289	1284	1290	1296	1301	1304	1308	1304	1295	1286	1266	1275	1279	1284	1286	1285	1289	1293	1294	1289	1285	1275	1271	1276	1284	1285	1275	1267	1256	1259	1255	1256	1271	1273	1263	1277	1277	1270	1257	1245	1245	1236	1236	1238	1226	1224	1230	1231	1238	1243	1239	1227	1237	1236	1236	1227	1218	1218	1224	1229	1228	1225	1220	1220	1228	1233	1229	1222	1214	1200	1201	1201	1203	1194	1194	1191	1191	1198	1198	1196	1192	1193	1198	1209	1230	1227	1217	1204	1189	1179	1171	1164	1166	1171	1185	1186	1179	1174	1173	1188	1186	1183	1187	1185	1180	1176	1170	1169	1174	1182	1183	1184	1181	1173	1162	1154	1153	1154	1159	1168	1164	1139	1127	1121	1118	1124	1134	1126	1122	1133	1139	1142	1139	1143	1144	1155	1159	1155	1142	1122	1121	1132	1140	1153	1158	1153	1152	1151	1144	1148	1138	1128	1125	1112	1107	1109	1124	1120	1126	1125	1119	1113	1109	1105	1105	1109	1107	1108	1109	1109	1104	1090	1078	1068	1067	1081	1085	1085	1081	1075	1065	1073	1076	1077	1068	0	0	0	0	0	0	0	0	0
2101	2112	2112	2132	2136	2131	2133	2133	2144	2163	2179	2177	2150	2150	2144	2165	2165	2145	2163	2163	2175	2204	2210	2185	2162	2150	2150	2111	2090	2099	2112	2126	2134	2143	2143	2152	2135	2121	2125	2118	2127	2119	2135	2135	2165	2186	2181	2165	2144	2162	2177	2165	2142	2123	2123	2107	2122	2162	2176	2183	2179	2183	2179	2158	2116	2104	2097	2098	2095	2113	2079	2079	2030	2024	2050	2071	2071	2063	2055	2067	2072	2065	2028	2001	1994	1999	1964	1958	1990	2012	2019	2026	2027	2020	1991	1923	1872	1871	1961	2016	2012	1930	1896	1903	1933	1960	1952	1949	1930	1904	1881	1876	1882	1887	1890	1897	1899	1896	1887	1871	1860	1856	1824	1801	1817	1823	1824	1817	1817	1822	1851	1870	1884	1882	1792	1619	1567	1488	1389	1360	1366	1385	1388	1381	1378	1391	1385	1376	1364	1348	1336	1332	1345	1366	1386	1392	1397	1390	1380	1372	1373	1395	1398	1396	1384	1369	1367	1373	1373	1365	1364	1364	1360	1359	1359	1365	1371	1375	1367	1366	1371	1390	1424	1426	1419	1401	1390	1386	1402	1412	1396	1383	1389	1391	1392	1398	1406	1407	1418	1431	1447	1457	1450	1453	1467	1478	1482	1554	1628	1622	1611	1631	1649	1661	1671	1666	1654	1643	1619	1589	1578	1579	1598	1619	1611	1611	1612	1590	1582	1593	1587	1595	1602	1603	1598	1582	1578	1579	1586	1611	1597	1585	1602	1604	1612	1621	1604	1607	1605	1592	1581	1567	1563	1569	1592	1613	1608	1604	1604	1614	1622	1619	1603	1568	1568	1562	1541	1529	1541	1553	1574	1555	1546	1541	1533	1542	1550	1546	1499	1480	1501	1490	1489	1485	1453	1394	1376	1402	1418	1426	1413	1409	1411	1423	1432	1432	1425	1419	1415	1415	1413	1414	1417	1422	1425	1424	1417	1401	1387	1380	1372	1384	1386	1393	1406	1414	1427	1424	1424	1411	1404	1403	1394	1391	1401	1414	1424	1429	1430	1430	1418	1420	1432	1425	1407	1397	1392	1392	1387	1389	1399	1408	1413	1409	1414	1405	1406	1423	1412	1403	1398	1388	1379	1384	1394	1389	1380	1380	1388	1394	1390	1391	1404	1399	1381	1371	1361	1357	1351	1357	1360	1372	1381	1379	1377	1374	1360	1342	1314	1307	1309	1318	1312	1316	1327	1336	1343	1349	1354	1359	1359	1356	1354	1338	1337	1334	1337	1335	1324	1310	1312	1323	1332	1340	1342	1322	1315	1310	1304	1297	1312	1332	1338	1343	1350	1349	1348	1356	1363	1359	1342	1330	1327	1327	1328	1328	1323	1320	1322	1316	1311	1312	1313	1319	1321	1321	1310	1311	1309	1311	1307	1278	1281	1277	1280	1284	1275	1267	1275	1276	1279	1279	1284	1281	1272	1255	1253	1253	1271	1274	1272	1263	1252	1231	1232	1234	1245	1250	1254	1251	1249	1243	1242	1243	1243	1242	1236	1232	1240	1241	1231	1228	1229	1220	1210	1200	1206	1199	1207	1216	1211	1206	1208	1216	1214	1207	1203	1210	1215	1220	1226	1208	1207	1210	1215	1222	1225	1221	1217	1213	1219	1222	1214	1203	1185	1175	1181	1186	1190	1189	1189	1188	1191	1188	1184	1185	1181	1180	1184	1190	1193	1166	1158	1165	1172	1172	1167	1158	1149	1154	1160	1163	1161	1155	1154	1155	1162	1162	1164	1157	1153	1151	1162	1168	1172	1170	1168	1148	1135	1130	1129	1137	1140	1143	1150	1156	1159	1136	1135	1138	1140	1137	1130	1124	1115	1115	1117	1126	1128	1119	1122	1129	1146	1137	1113	1103	1110	1115	1114	1106	1096	1109	1108	1114	1127	1121	1100	1086	1076	1078	1085	1091	1095	1112	1111	1108	1098	1099	1099	1096	1093	1093	1100	1101	1097	1097	1089	1081	1069	1060	1060	1068	1071	1071	1067	1062	1057	1066	1073	1068	1064	0	0	0	0	0	0	0	0	0
2039	2047	2047	2069	2077	2067	2072	2072	2089	2121	2147	2104	2075	2075	2059	2062	2055	2051	2068	2068	2088	2129	2146	2137	2107	2082	2082	2071	2069	2066	2093	2102	2103	2099	2099	2093	2084	2076	2089	2088	2087	2095	2110	2110	2129	2150	2155	2147	2146	2152	2134	2133	2123	2105	2105	2082	2080	2122	2165	2170	2155	2127	2107	2078	2071	2059	2059	2053	2046	2026	1994	1994	1967	1972	1975	1976	1987	1994	1995	1995	1986	1965	1942	1930	1936	1933	1929	1924	1945	1975	1973	1944	1946	1941	1922	1890	1856	1828	1847	1891	1916	1907	1907	1902	1885	1884	1871	1858	1859	1858	1840	1851	1857	1862	1869	1872	1849	1824	1804	1792	1802	1779	1772	1734	1782	1796	1797	1797	1796	1799	1819	1831	1836	1840	1837	1650	1570	1504	1389	1341	1362	1388	1377	1363	1370	1386	1381	1377	1359	1353	1346	1351	1362	1380	1390	1397	1406	1404	1389	1371	1369	1387	1388	1383	1358	1341	1347	1357	1358	1359	1358	1364	1360	1365	1370	1375	1384	1391	1392	1385	1383	1390	1431	1423	1412	1399	1399	1396	1405	1392	1374	1380	1386	1387	1393	1393	1396	1398	1411	1433	1453	1455	1455	1459	1465	1478	1492	1569	1576	1569	1593	1618	1640	1639	1620	1604	1585	1585	1576	1560	1539	1532	1550	1584	1590	1583	1569	1553	1540	1537	1540	1557	1563	1568	1566	1555	1548	1549	1559	1566	1559	1552	1566	1568	1569	1557	1568	1589	1587	1570	1553	1539	1538	1544	1555	1570	1575	1550	1541	1564	1563	1552	1540	1517	1514	1522	1533	1532	1528	1534	1537	1520	1497	1486	1488	1502	1506	1503	1481	1465	1463	1486	1487	1438	1413	1382	1398	1410	1410	1419	1423	1423	1428	1434	1435	1428	1420	1418	1418	1417	1416	1410	1414	1432	1450	1453	1441	1422	1404	1396	1392	1390	1386	1386	1395	1405	1414	1418	1414	1399	1399	1385	1373	1370	1370	1377	1389	1398	1408	1420	1416	1413	1411	1419	1401	1386	1378	1377	1378	1382	1384	1391	1394	1385	1381	1387	1398	1400	1403	1396	1382	1367	1355	1353	1347	1372	1364	1366	1374	1379	1383	1381	1373	1370	1367	1359	1355	1341	1336	1332	1334	1343	1345	1347	1350	1337	1326	1323	1316	1312	1320	1331	1336	1325	1318	1318	1323	1325	1335	1330	1341	1338	1338	1332	1330	1323	1322	1312	1305	1304	1301	1302	1306	1312	1315	1311	1308	1304	1298	1288	1295	1305	1311	1316	1320	1320	1317	1303	1298	1291	1290	1310	1320	1322	1318	1312	1307	1301	1303	1298	1295	1293	1300	1308	1306	1286	1283	1272	1283	1250	1250	1254	1264	1273	1267	1249	1235	1228	1235	1233	1241	1252	1259	1256	1255	1250	1244	1244	1249	1259	1254	1225	1207	1211	1212	1221	1224	1238	1245	1245	1244	1240	1223	1225	1224	1223	1223	1219	1213	1200	1201	1205	1197	1181	1174	1165	1164	1180	1188	1197	1188	1192	1193	1182	1175	1169	1170	1189	1189	1189	1188	1201	1203	1201	1199	1201	1208	1205	1195	1186	1184	1182	1180	1172	1165	1157	1155	1163	1177	1183	1186	1185	1185	1181	1180	1177	1170	1172	1173	1178	1161	1147	1149	1145	1146	1151	1153	1150	1147	1148	1150	1147	1149	1144	1142	1143	1145	1146	1146	1147	1144	1140	1139	1144	1157	1151	1130	1115	1098	1103	1109	1119	1126	1128	1136	1140	1141	1117	1114	1118	1121	1130	1129	1120	1105	1099	1102	1106	1106	1100	1099	1098	1102	1101	1086	1085	1087	1086	1081	1052	1047	1036	1053	1050	1041	1033	1035	1044	1046	1039	1029	1022	1024	1024	1019	1016	1052	1058	1062	1060	1058	1072	1076	1076	1069	1069	1055	1044	1043	1054	1054	1057	1057	1053	1049	1030	1033	1044	1058	1065	1053	0	0	0	0	0	0	0	0	0
1988	2007	2007	2027	2028	2014	2019	2019	2046	2076	2080	2050	2033	2033	2014	2012	2014	2006	2011	2011	2004	2042	2064	2085	2074	2067	2067	2048	2035	2031	2058	2071	2075	2066	2066	2045	2038	2040	2041	2052	2059	2068	2085	2085	2095	2116	2097	2056	2058	2076	2076	2085	2086	2083	2083	2067	2062	2061	2062	2076	2074	2072	2054	2028	2022	2020	2022	2016	1998	1969	1951	1951	1934	1940	1944	1949	1939	1943	1955	1960	1929	1911	1904	1903	1904	1902	1906	1901	1906	1916	1924	1927	1914	1890	1866	1843	1818	1809	1829	1855	1873	1876	1869	1853	1843	1831	1824	1823	1818	1812	1818	1816	1825	1835	1829	1805	1794	1781	1780	1769	1757	1738	1721	1710	1744	1770	1782	1784	1778	1778	1778	1779	1770	1771	1794	1649	1568	1505	1375	1327	1359	1381	1362	1360	1370	1378	1378	1377	1361	1359	1372	1377	1386	1398	1407	1407	1407	1402	1386	1369	1365	1376	1378	1368	1341	1335	1345	1353	1359	1357	1358	1361	1372	1373	1377	1386	1391	1398	1399	1393	1385	1397	1425	1411	1402	1400	1408	1403	1405	1380	1370	1384	1391	1383	1371	1376	1374	1380	1408	1438	1453	1464	1464	1465	1477	1486	1494	1539	1561	1564	1565	1578	1599	1610	1591	1577	1576	1575	1568	1545	1534	1542	1560	1573	1582	1563	1546	1520	1505	1488	1480	1491	1504	1499	1521	1531	1530	1538	1525	1518	1521	1529	1538	1542	1547	1535	1521	1529	1523	1519	1512	1510	1509	1517	1529	1531	1522	1495	1497	1506	1523	1527	1515	1498	1492	1499	1496	1496	1496	1502	1495	1485	1476	1467	1465	1468	1467	1461	1463	1449	1439	1430	1431	1430	1394	1401	1401	1387	1383	1396	1414	1424	1432	1435	1432	1423	1417	1415	1419	1420	1419	1409	1394	1396	1436	1448	1444	1428	1415	1404	1401	1398	1389	1384	1381	1384	1387	1375	1353	1339	1356	1358	1365	1370	1379	1382	1378	1377	1379	1385	1383	1386	1385	1388	1386	1351	1352	1358	1359	1359	1362	1370	1372	1367	1367	1372	1387	1394	1394	1389	1373	1353	1333	1328	1328	1332	1345	1356	1365	1364	1351	1344	1342	1346	1349	1358	1348	1329	1312	1314	1328	1332	1336	1338	1329	1315	1297	1303	1304	1308	1318	1332	1341	1334	1311	1301	1300	1299	1303	1295	1294	1299	1294	1288	1284	1281	1284	1287	1288	1285	1289	1296	1294	1299	1298	1296	1299	1306	1308	1295	1283	1281	1283	1296	1297	1297	1299	1294	1279	1276	1274	1270	1259	1257	1273	1286	1290	1279	1274	1255	1258	1279	1281	1286	1255	1251	1253	1230	1234	1235	1238	1237	1241	1241	1240	1216	1195	1184	1193	1205	1214	1226	1252	1252	1242	1221	1232	1239	1239	1236	1223	1209	1195	1193	1195	1204	1206	1201	1229	1230	1222	1213	1203	1206	1208	1203	1198	1191	1181	1181	1190	1190	1176	1170	1166	1157	1152	1167	1175	1160	1152	1153	1145	1144	1148	1154	1160	1170	1176	1177	1181	1179	1186	1184	1180	1180	1182	1178	1166	1159	1150	1140	1132	1126	1124	1126	1126	1135	1146	1144	1142	1137	1134	1144	1153	1155	1148	1149	1143	1138	1139	1138	1135	1135	1135	1134	1136	1138	1141	1142	1136	1132	1136	1136	1135	1138	1140	1131	1136	1139	1136	1132	1128	1128	1127	1127	1112	1091	1084	1087	1100	1110	1112	1114	1117	1118	1108	1073	1056	1059	1063	1071	1084	1081	1076	1069	1066	1065	1067	1074	1067	1045	1038	1033	1043	1037	1026	1011	996	995	995	1002	1027	1029	1031	1036	1049	1059	1041	1033	1023	1018	1015	1019	1022	1016	1018	1024	1031	1020	1009	1008	1004	1008	1015	1015	1018	1024	1006	1021	1037	1038	1033	1020	1013	1000	997	1000	1005	1013	1013	0	0	0	0	0	0	0	0	0
1962	1964	1964	1976	1978	1978	1978	1978	2010	2041	2041	2014	1992	1992	1998	2005	1998	1991	1982	1982	1985	1989	2005	2033	2039	2028	2028	2016	1992	1980	1995	2017	2032	2023	2023	1997	1982	1990	1991	1993	1995	1995	2009	2009	2008	2000	2009	2003	1997	1999	2013	2001	2007	2015	2015	2014	1984	1948	1933	1932	1934	1933	1939	1926	1939	1944	1969	1962	1935	1914	1918	1918	1917	1930	1813	1808	1810	1819	1831	1829	1835	1828	1823	1840	1849	1839	1828	1821	1813	1814	1814	1805	1816	1808	1786	1757	1752	1767	1767	1771	1782	1803	1810	1813	1792	1778	1760	1738	1738	1795	1793	1788	1793	1763	1752	1751	1744	1758	1758	1745	1732	1718	1701	1696	1726	1740	1743	1744	1747	1740	1735	1726	1717	1718	1734	1639	1541	1499	1384	1333	1350	1363	1356	1367	1375	1381	1381	1376	1372	1368	1380	1384	1398	1403	1403	1399	1398	1392	1378	1369	1367	1367	1374	1363	1349	1352	1371	1381	1376	1369	1366	1371	1376	1385	1382	1390	1397	1404	1401	1393	1376	1389	1414	1405	1398	1399	1409	1410	1409	1389	1379	1395	1381	1371	1354	1347	1348	1370	1425	1443	1463	1472	1469	1483	1473	1466	1476	1545	1557	1552	1544	1512	1511	1534	1551	1550	1554	1558	1547	1526	1525	1535	1546	1549	1553	1525	1505	1494	1480	1472	1461	1457	1443	1435	1457	1479	1495	1502	1494	1510	1523	1533	1519	1485	1458	1450	1498	1496	1498	1503	1498	1485	1482	1486	1495	1496	1486	1476	1477	1484	1488	1489	1488	1480	1467	1468	1474	1469	1456	1455	1456	1455	1445	1443	1445	1441	1435	1431	1429	1434	1426	1421	1423	1418	1407	1394	1386	1365	1360	1374	1394	1415	1430	1427	1420	1414	1412	1413	1414	1410	1409	1396	1389	1386	1394	1423	1434	1424	1413	1409	1406	1405	1400	1387	1368	1353	1346	1338	1326	1321	1326	1337	1342	1350	1367	1366	1363	1360	1359	1352	1343	1357	1363	1365	1359	1343	1350	1344	1341	1339	1337	1338	1350	1355	1352	1357	1364	1371	1374	1374	1362	1344	1317	1310	1300	1306	1314	1330	1340	1341	1340	1337	1344	1348	1341	1329	1309	1311	1315	1319	1323	1328	1321	1311	1295	1284	1286	1289	1284	1274	1307	1331	1329	1318	1305	1284	1273	1271	1268	1270	1268	1267	1265	1261	1260	1259	1263	1267	1268	1271	1277	1279	1281	1280	1274	1265	1271	1283	1291	1293	1271	1258	1255	1260	1280	1288	1286	1271	1255	1261	1254	1250	1240	1231	1237	1248	1247	1228	1233	1253	1264	1262	1259	1263	1220	1221	1219	1221	1225	1223	1226	1226	1229	1225	1221	1209	1203	1209	1212	1213	1208	1205	1205	1202	1201	1204	1211	1221	1223	1223	1219	1206	1191	1175	1177	1182	1187	1175	1177	1177	1184	1185	1169	1185	1192	1190	1177	1175	1172	1167	1166	1161	1160	1154	1152	1146	1141	1147	1146	1130	1130	1135	1143	1151	1144	1138	1135	1138	1149	1167	1174	1164	1166	1174	1175	1179	1148	1118	1116	1116	1107	1094	1092	1096	1109	1107	1114	1116	1120	1120	1121	1122	1127	1135	1134	1138	1127	1111	1100	1086	1092	1102	1107	1109	1116	1116	1114	1110	1097	1100	1115	1114	1120	1122	1121	1113	1100	1090	1088	1098	1105	1106	1101	1091	1103	1106	1097	1033	1030	1036	1041	1042	1062	1061	1061	1064	1066	1050	1048	1049	1048	1028	1032	1042	1050	1054	1042	1037	1037	1039	1029	1029	1028	1027	1025	1019	1011	998	986	986	988	991	990	991	1001	1015	1036	1052	1053	1041	1022	1023	1031	1027	1022	1018	1022	1026	1017	1010	995	996	997	997	994	994	998	996	983	989	987	985	994	996	987	980	977	978	983	995	1007	0	0	0	0	0	0	0	0	0
1956	1942	1942	1939	1936	1939	1946	1946	1977	1997	2000	1979	1968	1968	1972	1991	1991	1982	1971	1971	1957	1943	1956	1978	1991	1989	1989	1973	1948	1945	1951	1967	1981	1954	1954	1931	1923	1934	1947	1950	1946	1954	1955	1955	1963	1966	1957	1955	1944	1943	1954	1947	1940	1922	1922	1921	1922	1912	1898	1880	1863	1858	1865	1827	1844	1860	1853	1815	1806	1799	1805	1805	1805	1801	1792	1783	1775	1774	1764	1771	1779	1775	1772	1792	1805	1810	1794	1791	1789	1789	1785	1787	1786	1769	1743	1731	1735	1730	1710	1708	1730	1753	1763	1768	1763	1739	1721	1714	1714	1715	1700	1725	1740	1719	1711	1697	1690	1681	1670	1669	1661	1655	1644	1692	1715	1714	1710	1712	1715	1723	1714	1692	1682	1674	1677	1608	1525	1476	1415	1364	1349	1359	1361	1375	1376	1372	1372	1374	1381	1388	1388	1389	1391	1385	1382	1376	1371	1371	1367	1364	1373	1383	1383	1378	1373	1393	1398	1401	1397	1387	1378	1377	1375	1383	1385	1390	1397	1405	1401	1386	1367	1372	1387	1391	1384	1388	1399	1408	1418	1418	1412	1407	1378	1361	1349	1341	1363	1404	1461	1480	1485	1483	1487	1491	1481	1480	1493	1533	1532	1524	1510	1483	1490	1503	1508	1499	1483	1475	1471	1477	1485	1503	1507	1498	1514	1494	1478	1468	1465	1466	1463	1452	1434	1435	1454	1465	1476	1475	1477	1498	1516	1522	1473	1449	1437	1421	1425	1433	1477	1484	1477	1456	1434	1428	1442	1450	1447	1440	1437	1438	1438	1435	1441	1437	1421	1422	1426	1423	1413	1415	1406	1404	1402	1419	1421	1414	1405	1413	1428	1411	1401	1408	1404	1393	1382	1370	1363	1351	1352	1352	1369	1391	1385	1382	1379	1376	1377	1376	1380	1385	1390	1389	1379	1378	1383	1396	1407	1403	1399	1400	1398	1394	1384	1372	1353	1337	1324	1315	1301	1297	1303	1311	1310	1307	1308	1322	1320	1314	1313	1313	1313	1331	1337	1340	1341	1339	1336	1331	1326	1316	1302	1301	1318	1327	1337	1332	1342	1351	1352	1348	1342	1319	1301	1293	1283	1287	1286	1291	1314	1320	1308	1275	1280	1283	1286	1269	1266	1266	1272	1289	1300	1302	1282	1273	1259	1267	1273	1273	1266	1256	1264	1276	1284	1284	1284	1270	1256	1260	1253	1251	1252	1252	1253	1253	1258	1256	1252	1254	1256	1259	1255	1265	1262	1257	1245	1242	1250	1252	1256	1240	1238	1242	1241	1249	1253	1251	1253	1242	1240	1239	1233	1222	1220	1218	1217	1221	1211	1213	1221	1228	1236	1245	1217	1232	1220	1216	1213	1208	1207	1207	1208	1207	1214	1208	1205	1186	1174	1190	1195	1194	1193	1188	1182	1180	1180	1191	1190	1178	1172	1171	1184	1192	1195	1178	1158	1152	1154	1154	1149	1149	1155	1147	1144	1144	1148	1145	1147	1151	1150	1148	1148	1138	1126	1116	1107	1108	1107	1105	1107	1107	1108	1118	1130	1144	1142	1127	1120	1121	1141	1153	1145	1119	1109	1120	1123	1125	1096	1097	1099	1094	1084	1084	1081	1091	1100	1092	1095	1108	1110	1115	1114	1116	1119	1128	1135	1138	1128	1101	1081	1068	1079	1082	1083	1079	1080	1098	1093	1088	1090	1086	1083	1087	1100	1105	1103	1061	1054	1056	1063	1068	1058	1043	1041	1035	1043	1049	1050	1046	1030	1014	1009	1011	1026	1031	1031	1030	1034	1004	987	990	998	1002	1007	1012	1011	1005	1002	1008	1006	998	1007	1014	1014	1011	1005	1004	999	990	983	983	984	983	980	979	979	989	1008	1011	1010	1008	1004	994	997	1020	1015	1015	1017	1013	1002	986	986	985	990	984	975	975	967	975	981	966	957	953	966	969	972	970	967	961	966	978	1001	0	0	0	0	0	0	0	0	0
1946	1914	1914	1900	1901	1909	1912	1912	1940	1966	1970	1966	1946	1946	1944	1953	1971	1974	1950	1950	1934	1929	1933	1947	1954	1938	1938	1919	1902	1908	1921	1935	1925	1899	1899	1895	1898	1913	1927	1925	1917	1912	1916	1916	1925	1925	1911	1903	1889	1890	1896	1889	1868	1853	1853	1832	1773	1793	1807	1799	1775	1770	1775	1786	1797	1808	1808	1789	1783	1790	1795	1795	1792	1790	1779	1764	1757	1757	1717	1710	1737	1750	1749	1759	1765	1764	1761	1765	1763	1762	1758	1746	1741	1731	1711	1704	1700	1690	1691	1700	1706	1710	1714	1705	1715	1697	1688	1685	1683	1669	1655	1660	1674	1690	1695	1698	1684	1667	1651	1638	1633	1622	1610	1613	1647	1650	1649	1651	1660	1662	1643	1637	1613	1618	1619	1579	1510	1461	1436	1394	1362	1365	1366	1359	1371	1363	1365	1374	1387	1394	1396	1397	1392	1382	1370	1363	1360	1363	1360	1365	1383	1397	1403	1394	1388	1378	1374	1389	1393	1391	1380	1370	1363	1368	1377	1385	1397	1405	1396	1378	1356	1358	1372	1384	1393	1380	1387	1392	1412	1428	1435	1407	1378	1368	1370	1394	1410	1435	1458	1470	1488	1506	1494	1479	1471	1471	1483	1492	1508	1490	1470	1466	1474	1484	1455	1460	1462	1458	1458	1455	1454	1463	1475	1472	1473	1429	1413	1407	1419	1445	1464	1476	1475	1470	1457	1465	1470	1462	1433	1434	1435	1438	1421	1419	1415	1413	1401	1395	1392	1380	1410	1398	1392	1400	1416	1419	1411	1411	1397	1397	1394	1388	1381	1379	1377	1381	1392	1400	1402	1398	1386	1379	1372	1381	1393	1391	1395	1397	1405	1398	1388	1397	1387	1376	1368	1359	1357	1348	1347	1354	1377	1372	1366	1359	1359	1361	1362	1349	1352	1360	1368	1376	1367	1363	1371	1381	1388	1386	1377	1369	1374	1357	1350	1333	1336	1314	1299	1292	1280	1281	1285	1290	1292	1294	1287	1295	1290	1290	1286	1292	1296	1313	1318	1316	1317	1323	1321	1312	1303	1280	1280	1285	1290	1302	1306	1297	1292	1269	1274	1294	1307	1300	1286	1276	1268	1267	1266	1268	1273	1276	1268	1260	1245	1242	1242	1250	1247	1250	1248	1242	1239	1238	1241	1247	1249	1254	1262	1264	1257	1250	1254	1250	1247	1254	1259	1271	1270	1248	1227	1221	1234	1234	1237	1231	1230	1239	1253	1259	1256	1240	1221	1220	1230	1229	1220	1220	1221	1219	1218	1214	1211	1218	1227	1233	1230	1221	1205	1194	1177	1181	1183	1202	1202	1203	1205	1204	1201	1195	1207	1211	1202	1179	1174	1178	1176	1187	1190	1191	1187	1181	1174	1178	1180	1184	1168	1155	1154	1156	1172	1177	1177	1180	1176	1168	1166	1182	1185	1176	1156	1130	1132	1148	1148	1139	1131	1126	1143	1141	1127	1120	1114	1122	1106	1102	1101	1112	1127	1138	1142	1139	1128	1111	1104	1101	1087	1085	1092	1101	1101	1101	1104	1107	1115	1118	1113	1106	1105	1108	1121	1127	1124	1097	1092	1094	1091	1086	1084	1086	1089	1082	1075	1068	1069	1083	1089	1082	1078	1085	1103	1106	1104	1106	1105	1114	1119	1114	1100	1087	1049	1069	1076	1083	1083	1076	1073	1072	1071	1080	1072	1068	1041	1051	1054	1054	1055	1042	1042	1058	1068	1070	1061	1043	1023	1024	1029	1046	1047	1036	1018	1001	998	1009	1013	1012	1012	1007	1004	991	984	977	981	988	999	1002	1000	999	990	981	979	976	983	996	1000	995	993	989	987	983	980	981	984	975	971	959	962	980	985	983	977	973	970	971	983	990	1002	1001	999	993	980	966	968	976	978	971	965	965	962	963	966	964	958	949	953	956	959	959	958	951	939	961	966	0	0	0	0	0	0	0	0	0
1894	1871	1871	1870	1879	1888	1900	1900	1918	1938	1938	1902	1866	1866	1854	1869	1923	1927	1933	1933	1925	1900	1890	1901	1897	1901	1901	1882	1855	1861	1873	1881	1873	1857	1857	1855	1870	1897	1899	1894	1885	1880	1878	1878	1881	1882	1874	1866	1857	1850	1839	1764	1763	1759	1759	1753	1753	1760	1762	1748	1746	1749	1754	1759	1765	1772	1774	1770	1771	1777	1776	1776	1766	1750	1734	1736	1746	1726	1694	1689	1696	1710	1727	1736	1733	1733	1734	1732	1735	1722	1703	1677	1676	1683	1679	1678	1682	1677	1678	1677	1676	1665	1659	1670	1674	1676	1676	1676	1660	1643	1631	1619	1627	1645	1663	1676	1666	1645	1624	1619	1605	1581	1580	1597	1629	1625	1624	1637	1641	1639	1618	1594	1576	1565	1572	1558	1508	1490	1460	1407	1369	1371	1362	1356	1341	1356	1363	1383	1393	1391	1393	1395	1387	1377	1363	1363	1359	1353	1353	1363	1383	1395	1404	1395	1378	1364	1361	1372	1384	1388	1377	1363	1352	1353	1367	1388	1397	1404	1397	1376	1360	1367	1382	1416	1411	1402	1379	1385	1403	1429	1445	1431	1373	1374	1406	1418	1428	1438	1456	1484	1497	1507	1479	1459	1452	1458	1466	1465	1468	1467	1459	1455	1444	1433	1438	1444	1454	1457	1451	1445	1441	1435	1434	1428	1415	1406	1398	1397	1404	1423	1436	1446	1448	1453	1454	1456	1439	1432	1423	1409	1402	1400	1395	1392	1390	1388	1385	1362	1355	1350	1352	1348	1375	1393	1405	1399	1386	1377	1377	1395	1388	1383	1375	1373	1376	1374	1383	1386	1378	1363	1354	1355	1354	1360	1354	1359	1363	1372	1384	1387	1388	1387	1369	1362	1356	1351	1348	1350	1351	1367	1361	1352	1347	1349	1352	1356	1352	1341	1332	1337	1350	1355	1346	1346	1355	1361	1369	1364	1354	1309	1301	1306	1310	1311	1304	1290	1274	1266	1265	1270	1271	1269	1270	1278	1282	1285	1277	1267	1272	1281	1288	1295	1288	1287	1285	1281	1273	1263	1268	1266	1260	1260	1267	1277	1275	1264	1258	1251	1251	1268	1273	1278	1272	1258	1248	1244	1238	1252	1259	1252	1239	1237	1232	1226	1229	1228	1231	1232	1228	1232	1229	1232	1221	1222	1232	1242	1253	1256	1251	1231	1229	1231	1225	1228	1231	1245	1250	1226	1193	1191	1195	1198	1195	1195	1201	1211	1218	1207	1212	1204	1198	1204	1208	1186	1162	1155	1170	1189	1188	1188	1191	1207	1214	1209	1205	1194	1185	1185	1171	1168	1176	1177	1183	1190	1191	1189	1185	1183	1173	1178	1165	1133	1136	1154	1155	1150	1140	1139	1145	1146	1143	1132	1130	1133	1134	1134	1136	1139	1146	1146	1145	1139	1139	1144	1161	1166	1163	1153	1140	1123	1128	1130	1137	1137	1130	1118	1116	1122	1128	1125	1115	1107	1103	1103	1105	1105	1103	1096	1098	1108	1103	1097	1096	1094	1093	1088	1085	1084	1084	1085	1089	1099	1100	1094	1085	1081	1086	1089	1091	1096	1096	1090	1093	1093	1089	1078	1068	1071	1066	1066	1058	1054	1055	1060	1072	1055	1047	1065	1073	1065	1058	1068	1075	1076	1083	1074	1053	1021	1018	1053	1076	1074	1054	1067	1037	1023	1002	999	1007	1017	1031	1045	1051	1054	1043	1011	1008	1012	1013	1012	1011	1003	1001	995	991	992	995	999	992	989	985	981	975	976	984	989	993	987	980	975	975	983	990	988	989	988	987	976	967	965	970	979	985	987	986	979	980	976	956	958	958	960	958	957	960	971	975	973	968	961	958	954	964	970	971	977	979	964	952	951	958	962	961	961	957	957	950	949	949	960	957	951	948	950	952	946	936	934	932	928	924	0	0	0	0	0	0	0	0	0
1868	1853	1853	1840	1841	1848	1877	1877	1880	1887	1871	1857	1830	1830	1818	1818	1823	1881	1905	1905	1893	1875	1841	1830	1837	1826	1826	1818	1821	1830	1837	1825	1808	1792	1792	1800	1835	1857	1855	1842	1845	1848	1849	1849	1835	1828	1830	1750	1741	1731	1733	1736	1744	1757	1757	1758	1735	1722	1714	1722	1724	1731	1739	1743	1746	1740	1726	1715	1705	1713	1726	1726	1734	1732	1714	1710	1714	1691	1679	1670	1673	1685	1691	1691	1703	1698	1699	1686	1681	1653	1639	1645	1664	1660	1650	1642	1661	1660	1662	1639	1616	1609	1618	1626	1652	1674	1682	1674	1649	1624	1604	1593	1593	1607	1631	1635	1622	1596	1535	1526	1532	1546	1563	1589	1597	1591	1596	1604	1622	1611	1593	1560	1547	1549	1557	1553	1482	1466	1442	1392	1361	1363	1374	1365	1348	1348	1368	1378	1378	1379	1381	1384	1382	1380	1380	1376	1370	1362	1360	1361	1364	1365	1394	1385	1373	1360	1358	1374	1397	1399	1391	1368	1359	1361	1372	1389	1403	1406	1400	1387	1382	1381	1383	1413	1418	1408	1383	1381	1390	1415	1422	1439	1409	1415	1438	1420	1430	1448	1479	1489	1481	1467	1452	1432	1431	1445	1449	1443	1427	1425	1441	1435	1425	1415	1421	1429	1434	1444	1443	1447	1443	1433	1421	1416	1412	1406	1395	1394	1394	1400	1403	1407	1414	1416	1421	1420	1421	1417	1411	1390	1377	1371	1375	1382	1383	1376	1361	1335	1332	1331	1339	1345	1356	1370	1384	1384	1378	1377	1384	1382	1376	1367	1363	1364	1368	1373	1373	1370	1358	1348	1345	1343	1346	1353	1341	1345	1355	1366	1373	1380	1374	1365	1356	1347	1335	1338	1334	1343	1349	1343	1337	1331	1330	1340	1349	1351	1336	1321	1310	1308	1316	1314	1312	1310	1312	1315	1328	1323	1309	1292	1279	1275	1274	1279	1279	1272	1260	1253	1260	1261	1250	1241	1242	1266	1274	1276	1265	1254	1234	1241	1249	1253	1250	1248	1250	1254	1262	1264	1263	1259	1251	1238	1236	1244	1241	1223	1224	1227	1238	1246	1243	1234	1227	1226	1219	1219	1222	1225	1216	1219	1220	1228	1227	1221	1222	1216	1213	1212	1211	1210	1217	1217	1213	1201	1193	1208	1243	1240	1230	1217	1208	1208	1204	1193	1188	1192	1197	1194	1187	1184	1186	1186	1173	1163	1164	1172	1173	1172	1174	1169	1164	1179	1195	1200	1171	1159	1151	1145	1167	1172	1184	1186	1190	1194	1186	1172	1161	1160	1154	1159	1164	1179	1179	1176	1175	1170	1131	1156	1162	1138	1122	1116	1114	1139	1141	1130	1129	1132	1131	1134	1126	1120	1117	1117	1118	1110	1112	1114	1111	1091	1081	1082	1090	1095	1101	1107	1119	1125	1126	1121	1128	1133	1138	1137	1129	1116	1107	1099	1097	1111	1107	1100	1102	1103	1102	1100	1074	1058	1052	1063	1079	1086	1089	1086	1085	1082	1079	1075	1065	1058	1056	1060	1063	1074	1073	1075	1078	1084	1081	1086	1085	1081	1083	1089	1083	1072	1059	1053	1052	1051	1052	1045	1045	1046	1053	1046	1048	1052	1058	1042	1034	1035	1038	1040	1052	1042	1025	1013	1016	1027	1040	1031	1020	1017	1014	1000	995	990	997	1009	1023	1034	1034	1030	1018	998	996	999	998	998	996	990	983	983	983	987	990	992	990	985	984	978	972	971	974	972	981	976	981	982	973	977	983	978	980	983	987	975	963	957	960	966	977	978	979	972	950	942	939	941	953	954	952	949	952	959	963	964	961	952	946	943	945	950	957	959	954	939	938	942	949	953	953	948	936	936	932	931	930	930	933	932	934	935	934	931	926	928	930	927	918	0	0	0	0	0	0	0	0	0
1834	1819	1819	1811	1814	1833	1866	1866	1864	1858	1831	1817	1811	1811	1803	1794	1794	1812	1829	1829	1825	1813	1805	1800	1808	1804	1804	1791	1790	1791	1785	1787	1785	1776	1776	1787	1820	1827	1817	1809	1800	1795	1784	1754	1750	1739	1725	1718	1722	1728	1713	1713	1718	1728	1700	1700	1696	1692	1689	1691	1710	1719	1720	1721	1724	1722	1708	1699	1695	1696	1709	1709	1724	1714	1698	1682	1680	1674	1672	1654	1661	1670	1674	1672	1660	1654	1657	1646	1624	1608	1612	1626	1638	1648	1617	1602	1618	1649	1633	1592	1574	1567	1581	1596	1616	1639	1656	1650	1628	1606	1587	1571	1566	1552	1570	1575	1570	1542	1523	1518	1531	1545	1547	1545	1559	1574	1567	1567	1570	1570	1555	1537	1530	1529	1537	1550	1469	1425	1407	1375	1357	1372	1377	1368	1362	1353	1375	1378	1366	1371	1372	1373	1380	1383	1394	1396	1387	1378	1378	1376	1368	1358	1355	1367	1366	1364	1371	1389	1402	1406	1404	1394	1385	1381	1384	1394	1404	1404	1398	1393	1386	1379	1389	1404	1409	1398	1393	1381	1381	1383	1385	1377	1390	1402	1393	1385	1399	1415	1432	1431	1416	1407	1403	1406	1412	1426	1427	1416	1402	1401	1412	1415	1408	1400	1404	1408	1411	1413	1420	1436	1436	1426	1420	1417	1414	1404	1390	1384	1387	1387	1388	1387	1381	1371	1370	1372	1377	1382	1380	1371	1351	1343	1349	1358	1365	1366	1351	1331	1331	1329	1326	1343	1351	1361	1368	1369	1369	1370	1374	1372	1362	1348	1349	1349	1356	1368	1371	1358	1345	1340	1342	1344	1340	1331	1328	1332	1347	1357	1366	1368	1359	1325	1323	1318	1313	1312	1310	1319	1322	1317	1299	1297	1297	1301	1281	1277	1269	1266	1267	1270	1280	1281	1283	1289	1293	1300	1303	1308	1304	1290	1278	1268	1259	1244	1237	1233	1233	1238	1252	1253	1236	1221	1218	1225	1247	1265	1255	1234	1224	1225	1237	1241	1242	1226	1217	1224	1244	1254	1256	1252	1244	1231	1219	1221	1223	1206	1196	1199	1208	1202	1200	1199	1192	1201	1197	1191	1188	1190	1201	1202	1206	1210	1211	1213	1199	1189	1194	1193	1195	1198	1199	1201	1188	1180	1176	1186	1195	1198	1204	1206	1201	1199	1179	1145	1158	1183	1184	1169	1159	1152	1138	1130	1127	1128	1139	1142	1137	1139	1141	1138	1126	1136	1136	1145	1153	1163	1154	1144	1141	1142	1150	1154	1157	1157	1149	1146	1145	1142	1150	1149	1143	1144	1142	1133	1111	1108	1111	1116	1122	1108	1106	1101	1103	1118	1121	1116	1115	1117	1119	1117	1109	1105	1104	1105	1106	1098	1097	1093	1078	1070	1073	1077	1087	1091	1076	1075	1090	1100	1110	1117	1127	1133	1133	1093	1082	1089	1095	1097	1088	1084	1090	1096	1098	1101	1097	1070	1054	1037	1030	1037	1067	1073	1082	1080	1077	1070	1069	1058	1049	1034	1029	1035	1040	1048	1061	1069	1075	1074	1065	1070	1077	1073	1079	1070	1057	1042	1037	1042	1042	1037	1034	1038	1033	1030	1035	1034	1032	1031	1035	1028	1026	1024	1023	1016	1017	1019	1018	1005	1000	1013	1015	1012	1014	1014	1014	1002	999	997	998	1002	1011	1014	1004	1007	990	986	986	987	991	992	989	985	978	976	980	983	990	991	986	982	975	972	964	961	964	961	958	963	970	980	969	959	956	960	959	959	962	959	959	960	967	967	960	961	960	949	935	936	934	939	943	949	944	943	941	947	955	956	952	943	937	929	935	941	946	945	941	930	931	938	942	946	941	929	926	926	923	921	917	920	924	932	932	929	925	919	912	912	916	916	890	0	0	0	0	0	0	0	0	0
1747	1769	1769	1781	1799	1821	1830	1830	1821	1804	1784	1781	1785	1785	1781	1769	1762	1755	1760	1760	1775	1785	1786	1781	1782	1786	1786	1785	1753	1744	1749	1751	1754	1762	1762	1779	1803	1791	1782	1771	1734	1728	1724	1724	1721	1710	1700	1697	1703	1706	1699	1684	1680	1669	1668	1668	1663	1653	1648	1642	1667	1690	1698	1702	1702	1694	1693	1677	1664	1664	1673	1673	1684	1680	1671	1670	1661	1658	1653	1643	1644	1649	1652	1652	1636	1620	1601	1585	1574	1575	1581	1596	1610	1604	1575	1571	1572	1571	1570	1564	1553	1545	1542	1536	1536	1553	1573	1563	1564	1543	1515	1502	1495	1504	1526	1542	1529	1516	1511	1503	1513	1524	1533	1530	1538	1551	1551	1539	1532	1531	1530	1518	1510	1512	1515	1523	1465	1410	1380	1369	1369	1386	1381	1380	1369	1364	1379	1378	1377	1376	1373	1374	1381	1398	1408	1407	1403	1394	1384	1380	1389	1379	1357	1362	1364	1375	1388	1399	1409	1413	1407	1405	1400	1394	1393	1401	1408	1412	1409	1406	1394	1376	1368	1382	1400	1407	1395	1388	1385	1380	1370	1364	1350	1354	1367	1369	1380	1397	1409	1403	1393	1382	1379	1384	1393	1394	1385	1389	1380	1373	1392	1399	1391	1384	1378	1383	1378	1369	1363	1368	1381	1407	1411	1405	1398	1389	1371	1371	1381	1393	1390	1378	1369	1360	1359	1363	1371	1373	1372	1354	1335	1326	1337	1345	1343	1345	1333	1323	1322	1316	1316	1320	1324	1328	1339	1342	1343	1345	1358	1352	1341	1332	1328	1319	1326	1328	1342	1341	1335	1338	1338	1338	1331	1326	1319	1320	1324	1334	1342	1341	1319	1302	1294	1285	1281	1281	1283	1277	1275	1270	1267	1266	1260	1263	1263	1263	1253	1251	1238	1241	1252	1262	1269	1267	1274	1291	1304	1306	1302	1290	1275	1263	1244	1226	1220	1220	1217	1211	1213	1218	1218	1206	1196	1193	1199	1216	1223	1214	1208	1209	1223	1229	1230	1200	1186	1186	1197	1209	1211	1206	1193	1182	1171	1174	1183	1185	1192	1195	1188	1191	1188	1184	1178	1176	1172	1168	1168	1169	1177	1192	1189	1192	1198	1195	1185	1175	1174	1183	1187	1184	1183	1172	1121	1125	1135	1152	1151	1157	1156	1155	1166	1171	1159	1144	1153	1155	1161	1149	1142	1136	1137	1140	1140	1137	1132	1127	1125	1135	1133	1119	1110	1108	1115	1118	1119	1118	1131	1131	1124	1116	1125	1131	1136	1115	1113	1121	1128	1137	1142	1135	1131	1125	1117	1110	1101	1099	1097	1100	1095	1094	1091	1087	1090	1104	1105	1100	1097	1094	1096	1093	1097	1095	1086	1083	1089	1095	1094	1084	1070	1066	1064	1072	1082	1084	1068	1054	1054	1054	1051	1060	1066	1066	1060	1047	1048	1052	1061	1062	1052	1032	1025	1028	1037	1051	1052	1048	1022	1014	1028	1037	1038	1033	1033	1040	1046	1058	1057	1049	1038	1022	1014	1015	1027	1034	1046	1045	1046	1047	1046	1040	1050	1049	1046	1017	998	1012	1018	1026	1032	1029	1024	1022	1015	1005	1010	1013	1014	1008	1000	1010	1010	1009	1006	1009	1013	1012	1006	996	992	1001	1000	995	987	983	985	990	994	993	991	990	986	981	970	971	968	968	971	970	984	992	988	973	969	976	973	971	977	980	980	971	966	957	955	953	952	950	949	955	958	959	955	956	958	956	945	937	927	920	916	920	929	942	946	943	944	943	944	940	933	930	938	941	943	937	936	940	947	935	932	929	919	919	926	930	933	933	925	923	924	931	937	935	921	922	922	923	923	917	916	916	920	923	912	908	909	902	899	900	903	888	884	0	0	0	0	0	0	0	0	0
1709	1729	1729	1747	1769	1793	1795	1795	1771	1739	1723	1724	1734	1734	1732	1732	1724	1723	1735	1754	1754	1766	1758	1752	1745	1750	1750	1736	1709	1713	1715	1722	1726	1744	1744	1765	1765	1739	1655	1654	1674	1680	1682	1682	1687	1675	1666	1670	1679	1667	1651	1634	1634	1641	1653	1653	1631	1610	1603	1622	1641	1650	1650	1641	1624	1625	1624	1622	1631	1639	1639	1639	1641	1624	1622	1640	1638	1639	1632	1629	1624	1625	1623	1607	1601	1589	1574	1555	1545	1533	1545	1556	1571	1572	1562	1547	1538	1535	1540	1541	1537	1531	1511	1486	1471	1467	1484	1501	1508	1508	1492	1481	1473	1474	1486	1529	1518	1510	1493	1483	1491	1498	1504	1504	1512	1533	1535	1523	1513	1499	1494	1495	1492	1485	1492	1498	1493	1417	1391	1383	1397	1390	1387	1386	1385	1391	1397	1386	1390	1378	1377	1373	1380	1398	1408	1409	1401	1394	1380	1374	1383	1378	1375	1370	1373	1390	1405	1409	1412	1413	1408	1403	1404	1406	1400	1397	1406	1410	1418	1410	1392	1371	1363	1379	1405	1413	1405	1383	1382	1384	1372	1355	1338	1345	1353	1351	1366	1378	1384	1381	1373	1364	1362	1350	1352	1353	1347	1350	1347	1362	1369	1365	1356	1346	1345	1349	1342	1329	1329	1343	1343	1344	1357	1374	1381	1367	1355	1360	1379	1390	1390	1375	1358	1349	1354	1358	1364	1364	1352	1330	1310	1310	1318	1327	1328	1316	1312	1307	1307	1296	1298	1308	1310	1310	1317	1325	1331	1330	1326	1315	1323	1310	1282	1270	1288	1295	1306	1310	1332	1332	1325	1313	1310	1308	1300	1303	1289	1279	1278	1283	1293	1297	1293	1281	1273	1264	1264	1258	1255	1253	1253	1258	1254	1251	1253	1254	1251	1235	1223	1228	1234	1234	1234	1229	1229	1244	1249	1245	1240	1235	1234	1234	1224	1217	1215	1215	1214	1205	1206	1207	1195	1191	1195	1188	1159	1164	1162	1159	1156	1159	1203	1204	1193	1184	1176	1167	1172	1184	1194	1190	1175	1164	1161	1163	1174	1176	1186	1186	1180	1181	1175	1171	1170	1169	1168	1164	1161	1165	1170	1168	1171	1174	1175	1173	1170	1166	1168	1177	1180	1176	1157	1130	1128	1134	1141	1141	1130	1121	1120	1127	1130	1131	1134	1142	1149	1154	1151	1145	1135	1133	1128	1134	1134	1132	1126	1123	1118	1118	1120	1105	1094	1084	1089	1098	1097	1102	1104	1101	1104	1101	1102	1093	1098	1102	1109	1094	1105	1109	1109	1106	1085	1078	1101	1109	1097	1091	1086	1085	1078	1070	1075	1059	1063	1082	1082	1081	1079	1074	1072	1076	1076	1073	1069	1071	1081	1083	1073	1064	1058	1054	1053	1059	1075	1050	1040	1041	1032	1019	1017	1025	1029	1027	1025	1023	1025	1025	1030	1031	1016	1007	1005	1014	1021	1032	1035	1028	1010	1007	1013	1021	1016	1020	1028	1035	1038	1033	1025	1029	1021	1013	1009	1012	1013	1029	1038	1031	1019	1021	1021	1011	1010	1004	997	995	995	994	992	1013	1018	1012	1014	1011	997	986	994	990	978	965	956	955	965	975	984	995	1005	1006	999	984	982	986	990	989	988	985	988	991	991	984	975	969	970	960	962	960	961	954	947	953	950	958	967	964	972	971	962	960	955	965	964	963	952	947	946	948	947	940	924	927	938	940	944	940	944	937	934	932	919	909	906	898	887	884	888	896	919	925	921	915	907	912	920	939	935	931	918	907	908	914	916	920	922	925	926	928	931	930	930	924	917	913	914	911	900	899	899	903	901	895	895	892	892	889	885	887	888	887	881	879	880	880	880	0	0	0	0	0	0	0	0	0
1675	1700	1700	1721	1741	1733	1711	1677	1677	1660	1652	1668	1683	1683	1700	1701	1693	1695	1712	1725	1725	1730	1717	1704	1694	1686	1663	1663	1677	1684	1699	1703	1711	1706	1706	1705	1612	1607	1622	1628	1641	1622	1619	1619	1631	1640	1644	1647	1649	1626	1600	1594	1595	1597	1597	1597	1582	1571	1575	1582	1575	1569	1576	1588	1600	1600	1584	1581	1585	1581	1591	1591	1582	1574	1563	1556	1604	1594	1609	1612	1606	1591	1575	1573	1562	1554	1541	1531	1518	1498	1506	1518	1546	1550	1540	1530	1518	1513	1515	1516	1512	1507	1494	1479	1470	1475	1491	1502	1501	1498	1479	1457	1452	1454	1468	1487	1510	1499	1480	1465	1469	1471	1468	1465	1474	1513	1518	1505	1461	1452	1460	1465	1470	1476	1491	1498	1504	1467	1450	1435	1405	1391	1390	1386	1392	1395	1398	1396	1390	1383	1376	1373	1375	1381	1401	1401	1394	1387	1382	1382	1375	1360	1359	1364	1379	1392	1402	1404	1417	1406	1398	1395	1398	1402	1392	1390	1374	1378	1395	1388	1374	1362	1365	1382	1401	1410	1410	1400	1386	1375	1362	1358	1351	1337	1341	1339	1333	1338	1341	1351	1356	1355	1351	1329	1327	1333	1333	1334	1337	1335	1329	1337	1325	1318	1314	1314	1315	1313	1316	1330	1329	1329	1325	1322	1323	1331	1338	1351	1363	1360	1358	1353	1342	1335	1345	1350	1350	1336	1324	1308	1297	1301	1308	1311	1303	1293	1290	1286	1282	1282	1284	1275	1283	1280	1276	1266	1267	1264	1275	1275	1273	1258	1259	1255	1273	1285	1291	1310	1320	1322	1308	1296	1282	1271	1274	1274	1265	1266	1266	1271	1284	1290	1278	1264	1256	1251	1249	1239	1227	1233	1247	1254	1248	1243	1245	1250	1244	1225	1214	1209	1209	1207	1209	1217	1224	1216	1214	1205	1200	1193	1192	1198	1196	1193	1196	1202	1202	1195	1176	1176	1176	1158	1154	1160	1159	1143	1140	1141	1139	1138	1150	1164	1172	1167	1158	1152	1155	1158	1157	1167	1178	1162	1156	1157	1164	1169	1172	1173	1172	1174	1170	1164	1160	1149	1146	1150	1159	1156	1158	1159	1156	1152	1147	1148	1151	1159	1159	1159	1155	1144	1121	1118	1112	1118	1129	1122	1109	1108	1110	1115	1112	1120	1122	1129	1135	1138	1136	1131	1122	1120	1118	1115	1115	1118	1112	1105	1103	1106	1109	1085	1075	1067	1066	1070	1078	1087	1092	1095	1096	1103	1101	1097	1082	1078	1080	1087	1091	1095	1096	1076	1067	1058	1056	1083	1090	1078	1074	1068	1057	1043	1025	1032	1039	1038	1029	1031	1052	1053	1046	1046	1052	1059	1064	1072	1069	1049	1045	1046	1043	1038	1039	1041	1041	1016	1019	1022	1018	1006	1004	1007	1016	1018	1013	1011	1010	1011	1009	1007	994	993	1003	1007	1011	1019	1017	1003	1000	1001	1010	1010	1004	997	997	999	995	987	980	1004	1014	1021	1021	1017	1012	1015	1021	1015	1008	999	997	1003	1007	1007	999	992	985	985	980	980	980	986	973	970	973	984	987	976	967	953	942	948	958	966	975	980	984	998	989	979	975	977	978	983	985	989	991	989	982	972	958	952	957	948	954	955	955	942	938	940	943	946	950	955	952	947	946	945	947	949	950	949	937	933	933	942	943	937	917	915	923	928	934	930	927	918	921	918	911	903	904	893	883	879	883	904	912	907	908	905	897	894	901	919	919	914	891	888	891	891	899	907	913	918	918	917	920	921	923	909	889	900	900	893	882	872	872	873	881	885	875	869	866	872	878	884	884	885	885	884	880	875	872	0	0	0	0	0	0	0	0	0
1662	1673	1673	1683	1693	1694	1678	1646	1646	1616	1604	1620	1648	1648	1673	1688	1684	1676	1682	1660	1660	1652	1646	1644	1648	1646	1652	1652	1660	1669	1675	1677	1667	1656	1598	1575	1565	1587	1602	1603	1595	1585	1586	1604	1604	1620	1631	1625	1600	1577	1568	1571	1569	1564	1565	1565	1553	1547	1546	1537	1525	1528	1546	1567	1571	1572	1566	1565	1561	1548	1537	1537	1532	1534	1524	1518	1529	1554	1577	1581	1571	1561	1553	1541	1536	1529	1515	1497	1485	1482	1480	1483	1514	1508	1513	1510	1496	1493	1492	1495	1499	1493	1484	1479	1480	1492	1494	1494	1498	1493	1471	1449	1434	1431	1448	1469	1481	1483	1467	1459	1457	1458	1451	1441	1437	1462	1473	1439	1426	1410	1420	1416	1431	1435	1446	1459	1448	1449	1429	1412	1401	1386	1384	1381	1378	1383	1395	1390	1382	1374	1374	1377	1383	1391	1390	1383	1381	1383	1386	1378	1355	1342	1341	1356	1367	1377	1388	1395	1393	1384	1379	1375	1403	1402	1393	1384	1387	1385	1387	1372	1351	1346	1357	1371	1377	1383	1390	1395	1388	1366	1355	1353	1355	1338	1332	1330	1327	1325	1324	1338	1350	1346	1338	1333	1338	1342	1337	1329	1325	1305	1302	1308	1315	1306	1297	1305	1310	1309	1306	1310	1313	1311	1311	1310	1305	1302	1318	1328	1323	1308	1330	1321	1317	1310	1309	1312	1309	1307	1299	1288	1278	1285	1281	1282	1271	1266	1279	1287	1276	1267	1263	1262	1249	1238	1244	1248	1245	1244	1239	1241	1240	1242	1248	1240	1257	1262	1272	1291	1286	1284	1274	1259	1255	1244	1244	1239	1233	1230	1232	1242	1249	1240	1225	1233	1234	1228	1222	1218	1216	1220	1229	1232	1238	1240	1234	1221	1218	1192	1189	1189	1191	1189	1197	1205	1213	1211	1212	1208	1195	1178	1178	1176	1172	1167	1160	1174	1176	1167	1159	1153	1145	1128	1127	1133	1143	1142	1136	1131	1131	1128	1131	1146	1152	1152	1148	1137	1131	1138	1144	1138	1144	1138	1137	1139	1143	1144	1138	1135	1138	1145	1151	1148	1136	1123	1122	1131	1143	1154	1158	1156	1152	1137	1121	1111	1111	1108	1104	1098	1098	1101	1107	1098	1097	1102	1107	1103	1083	1076	1097	1103	1088	1100	1110	1117	1118	1114	1117	1102	1082	1088	1104	1107	1101	1088	1090	1086	1080	1085	1073	1084	1079	1062	1056	1055	1061	1071	1080	1084	1082	1078	1079	1078	1071	1065	1061	1071	1077	1035	1035	1038	1037	1030	1031	1030	1057	1059	1056	1044	1019	1000	998	1010	1017	1017	1023	1026	1038	1041	1034	1021	1023	1036	1046	1046	1030	1016	1018	1024	1023	1021	1014	1009	1004	989	992	993	999	998	999	1000	1005	1008	1005	1004	998	995	987	980	979	981	986	1008	1006	1000	995	989	983	989	993	965	956	950	953	954	953	967	987	998	1005	1013	1019	1013	998	1001	992	991	988	989	989	990	1003	995	979	975	969	962	964	971	969	961	958	963	976	983	944	934	929	936	937	932	941	958	964	967	966	969	966	966	965	967	971	976	984	991	995	987	967	950	937	938	944	944	950	951	950	933	931	936	936	942	947	948	946	938	936	936	938	937	925	920	921	917	917	923	933	928	913	911	914	909	898	894	892	902	906	905	904	903	900	892	883	876	887	891	894	893	894	896	892	892	890	885	886	884	884	885	888	891	893	900	910	913	896	892	894	903	895	887	868	869	889	883	863	861	861	865	874	875	870	866	862	861	871	876	881	881	880	885	877	872	867	0	0	0	0	0	0	0	0	0
1656	1650	1650	1645	1669	1671	1662	1629	1629	1598	1586	1599	1636	1673	1673	1679	1671	1660	1644	1629	1629	1626	1616	1629	1643	1654	1654	1654	1631	1601	1600	1608	1556	1542	1528	1528	1536	1548	1545	1535	1529	1520	1521	1531	1531	1532	1544	1555	1551	1556	1554	1550	1556	1561	1559	1559	1550	1533	1523	1517	1509	1501	1513	1529	1528	1536	1544	1543	1541	1532	1519	1520	1520	1515	1510	1504	1502	1517	1525	1522	1479	1449	1445	1468	1508	1506	1489	1471	1453	1441	1449	1462	1470	1482	1491	1492	1479	1472	1469	1468	1467	1455	1440	1430	1434	1452	1465	1478	1486	1475	1474	1470	1450	1442	1448	1459	1467	1461	1449	1448	1447	1446	1436	1417	1409	1405	1393	1391	1379	1367	1376	1390	1390	1381	1396	1411	1417	1407	1405	1388	1379	1370	1371	1367	1354	1342	1359	1384	1381	1376	1377	1367	1370	1375	1386	1375	1369	1363	1353	1333	1325	1332	1341	1357	1366	1373	1384	1386	1384	1368	1359	1351	1349	1351	1346	1344	1373	1378	1379	1366	1349	1337	1344	1352	1355	1358	1358	1346	1344	1341	1336	1337	1343	1323	1322	1323	1325	1319	1315	1310	1310	1308	1305	1305	1296	1294	1294	1292	1295	1294	1297	1300	1297	1295	1293	1295	1296	1292	1291	1293	1293	1293	1298	1301	1298	1295	1288	1286	1271	1280	1273	1284	1290	1244	1244	1247	1254	1266	1275	1269	1259	1264	1266	1265	1260	1261	1262	1266	1265	1255	1242	1228	1226	1227	1235	1243	1240	1232	1223	1205	1196	1197	1215	1213	1194	1176	1234	1213	1199	1200	1204	1204	1210	1198	1193	1196	1189	1183	1183	1196	1209	1197	1192	1190	1199	1198	1193	1192	1190	1187	1195	1201	1202	1203	1198	1201	1197	1177	1174	1177	1176	1174	1184	1192	1201	1209	1206	1202	1181	1169	1161	1159	1160	1153	1154	1149	1147	1149	1142	1130	1121	1127	1126	1127	1137	1143	1138	1129	1127	1126	1134	1142	1146	1145	1137	1124	1110	1116	1113	1115	1112	1099	1096	1097	1129	1130	1129	1128	1125	1120	1120	1108	1103	1106	1111	1117	1124	1135	1149	1146	1137	1109	1094	1097	1098	1095	1085	1074	1083	1085	1089	1082	1082	1084	1082	1071	1061	1052	1046	1046	1041	1043	1051	1059	1057	1072	1070	1065	1065	1072	1070	1062	1052	1050	1039	1043	1055	1053	1052	1062	1057	1055	1054	1050	1045	1043	1052	1061	1061	1061	1061	1059	1058	1057	1049	1034	1027	1022	1018	1013	1011	1012	1012	1015	1025	1024	1023	1022	1010	1003	1016	1012	1012	1017	1024	1030	1026	1019	1015	1013	1014	1012	1010	994	980	976	980	991	997	985	981	970	964	975	984	979	986	985	986	995	997	994	991	983	978	979	969	969	966	961	962	968	972	968	961	962	966	967	961	954	944	939	937	938	944	964	970	986	995	988	987	984	990	989	980	976	979	975	963	958	972	971	960	961	949	946	945	961	965	968	970	971	967	958	937	931	926	923	930	931	930	941	944	943	945	952	951	952	938	950	960	972	972	962	959	954	944	912	905	905	909	919	930	943	935	931	935	932	936	938	933	916	910	909	907	917	915	901	894	895	902	907	903	902	903	914	904	899	904	902	895	890	890	892	893	893	889	886	885	885	877	871	871	873	876	878	878	885	890	890	889	882	886	878	878	880	879	881	882	896	905	899	890	878	868	865	859	857	858	860	867	864	861	860	860	865	870	873	870	863	857	855	860	871	875	880	880	878	876	871	866	866	0	0	0	0	0	0	0	0
1649	1637	1637	1632	1630	1628	1616	1584	1584	1566	1558	1572	1595	1616	1616	1607	1612	1621	1609	1604	1604	1597	1580	1598	1614	1615	1583	1583	1559	1563	1552	1507	1510	1521	1533	1533	1536	1539	1538	1523	1507	1487	1484	1494	1494	1505	1514	1525	1534	1530	1530	1523	1532	1547	1554	1554	1546	1535	1514	1505	1482	1474	1484	1496	1491	1487	1497	1502	1502	1494	1492	1485	1485	1497	1491	1488	1483	1495	1499	1456	1422	1407	1405	1420	1461	1478	1457	1431	1416	1407	1418	1441	1451	1465	1473	1479	1463	1454	1454	1451	1447	1422	1406	1393	1392	1406	1420	1425	1435	1443	1447	1447	1443	1428	1444	1435	1412	1409	1415	1429	1438	1435	1411	1392	1385	1390	1372	1371	1368	1373	1380	1381	1382	1379	1380	1387	1392	1396	1386	1375	1372	1367	1359	1340	1332	1334	1351	1366	1373	1366	1338	1318	1325	1343	1359	1362	1359	1354	1343	1317	1318	1326	1337	1341	1349	1363	1369	1367	1347	1332	1328	1328	1321	1314	1313	1328	1341	1356	1353	1358	1344	1333	1325	1325	1319	1320	1321	1329	1331	1329	1322	1320	1309	1294	1294	1298	1301	1302	1276	1275	1276	1281	1285	1293	1286	1291	1291	1291	1290	1280	1265	1260	1265	1279	1280	1284	1281	1272	1267	1260	1275	1279	1284	1278	1278	1270	1259	1250	1245	1250	1245	1244	1238	1221	1220	1225	1229	1234	1232	1232	1230	1231	1230	1231	1238	1245	1249	1253	1250	1206	1188	1194	1202	1212	1228	1237	1236	1222	1207	1191	1175	1171	1174	1167	1167	1169	1171	1169	1173	1174	1177	1186	1209	1199	1187	1182	1180	1177	1172	1177	1184	1183	1183	1188	1183	1186	1183	1175	1175	1175	1172	1171	1168	1167	1166	1177	1176	1165	1166	1167	1162	1160	1167	1177	1183	1176	1177	1164	1158	1150	1142	1135	1135	1140	1140	1140	1134	1135	1134	1119	1111	1114	1115	1119	1125	1134	1135	1124	1123	1121	1125	1125	1124	1130	1119	1103	1094	1097	1105	1106	1098	1086	1086	1088	1091	1103	1111	1117	1115	1115	1102	1088	1091	1094	1098	1097	1102	1110	1113	1105	1109	1105	1089	1079	1085	1082	1077	1054	1055	1059	1067	1076	1079	1076	1065	1055	1049	1045	1039	1036	1043	1047	1055	1057	1048	1037	1029	1029	1042	1053	1050	1030	1028	1033	1034	1032	1035	1038	1032	1040	1045	1051	1048	1039	1032	1029	1040	1047	1048	1044	1045	1043	1046	1033	1032	1026	1017	1010	1008	1005	1002	998	996	995	1012	1014	1009	1002	999	1008	1000	1000	1007	1015	1021	1026	1018	1003	997	995	996	991	980	975	969	964	970	983	995	989	974	968	960	967	964	955	955	946	944	964	979	978	966	959	957	961	963	958	950	940	935	943	943	943	944	949	945	949	949	939	939	935	933	938	942	954	957	957	964	952	949	951	963	967	968	961	960	954	943	921	929	942	945	941	936	935	940	951	961	967	968	965	946	937	932	932	925	923	916	915	912	921	922	926	934	935	927	921	925	925	925	927	928	925	905	909	919	914	888	881	881	884	904	919	913	911	913	917	918	917	913	887	878	886	896	893	893	893	893	898	907	901	899	896	896	900	899	897	896	894	893	889	889	889	885	881	877	873	876	876	871	863	855	855	861	865	866	867	883	889	882	881	875	869	871	872	874	875	877	888	891	881	862	853	849	849	851	853	855	855	848	838	833	854	854	858	870	872	863	856	852	849	854	858	865	863	856	851	860	855	850	850	0	0	0	0	0	0	0	0
1620	1603	1603	1596	1577	1573	1554	1538	1538	1525	1528	1535	1557	1565	1565	1551	1546	1557	1566	1575	1575	1562	1554	1558	1571	1555	1539	1539	1536	1496	1494	1489	1496	1502	1492	1492	1506	1510	1523	1517	1497	1475	1465	1475	1475	1487	1494	1499	1512	1521	1508	1486	1474	1484	1501	1501	1505	1501	1486	1461	1439	1442	1455	1468	1453	1450	1458	1465	1465	1458	1456	1449	1449	1450	1456	1454	1435	1426	1420	1408	1405	1398	1390	1394	1408	1421	1402	1377	1368	1370	1380	1398	1422	1439	1434	1441	1443	1441	1427	1410	1401	1407	1406	1407	1401	1401	1398	1396	1393	1391	1396	1399	1394	1408	1396	1384	1383	1390	1386	1377	1366	1361	1365	1368	1381	1377	1364	1347	1345	1359	1375	1386	1391	1382	1372	1369	1374	1373	1368	1363	1358	1350	1337	1328	1325	1326	1334	1337	1333	1316	1311	1308	1314	1330	1342	1345	1342	1333	1318	1297	1292	1290	1308	1307	1318	1341	1352	1349	1331	1310	1310	1303	1292	1299	1305	1318	1325	1335	1343	1336	1327	1295	1249	1300	1302	1305	1308	1307	1317	1317	1318	1296	1285	1271	1272	1266	1259	1252	1259	1262	1263	1261	1266	1282	1293	1300	1298	1284	1277	1231	1207	1205	1226	1250	1256	1247	1222	1218	1224	1235	1238	1231	1223	1226	1229	1241	1236	1231	1230	1228	1231	1223	1223	1222	1220	1198	1191	1188	1186	1192	1207	1219	1232	1242	1237	1233	1219	1214	1207	1159	1164	1172	1177	1182	1188	1187	1183	1185	1193	1190	1174	1174	1176	1176	1178	1184	1184	1184	1174	1157	1174	1196	1193	1194	1181	1168	1165	1165	1161	1161	1158	1158	1172	1187	1178	1164	1150	1150	1147	1141	1141	1140	1142	1141	1137	1139	1141	1145	1153	1155	1145	1138	1144	1152	1129	1130	1124	1125	1142	1134	1123	1117	1116	1119	1100	1104	1111	1117	1111	1095	1100	1095	1100	1100	1110	1123	1131	1121	1104	1106	1100	1086	1091	1097	1083	1074	1082	1093	1097	1100	1082	1073	1075	1068	1069	1070	1089	1092	1096	1094	1084	1077	1081	1080	1091	1083	1079	1076	1078	1089	1097	1082	1076	1066	1064	1061	1051	1049	1051	1050	1054	1058	1056	1048	1049	1046	1040	1038	1041	1044	1051	1054	1056	1058	1056	1046	1032	1030	1034	1036	1017	1012	1022	1027	1031	1027	1018	1025	1020	1026	1033	1030	1023	1027	1020	1007	1005	1020	1033	1030	1030	1003	997	996	997	1004	1005	1001	997	994	988	981	984	989	1004	1001	996	992	991	989	972	986	1003	1013	1018	1003	995	986	971	971	971	970	970	963	956	950	952	973	976	967	963	952	953	958	949	946	930	928	940	944	950	950	947	945	951	954	953	951	947	939	933	929	934	937	940	942	940	940	939	934	930	931	937	941	943	946	945	941	936	934	936	940	949	954	956	946	944	939	904	915	927	935	939	936	924	916	911	920	931	935	937	937	918	915	912	910	913	913	909	907	908	909	913	915	918	916	913	910	912	906	902	894	891	892	895	899	883	882	882	878	879	881	894	904	886	888	896	906	912	900	892	881	871	863	868	875	875	881	890	902	910	907	898	894	895	897	889	886	887	889	890	890	889	887	881	875	869	860	859	864	861	856	849	846	847	855	859	858	863	865	877	880	872	860	859	861	865	864	865	871	870	866	858	842	845	845	848	849	854	850	839	830	818	824	824	831	838	843	848	849	853	848	849	845	842	831	813	809	827	829	834	834	0	0	0	0	0	0	0	0
1555	1555	1541	1541	1525	1505	1506	1499	1499	1494	1497	1503	1530	1540	1540	1537	1524	1514	1536	1546	1546	1533	1525	1525	1520	1516	1503	1503	1478	1478	1475	1475	1475	1465	1468	1468	1466	1487	1501	1503	1487	1464	1454	1462	1462	1479	1474	1465	1463	1482	1476	1460	1454	1460	1469	1469	1473	1472	1453	1426	1414	1416	1422	1423	1439	1445	1440	1434	1434	1442	1443	1445	1445	1445	1440	1432	1416	1403	1392	1394	1399	1393	1381	1376	1377	1379	1360	1348	1352	1355	1368	1373	1379	1387	1395	1399	1407	1426	1419	1398	1387	1385	1379	1375	1384	1383	1387	1383	1376	1371	1357	1362	1378	1387	1383	1370	1370	1371	1359	1328	1317	1324	1337	1354	1367	1371	1352	1332	1324	1320	1325	1328	1336	1346	1362	1373	1372	1367	1357	1351	1344	1328	1315	1312	1313	1311	1315	1319	1307	1300	1287	1285	1288	1311	1326	1332	1330	1322	1307	1287	1275	1270	1273	1289	1300	1316	1336	1334	1315	1297	1287	1276	1274	1276	1294	1289	1276	1277	1295	1294	1258	1234	1219	1206	1202	1214	1260	1256	1268	1290	1289	1275	1267	1260	1239	1235	1236	1242	1243	1240	1238	1227	1218	1225	1238	1246	1235	1236	1232	1225	1206	1206	1207	1211	1205	1198	1196	1193	1190	1180	1185	1195	1194	1194	1203	1215	1215	1206	1206	1216	1214	1212	1225	1218	1194	1190	1173	1164	1165	1167	1171	1183	1188	1204	1198	1177	1170	1163	1148	1135	1168	1168	1160	1159	1153	1148	1142	1138	1139	1162	1165	1171	1162	1157	1161	1168	1158	1160	1167	1166	1158	1150	1156	1160	1158	1155	1153	1155	1150	1140	1139	1137	1148	1153	1148	1143	1135	1127	1122	1123	1129	1134	1131	1129	1121	1111	1112	1108	1107	1108	1124	1125	1124	1118	1122	1125	1123	1117	1113	1101	1096	1083	1089	1079	1087	1092	1092	1089	1076	1071	1071	1061	1080	1085	1090	1097	1095	1094	1080	1070	1065	1069	1072	1077	1080	1078	1069	1070	1070	1070	1064	1057	1067	1063	1057	1054	1062	1062	1066	1062	1049	1047	1046	1052	1050	1043	1042	1046	1053	1063	1070	1067	1068	1067	1058	1049	1040	1038	1038	1040	1041	1042	1035	1033	1032	1030	1028	1026	1016	1013	1017	1028	1036	1039	1036	1032	1032	1037	1037	1028	1010	1009	1011	1017	1021	1015	1007	1003	1008	1010	1007	1008	1012	1019	1014	996	991	993	995	977	991	985	992	988	987	988	990	986	984	975	976	980	983	987	995	992	980	966	960	957	952	972	982	991	981	973	967	970	963	960	960	961	959	955	949	944	939	947	952	954	950	940	928	941	939	932	924	926	935	940	939	941	940	948	946	944	946	942	940	934	921	921	924	921	918	929	934	935	935	928	928	931	935	935	935	932	929	917	918	924	925	926	905	898	899	906	910	904	899	900	906	907	898	888	887	880	885	888	909	914	919	905	900	895	889	883	905	907	899	888	886	899	904	901	904	902	894	890	888	887	882	883	881	885	880	876	880	880	874	870	876	880	880	874	859	859	869	879	890	895	890	878	865	855	850	855	862	867	875	891	900	902	896	891	889	874	859	850	862	879	888	895	890	882	875	866	855	851	848	853	854	851	847	840	845	848	852	852	855	858	855	849	839	839	843	853	858	859	863	866	866	864	854	835	839	841	845	842	849	847	840	829	825	827	827	832	827	813	813	815	817	827	832	822	814	803	797	800	802	808	818	818	0	0	0	0	0	0	0	0
