1915	1903	1903	1894	1888	1919	1936	1936	1941	1937	1935	1925	1897	1897	1847	1842	1848	1868	1872	1872	1874	1868	1874	1863	1855	1872	1872	1889	1851	1817	1836	1851	1843	1840	1840	1844	1857	1874	1880	1857	1834	1832	1839	1839	1812	1782	1775	1796	1805	1799	1788	1784	1789	1792	1792	1793	1799	1798	1805	1811	1815	1809	1790	1768	1752	1734	1692	1555	1452	1393	1335	1335	1315	1277	1288	1304	1307	1308	1317	1319	1316	1306	1296	1297	1305	1316	1325	1320	1316	1316	1317	1313	1306	1297	1298	1304	1309	1317	1329	1330	1325	1316	1320	1326	1317	1323	1317	1304	1296	1290	1295	1307	1316	1319	1319	1322	1323	1315	1298	1285	1322	1336	1336	1317	1291	1309	1328	1347	1370	1353	1334	1329	1339	1341	1324	1327	1339	1369	1369	1361	1332	1314	1315	1339	1355	1393	1403	1487	1597	1575	1565	1568	1565	1552	1543	1530	1529	1535	1543	1552	1558	1567	1555	1542	1525	1520	1531	1546	1545	1551	1547	1544	1531	1522	1507	1490	1456	1448	1435	1430	1427	1413	1411	1418	1425	1432	1427	1425	1428	1422	1425	1425	1412	1404	1420	1444	1445	1427	1401	1389	1407	1436	1467	1484	1462	1446	1442	1466	1465	1446	1438	1428	1427	1426	1439	1457	1445	1441	1434	1425	1416	1409	1410	1415	1420	1390	1340	1344	1345	1360	1348	1319	1314	1321	1324	1322	1284	1270	1258	1253	1254	1258	1244	1245	1267	1277	1294	1328	1352	1349	1350	1350	1356	1361	1353	1339	1301	1269	1256	1253	1240	1229	1230	1222	1231	1243	1247	1231	1222	1227	1242	1252	1258	1262	1263	1262	1257	1248	1233	1223	1218	1228	1236	1246	1253	1253	1254	1260	1285	1323	1335	1343	1348	1352	1351	1346	1340	1349	1346	1339	1337	1330	1332	1343	1357	1367	1375	1369	1358	1344	1336	1341	1348	1355	1355	1342	1330	1316	1300	1290	1303	1319	1327	1326	1310	1300	1308	1316	1329	1337	1337	1331	1327	1327	1331	1331	1324	1322	1328	1329	1297	1284	1275	1276	1274	1283	1293	1292	1314	1347	1344	1332	1328	1325	1325	1320	1316	1320	1327	1325	1312	1296	1265	1265	1252	1297	1322	1334	1343	1348	1347	1338	1319	1314	1308	1306	1303	1300	1287	1271	1254	1254	1261	1267	1275	1283	1296	1296	1290	1274	1265	1271	1280	1295	1294	1282	1288	1285	1280	1278	1273	1279	1265	1249	1222	1191	1168	1155	1154	1147	1153	1167	1172	1179	1190	1197	1204	1198	1193	1186	1182	1190	1195	1205	1219	1212	1209	1220	1227	1227	1240	1246	1243	1237	1237	1237	1242	1248	1267	1198	1191	1194	1197	1196	1176	1127	1065	1035	1004	962	954	943	932	919	919	940	939	935	932	927	916	920	972	1038	1088	1125	1170	1173	1176	1173	1173	1169	1174	1193	1190	1187	1186	1181	1191	1197	1200	1207	1212	1199	1190	1187	1192	1168	1164	1165	1163	1164	1166	1170	1176	1181	1181	1178	1174	1171	1155	1134	1134	1142	1153	1160	1167	1166	1154	1142	1139	1137	1131	1132	1140	1152	1148	1143	1137	1141	1136	1124	1116	1116	1121	1120	1111	1100	1098	1099	1103	1112	1113	1114	1109	1109	1102	1093	1093	1093	1114	1107	1100	1092	1091	1093	1104	1110	1107	1098	1088	1088	1090	1096	1101	1092	1075	1056	1047	1055	1064	1081	1092	1094	1090	1086	1082	1079	1073	1069	1062	1078	1099	1084	1077	1069	1065	1067	1075	1083	1081	1075	1067	1064	1060	1051	1049	1047	1058	1052	1046	1035	1030	1028	1035	1030	1025	1019	1015	1008	1002	999	1000	1011	1023	1026	1026	1027	1036	1041	1047	1047	1044	1025	1020	1020	1022	1024	1018	1023	1033	1035	1034	1030	1028	1020	1003	998	999	1001	1004	0	0	0	0	0	0	0	0	0
1863	1838	1838	1823	1834	1846	1823	1823	1829	1858	1866	1851	1821	1821	1791	1799	1825	1842	1844	1844	1824	1828	1813	1819	1829	1838	1838	1800	1760	1756	1786	1813	1826	1811	1811	1801	1801	1793	1785	1789	1801	1799	1794	1794	1773	1762	1755	1758	1797	1801	1783	1769	1764	1765	1765	1751	1736	1730	1734	1764	1766	1761	1754	1751	1742	1720	1654	1514	1436	1384	1346	1346	1321	1291	1291	1303	1303	1309	1316	1327	1320	1307	1301	1304	1318	1338	1342	1327	1315	1311	1314	1313	1303	1296	1292	1300	1304	1306	1317	1326	1326	1329	1325	1322	1326	1326	1324	1317	1306	1299	1301	1309	1320	1323	1325	1326	1326	1321	1306	1319	1349	1340	1338	1327	1288	1304	1318	1319	1304	1336	1326	1327	1347	1348	1334	1331	1336	1344	1345	1341	1328	1318	1318	1338	1351	1383	1435	1482	1587	1552	1551	1538	1529	1527	1520	1510	1494	1488	1497	1515	1531	1539	1534	1512	1502	1495	1504	1514	1533	1540	1533	1517	1506	1487	1471	1456	1441	1424	1426	1432	1431	1419	1413	1417	1426	1431	1425	1423	1431	1423	1418	1407	1377	1378	1400	1410	1412	1400	1380	1380	1389	1431	1459	1444	1432	1418	1405	1411	1417	1417	1404	1398	1403	1412	1428	1421	1399	1407	1412	1407	1408	1405	1401	1402	1405	1397	1345	1327	1346	1337	1313	1312	1320	1313	1313	1313	1287	1287	1281	1281	1293	1292	1291	1294	1291	1294	1299	1325	1351	1364	1367	1364	1366	1361	1345	1322	1300	1271	1262	1253	1241	1228	1218	1216	1218	1230	1224	1209	1205	1206	1215	1227	1250	1261	1262	1257	1251	1243	1235	1217	1215	1222	1233	1245	1247	1243	1237	1235	1260	1296	1323	1334	1337	1341	1339	1334	1330	1326	1328	1331	1329	1327	1328	1340	1352	1363	1366	1360	1356	1349	1342	1339	1342	1337	1334	1327	1303	1292	1274	1258	1270	1282	1300	1280	1276	1276	1278	1285	1297	1324	1323	1316	1311	1314	1312	1297	1302	1302	1302	1294	1285	1277	1271	1268	1270	1279	1289	1292	1305	1319	1322	1318	1312	1314	1319	1314	1311	1311	1314	1307	1276	1260	1253	1248	1238	1244	1259	1283	1297	1318	1326	1325	1310	1288	1289	1291	1269	1265	1258	1243	1247	1253	1260	1254	1245	1237	1239	1242	1266	1261	1261	1270	1283	1289	1275	1264	1251	1263	1262	1260	1247	1228	1197	1191	1171	1152	1148	1145	1145	1148	1149	1158	1163	1169	1177	1179	1177	1174	1171	1168	1166	1184	1200	1212	1212	1204	1193	1185	1202	1215	1232	1238	1232	1224	1200	1202	1208	1170	1165	1169	1174	1166	1133	1117	1083	1046	981	953	917	919	914	919	925	931	937	937	934	928	921	905	877	867	888	926	980	1017	1061	1106	1120	1131	1137	1139	1160	1163	1172	1176	1176	1174	1174	1179	1178	1173	1172	1174	1166	1144	1146	1153	1139	1127	1135	1142	1152	1159	1162	1170	1169	1160	1145	1141	1141	1127	1134	1140	1145	1151	1154	1153	1149	1140	1127	1114	1107	1107	1119	1117	1106	1105	1111	1117	1110	1094	1086	1088	1090	1090	1084	1082	1087	1089	1091	1094	1096	1093	1090	1082	1079	1079	1077	1075	1077	1082	1084	1080	1089	1090	1094	1087	1071	1065	1061	1059	1061	1068	1081	1068	1052	1034	1031	1045	1062	1078	1080	1069	1056	1050	1050	1045	1044	1035	1039	1050	1068	1070	1061	1050	1038	1033	1031	1037	1041	1046	1053	1043	1036	1020	1018	1023	1032	1039	1036	1028	1017	1011	1020	1018	1018	1018	1012	1008	999	998	1001	1008	1019	1019	1009	995	985	995	998	1003	1002	998	998	998	1005	1009	997	992	1003	1007	1002	993	1006	991	985	999	1002	1001	1000	0	0	0	0	0	0	0	0	0
1778	1774	1774	1779	1789	1792	1774	1774	1781	1802	1815	1788	1767	1767	1764	1776	1788	1798	1801	1801	1791	1782	1775	1776	1761	1745	1745	1740	1722	1717	1747	1760	1765	1746	1746	1750	1752	1755	1752	1748	1749	1753	1766	1766	1769	1746	1737	1734	1747	1761	1764	1752	1742	1737	1737	1724	1704	1674	1655	1660	1654	1660	1665	1691	1699	1690	1638	1530	1432	1398	1357	1357	1323	1314	1322	1317	1313	1288	1297	1320	1319	1314	1312	1312	1312	1318	1323	1327	1330	1334	1329	1318	1303	1293	1293	1301	1312	1316	1316	1323	1329	1332	1336	1340	1333	1331	1319	1308	1305	1309	1310	1318	1325	1320	1315	1322	1321	1323	1311	1320	1346	1352	1352	1328	1289	1307	1313	1304	1286	1290	1299	1310	1324	1327	1324	1326	1338	1342	1342	1340	1329	1307	1309	1320	1342	1396	1448	1527	1555	1530	1525	1514	1514	1513	1506	1497	1491	1499	1503	1495	1494	1488	1505	1470	1469	1465	1476	1493	1497	1505	1507	1492	1475	1461	1439	1407	1387	1369	1384	1401	1409	1408	1405	1411	1415	1425	1425	1420	1410	1398	1391	1384	1369	1367	1367	1368	1367	1363	1358	1359	1369	1384	1390	1392	1388	1384	1386	1400	1402	1398	1398	1400	1393	1377	1364	1354	1363	1376	1390	1392	1399	1408	1412	1414	1412	1388	1341	1323	1314	1313	1327	1323	1311	1304	1303	1298	1284	1284	1280	1287	1293	1295	1295	1292	1294	1299	1305	1317	1329	1349	1357	1356	1350	1338	1326	1307	1285	1279	1267	1247	1236	1223	1203	1197	1191	1193	1203	1200	1208	1210	1209	1217	1222	1227	1231	1241	1239	1233	1226	1220	1219	1223	1235	1242	1246	1242	1232	1219	1252	1276	1305	1318	1329	1325	1323	1321	1316	1314	1291	1272	1275	1297	1323	1332	1333	1342	1344	1339	1345	1346	1348	1351	1338	1322	1304	1293	1283	1257	1244	1230	1224	1231	1243	1252	1257	1257	1259	1267	1280	1272	1289	1298	1290	1296	1283	1265	1268	1267	1274	1277	1275	1272	1268	1261	1258	1267	1272	1276	1278	1286	1294	1292	1267	1269	1270	1281	1283	1274	1270	1270	1271	1264	1256	1246	1236	1241	1258	1269	1283	1292	1294	1275	1252	1242	1229	1229	1223	1226	1227	1222	1233	1238	1233	1229	1223	1220	1217	1215	1211	1221	1235	1247	1259	1265	1258	1249	1228	1209	1197	1196	1187	1159	1122	1118	1115	1119	1125	1124	1124	1128	1141	1141	1143	1144	1145	1150	1156	1158	1151	1164	1158	1161	1169	1177	1188	1190	1181	1176	1183	1200	1217	1222	1206	1180	1157	1159	1159	1155	1156	1165	1155	1131	1080	1033	1017	971	944	910	913	912	907	905	914	922	930	932	928	914	896	882	871	850	849	851	874	915	958	1008	1061	1098	1113	1131	1141	1155	1162	1165	1163	1163	1163	1161	1156	1156	1150	1136	1124	1122	1121	1131	1116	1105	1105	1113	1136	1151	1156	1148	1136	1131	1130	1128	1134	1135	1133	1132	1125	1121	1131	1142	1146	1136	1128	1116	1109	1106	1111	1096	1098	1098	1098	1095	1089	1077	1070	1067	1071	1078	1076	1073	1068	1055	1067	1079	1081	1081	1078	1074	1067	1066	1066	1060	1050	1046	1047	1042	1045	1047	1055	1074	1065	1056	1046	1035	1027	1032	1039	1044	1039	1034	1036	1049	1059	1058	1047	1036	1022	1022	1025	1023	1021	1008	1011	1017	1025	1029	1030	1029	1021	1018	1012	1012	1017	1025	1034	1032	1013	1001	1003	1010	1016	1020	1010	1010	1001	995	1001	1006	1008	1009	1005	1002	997	996	999	1003	1008	1009	1002	990	974	962	965	992	993	997	1004	1004	1006	989	986	985	987	983	983	980	975	977	985	992	982	988	976	0	0	0	0	0	0	0	0	0
1734	1728	1728	1755	1765	1754	1746	1746	1751	1762	1757	1754	1742	1742	1738	1751	1764	1776	1779	1779	1761	1738	1717	1709	1698	1694	1694	1698	1692	1703	1705	1694	1700	1708	1708	1718	1730	1735	1727	1720	1707	1705	1720	1720	1736	1731	1664	1580	1566	1591	1629	1649	1669	1686	1686	1683	1668	1640	1644	1650	1641	1638	1650	1619	1632	1628	1575	1504	1444	1409	1355	1355	1327	1340	1322	1311	1283	1277	1288	1307	1318	1324	1319	1322	1318	1317	1319	1326	1331	1336	1336	1326	1311	1299	1302	1310	1323	1327	1325	1323	1332	1335	1338	1340	1336	1325	1314	1297	1289	1291	1298	1307	1311	1310	1317	1322	1324	1311	1296	1315	1325	1323	1328	1332	1302	1307	1312	1308	1289	1272	1273	1279	1303	1305	1315	1322	1334	1341	1342	1344	1338	1314	1298	1310	1355	1414	1454	1531	1503	1497	1494	1501	1508	1504	1497	1488	1482	1487	1484	1480	1472	1450	1419	1428	1436	1449	1452	1455	1455	1463	1477	1473	1457	1441	1411	1392	1377	1349	1348	1352	1364	1378	1381	1393	1386	1382	1365	1354	1349	1366	1376	1371	1355	1359	1369	1369	1361	1350	1342	1340	1352	1360	1363	1373	1375	1378	1384	1399	1390	1381	1383	1379	1387	1379	1356	1352	1346	1339	1337	1344	1358	1383	1400	1402	1396	1353	1350	1339	1334	1328	1323	1315	1304	1295	1293	1285	1278	1280	1282	1288	1285	1277	1271	1275	1288	1289	1297	1303	1320	1328	1332	1335	1330	1321	1308	1298	1289	1287	1265	1244	1228	1206	1187	1177	1170	1174	1184	1193	1197	1206	1205	1215	1218	1218	1217	1214	1215	1217	1216	1221	1223	1225	1227	1233	1237	1235	1232	1217	1248	1261	1284	1308	1316	1318	1308	1303	1289	1278	1266	1250	1242	1256	1278	1296	1314	1322	1323	1307	1295	1299	1311	1314	1306	1294	1278	1271	1259	1251	1238	1232	1231	1235	1235	1238	1239	1241	1240	1234	1228	1234	1252	1269	1266	1253	1242	1234	1236	1238	1239	1256	1261	1256	1249	1250	1261	1267	1272	1278	1284	1293	1273	1249	1252	1252	1246	1248	1241	1242	1241	1247	1264	1262	1249	1235	1232	1237	1248	1250	1246	1239	1230	1234	1225	1219	1214	1220	1217	1207	1197	1189	1197	1216	1223	1221	1217	1217	1215	1210	1209	1217	1225	1230	1230	1215	1217	1221	1216	1199	1183	1177	1165	1125	1102	1101	1102	1108	1110	1105	1103	1113	1112	1119	1128	1141	1147	1143	1145	1138	1144	1157	1152	1143	1129	1127	1134	1154	1157	1160	1163	1165	1166	1161	1124	1122	1126	1129	1129	1130	1134	1130	1124	1074	1013	964	945	928	911	905	907	906	900	894	901	916	922	922	913	887	873	861	855	849	831	820	816	827	863	921	973	1016	1097	1117	1144	1148	1150	1142	1133	1125	1125	1128	1134	1131	1115	1103	1095	1097	1104	1113	1109	1095	1087	1095	1112	1125	1134	1133	1121	1118	1120	1121	1119	1103	1090	1081	1067	1064	1070	1079	1071	1065	1072	1081	1081	1072	1062	1049	1063	1080	1082	1078	1069	1067	1055	1054	1059	1065	1070	1069	1064	1045	1043	1049	1053	1039	1045	1059	1063	1047	1039	1045	1045	1038	1032	1030	1030	1034	1040	1045	1028	1018	1012	1012	1016	1018	1016	1019	1023	1022	1018	1014	1009	1004	1012	1013	1013	982	997	1007	1001	988	992	993	993	992	993	1008	1005	1001	990	973	974	977	980	980	982	989	994	998	996	995	988	992	988	986	985	990	997	995	992	992	988	986	988	997	998	991	989	982	970	960	962	971	986	1001	1005	1005	989	978	979	980	987	981	968	967	967	964	958	950	939	953	956	0	0	0	0	0	0	0	0	0
1689	1704	1704	1726	1736	1728	1718	1718	1711	1726	1739	1722	1707	1707	1702	1709	1733	1763	1764	1764	1744	1717	1699	1688	1681	1677	1677	1666	1671	1677	1655	1648	1670	1681	1681	1690	1696	1702	1709	1692	1684	1674	1673	1673	1674	1653	1586	1560	1551	1570	1598	1624	1640	1648	1648	1651	1603	1607	1609	1611	1610	1612	1602	1596	1592	1592	1570	1501	1421	1382	1347	1347	1319	1328	1312	1303	1290	1290	1288	1305	1314	1326	1331	1328	1326	1326	1326	1330	1330	1329	1325	1319	1313	1306	1304	1313	1323	1336	1343	1334	1332	1331	1330	1336	1336	1326	1305	1287	1277	1278	1283	1289	1298	1307	1320	1336	1329	1318	1301	1315	1321	1321	1329	1342	1319	1312	1314	1327	1300	1268	1269	1286	1302	1299	1317	1332	1344	1353	1356	1357	1354	1352	1347	1380	1412	1423	1432	1417	1358	1380	1423	1461	1473	1484	1483	1474	1467	1474	1471	1461	1447	1429	1409	1401	1412	1432	1439	1439	1430	1432	1440	1441	1431	1402	1385	1371	1360	1353	1354	1354	1354	1362	1364	1355	1361	1337	1332	1320	1327	1338	1353	1355	1347	1353	1367	1371	1361	1344	1330	1323	1326	1322	1327	1345	1365	1385	1397	1398	1385	1369	1350	1323	1293	1294	1302	1297	1298	1303	1314	1326	1342	1358	1368	1385	1369	1344	1336	1331	1330	1326	1318	1312	1299	1293	1283	1274	1274	1284	1278	1277	1270	1262	1262	1268	1275	1278	1280	1288	1295	1294	1310	1314	1318	1310	1304	1298	1295	1288	1254	1226	1210	1182	1169	1161	1158	1159	1169	1179	1183	1180	1182	1187	1192	1193	1193	1196	1198	1200	1203	1209	1217	1225	1218	1216	1223	1223	1221	1215	1222	1262	1282	1297	1300	1287	1276	1272	1271	1258	1248	1242	1240	1245	1261	1278	1295	1302	1287	1254	1238	1239	1251	1252	1250	1257	1268	1259	1247	1240	1232	1234	1233	1231	1226	1221	1215	1213	1208	1206	1211	1216	1219	1237	1235	1225	1221	1217	1209	1212	1218	1215	1214	1225	1232	1248	1256	1258	1258	1261	1264	1259	1229	1221	1221	1234	1235	1238	1237	1237	1234	1233	1224	1228	1220	1203	1200	1217	1227	1223	1206	1191	1211	1227	1229	1222	1220	1217	1210	1209	1204	1199	1206	1209	1211	1214	1211	1211	1208	1205	1203	1206	1206	1201	1196	1188	1189	1196	1199	1188	1183	1163	1143	1107	1097	1096	1088	1086	1084	1089	1094	1097	1102	1109	1117	1103	1107	1111	1118	1123	1119	1121	1124	1121	1117	1115	1123	1135	1152	1154	1127	1111	1086	1081	1082	1088	1108	1113	1108	1089	1094	1100	1081	1003	945	920	904	894	883	882	888	892	885	881	882	891	897	903	884	876	875	862	854	844	828	835	827	832	841	867	886	951	1020	1078	1139	1145	1137	1117	1100	1097	1096	1102	1103	1104	1096	1081	1071	1078	1075	1062	1063	1059	1070	1069	1081	1084	1090	1086	1085	1082	1078	1073	1070	1064	1062	1062	1061	1059	1062	1060	1056	1047	1047	1052	1056	1061	1054	1042	1048	1052	1059	1067	1061	1052	1046	1046	1050	1057	1060	1054	1060	1050	1040	1035	1028	1025	1024	1022	1013	1008	1016	1029	1018	1021	1017	1017	1020	1020	1021	1021	1009	1006	1008	1013	1013	1004	992	987	984	983	992	989	990	981	973	972	973	972	981	991	979	978	979	979	974	974	978	978	972	969	964	964	962	960	951	940	939	949	976	985	986	986	985	987	992	991	989	989	985	978	978	979	974	957	964	962	971	978	979	979	970	965	963	973	980	983	976	976	974	969	971	973	975	969	956	950	947	937	941	939	924	917	927	0	0	0	0	0	0	0	0	0
1652	1651	1651	1659	1672	1669	1663	1663	1664	1674	1687	1682	1677	1677	1656	1660	1674	1685	1706	1706	1700	1673	1647	1653	1652	1652	1652	1645	1643	1624	1628	1648	1659	1659	1659	1658	1662	1675	1682	1678	1671	1665	1659	1659	1649	1626	1587	1561	1555	1561	1578	1579	1582	1588	1588	1579	1584	1587	1584	1582	1585	1580	1575	1569	1566	1566	1551	1512	1408	1370	1347	1347	1319	1313	1296	1301	1306	1294	1294	1309	1319	1329	1334	1338	1333	1333	1334	1332	1331	1320	1317	1312	1303	1297	1300	1310	1324	1340	1350	1347	1330	1320	1308	1307	1311	1304	1297	1289	1280	1276	1277	1280	1287	1298	1319	1335	1329	1316	1306	1315	1313	1320	1333	1341	1328	1328	1320	1318	1302	1290	1297	1306	1327	1340	1376	1395	1388	1379	1374	1367	1384	1360	1410	1421	1425	1398	1365	1278	1267	1287	1322	1364	1397	1425	1443	1460	1455	1455	1454	1450	1441	1423	1399	1393	1403	1428	1439	1434	1419	1393	1378	1368	1336	1303	1291	1266	1280	1318	1328	1318	1306	1294	1293	1320	1324	1315	1306	1299	1301	1310	1330	1332	1329	1323	1328	1331	1331	1328	1327	1320	1309	1307	1322	1347	1370	1370	1350	1337	1339	1336	1320	1286	1271	1269	1272	1239	1261	1277	1306	1312	1311	1309	1314	1334	1328	1320	1321	1322	1319	1316	1306	1298	1286	1278	1272	1274	1282	1276	1271	1264	1257	1253	1253	1258	1265	1265	1260	1274	1283	1283	1284	1285	1300	1301	1298	1293	1289	1283	1235	1215	1189	1176	1165	1147	1115	1112	1156	1170	1174	1170	1169	1174	1181	1180	1181	1181	1184	1185	1192	1199	1211	1205	1197	1204	1212	1216	1216	1220	1223	1235	1247	1250	1243	1230	1218	1223	1238	1247	1244	1243	1244	1248	1253	1269	1278	1258	1237	1220	1221	1218	1223	1231	1238	1242	1241	1239	1238	1236	1230	1227	1227	1220	1208	1201	1192	1187	1199	1204	1210	1211	1208	1216	1212	1200	1182	1176	1183	1191	1208	1214	1215	1220	1223	1233	1228	1214	1197	1197	1198	1209	1200	1202	1202	1212	1224	1225	1223	1222	1219	1205	1202	1190	1188	1185	1184	1179	1196	1189	1178	1186	1204	1219	1220	1209	1201	1201	1202	1200	1184	1184	1189	1200	1198	1199	1194	1186	1175	1170	1182	1187	1189	1189	1175	1169	1170	1177	1179	1174	1156	1144	1114	1092	1090	1069	1050	1043	1054	1062	1064	1063	1064	1075	1081	1080	1084	1096	1106	1109	1108	1108	1109	1105	1099	1101	1104	1108	1127	1125	1098	1086	1073	1067	1073	1095	1104	1107	1088	1081	1082	1074	1013	939	901	895	887	872	866	866	875	880	881	879	883	888	892	887	881	879	876	862	854	837	833	837	827	814	831	861	860	892	951	1080	1112	1120	1099	1085	1080	1074	1068	1075	1079	1076	1075	1063	1069	1060	1062	1063	1063	1059	1054	1057	1061	1049	1033	1034	1039	1044	1049	1050	1044	1053	1060	1060	1058	1056	1051	1048	1040	1030	1021	1023	1033	1037	1045	1040	1032	1032	1025	1027	1041	1047	1043	1032	1026	1030	1037	1044	1050	1062	1042	1028	1018	1013	1005	996	987	979	982	992	1013	1014	1008	1005	1003	1010	1015	1019	1016	1015	1015	1013	999	990	986	983	980	976	977	976	966	967	968	968	967	968	976	973	971	970	972	966	966	959	961	962	969	968	965	966	962	954	950	945	948	962	972	967	974	976	962	959	963	968	978	979	966	957	946	940	941	941	952	955	955	958	959	959	972	967	959	959	957	954	953	953	960	964	965	969	946	943	943	926	925	926	936	931	926	918	915	0	0	0	0	0	0	0	0	0
1627	1609	1609	1595	1595	1613	1645	1645	1665	1681	1679	1653	1626	1626	1608	1599	1601	1632	1654	1654	1639	1629	1620	1612	1621	1621	1621	1610	1608	1625	1638	1643	1643	1639	1639	1642	1638	1648	1663	1662	1655	1645	1643	1643	1637	1604	1593	1551	1540	1539	1555	1563	1561	1567	1567	1569	1560	1560	1560	1554	1550	1544	1534	1539	1546	1550	1540	1517	1428	1370	1350	1350	1324	1305	1290	1297	1308	1301	1303	1318	1328	1334	1336	1339	1339	1337	1334	1328	1321	1315	1314	1307	1302	1290	1289	1297	1308	1327	1339	1330	1317	1304	1303	1298	1302	1297	1294	1294	1291	1294	1287	1283	1286	1294	1310	1321	1306	1305	1299	1301	1298	1315	1326	1340	1327	1335	1337	1313	1300	1306	1319	1342	1372	1399	1414	1393	1374	1371	1372	1393	1417	1428	1419	1405	1398	1311	1290	1260	1296	1322	1340	1344	1360	1387	1422	1444	1446	1448	1461	1463	1445	1421	1390	1385	1385	1376	1372	1369	1364	1351	1303	1268	1250	1240	1245	1238	1234	1239	1267	1287	1289	1279	1272	1270	1252	1247	1248	1257	1273	1286	1295	1299	1308	1305	1309	1310	1314	1316	1331	1326	1312	1302	1316	1331	1336	1335	1329	1322	1322	1320	1303	1285	1270	1252	1238	1256	1270	1281	1295	1289	1289	1291	1291	1297	1305	1307	1309	1313	1312	1304	1297	1287	1288	1288	1285	1291	1284	1268	1262	1254	1249	1248	1245	1247	1236	1220	1228	1262	1275	1281	1274	1265	1256	1265	1287	1281	1276	1229	1220	1213	1193	1175	1164	1137	1112	1102	1108	1129	1145	1154	1156	1161	1167	1169	1168	1170	1167	1158	1145	1143	1183	1185	1190	1195	1197	1214	1213	1221	1225	1231	1232	1226	1216	1206	1203	1204	1216	1233	1242	1251	1252	1243	1234	1221	1212	1199	1194	1193	1195	1203	1204	1208	1215	1214	1216	1214	1200	1210	1218	1218	1212	1194	1184	1180	1176	1181	1189	1198	1199	1198	1196	1189	1175	1178	1178	1179	1186	1187	1183	1178	1178	1181	1180	1174	1165	1171	1174	1174	1173	1177	1176	1172	1178	1182	1187	1194	1191	1190	1177	1172	1163	1177	1179	1170	1163	1140	1138	1159	1173	1178	1185	1185	1177	1137	1134	1133	1137	1132	1139	1139	1165	1166	1175	1175	1176	1170	1165	1163	1158	1169	1172	1171	1157	1139	1131	1134	1137	1146	1124	1110	1074	1071	1060	1043	1034	1033	1037	1047	1052	1053	1058	1061	1063	1066	1070	1082	1094	1102	1099	1100	1098	1094	1087	1085	1090	1095	1069	1090	1092	1076	1065	1063	1066	1087	1097	1097	1080	1058	1055	1033	991	923	883	880	872	863	866	872	875	877	878	869	871	870	867	861	856	854	858	852	845	832	831	841	823	809	805	813	854	861	895	997	1072	1076	1071	1072	1059	1052	1046	1046	1047	1049	1052	1049	1049	1048	1059	1062	1058	1056	1053	1044	1030	1022	1022	1028	1037	1043	1046	1051	1038	1037	1053	1061	1058	1050	1044	1038	1028	1016	1015	1012	1015	1011	1037	1041	1034	1019	1014	1007	1003	1002	993	986	999	1010	1017	1029	1014	1023	1026	1013	1007	1011	1008	994	982	974	976	998	1004	1003	999	996	996	1003	1007	992	981	986	987	989	977	979	981	980	978	973	972	968	962	961	962	961	963	963	966	958	960	961	961	954	954	947	950	956	966	967	959	959	953	946	941	942	949	968	969	959	950	947	933	927	934	938	951	959	958	951	947	942	942	935	929	929	933	938	941	940	937	923	922	926	930	940	949	949	952	945	944	945	929	930	918	910	907	914	923	921	915	912	915	0	0	0	0	0	0	0	0	0
1608	1579	1579	1557	1564	1595	1651	1651	1684	1693	1675	1622	1578	1578	1567	1560	1567	1580	1593	1593	1602	1595	1590	1592	1599	1594	1594	1591	1598	1617	1635	1638	1634	1621	1621	1606	1606	1616	1635	1638	1629	1619	1611	1564	1529	1525	1537	1534	1530	1541	1538	1545	1555	1558	1556	1556	1546	1528	1510	1495	1495	1500	1504	1514	1527	1543	1537	1493	1417	1383	1354	1354	1333	1298	1291	1287	1273	1302	1318	1322	1332	1335	1337	1344	1348	1344	1332	1321	1309	1309	1321	1313	1301	1290	1278	1286	1293	1309	1307	1312	1312	1304	1303	1306	1305	1302	1300	1301	1305	1306	1304	1302	1296	1297	1294	1289	1288	1284	1282	1272	1282	1309	1324	1341	1322	1311	1305	1319	1304	1311	1322	1335	1348	1369	1362	1339	1334	1348	1374	1399	1413	1413	1388	1372	1368	1339	1301	1298	1302	1334	1365	1378	1381	1388	1409	1422	1424	1432	1445	1459	1443	1412	1352	1356	1357	1348	1338	1303	1277	1225	1190	1204	1221	1236	1244	1246	1241	1235	1229	1227	1262	1258	1257	1255	1259	1254	1251	1262	1279	1289	1282	1279	1302	1319	1316	1304	1274	1264	1281	1295	1296	1306	1314	1325	1329	1331	1328	1322	1320	1310	1302	1285	1264	1251	1242	1246	1273	1274	1253	1244	1258	1265	1275	1284	1293	1296	1295	1295	1291	1286	1278	1283	1294	1304	1307	1299	1272	1241	1237	1242	1238	1230	1228	1217	1188	1188	1196	1215	1237	1265	1252	1236	1216	1205	1212	1217	1235	1224	1216	1211	1200	1184	1172	1137	1121	1110	1114	1121	1132	1140	1148	1153	1157	1152	1153	1154	1160	1161	1154	1149	1140	1157	1159	1173	1188	1208	1211	1217	1218	1214	1211	1208	1200	1193	1190	1190	1199	1214	1230	1235	1229	1195	1180	1174	1169	1171	1179	1182	1184	1183	1183	1175	1175	1175	1180	1174	1176	1180	1192	1200	1198	1194	1169	1155	1157	1163	1167	1173	1168	1163	1169	1164	1159	1150	1145	1157	1161	1158	1149	1138	1131	1128	1125	1119	1117	1112	1121	1133	1151	1162	1160	1159	1162	1158	1162	1168	1159	1146	1137	1141	1146	1154	1158	1161	1149	1092	1101	1114	1124	1130	1134	1131	1129	1123	1112	1106	1108	1117	1126	1125	1113	1110	1112	1122	1138	1146	1151	1147	1146	1150	1155	1139	1132	1126	1121	1120	1113	1117	1106	1078	1046	1043	1038	1032	1031	1031	1033	1035	1039	1050	1057	1057	1051	1053	1052	1056	1082	1088	1089	1050	1054	1057	1060	1058	1029	1031	1037	1038	1059	1055	1057	1058	1062	1073	1073	1054	1043	1042	1029	993	934	901	881	874	867	858	860	867	871	868	854	852	850	856	856	855	855	847	839	833	835	835	834	835	824	805	796	801	829	847	872	934	1001	1020	1035	1044	1037	1037	1028	1031	1034	1033	1035	1039	1041	1040	1055	1052	1051	1043	1033	1017	1013	1011	1014	1022	1033	1044	1043	1042	1035	1033	1042	1048	1043	1036	1033	1027	1021	1009	997	1000	989	986	995	1002	1016	1019	1009	1000	993	990	977	964	968	981	987	979	982	1009	1004	991	972	970	977	976	977	974	979	988	995	995	981	985	985	996	992	978	935	932	937	949	953	953	978	975	960	957	958	956	954	950	955	958	960	962	962	957	955	956	950	945	942	942	951	958	962	953	951	950	945	939	932	937	947	959	950	943	930	920	923	928	928	929	925	922	925	922	922	925	924	919	921	914	914	915	906	902	896	883	885	906	922	932	934	934	929	921	922	922	915	909	903	898	897	908	911	915	914	911	909	0	0	0	0	0	0	0	0	0
1590	1555	1555	1541	1542	1577	1621	1621	1596	1601	1603	1568	1543	1543	1525	1524	1534	1542	1561	1561	1572	1569	1565	1562	1567	1580	1580	1592	1587	1588	1604	1614	1603	1576	1576	1565	1573	1580	1588	1593	1538	1521	1504	1504	1491	1491	1495	1506	1523	1527	1536	1545	1552	1547	1536	1536	1523	1505	1484	1475	1482	1490	1493	1498	1507	1520	1534	1484	1408	1372	1347	1347	1324	1301	1293	1286	1268	1271	1317	1333	1333	1330	1330	1343	1351	1352	1335	1320	1308	1310	1312	1311	1300	1287	1269	1276	1289	1302	1308	1319	1318	1312	1309	1309	1310	1310	1310	1310	1313	1311	1307	1305	1301	1296	1283	1267	1223	1208	1227	1245	1264	1298	1324	1347	1305	1283	1288	1281	1294	1295	1296	1304	1326	1318	1306	1304	1329	1350	1368	1382	1373	1350	1312	1304	1315	1330	1300	1287	1297	1325	1353	1368	1373	1374	1372	1370	1353	1346	1399	1396	1399	1390	1366	1361	1353	1347	1325	1290	1205	1133	1129	1194	1225	1242	1254	1245	1236	1229	1199	1189	1201	1246	1245	1251	1247	1246	1247	1250	1251	1249	1237	1228	1229	1252	1251	1236	1237	1248	1269	1286	1288	1285	1301	1313	1316	1322	1318	1315	1308	1291	1281	1269	1259	1246	1243	1247	1248	1241	1231	1222	1223	1239	1257	1270	1288	1302	1294	1274	1262	1260	1264	1274	1283	1282	1271	1231	1216	1203	1192	1192	1199	1190	1175	1153	1135	1137	1165	1179	1184	1194	1191	1187	1185	1180	1179	1179	1186	1194	1214	1207	1199	1186	1163	1139	1125	1116	1110	1112	1122	1133	1138	1137	1134	1138	1143	1148	1151	1150	1142	1129	1118	1115	1113	1132	1164	1193	1193	1187	1187	1193	1193	1182	1165	1166	1168	1172	1173	1178	1179	1180	1176	1166	1167	1163	1165	1168	1173	1174	1173	1172	1165	1162	1159	1156	1156	1157	1161	1149	1143	1148	1153	1150	1143	1120	1114	1110	1105	1103	1101	1101	1104	1106	1098	1088	1088	1098	1111	1122	1122	1116	1113	1118	1121	1121	1114	1109	1117	1125	1123	1140	1137	1141	1129	1127	1143	1143	1131	1115	1112	1118	1121	1122	1129	1115	1089	1090	1095	1099	1102	1106	1114	1119	1121	1117	1102	1094	1095	1103	1105	1105	1104	1099	1099	1105	1114	1125	1138	1139	1144	1131	1127	1106	1110	1115	1120	1117	1108	1086	1060	1034	1032	1033	1033	1039	1036	1029	1017	1013	1016	1021	1023	1019	1015	1014	1014	1010	1009	1017	1023	1027	1023	1023	1027	1024	1015	1014	1017	1019	1023	1021	1014	1008	1007	1047	1049	1037	1022	1013	997	950	916	890	876	864	853	847	846	855	857	853	846	845	848	854	854	855	856	856	848	840	840	840	842	836	830	800	795	798	819	832	861	894	951	1009	1029	1041	1037	1033	1020	1011	1013	1013	1021	1033	1036	1034	1030	1045	1029	1020	1012	1009	1005	994	1005	1008	1022	1025	1026	1008	1023	1027	1025	1019	1019	1018	1014	1023	1022	1011	1003	994	989	987	981	979	974	972	960	963	964	957	953	951	960	966	968	964	974	986	981	970	961	950	950	954	956	957	966	967	954	954	953	967	980	988	973	934	922	915	915	918	940	946	941	944	951	949	945	942	943	942	937	929	936	954	959	953	946	935	926	923	922	931	942	950	955	942	943	945	938	932	924	933	937	938	926	925	922	921	924	928	928	924	921	919	919	914	909	907	904	906	911	910	906	906	889	883	878	875	882	882	897	913	913	918	909	909	912	916	916	909	900	891	895	902	911	918	911	910	911	0	0	0	0	0	0	0	0	0
1550	1538	1538	1530	1534	1549	1555	1555	1553	1547	1537	1523	1511	1511	1496	1499	1509	1529	1547	1563	1563	1560	1552	1550	1558	1565	1565	1562	1539	1531	1521	1527	1527	1527	1527	1534	1549	1558	1524	1500	1506	1494	1483	1483	1480	1476	1478	1486	1498	1508	1518	1510	1511	1507	1509	1509	1491	1476	1469	1465	1467	1472	1476	1477	1475	1473	1478	1481	1427	1360	1335	1335	1316	1300	1295	1280	1273	1279	1317	1334	1326	1321	1321	1332	1349	1351	1340	1320	1307	1298	1306	1305	1300	1291	1282	1277	1288	1302	1315	1323	1320	1317	1315	1316	1321	1323	1320	1317	1314	1310	1302	1297	1291	1287	1278	1225	1152	1168	1211	1239	1262	1291	1324	1346	1349	1256	1240	1248	1269	1284	1289	1282	1274	1277	1285	1298	1302	1314	1324	1335	1342	1324	1304	1299	1310	1325	1302	1282	1288	1301	1332	1346	1336	1313	1310	1320	1323	1330	1338	1343	1345	1344	1335	1353	1351	1347	1326	1221	1091	1097	1152	1162	1218	1239	1211	1209	1209	1200	1181	1165	1160	1187	1216	1227	1239	1240	1243	1244	1240	1238	1233	1230	1220	1241	1242	1230	1233	1241	1253	1266	1273	1271	1281	1276	1293	1299	1300	1299	1291	1272	1262	1248	1242	1237	1238	1248	1250	1243	1229	1216	1213	1224	1239	1260	1282	1296	1278	1251	1235	1227	1235	1229	1223	1196	1174	1158	1157	1163	1167	1173	1167	1154	1135	1119	1112	1098	1103	1129	1157	1159	1163	1174	1174	1175	1173	1170	1167	1167	1166	1171	1201	1190	1173	1157	1150	1134	1123	1103	1105	1106	1108	1113	1116	1118	1121	1132	1139	1131	1119	1109	1102	1094	1103	1111	1145	1175	1180	1185	1189	1187	1176	1156	1148	1142	1150	1156	1162	1168	1171	1176	1173	1168	1161	1156	1159	1168	1169	1154	1151	1159	1156	1157	1152	1150	1140	1131	1125	1119	1121	1120	1114	1102	1103	1098	1087	1088	1082	1084	1086	1088	1091	1086	1080	1057	1075	1089	1098	1108	1107	1102	1101	1102	1111	1114	1115	1107	1113	1114	1108	1105	1103	1107	1101	1104	1106	1104	1106	1104	1100	1102	1100	1099	1095	1087	1093	1099	1096	1092	1089	1091	1099	1103	1111	1102	1091	1086	1085	1093	1099	1099	1094	1092	1089	1088	1095	1113	1123	1123	1117	1106	1092	1082	1073	1080	1084	1078	1063	1046	1027	1020	1016	1013	1010	1010	1004	997	988	991	995	993	990	984	988	988	999	1005	1009	1015	1019	1020	1015	1017	1016	1014	1012	1014	1010	1004	1006	1001	997	995	1000	1023	1035	1041	1016	1001	955	927	897	886	875	865	843	836	835	843	846	846	846	844	850	849	847	852	853	851	847	844	839	837	837	834	828	798	795	797	812	825	850	893	917	987	1022	1035	1035	1027	1017	1003	997	1003	1011	1026	1032	1028	1012	1011	1008	1006	1004	1006	996	987	996	1001	1006	1007	1000	990	1006	1012	1010	995	983	981	986	984	996	996	992	990	988	985	966	962	958	953	954	953	948	944	942	936	942	949	956	957	962	966	949	944	940	934	939	944	946	950	945	943	937	932	952	966	979	976	931	916	911	914	916	913	929	933	930	934	938	939	934	933	932	933	927	917	913	922	950	951	934	918	913	910	909	913	910	918	920	926	917	922	920	924	921	922	924	907	903	913	916	915	918	921	920	919	922	925	921	909	903	897	894	900	902	899	893	888	886	881	874	875	878	874	876	878	878	879	884	896	902	906	911	911	906	897	894	888	881	879	867	864	869	0	0	0	0	0	0	0	0	0
1524	1522	1522	1516	1522	1520	1512	1501	1501	1499	1489	1492	1488	1488	1488	1494	1503	1518	1538	1550	1550	1548	1541	1540	1535	1524	1513	1513	1514	1509	1508	1503	1504	1503	1503	1515	1501	1496	1486	1470	1480	1470	1460	1460	1463	1465	1462	1457	1457	1458	1456	1455	1451	1466	1468	1468	1455	1455	1458	1458	1454	1449	1457	1464	1464	1460	1441	1445	1438	1397	1336	1336	1326	1319	1302	1274	1278	1282	1312	1324	1321	1316	1313	1325	1338	1340	1328	1317	1305	1294	1301	1301	1307	1302	1294	1288	1291	1301	1311	1316	1314	1313	1315	1323	1333	1340	1339	1332	1316	1307	1298	1292	1281	1276	1244	1170	1160	1178	1226	1254	1268	1296	1325	1344	1339	1287	1262	1268	1281	1285	1288	1264	1247	1249	1264	1270	1280	1295	1308	1324	1326	1319	1305	1294	1300	1305	1291	1283	1285	1292	1294	1272	1271	1286	1297	1304	1311	1317	1322	1323	1320	1320	1319	1298	1301	1271	1239	1082	1044	1100	1112	1177	1195	1200	1191	1185	1181	1177	1166	1158	1156	1155	1171	1208	1224	1231	1235	1231	1223	1215	1210	1206	1201	1210	1225	1227	1226	1233	1246	1259	1267	1270	1271	1264	1274	1286	1285	1287	1282	1254	1246	1238	1220	1202	1213	1228	1248	1244	1227	1205	1195	1206	1216	1222	1244	1267	1259	1248	1240	1234	1216	1206	1188	1149	1152	1152	1151	1150	1142	1133	1127	1121	1106	1094	1092	1092	1101	1109	1133	1142	1156	1162	1167	1160	1158	1157	1156	1152	1148	1147	1149	1153	1165	1152	1150	1133	1116	1109	1105	1105	1103	1102	1103	1107	1108	1107	1121	1117	1104	1093	1091	1093	1101	1103	1114	1140	1151	1181	1185	1183	1171	1155	1139	1129	1130	1136	1151	1157	1162	1166	1161	1164	1162	1167	1163	1153	1140	1135	1136	1138	1133	1129	1126	1123	1122	1105	1085	1101	1107	1113	1109	1103	1102	1096	1091	1086	1082	1083	1084	1086	1089	1082	1066	1060	1059	1075	1070	1078	1085	1089	1089	1093	1100	1106	1107	1101	1092	1093	1095	1092	1082	1082	1086	1091	1087	1077	1071	1074	1091	1102	1101	1086	1077	1078	1085	1096	1099	1094	1086	1076	1083	1089	1089	1086	1081	1076	1059	1059	1070	1081	1083	1092	1083	1080	1094	1093	1084	1072	1058	1055	1051	1050	1048	1048	1050	1043	1032	1019	1009	987	980	983	987	993	993	989	983	975	983	982	981	981	986	986	984	990	996	1008	1016	1016	1013	996	985	983	986	990	996	988	979	979	982	987	1010	1020	1001	1003	998	980	941	908	890	883	867	847	837	832	828	838	844	852	852	853	852	838	840	843	848	843	839	836	834	830	827	824	816	799	797	800	801	821	868	890	912	978	995	1018	1023	1021	1014	1002	989	993	1000	1013	1024	1027	1005	1003	994	997	1001	1001	998	987	990	988	994	989	981	967	986	994	992	983	977	970	970	972	976	985	960	948	935	957	949	943	941	943	933	931	929	930	928	923	927	935	941	947	948	948	941	934	929	927	931	936	939	931	921	918	917	912	916	922	931	928	922	914	910	907	906	912	920	924	925	926	928	930	928	928	927	923	914	912	906	910	909	918	918	915	908	905	903	900	892	890	891	898	903	905	907	903	894	887	877	883	892	899	893	893	901	907	911	912	918	923	921	910	894	891	891	892	884	875	879	883	881	879	873	868	867	870	871	873	873	874	876	889	892	896	897	892	897	895	888	880	873	869	861	858	861	0	0	0	0	0	0	0	0	0
1501	1506	1506	1490	1500	1490	1489	1478	1478	1465	1457	1460	1476	1476	1488	1498	1496	1498	1503	1507	1507	1515	1509	1489	1482	1488	1490	1490	1490	1490	1497	1500	1496	1486	1478	1476	1485	1471	1457	1448	1447	1432	1427	1427	1427	1434	1439	1444	1435	1433	1430	1413	1419	1432	1440	1440	1442	1446	1448	1445	1432	1427	1431	1448	1438	1427	1418	1413	1428	1407	1367	1367	1341	1332	1317	1286	1294	1303	1312	1321	1324	1318	1315	1313	1323	1324	1313	1312	1306	1304	1306	1305	1313	1315	1312	1301	1298	1302	1305	1307	1305	1308	1318	1324	1336	1352	1356	1347	1330	1319	1311	1296	1286	1264	1197	1184	1181	1200	1242	1265	1280	1300	1313	1322	1317	1281	1268	1273	1278	1280	1286	1263	1246	1225	1228	1234	1239	1259	1293	1307	1313	1305	1298	1290	1287	1283	1282	1282	1289	1280	1272	1262	1269	1287	1288	1283	1296	1295	1297	1306	1307	1311	1305	1268	1261	1260	1222	1081	1034	1031	1122	1164	1186	1185	1181	1172	1175	1173	1165	1155	1152	1153	1159	1188	1210	1214	1220	1215	1209	1198	1193	1192	1197	1211	1217	1218	1215	1212	1217	1248	1271	1276	1282	1286	1288	1283	1277	1274	1243	1234	1231	1222	1202	1185	1186	1194	1199	1205	1201	1196	1196	1201	1208	1211	1220	1239	1249	1245	1241	1224	1200	1171	1132	1127	1134	1140	1137	1127	1098	1092	1099	1093	1081	1091	1102	1102	1102	1103	1123	1131	1134	1139	1137	1139	1141	1145	1147	1147	1139	1131	1129	1131	1136	1136	1143	1120	1113	1112	1111	1113	1112	1111	1129	1124	1111	1105	1108	1116	1110	1103	1097	1092	1085	1089	1080	1088	1100	1141	1151	1179	1168	1153	1130	1109	1101	1101	1120	1132	1138	1135	1134	1132	1135	1137	1129	1121	1123	1124	1128	1135	1135	1126	1102	1083	1074	1070	1076	1086	1091	1098	1099	1099	1101	1098	1092	1083	1081	1080	1085	1085	1082	1070	1066	1063	1062	1060	1061	1070	1080	1082	1079	1083	1097	1101	1095	1090	1080	1072	1069	1062	1059	1068	1068	1061	1052	1048	1027	1021	1031	1034	1042	1037	1037	1038	1067	1082	1089	1084	1073	1064	1067	1073	1064	1041	1033	1027	1037	1046	1049	1053	1056	1066	1075	1075	1060	1049	1042	1044	1030	1035	1043	1056	1049	1040	1023	1019	998	963	968	971	974	974	980	986	985	985	976	972	965	962	965	974	979	979	981	979	990	968	985	995	993	988	982	976	974	978	982	975	964	957	955	958	979	989	992	986	974	955	937	915	891	873	868	843	842	836	836	837	843	855	858	862	852	835	833	835	837	831	825	821	821	819	814	812	804	800	798	797	800	814	855	891	915	962	987	997	1000	1005	999	991	978	978	998	1008	1022	1014	1000	987	980	979	978	978	986	985	984	984	980	977	958	949	960	976	979	972	968	965	953	952	954	945	945	933	921	927	932	933	932	927	926	920	920	924	916	913	917	924	931	936	936	932	932	931	926	925	931	937	930	902	894	889	886	884	888	888	888	909	909	909	910	909	906	906	916	922	923	920	919	920	918	919	922	915	910	910	903	885	903	903	908	909	911	907	902	900	895	895	900	896	901	905	903	897	889	882	871	871	879	884	883	875	875	885	897	905	910	915	918	889	884	886	887	882	863	865	868	872	875	874	871	865	864	869	869	871	871	873	879	880	884	886	881	887	892	888	884	874	870	866	861	859	859	0	0	0	0	0	0	0	0	0
1455	1461	1461	1456	1466	1470	1476	1468	1468	1450	1432	1437	1462	1486	1486	1490	1478	1462	1454	1451	1451	1453	1444	1452	1439	1453	1466	1466	1470	1476	1488	1492	1468	1460	1457	1457	1444	1426	1416	1404	1407	1401	1397	1403	1403	1412	1420	1420	1418	1416	1398	1388	1400	1416	1429	1429	1431	1431	1429	1422	1410	1406	1411	1417	1404	1396	1395	1398	1401	1393	1364	1350	1350	1345	1317	1311	1317	1312	1325	1333	1334	1326	1317	1315	1318	1319	1312	1315	1311	1312	1315	1322	1324	1320	1313	1305	1307	1315	1322	1317	1300	1293	1299	1311	1332	1352	1359	1355	1348	1340	1330	1314	1285	1232	1216	1205	1212	1224	1254	1276	1287	1295	1292	1284	1282	1245	1238	1243	1255	1271	1269	1259	1239	1216	1216	1221	1228	1236	1260	1277	1289	1288	1284	1274	1263	1256	1275	1280	1275	1270	1262	1250	1255	1266	1274	1263	1258	1262	1272	1286	1296	1298	1294	1255	1249	1244	1202	1081	1043	1039	1111	1148	1151	1153	1152	1149	1166	1167	1160	1152	1150	1152	1162	1181	1193	1197	1202	1193	1179	1181	1179	1183	1190	1207	1209	1208	1207	1194	1197	1215	1246	1263	1273	1278	1268	1257	1243	1226	1221	1220	1214	1194	1194	1192	1193	1195	1196	1193	1184	1182	1191	1195	1198	1190	1183	1184	1182	1194	1194	1178	1139	1108	1104	1107	1106	1105	1098	1065	1076	1076	1076	1086	1095	1102	1101	1092	1089	1089	1100	1106	1106	1100	1112	1124	1126	1131	1137	1140	1137	1125	1115	1113	1119	1120	1113	1104	1112	1115	1113	1111	1114	1113	1132	1117	1104	1107	1110	1116	1115	1108	1098	1088	1082	1070	1069	1069	1076	1081	1088	1150	1152	1137	1120	1109	1105	1104	1110	1112	1115	1109	1104	1108	1118	1122	1103	1099	1094	1107	1124	1123	1110	1094	1077	1069	1073	1069	1068	1076	1084	1084	1086	1077	1081	1088	1087	1072	1058	1044	1042	1045	1059	1062	1058	1054	1049	1057	1060	1060	1063	1066	1073	1075	1078	1086	1081	1076	1069	1060	1051	1046	1043	1034	1023	1017	1007	1009	998	999	1002	1005	1004	996	1000	1003	1004	1021	1043	1047	1044	1029	1029	1023	1023	1021	1020	1022	1036	1039	1033	1040	1042	1041	1040	1036	1010	1010	1020	1036	1011	1007	1007	1004	998	989	988	992	974	961	935	942	957	968	974	973	973	967	971	964	954	945	944	948	954	964	955	955	951	945	952	954	955	954	954	959	958	954	955	961	950	943	941	944	965	981	990	986	972	955	939	905	880	866	856	847	843	842	838	837	838	843	855	857	855	833	830	830	826	819	814	811	807	804	811	808	800	799	792	797	801	819	854	880	908	930	971	980	991	993	983	977	963	962	947	954	969	996	971	951	943	939	946	942	940	954	957	957	949	947	946	946	945	945	934	942	944	948	947	946	941	939	930	920	917	916	928	932	927	922	920	919	916	916	911	908	917	920	920	926	918	924	923	928	918	916	923	927	905	896	892	888	880	870	869	877	881	886	894	900	906	897	894	907	909	909	907	903	901	899	898	903	902	899	889	885	882	883	891	893	901	908	912	906	900	894	886	885	889	891	898	903	902	895	887	882	876	868	871	875	870	867	865	865	880	889	898	903	880	873	877	882	879	862	855	854	856	860	867	872	870	864	874	877	877	873	873	874	869	868	875	870	872	882	884	881	872	866	869	865	864	865	861	861	0	0	0	0	0	0	0	0
1431	1421	1421	1418	1427	1452	1467	1472	1472	1453	1427	1423	1433	1448	1448	1448	1445	1424	1411	1412	1412	1417	1404	1408	1414	1421	1426	1426	1448	1459	1472	1422	1410	1397	1403	1403	1401	1397	1379	1366	1365	1364	1368	1382	1382	1390	1398	1396	1398	1391	1379	1376	1383	1395	1401	1401	1406	1427	1418	1408	1400	1392	1376	1367	1362	1364	1369	1364	1366	1362	1349	1344	1344	1346	1346	1348	1349	1342	1337	1339	1339	1322	1316	1307	1312	1320	1331	1336	1333	1323	1317	1317	1317	1312	1313	1311	1311	1317	1326	1324	1306	1295	1291	1310	1333	1347	1349	1345	1336	1321	1312	1289	1248	1218	1232	1236	1242	1256	1267	1279	1283	1281	1276	1264	1244	1211	1202	1210	1219	1236	1247	1242	1225	1210	1204	1205	1214	1232	1241	1253	1260	1271	1268	1254	1244	1248	1265	1262	1253	1249	1242	1241	1248	1254	1253	1242	1222	1231	1253	1269	1278	1280	1268	1241	1235	1224	1186	1086	1047	1043	1095	1111	1137	1140	1140	1139	1139	1148	1143	1147	1144	1150	1156	1168	1175	1173	1168	1160	1153	1158	1173	1188	1187	1194	1203	1197	1191	1186	1188	1193	1204	1219	1236	1246	1231	1212	1192	1188	1190	1164	1162	1164	1172	1188	1190	1190	1183	1149	1141	1138	1151	1159	1166	1156	1151	1133	1135	1156	1161	1148	1126	1107	1104	1109	1108	1099	1066	1058	1061	1072	1082	1094	1099	1098	1091	1089	1084	1087	1093	1100	1095	1091	1091	1099	1111	1114	1114	1123	1126	1119	1109	1104	1105	1097	1099	1099	1098	1095	1105	1101	1099	1103	1100	1102	1098	1098	1103	1113	1112	1105	1094	1078	1067	1062	1060	1057	1050	1045	1038	1077	1117	1119	1120	1121	1113	1105	1101	1094	1090	1088	1090	1093	1102	1085	1067	1057	1063	1078	1095	1099	1076	1048	1043	1043	1047	1059	1065	1071	1078	1070	1060	1043	1045	1057	1063	1063	1057	1038	1035	1042	1052	1056	1047	1034	1035	1045	1055	1055	1060	1061	1062	1066	1068	1069	1067	1064	1055	1039	1032	1009	1003	999	1002	1005	1000	987	991	996	999	990	994	996	998	998	994	988	1009	1007	1014	1022	1024	1024	1024	1019	1019	1024	1038	1039	1030	1016	1020	1021	1017	991	995	999	1012	992	996	994	990	991	990	989	986	980	970	958	927	930	942	949	950	952	952	945	938	937	950	957	956	951	948	950	954	951	948	943	948	948	947	946	942	931	923	916	918	925	928	930	928	937	944	979	984	980	963	947	927	893	880	854	838	837	838	824	825	833	836	842	842	850	847	836	833	819	814	807	804	801	800	805	810	811	811	806	801	805	814	814	837	870	893	904	938	949	955	979	970	960	960	951	942	939	944	954	954	949	940	932	928	927	930	931	934	937	937	937	935	925	929	930	925	919	919	921	939	940	934	928	915	911	909	912	935	932	921	917	913	915	910	916	908	905	908	913	903	895	906	912	912	892	890	891	898	903	902	894	891	884	873	864	862	864	872	878	882	872	864	875	882	884	880	872	865	869	879	881	880	885	889	883	881	880	880	883	893	895	902	907	908	906	897	877	870	867	867	875	892	897	898	885	867	859	875	874	871	869	864	860	854	855	859	864	871	870	861	855	863	867	862	853	846	843	847	847	855	860	868	870	874	874	872	864	864	857	852	854	843	852	868	874	875	868	860	854	851	859	866	841	825	825	0	0	0	0	0	0	0	0
1405	1397	1397	1398	1409	1439	1465	1474	1474	1445	1419	1398	1403	1402	1402	1401	1390	1398	1391	1386	1386	1379	1378	1383	1392	1403	1401	1401	1393	1366	1367	1369	1372	1370	1360	1360	1367	1363	1359	1360	1361	1364	1364	1368	1368	1371	1375	1375	1370	1374	1370	1365	1368	1380	1386	1386	1393	1391	1386	1377	1372	1353	1329	1324	1338	1351	1360	1364	1366	1363	1343	1316	1316	1296	1298	1313	1325	1327	1297	1296	1304	1308	1298	1298	1302	1319	1328	1322	1305	1296	1297	1297	1295	1298	1297	1298	1304	1312	1318	1311	1295	1282	1282	1297	1320	1332	1327	1315	1298	1270	1239	1228	1212	1223	1231	1245	1249	1259	1267	1264	1261	1260	1262	1248	1227	1194	1196	1199	1202	1208	1226	1226	1218	1204	1198	1201	1204	1215	1224	1230	1235	1233	1238	1240	1238	1236	1245	1243	1216	1198	1202	1214	1224	1237	1230	1207	1185	1193	1206	1229	1247	1251	1240	1227	1224	1201	1180	1087	1050	1047	1055	1101	1122	1132	1139	1148	1170	1166	1125	1093	1087	1097	1116	1161	1167	1163	1157	1153	1158	1157	1170	1181	1189	1174	1193	1193	1180	1170	1165	1158	1158	1170	1187	1194	1187	1171	1170	1179	1194	1169	1145	1143	1154	1170	1170	1163	1141	1135	1138	1134	1134	1147	1144	1136	1120	1123	1127	1143	1144	1133	1117	1099	1101	1108	1106	1083	1066	1056	1055	1064	1082	1093	1094	1086	1081	1080	1081	1083	1087	1097	1095	1085	1077	1079	1088	1099	1100	1099	1102	1102	1097	1101	1100	1099	1098	1082	1087	1085	1077	1085	1079	1084	1082	1087	1084	1087	1095	1098	1096	1091	1081	1071	1062	1053	1050	1046	1039	1037	1038	1044	1067	1110	1115	1118	1119	1112	1103	1101	1095	1082	1079	1072	1065	1065	1055	1052	1058	1072	1082	1065	1038	1020	1021	1030	1031	1040	1052	1054	1053	1052	1032	1028	1031	1039	1052	1044	1043	1037	1038	1047	1051	1044	1037	1027	1027	1033	1042	1049	1053	1059	1055	1051	1047	1041	1046	1037	1027	1018	1003	989	985	981	987	980	979	978	983	978	964	965	974	977	978	973	974	973	981	991	998	998	1016	1024	1029	1030	1017	1008	1013	1008	1005	997	990	980	961	966	976	979	988	982	977	972	972	968	977	980	977	974	962	928	922	925	933	939	941	941	939	933	923	928	944	954	951	933	931	944	950	946	944	937	933	935	936	933	926	926	923	920	922	927	925	921	919	924	922	926	945	961	955	931	898	886	865	847	829	825	823	816	812	811	811	811	812	816	823	824	816	811	807	806	809	806	804	802	805	797	798	806	815	825	828	826	838	860	867	893	910	919	924	929	953	949	945	939	932	930	929	927	930	953	939	929	924	919	919	921	926	907	903	905	895	880	885	890	902	899	899	901	907	908	909	895	889	889	890	914	925	922	913	907	903	902	899	895	896	901	905	897	884	881	876	878	879	874	874	882	891	898	887	888	885	876	861	851	849	857	858	861	868	862	860	872	879	876	869	859	856	859	864	868	870	870	872	872	873	876	875	879	890	892	891	897	900	891	856	839	821	829	836	852	869	881	883	862	847	832	841	855	865	867	865	860	852	853	850	850	853	853	851	846	833	837	840	839	831	817	812	818	819	824	839	850	848	846	837	840	840	839	827	827	832	840	855	866	870	863	851	834	837	839	836	826	813	813	0	0	0	0	0	0	0	0
1384	1378	1377	1377	1389	1414	1433	1422	1422	1373	1333	1316	1312	1330	1330	1346	1358	1367	1372	1357	1357	1360	1363	1366	1377	1380	1377	1377	1338	1340	1348	1349	1350	1341	1336	1336	1320	1332	1335	1344	1361	1368	1367	1364	1364	1353	1346	1352	1363	1372	1371	1360	1350	1346	1341	1341	1340	1341	1335	1331	1328	1320	1316	1325	1344	1353	1359	1364	1365	1358	1344	1322	1322	1314	1313	1318	1315	1306	1273	1268	1276	1285	1290	1292	1299	1317	1318	1305	1296	1279	1281	1281	1274	1271	1267	1275	1286	1295	1298	1290	1284	1271	1272	1278	1283	1258	1245	1232	1224	1227	1216	1210	1215	1226	1238	1246	1252	1254	1255	1248	1244	1243	1236	1222	1199	1185	1186	1190	1198	1200	1205	1209	1207	1206	1202	1196	1191	1191	1194	1200	1208	1216	1223	1229	1236	1232	1227	1213	1187	1188	1185	1197	1209	1216	1201	1182	1174	1170	1175	1186	1195	1201	1182	1199	1204	1190	1174	1091	1055	1055	1060	1070	1103	1122	1138	1129	1104	1090	1090	1070	1063	1067	1076	1086	1102	1120	1155	1158	1155	1149	1149	1164	1177	1186	1193	1176	1165	1159	1150	1150	1155	1161	1170	1174	1157	1150	1173	1182	1188	1170	1146	1147	1136	1141	1141	1133	1129	1131	1133	1132	1134	1137	1131	1113	1108	1119	1121	1123	1116	1120	1108	1094	1098	1094	1086	1080	1069	1059	1053	1052	1060	1072	1076	1062	1064	1065	1074	1076	1083	1086	1086	1077	1067	1070	1072	1075	1074	1073	1082	1087	1080	1066	1054	1054	1058	1062	1064	1063	1061	1062	1060	1069	1077	1078	1072	1070	1072	1078	1079	1077	1074	1068	1057	1052	1042	1035	1027	1053	1048	1038	1041	1053	1064	1086	1094	1107	1107	1094	1077	1062	1057	1058	1050	1050	1044	1048	1050	1056	1059	1017	1014	1004	1011	1013	1020	1032	1042	1040	1038	1022	1020	1021	1027	1033	1030	1030	1028	1021	1019	1022	1032	1028	1021	1013	1012	1020	1030	1034	1017	983	987	998	1016	1023	1033	1033	1026	1010	994	989	984	980	975	967	962	961	958	957	947	947	948	954	951	955	953	953	956	965	965	961	982	989	997	1001	1002	998	996	989	983	984	967	959	952	952	956	968	973	973	973	969	964	960	960	953	947	944	943	922	917	923	924	927	925	925	926	922	915	918	926	929	933	918	925	935	941	939	937	928	922	921	919	922	923	924	923	921	921	922	918	915	913	904	904	905	906	909	912	901	890	879	861	843	828	821	819	816	813	817	826	824	825	822	817	814	813	812	809	808	809	809	804	796	791	790	795	804	812	821	827	831	830	837	862	868	891	899	906	911	916	922	924	926	928	930	931	923	926	918	938	925	922	912	878	878	878	879	882	887	884	872	869	870	877	879	882	883	876	872	868	866	859	852	858	876	877	871	866	872	874	868	864	868	877	883	878	881	881	869	862	867	874	879	878	875	870	867	857	859	864	854	846	841	839	842	850	857	847	850	855	869	874	870	854	847	847	847	849	855	860	860	857	854	855	856	859	856	848	840	840	845	843	834	826	819	813	807	808	816	828	855	857	845	838	831	829	836	847	852	853	852	841	834	814	815	817	823	837	827	830	832	831	833	829	824	821	812	814	818	826	831	831	827	825	825	825	824	821	824	828	829	827	836	845	845	842	837	833	830	823	817	809	809	0	0	0	0	0	0	0	0
1365	1360	1359	1359	1364	1370	1359	1347	1347	1311	1303	1297	1286	1297	1297	1314	1334	1344	1337	1349	1349	1347	1352	1357	1359	1357	1356	1309	1316	1329	1342	1336	1321	1302	1307	1307	1317	1319	1319	1324	1352	1364	1356	1335	1335	1315	1319	1329	1341	1346	1335	1319	1311	1306	1316	1316	1319	1317	1316	1320	1317	1314	1318	1331	1334	1318	1305	1324	1335	1330	1318	1318	1318	1318	1321	1325	1316	1302	1286	1275	1278	1287	1290	1281	1287	1302	1303	1290	1284	1277	1265	1254	1243	1236	1243	1255	1268	1266	1260	1245	1234	1226	1223	1221	1226	1227	1225	1220	1215	1216	1206	1207	1215	1217	1220	1228	1237	1236	1236	1233	1226	1218	1191	1180	1166	1167	1176	1181	1183	1174	1172	1169	1178	1183	1185	1179	1170	1161	1165	1176	1191	1193	1196	1199	1204	1210	1208	1172	1169	1171	1165	1161	1157	1157	1160	1157	1160	1157	1151	1132	1128	1135	1150	1177	1186	1178	1159	1101	1062	1065	1072	1077	1090	1102	1101	1089	1072	1050	1059	1070	1070	1069	1069	1064	1046	1057	1104	1142	1138	1139	1135	1134	1158	1179	1192	1177	1165	1164	1164	1160	1153	1154	1161	1163	1136	1127	1134	1140	1148	1143	1143	1142	1135	1127	1108	1103	1113	1123	1125	1121	1133	1139	1126	1105	1110	1103	1093	1088	1086	1088	1076	1058	1063	1075	1079	1074	1064	1051	1049	1056	1061	1049	1053	1049	1040	1031	1052	1062	1068	1071	1070	1067	1057	1051	1055	1061	1056	1054	1054	1058	1057	1046	1041	1040	1043	1048	1049	1048	1046	1050	1052	1043	1031	1040	1051	1058	1059	1064	1064	1066	1068	1057	1051	1033	1020	1020	1023	1044	1036	1026	1017	1026	1035	1051	1056	1056	1055	1052	1043	1038	1041	1049	1053	1044	1043	1044	1048	1041	1024	1008	1003	997	1001	1004	1017	1033	1039	1029	1019	1017	1005	1005	1008	1012	1012	1002	985	981	989	990	993	988	991	994	1004	1002	997	986	978	978	987	995	999	1001	1003	1002	998	994	985	984	978	960	944	935	932	931	935	942	942	937	935	937	940	938	943	951	955	947	936	931	934	946	960	975	979	983	988	982	972	961	954	949	946	945	954	961	963	969	970	968	966	962	952	946	941	937	935	920	917	916	914	913	913	916	923	924	907	912	906	907	907	902	925	933	927	926	918	917	912	914	916	917	922	920	919	920	921	917	912	903	893	895	892	892	894	900	897	892	886	871	850	843	833	826	823	822	820	829	821	816	813	815	819	813	808	809	810	810	805	800	800	797	791	791	798	800	801	802	803	823	825	825	829	854	873	890	902	908	912	921	912	914	917	918	915	903	897	896	905	887	876	871	867	871	871	870	868	872	873	862	865	866	869	870	872	869	861	853	849	846	843	836	831	847	852	856	855	858	849	850	852	863	865	864	862	878	881	869	854	862	876	888	883	874	859	850	854	864	863	857	845	833	827	827	834	839	840	841	845	861	867	847	840	837	837	841	840	845	839	839	842	847	851	839	836	828	822	817	816	816	838	832	828	825	819	804	806	817	829	827	834	827	825	823	821	822	830	842	833	825	820	815	815	823	829	834	829	823	823	825	828	828	823	820	811	806	804	810	823	821	825	822	821	821	819	818	809	803	801	800	804	810	821	823	824	823	817	816	813	812	808	808	0	0	0	0	0	0	0	0
1343	1341	1342	1342	1339	1342	1348	1324	1324	1302	1290	1281	1273	1278	1278	1296	1309	1310	1316	1330	1330	1335	1337	1337	1335	1315	1285	1285	1299	1320	1327	1319	1300	1298	1308	1308	1308	1306	1310	1320	1332	1335	1332	1321	1321	1311	1317	1325	1326	1317	1303	1298	1299	1304	1302	1296	1296	1295	1300	1314	1318	1322	1337	1316	1292	1274	1265	1257	1276	1293	1298	1303	1303	1299	1298	1290	1292	1290	1283	1275	1273	1284	1285	1275	1271	1280	1284	1280	1272	1263	1260	1251	1242	1237	1235	1232	1242	1243	1240	1232	1225	1217	1210	1204	1202	1207	1208	1210	1211	1215	1207	1213	1208	1207	1199	1201	1212	1217	1218	1213	1201	1188	1175	1169	1165	1172	1176	1168	1161	1165	1160	1163	1168	1168	1166	1163	1158	1144	1155	1164	1179	1186	1183	1175	1178	1182	1185	1149	1157	1156	1157	1152	1148	1153	1155	1159	1159	1150	1138	1125	1120	1118	1124	1148	1175	1171	1154	1109	1073	1074	1083	1091	1097	1096	1091	1073	1042	1037	1055	1062	1061	1058	1062	1058	1048	1046	1053	1086	1102	1105	1099	1092	1120	1131	1172	1164	1152	1141	1139	1136	1110	1117	1124	1124	1119	1093	1079	1083	1087	1097	1114	1113	1113	1108	1104	1097	1088	1077	1086	1096	1118	1119	1104	1094	1085	1074	1064	1056	1056	1057	1048	1052	1059	1068	1070	1068	1053	1038	1042	1053	1042	1033	1034	1040	1034	1023	1023	1038	1045	1054	1059	1054	1052	1052	1055	1056	1051	1046	1042	1031	1019	1008	1028	1035	1037	1037	1036	1035	1040	1044	1047	1036	1021	1013	1024	1024	1046	1049	1050	1048	1040	1026	1021	1027	1025	1020	1018	1019	1001	992	985	1013	1021	1028	1035	1045	1042	1040	1032	1030	1030	1031	1033	1034	1034	1029	1025	1020	1014	1000	997	992	992	995	1009	1019	1017	1009	996	993	984	979	976	977	977	968	968	974	983	980	986	988	987	987	988	988	982	982	970	975	983	990	991	968	950	938	937	944	961	948	940	926	925	925	923	920	919	921	921	931	928	929	932	940	948	962	952	928	916	906	907	911	939	955	963	969	970	965	954	935	941	944	948	952	957	960	963	967	967	963	957	951	946	939	934	934	926	921	917	914	912	912	909	913	918	917	898	906	904	901	897	898	896	906	911	910	906	907	904	908	914	920	920	916	917	917	917	902	888	880	886	888	885	885	882	889	892	886	872	863	852	846	841	836	828	826	825	831	820	813	808	810	816	807	801	806	806	806	799	792	794	797	801	800	796	789	781	775	777	808	821	828	828	837	847	859	893	901	911	913	904	885	887	888	881	880	872	864	865	863	851	847	852	861	868	865	866	863	862	851	851	857	856	862	862	859	852	850	848	849	847	843	839	849	849	861	859	851	839	839	851	863	861	856	862	856	859	847	837	841	853	865	870	874	869	864	865	851	855	858	867	854	847	834	830	823	818	815	818	837	836	831	828	816	817	821	830	834	835	834	833	840	835	830	830	826	819	814	810	810	808	812	816	819	820	814	810	812	829	831	831	825	814	812	812	816	819	822	824	825	821	821	826	831	832	832	827	820	816	815	819	820	820	816	808	801	799	799	806	810	817	816	814	814	812	809	791	792	794	795	793	797	804	808	813	809	808	808	805	802	801	801	0	0	0	0	0	0	0	0
1322	1322	1311	1311	1308	1310	1316	1314	1314	1301	1289	1279	1263	1276	1276	1288	1288	1299	1305	1312	1312	1318	1321	1319	1311	1274	1275	1275	1289	1300	1297	1296	1293	1291	1280	1280	1279	1280	1291	1300	1300	1297	1300	1297	1297	1300	1307	1309	1309	1297	1296	1295	1293	1289	1293	1281	1281	1281	1290	1305	1319	1325	1309	1300	1284	1258	1250	1241	1238	1252	1268	1285	1285	1276	1280	1280	1291	1286	1267	1265	1265	1271	1274	1257	1256	1258	1259	1260	1258	1253	1244	1242	1238	1239	1234	1232	1229	1224	1219	1208	1214	1206	1200	1194	1195	1194	1198	1202	1208	1203	1201	1201	1201	1195	1183	1174	1179	1190	1197	1197	1192	1185	1178	1169	1153	1135	1145	1151	1149	1155	1149	1149	1149	1146	1145	1140	1136	1140	1148	1153	1158	1157	1152	1147	1156	1156	1154	1141	1139	1138	1141	1136	1136	1142	1152	1156	1151	1143	1133	1124	1122	1127	1129	1134	1171	1167	1127	1104	1080	1082	1089	1094	1096	1092	1084	1054	1020	1028	1037	1054	1054	1049	1053	1050	1045	1043	1048	1072	1090	1096	1088	1085	1087	1094	1082	1118	1113	1102	1084	1068	1068	1072	1107	1111	1082	1068	1048	1053	1057	1061	1056	1053	1058	1082	1096	1095	1085	1074	1071	1080	1103	1092	1058	1060	1053	1047	1040	1034	1027	1037	1050	1056	1055	1056	1053	1036	1020	1020	1031	1031	1027	1020	1019	1020	1026	1023	1020	1021	1032	1038	1037	1040	1046	1045	1052	1054	1050	1044	1030	1021	1009	1001	998	1002	1005	1006	1014	1028	1032	1038	1038	1024	1009	1007	1023	1024	1017	1013	1012	1010	1009	1001	1009	1018	1027	1017	1014	1001	975	971	971	972	985	997	1009	991	989	993	1005	1014	1017	1024	1022	1023	1022	1016	1016	1018	1015	1004	988	983	987	993	999	1005	999	987	984	971	967	969	972	966	959	953	955	966	978	981	982	982	976	973	967	961	953	952	957	972	974	973	959	946	935	927	920	924	931	924	915	915	916	932	919	914	907	904	897	897	903	915	925	922	916	915	908	904	906	903	900	900	909	933	947	952	960	948	949	935	935	951	959	955	958	959	957	953	962	942	919	912	914	922	927	928	925	919	915	911	911	907	904	904	902	893	890	902	901	894	887	890	888	894	888	884	888	892	895	905	917	916	895	893	897	907	907	890	877	873	873	880	878	877	876	875	872	868	862	852	845	843	843	836	829	828	827	827	826	825	818	807	812	811	807	803	803	798	792	794	796	796	794	792	788	784	780	773	776	810	831	842	838	840	853	861	870	876	883	882	878	868	862	862	866	862	860	862	861	859	856	849	848	853	858	849	845	845	845	843	842	844	844	854	853	850	842	843	847	851	851	850	854	851	852	851	843	831	823	820	822	821	817	830	838	848	855	838	834	837	852	853	857	855	846	841	836	836	842	841	851	851	846	829	828	825	817	813	811	813	814	817	813	802	807	810	813	826	828	827	828	822	818	819	821	821	817	811	810	805	807	811	818	819	817	809	809	810	814	817	826	821	814	810	810	813	809	810	811	816	821	825	829	834	821	822	822	819	813	809	809	816	818	814	806	798	794	794	798	799	800	800	796	796	793	790	789	797	798	795	793	793	794	796	798	790	794	795	797	796	796	796	0	0	0	0	0	0	0	0
1298	1285	1247	1247	1251	1266	1280	1287	1287	1290	1288	1279	1268	1263	1263	1261	1273	1291	1294	1297	1297	1298	1292	1284	1248	1259	1267	1267	1277	1281	1279	1273	1255	1254	1255	1255	1255	1267	1274	1276	1280	1279	1283	1285	1285	1288	1289	1290	1291	1286	1285	1290	1290	1276	1270	1264	1264	1261	1273	1293	1301	1282	1287	1275	1266	1250	1243	1233	1229	1225	1229	1247	1254	1254	1257	1270	1281	1274	1258	1252	1251	1244	1246	1240	1234	1229	1235	1238	1232	1238	1232	1233	1232	1228	1223	1222	1219	1209	1200	1187	1180	1183	1176	1171	1178	1189	1192	1195	1195	1183	1181	1183	1189	1189	1185	1182	1184	1189	1191	1191	1187	1181	1171	1160	1138	1117	1118	1134	1142	1146	1138	1135	1128	1124	1123	1121	1123	1133	1141	1146	1144	1137	1121	1112	1109	1117	1120	1132	1133	1122	1117	1126	1127	1133	1143	1135	1121	1123	1114	1115	1122	1129	1126	1125	1143	1135	1114	1092	1079	1083	1088	1090	1092	1082	1061	1028	1008	1012	1024	1049	1054	1053	1054	1050	1039	1032	1033	1042	1060	1079	1077	1075	1067	1068	1070	1043	1026	996	1045	1030	1027	1026	1029	1058	1054	1048	1042	1041	1046	1050	1050	1045	1047	1051	1066	1072	1077	1076	1075	1074	1055	1048	1045	1051	1049	1050	1042	1031	1028	1039	1050	1059	1057	1048	1033	1007	999	994	1005	1008	1008	1002	1001	998	1010	1016	1012	1011	1013	1017	1018	1016	1020	1031	1032	1033	1039	1035	1023	1015	1007	998	995	997	998	998	994	998	1005	1013	1017	1013	1010	1018	1023	1025	1010	1007	1006	999	994	996	997	1008	1017	1024	1012	994	955	949	957	937	937	943	984	988	983	976	992	998	1002	1006	1013	1018	1006	1000	993	994	993	1000	991	986	981	983	985	977	975	974	971	963	958	963	963	956	948	946	950	962	976	983	980	975	970	964	957	954	949	947	948	949	951	940	940	940	937	931	925	915	914	911	907	905	905	911	921	918	906	879	864	858	863	875	880	876	881	884	887	891	895	897	893	895	902	905	929	915	933	946	942	928	922	931	943	951	949	939	940	947	946	939	930	933	932	929	921	920	920	916	913	910	909	901	887	894	898	898	893	891	891	887	879	880	888	881	872	877	873	876	883	895	903	895	881	883	894	896	893	889	868	866	869	864	864	869	876	873	871	869	860	847	832	825	824	824	828	821	805	805	813	822	817	806	807	810	804	804	801	795	794	795	793	794	792	788	785	784	781	779	777	793	822	829	837	846	847	846	843	843	842	848	855	859	862	865	858	852	855	858	859	858	855	852	844	845	844	843	843	842	840	833	836	839	841	845	847	842	834	838	840	848	853	853	848	837	832	815	811	814	820	814	806	802	808	812	816	822	837	838	837	840	837	836	827	819	821	818	813	824	804	803	810	816	826	822	801	811	813	807	806	806	805	801	795	790	804	802	806	808	816	815	811	813	811	808	809	815	809	795	792	798	801	806	809	801	792	789	789	798	806	814	816	811	786	784	786	787	790	795	799	804	804	803	802	805	809	813	811	813	805	804	806	810	814	814	807	796	795	790	790	794	797	796	794	794	790	788	793	796	793	783	778	775	776	783	785	787	789	786	785	785	783	783	0	0	0	0	0	0	0	0
1252	1253	1244	1244	1240	1243	1246	1259	1259	1270	1279	1275	1257	1248	1248	1256	1270	1276	1275	1275	1272	1272	1261	1258	1244	1258	1265	1260	1260	1264	1258	1239	1234	1234	1236	1236	1241	1243	1253	1261	1260	1266	1266	1271	1271	1271	1264	1268	1268	1259	1257	1258	1258	1246	1239	1239	1239	1237	1252	1262	1257	1260	1260	1250	1248	1236	1233	1225	1225	1218	1221	1223	1225	1225	1224	1236	1250	1248	1242	1235	1224	1223	1216	1219	1208	1208	1210	1216	1218	1222	1225	1222	1220	1218	1216	1218	1209	1187	1178	1174	1149	1140	1150	1160	1171	1183	1190	1191	1187	1180	1175	1169	1172	1171	1172	1177	1182	1183	1190	1188	1180	1175	1168	1140	1129	1096	1113	1120	1126	1137	1132	1119	1112	1107	1107	1108	1112	1123	1134	1137	1129	1114	1103	1100	1097	1098	1109	1129	1128	1115	1105	1095	1110	1126	1105	1096	1092	1090	1093	1096	1098	1102	1113	1119	1099	1093	1086	1083	1083	1086	1090	1083	1077	1062	1035	1001	998	1002	1017	1040	1050	1055	1056	1050	1039	1034	1033	1042	1057	1065	1069	1064	1053	1049	1046	985	976	965	973	981	995	996	989	994	1004	1024	1032	1032	1039	1043	1048	1038	1036	1039	1046	1050	1050	1044	1035	1033	1023	1027	1037	1041	1044	1047	1036	1027	1023	1040	1052	1054	1046	1032	1009	997	982	980	980	978	991	995	994	990	987	986	1010	1011	1009	1007	1007	1009	1020	1025	1018	992	998	1017	1021	1016	1004	991	981	984	985	990	986	987	993	999	1002	1006	1008	1013	1015	1010	1003	1002	1002	1000	1000	999	993	984	988	994	983	962	943	942	930	928	932	937	947	956	965	970	968	959	983	990	978	982	975	971	971	970	973	982	980	978	978	966	963	967	956	955	954	951	954	957	956	942	933	929	934	944	956	967	970	965	957	950	950	946	945	945	945	941	934	923	922	921	916	909	906	901	901	903	903	902	902	901	904	907	904	889	865	860	862	868	867	865	865	870	878	885	889	887	884	891	896	894	894	912	943	943	938	927	909	906	926	910	904	916	928	922	915	921	927	929	926	919	914	910	905	895	884	880	858	862	868	873	879	883	886	886	884	882	878	877	868	867	866	867	863	855	866	875	873	870	859	857	868	869	874	876	861	858	856	867	867	864	871	869	868	859	846	836	829	824	815	811	819	811	811	802	805	802	803	806	811	808	801	799	794	787	790	790	789	787	775	776	776	774	779	775	783	792	820	825	828	838	841	837	839	836	838	845	847	842	865	865	849	846	845	848	846	854	852	844	833	829	831	839	841	836	836	833	833	839	840	833	836	831	823	833	836	835	831	830	822	825	819	809	807	807	816	813	803	798	804	813	816	820	822	820	818	829	830	826	818	813	804	804	806	796	794	793	797	796	791	789	789	793	806	814	806	798	788	784	787	792	801	800	798	803	805	811	803	800	802	808	808	802	790	781	784	790	793	799	796	786	781	786	789	797	804	807	796	793	788	783	781	780	783	793	797	800	800	794	797	796	796	791	788	782	777	783	798	801	809	807	789	787	783	783	787	790	795	795	793	793	790	781	787	791	786	777	764	767	774	783	783	785	779	779	780	780	780	776	0	0	0	0	0	0	0	0
1250	1254	1249	1249	1245	1239	1239	1245	1255	1255	1264	1263	1262	1255	1255	1256	1258	1243	1216	1225	1237	1237	1246	1239	1240	1247	1251	1252	1252	1249	1236	1228	1227	1224	1228	1228	1225	1223	1230	1242	1249	1251	1247	1230	1233	1233	1239	1236	1233	1231	1226	1222	1212	1219	1229	1231	1231	1225	1227	1226	1224	1221	1230	1228	1223	1218	1209	1203	1205	1206	1207	1217	1212	1212	1205	1203	1209	1219	1202	1201	1204	1204	1206	1199	1193	1193	1194	1200	1201	1199	1199	1211	1214	1215	1217	1208	1171	1148	1146	1140	1127	1123	1131	1141	1163	1182	1189	1182	1169	1162	1158	1158	1158	1151	1149	1152	1166	1172	1176	1168	1159	1151	1143	1130	1109	1091	1105	1105	1115	1112	1114	1116	1106	1101	1099	1104	1110	1117	1117	1111	1108	1101	1096	1092	1088	1084	1091	1120	1124	1112	1096	1081	1073	1070	1067	1075	1090	1095	1090	1086	1080	1079	1080	1074	1077	1057	1054	1058	1061	1058	1059	1066	1061	1048	1019	1001	996	1001	1013	1024	1040	1044	1053	1048	1040	1034	1031	1040	1056	1062	1064	1054	1036	1014	983	946	943	949	952	954	966	973	958	960	943	938	943	999	1025	1029	1039	1032	1023	1018	1023	1029	1035	1034	1024	1014	1011	1020	1033	1035	1035	1037	1031	1030	1019	1028	1041	1032	1016	1007	993	985	979	964	959	965	975	979	990	988	982	976	978	987	998	1001	1006	1011	1002	1004	989	985	978	975	980	981	979	953	947	950	950	946	979	982	993	986	991	985	974	967	968	965	965	967	977	976	973	963	971	955	948	948	954	945	933	922	919	921	929	937	941	951	958	960	959	955	949	936	944	947	947	947	947	951	953	954	959	958	956	933	929	937	951	955	952	939	938	941	940	923	915	914	906	912	926	933	940	938	921	918	919	941	946	948	946	937	926	913	898	894	892	896	891	886	897	897	893	886	882	873	871	874	878	886	883	870	863	864	858	851	853	859	870	878	881	879	878	883	882	893	888	905	931	921	924	916	896	895	897	888	885	892	904	905	903	905	911	920	916	904	900	896	896	890	864	862	851	855	860	866	868	865	871	875	872	864	859	850	851	854	853	859	853	844	833	834	830	827	828	829	831	838	839	838	838	843	863	847	847	841	830	829	829	829	838	827	820	814	810	805	822	819	816	807	801	800	793	800	807	804	796	788	784	782	783	785	781	771	770	774	776	767	767	770	781	795	816	820	833	839	837	835	833	829	833	840	843	836	833	834	826	832	832	835	832	837	844	841	830	826	829	833	836	837	831	817	816	818	816	820	820	825	821	814	834	833	831	829	817	802	799	798	798	807	812	808	801	798	798	807	812	810	807	807	803	810	816	815	812	808	800	804	790	786	786	785	788	792	793	788	787	791	790	791	792	781	778	780	783	785	792	794	784	793	803	797	786	791	801	804	803	777	774	777	778	781	786	793	792	780	774	775	779	791	794	787	787	783	781	780	777	777	778	786	793	801	803	799	794	785	785	785	785	784	780	769	776	781	791	781	778	777	775	775	786	785	784	784	777	777	772	774	778	786	783	762	766	770	769	776	781	778	768	766	772	768	768	765	0	0	0	0	0	0	0	0
1240	1249	1252	1252	1251	1246	1241	1240	1241	1241	1255	1261	1263	1259	1259	1252	1239	1212	1193	1201	1219	1219	1223	1229	1230	1226	1230	1233	1233	1235	1223	1219	1221	1226	1220	1212	1212	1209	1209	1216	1222	1217	1201	1199	1208	1208	1210	1199	1198	1194	1190	1188	1192	1202	1221	1229	1229	1221	1208	1205	1198	1192	1190	1206	1207	1197	1186	1180	1179	1187	1192	1188	1192	1192	1189	1176	1172	1181	1185	1187	1182	1173	1171	1174	1178	1179	1182	1188	1180	1180	1182	1193	1204	1206	1202	1172	1138	1123	1115	1110	1115	1121	1121	1115	1115	1123	1132	1138	1127	1124	1126	1132	1132	1134	1136	1138	1148	1153	1158	1155	1144	1132	1126	1107	1094	1081	1090	1096	1103	1099	1094	1095	1103	1112	1120	1123	1118	1113	1097	1073	1071	1074	1083	1086	1084	1075	1073	1096	1114	1111	1073	1049	1049	1052	1055	1061	1073	1079	1080	1081	1077	1074	1067	1061	1048	1046	1031	1035	1044	1049	1048	1049	1052	1041	1014	1005	998	999	1006	1014	1028	1035	1040	1032	1025	1020	1019	1026	1036	1038	1036	1026	980	938	927	911	920	930	939	947	953	948	922	904	894	895	902	928	981	1002	1015	1010	1011	1014	1007	1003	997	998	1000	1001	999	999	998	995	994	1014	1017	1017	995	1012	1012	1003	999	996	990	985	974	960	953	960	965	966	968	958	962	954	951	971	975	974	966	982	990	980	970	960	956	951	953	950	939	936	945	945	938	931	929	958	967	972	967	953	952	956	962	961	961	957	957	968	959	946	944	941	946	940	930	916	898	900	908	917	928	936	944	948	952	955	956	952	938	941	943	944	942	936	932	937	938	932	923	919	918	916	921	929	937	938	931	927	925	923	924	915	910	907	894	893	897	909	914	906	904	900	902	909	910	906	903	907	903	900	892	891	891	891	884	879	876	891	888	874	872	867	862	851	850	865	883	877	865	851	839	832	837	852	861	866	865	865	868	872	872	872	873	876	891	906	903	893	893	874	873	878	885	887	887	891	900	905	894	887	881	879	890	880	859	851	848	853	854	849	855	861	863	826	828	833	835	827	830	843	848	848	845	838	832	813	815	815	822	822	817	805	811	815	820	825	830	827	831	824	811	812	816	819	817	817	816	820	812	809	807	811	820	821	816	809	801	796	789	794	793	794	785	778	776	773	770	770	775	766	768	773	768	767	771	776	782	789	809	823	832	836	836	833	827	820	821	824	827	825	826	828	821	818	814	822	822	826	831	834	830	824	824	823	821	816	812	810	812	812	813	811	816	810	804	800	812	832	834	827	818	805	796	801	806	809	812	808	797	793	792	785	796	801	805	807	802	802	803	803	806	805	802	799	774	775	779	783	785	790	791	782	782	784	785	776	773	770	777	779	779	784	789	780	782	787	791	781	781	778	785	790	788	770	771	772	770	762	763	767	774	778	772	767	770	775	773	772	772	766	774	776	775	774	775	779	788	795	797	785	775	776	775	779	781	781	779	773	769	773	775	775	775	773	772	771	774	773	768	764	764	766	765	766	772	776	771	760	759	764	763	780	756	752	747	752	752	753	753	756	0	0	0	0	0	0	0	0
1230	1248	1249	1249	1251	1249	1241	1228	1228	1228	1236	1243	1252	1250	1240	1240	1198	1191	1188	1194	1210	1210	1222	1220	1206	1202	1205	1212	1212	1214	1214	1211	1210	1204	1188	1185	1185	1182	1188	1200	1200	1188	1180	1181	1184	1184	1176	1175	1176	1176	1180	1183	1185	1194	1209	1215	1215	1205	1181	1169	1164	1159	1159	1167	1173	1171	1172	1171	1166	1167	1162	1158	1160	1160	1166	1165	1161	1167	1178	1184	1180	1167	1166	1165	1166	1164	1162	1158	1137	1143	1151	1158	1165	1176	1166	1147	1126	1110	1101	1102	1107	1108	1098	1098	1102	1102	1097	1102	1108	1114	1120	1122	1120	1116	1123	1122	1119	1118	1122	1118	1111	1105	1099	1082	1080	1080	1084	1090	1082	1086	1093	1097	1103	1109	1115	1106	1075	1070	1066	1047	1045	1048	1055	1072	1077	1072	1067	1068	1088	1081	1053	1042	1040	1044	1049	1056	1062	1068	1076	1077	1077	1071	1061	1055	1044	1036	1034	1034	1033	1036	1038	1040	1036	1026	1015	1006	998	994	996	1006	1005	1021	1020	1014	1004	1001	1009	1018	1006	1015	1023	988	933	867	854	883	906	915	922	932	930	922	903	893	890	894	900	918	937	991	1005	1006	1008	1001	995	993	992	986	977	971	976	982	985	987	989	987	982	980	977	988	988	995	996	993	985	977	970	957	949	952	955	956	951	948	950	959	955	950	953	961	968	962	965	963	956	959	955	945	931	925	923	931	940	943	938	935	939	946	947	941	942	939	940	939	942	951	967	983	977	970	943	941	938	934	931	929	928	907	894	892	901	906	913	932	941	944	946	941	926	925	933	943	949	947	942	936	931	930	923	918	916	913	913	912	907	906	916	923	921	914	916	918	919	912	902	891	873	871	875	885	887	881	884	891	894	894	890	888	891	897	900	892	887	877	882	880	878	873	869	866	868	868	868	864	857	851	844	846	851	852	850	849	849	847	851	854	850	849	857	861	867	866	856	845	842	845	858	863	866	872	876	880	884	883	878	885	889	897	897	893	875	856	859	867	831	838	854	850	845	846	844	845	846	846	839	820	813	809	818	822	826	841	846	842	837	836	832	832	828	822	819	807	804	804	810	811	812	814	817	816	822	822	821	821	817	810	808	805	810	808	807	804	805	807	813	819	810	807	802	792	760	758	768	774	766	758	755	760	760	761	747	749	765	768	773	771	776	773	786	794	811	812	829	832	812	809	819	816	816	819	821	820	815	803	808	812	811	811	810	817	823	818	809	803	800	809	808	803	785	790	797	808	813	813	819	811	802	789	794	801	804	800	796	798	800	802	804	808	808	806	795	791	783	780	791	800	802	805	806	800	793	791	789	797	796	773	768	768	771	774	783	788	786	771	769	775	763	763	764	772	778	778	778	781	785	780	772	767	772	775	773	772	766	770	766	767	766	767	763	762	761	766	772	772	763	765	765	762	764	763	762	761	769	770	770	770	771	774	780	776	777	774	773	770	767	765	760	769	770	766	762	763	764	766	771	769	771	773	770	767	759	758	758	758	762	764	762	765	758	758	751	753	752	755	771	746	746	745	743	743	743	744	0	0	0	0	0	0	0	0
1219	1232	1240	1240	1245	1238	1212	1207	1207	1207	1217	1222	1220	1198	1188	1188	1185	1186	1190	1200	1218	1216	1197	1182	1175	1175	1186	1192	1192	1187	1188	1182	1185	1180	1176	1175	1175	1178	1178	1177	1173	1162	1157	1155	1149	1149	1153	1155	1161	1168	1172	1171	1173	1162	1164	1166	1170	1170	1162	1151	1145	1140	1135	1140	1158	1172	1172	1162	1155	1135	1126	1122	1130	1130	1149	1148	1152	1160	1170	1178	1174	1167	1161	1153	1150	1145	1138	1125	1112	1121	1129	1136	1137	1139	1145	1126	1103	1086	1075	1080	1078	1082	1091	1102	1107	1102	1091	1092	1091	1088	1097	1098	1101	1096	1097	1099	1091	1080	1079	1082	1091	1090	1082	1079	1077	1080	1065	1058	1058	1055	1070	1102	1103	1080	1054	1023	1004	1007	1015	1029	1038	1036	1028	1029	1033	1041	1047	1057	1079	1066	1046	1037	1037	1036	1037	1036	1042	1058	1071	1066	1054	1051	1044	1044	1044	1034	1031	1026	1026	1026	1028	1023	1019	1013	1012	997	996	992	986	989	1000	1003	1002	999	995	995	997	986	993	997	995	930	875	819	839	844	868	895	906	917	916	907	900	894	895	892	899	913	934	944	995	1004	1002	990	984	979	976	975	971	967	969	969	977	979	983	981	974	971	972	969	979	989	986	983	975	971	964	948	942	938	941	939	945	948	944	946	956	962	960	963	960	958	957	959	961	960	951	940	936	925	921	923	925	929	930	930	934	936	922	916	920	929	933	936	934	933	929	926	939	927	925	918	913	911	924	916	911	911	891	881	882	894	912	919	924	929	931	929	923	926	933	941	936	937	934	920	912	915	918	911	911	911	910	897	891	896	904	911	910	912	916	918	915	906	899	889	870	861	867	868	865	865	875	879	885	886	882	879	879	885	885	884	876	868	868	872	871	868	857	848	846	852	863	862	856	848	839	835	832	824	829	838	851	860	855	853	854	857	873	871	861	840	842	844	850	853	851	846	843	847	862	860	859	859	869	872	880	887	879	872	852	854	837	831	831	837	848	842	840	836	828	826	842	841	827	813	810	803	798	811	820	834	840	834	833	827	829	827	823	817	814	808	803	804	805	807	810	811	809	810	810	815	822	821	814	800	799	803	804	803	795	794	797	797	803	804	803	803	797	786	750	750	756	766	769	761	758	744	740	734	742	738	760	776	780	780	778	784	782	793	795	806	806	804	792	792	794	806	807	807	807	803	805	797	795	800	792	785	775	779	781	787	786	784	785	798	801	798	768	769	776	784	791	804	810	791	785	774	773	774	784	785	792	790	794	797	801	801	801	800	794	786	781	781	785	791	801	804	796	791	780	781	775	780	772	768	759	758	761	768	770	771	783	765	760	748	754	765	773	779	777	773	770	776	781	782	765	769	771	773	772	767	771	767	763	765	758	757	759	761	766	768	767	765	763	762	761	761	762	761	761	759	756	755	759	763	765	767	760	764	767	768	768	764	755	755	755	757	756	753	753	753	754	758	763	766	766	768	767	753	749	753	753	755	755	753	750	747	745	746	744	743	743	750	748	747	742	741	736	714	714	714	0	0	0	0	0	0	0	0
1206	1217	1226	1210	1210	1195	1186	1186	1189	1189	1200	1194	1176	1170	1174	1174	1182	1186	1195	1210	1216	1186	1168	1152	1147	1154	1172	1174	1174	1170	1167	1167	1159	1159	1158	1169	1169	1172	1178	1176	1171	1165	1152	1133	1136	1136	1143	1151	1151	1145	1141	1149	1151	1146	1148	1155	1155	1155	1150	1139	1125	1119	1120	1132	1152	1170	1162	1147	1115	1093	1073	1076	1097	1112	1112	1121	1132	1153	1162	1165	1137	1126	1117	1113	1114	1119	1125	1125	1117	1119	1125	1128	1125	1113	1110	1099	1091	1089	1089	1072	1061	1053	1060	1066	1067	1074	1076	1071	1069	1065	1066	1083	1082	1082	1082	1089	1094	1084	1071	1067	1067	1072	1073	1071	1076	1078	1038	1030	1036	1047	1056	1065	1060	1044	1019	1006	1000	1004	1015	1025	1009	1006	1019	1020	1024	1027	1022	1020	1045	1039	1036	1035	1033	1031	1031	1029	1026	1023	1021	1021	1025	1027	1030	1028	1023	1022	1021	1018	1018	1018	1021	1020	1011	1008	998	997	1000	998	992	985	992	990	983	981	980	984	978	984	989	997	954	884	827	815	823	838	871	881	899	912	915	909	904	903	901	896	900	905	922	927	932	947	976	982	975	971	965	966	966	967	963	961	964	970	971	971	969	960	961	960	964	971	972	949	940	939	939	939	931	926	929	935	938	937	925	921	936	958	961	962	951	943	952	951	954	951	941	927	925	920	916	911	910	913	918	922	928	918	914	911	922	927	926	921	928	928	924	915	911	908	911	915	898	890	898	899	900	900	889	879	881	884	897	915	921	924	923	927	927	919	917	910	902	906	906	905	909	908	901	895	889	893	893	886	887	890	895	897	897	908	901	893	897	902	892	883	875	867	860	857	858	866	870	873	876	881	876	873	872	876	880	879	867	863	861	862	844	844	842	836	837	843	856	867	867	864	840	833	826	823	832	841	857	861	860	838	831	838	850	851	832	835	827	840	849	847	842	842	840	842	844	843	843	852	853	856	868	861	856	848	819	831	832	831	832	833	831	829	836	830	824	817	817	818	812	805	803	802	791	789	791	806	810	809	807	811	823	803	800	804	805	802	798	798	800	800	805	808	797	793	797	797	804	810	802	793	797	798	795	794	784	779	784	791	795	804	797	794	783	776	747	751	759	760	766	762	759	746	741	738	734	733	746	764	773	774	768	771	780	781	782	779	781	781	780	786	790	788	798	793	771	773	775	782	780	776	773	772	766	765	767	772	769	762	761	761	764	766	753	755	757	755	756	779	782	779	773	772	768	763	762	766	776	771	763	780	783	786	788	791	788	784	780	781	787	790	777	769	761	764	764	760	756	754	757	754	751	754	761	756	758	757	764	743	737	740	741	762	772	774	771	767	763	765	771	769	768	766	749	756	747	739	730	733	741	749	744	740	744	759	758	758	749	742	738	741	752	756	757	754	757	752	749	748	742	743	736	731	728	755	756	757	755	751	751	751	749	746	745	743	740	727	733	739	741	754	757	750	752	749	744	747	747	742	735	733	731	731	733	731	732	726	728	728	733	746	745	740	722	709	709	708	0	0	0	0	0	0	0	0
1168	1168	1166	1160	1160	1160	1162	1168	1171	1171	1168	1156	1155	1157	1160	1160	1171	1181	1192	1190	1156	1156	1136	1124	1123	1136	1153	1159	1159	1163	1160	1154	1150	1140	1141	1148	1148	1154	1160	1164	1165	1156	1127	1126	1131	1131	1136	1142	1143	1140	1131	1128	1132	1136	1138	1133	1134	1134	1126	1124	1110	1102	1104	1124	1143	1154	1135	1109	1096	1077	1064	1065	1076	1096	1096	1104	1109	1114	1122	1117	1097	1093	1092	1099	1105	1108	1114	1107	1097	1087	1083	1078	1073	1071	1066	1077	1083	1078	1072	1063	1056	1052	1054	1053	1055	1056	1063	1059	1058	1057	1055	1065	1069	1072	1078	1086	1088	1070	1058	1053	1050	1054	1053	1058	1058	1057	1030	1011	1012	1018	1024	1028	1025	1021	1017	1011	1006	997	988	993	994	996	1006	1013	1015	1016	1008	1002	1010	1015	1009	998	1015	1016	1014	1015	1010	1002	994	995	1002	1006	1011	1006	1007	988	986	990	1006	1011	1011	1004	998	998	997	995	1001	1001	997	986	987	985	980	975	976	976	974	981	984	975	952	876	818	809	812	846	873	881	894	915	910	908	909	911	908	904	901	902	907	913	917	928	956	943	929	962	956	961	963	961	956	956	956	958	950	945	942	936	933	933	944	951	947	939	934	932	933	929	922	914	920	927	927	918	919	918	917	934	945	947	929	913	918	938	938	935	922	919	916	916	912	907	901	901	898	899	909	909	905	906	918	920	916	912	909	916	907	894	895	895	897	902	887	878	881	884	871	868	865	867	863	868	885	908	919	923	920	910	908	902	897	894	897	896	893	895	902	899	889	886	877	875	869	878	885	888	886	883	881	878	872	862	870	874	869	866	871	873	873	869	864	863	872	868	868	865	862	862	861	861	863	860	859	849	844	841	838	839	833	829	830	834	837	838	837	840	838	834	826	824	828	834	846	853	840	832	827	827	830	827	827	819	822	826	829	830	831	830	837	841	843	844	847	852	855	858	836	831	830	824	816	807	825	829	831	830	824	824	826	824	805	805	808	809	807	801	801	799	790	787	788	797	804	803	798	794	791	797	792	786	790	791	792	793	794	795	797	785	781	778	783	787	783	772	775	788	793	792	788	782	779	777	781	790	782	785	785	782	778	744	743	747	750	750	752	761	757	750	747	741	737	732	743	759	759	757	752	756	768	774	777	774	777	775	771	768	774	783	779	762	758	761	762	766	767	770	773	773	770	770	769	773	769	765	753	737	741	752	751	752	755	749	755	748	748	747	757	762	764	764	744	743	749	751	748	760	765	773	776	781	777	776	771	773	773	767	772	763	752	759	760	758	754	752	745	742	748	750	754	749	745	742	753	749	738	730	737	746	745	751	753	758	756	754	750	748	743	742	739	742	739	732	726	726	744	736	718	715	732	744	750	746	735	727	730	731	740	744	749	750	742	742	746	743	730	730	730	727	719	720	735	742	737	737	739	739	738	738	732	726	722	728	733	733	734	735	739	740	745	742	741	741	741	734	731	727	726	725	724	717	719	723	729	736	737	733	731	733	728	709	709	707	0	0	0	0	0	0	0	0
1133	1126	1122	1123	1123	1129	1141	1147	1140	1140	1139	1139	1141	1143	1145	1145	1149	1160	1168	1160	1128	1128	1113	1100	1107	1122	1140	1140	1140	1145	1141	1141	1138	1123	1121	1125	1125	1130	1135	1129	1120	1115	1116	1117	1123	1132	1132	1138	1139	1130	1122	1113	1104	1103	1106	1108	1108	1108	1102	1095	1085	1083	1087	1097	1105	1101	1102	1094	1089	1083	1084	1088	1083	1091	1091	1089	1090	1094	1096	1099	1098	1093	1090	1086	1083	1080	1078	1069	1065	1051	1041	1033	1034	1038	1051	1068	1056	1061	1066	1057	1061	1049	1044	1042	1044	1046	1045	1044	1037	1038	1043	1049	1052	1047	1047	1054	1059	1055	1042	1041	1039	1044	1047	1054	1057	1045	1020	1016	1016	1016	1017	1018	1003	1005	1002	998	989	973	971	976	986	994	997	1001	1002	997	991	991	995	995	988	979	973	980	989	984	988	989	994	985	992	999	985	972	971	966	965	967	975	991	987	986	983	970	975	984	980	970	961	959	979	982	970	956	957	956	958	962	971	959	926	866	825	808	803	838	880	886	903	907	910	904	908	908	908	902	898	898	904	907	910	918	925	913	909	914	916	933	954	954	949	941	941	935	921	922	933	939	935	927	927	945	943	937	928	927	927	922	915	907	915	915	914	910	905	910	915	920	931	923	904	908	909	901	892	896	905	912	918	919	914	906	899	885	888	894	900	900	898	900	913	912	910	900	904	903	895	884	887	886	888	888	879	872	870	864	863	864	865	860	859	864	882	882	867	874	862	867	884	890	889	891	890	887	886	889	890	879	871	870	870	860	855	861	875	878	873	872	869	860	858	853	852	854	850	844	841	854	861	856	850	844	849	851	853	854	855	854	855	856	854	850	848	843	842	839	833	832	828	826	828	830	832	824	819	824	832	830	823	818	822	827	831	824	820	820	819	819	821	823	812	813	815	819	823	823	823	825	834	843	844	842	848	850	845	832	810	812	819	821	812	811	822	824	826	822	816	809	793	792	793	795	801	802	797	794	795	795	794	788	789	795	799	792	786	782	791	790	781	783	777	771	765	763	763	767	772	759	757	757	761	768	768	767	765	764	762	782	778	776	776	776	778	772	761	763	762	758	762	743	743	746	749	748	749	747	745	747	752	748	737	733	757	762	762	759	750	758	759	764	768	768	769	762	756	750	750	748	764	759	758	759	763	767	764	761	755	750	748	749	754	758	754	748	740	737	743	750	751	749	744	737	738	735	731	729	727	726	738	738	738	739	740	738	743	738	735	740	745	750	753	759	755	760	764	763	763	764	758	753	757	755	753	751	750	750	751	749	750	741	736	727	736	736	728	719	724	731	738	747	750	750	749	739	734	734	732	726	729	733	730	724	717	717	714	722	717	712	714	728	737	735	729	722	731	733	729	718	724	731	734	733	727	726	721	718	721	725	729	729	725	733	732	728	731	734	733	731	727	718	719	722	719	724	727	726	732	737	739	737	735	735	728	727	718	719	720	720	718	713	712	718	726	732	731	722	720	721	713	713	712	705	0	0	0	0	0	0	0	0
1093	1089	1099	1110	1110	1113	1117	1125	1126	1126	1126	1126	1122	1125	1127	1127	1130	1140	1140	1121	1116	1107	1107	1097	1099	1107	1116	1112	1104	1104	1116	1119	1116	1108	1102	1105	1105	1106	1099	1095	1099	1097	1103	1108	1112	1124	1124	1130	1124	1117	1103	1093	1082	1084	1092	1098	1096	1096	1091	1081	1078	1079	1073	1068	1047	1054	1069	1077	1077	1083	1087	1089	1082	1077	1077	1076	1076	1086	1087	1087	1085	1086	1086	1081	1065	1040	1019	1007	1004	1010	1013	1018	1018	1025	1037	1040	1023	1029	1038	1044	1046	1042	1037	1035	1032	1021	1015	1010	1012	1025	1026	1022	1012	1009	1011	1005	993	982	978	983	995	1016	1036	1041	1025	1002	980	973	973	972	945	1007	997	986	980	975	967	969	966	970	979	986	986	982	983	985	983	982	982	979	972	964	962	969	977	980	980	981	984	987	987	981	975	968	966	959	953	941	968	967	972	961	955	945	947	956	957	948	943	941	964	973	962	947	939	938	943	948	936	930	923	865	812	811	819	836	891	890	893	899	900	898	893	894	900	894	894	895	900	905	908	913	917	905	896	906	912	912	908	921	932	927	912	911	915	919	923	928	930	929	923	937	938	931	924	917	917	918	911	911	912	909	905	899	899	903	910	915	921	899	880	882	892	896	892	890	892	901	895	885	875	870	873	878	884	889	893	894	893	895	893	888	884	874	864	872	881	887	886	885	882	879	876	870	865	861	862	861	863	857	858	866	875	857	853	855	860	850	851	865	877	883	871	869	871	874	870	866	864	862	859	853	850	854	856	861	866	848	834	841	850	843	828	826	816	816	828	822	822	827	844	842	843	843	845	846	845	846	849	851	852	848	836	830	829	831	832	825	818	815	814	808	800	802	786	789	794	821	819	816	816	819	813	809	808	809	810	812	811	807	807	809	807	812	816	819	818	817	829	841	837	836	842	829	823	804	804	804	813	815	809	796	813	821	824	808	806	791	780	782	788	790	788	785	784	785	787	785	782	774	783	789	784	775	775	779	786	781	775	766	760	758	765	760	748	747	750	754	755	754	757	763	761	760	761	762	760	754	748	751	754	757	762	756	755	757	756	753	754	745	746	746	747	749	748	745	746	745	745	752	752	754	754	758	757	756	754	754	756	762	762	772	759	753	750	744	743	748	753	757	758	755	760	764	763	761	754	753	751	752	754	752	750	744	734	728	728	739	746	735	736	733	732	732	727	723	721	721	724	718	726	737	735	734	735	740	725	724	728	733	735	740	743	749	753	754	751	750	749	749	745	749	750	751	747	741	741	734	716	716	728	724	729	729	727	724	723	727	737	740	730	713	710	716	714	712	708	708	711	719	721	708	705	703	709	710	715	717	722	717	725	722	721	724	723	723	722	713	718	727	727	722	718	714	713	712	712	714	727	733	735	734	730	729	726	729	730	726	714	711	711	712	711	707	701	698	694	721	723	731	729	729	719	711	712	707	706	713	714	711	710	713	720	714	714	710	715	712	708	708	704	703	0	0	0	0	0	0	0	0
1067	1081	1092	1099	1099	1099	1103	1109	1105	1105	1112	1112	1107	1100	1103	1103	1111	1117	1122	1103	1103	1103	1103	1098	1097	1083	1077	1071	1063	1063	1076	1091	1098	1091	1077	1072	1072	1072	1073	1079	1081	1085	1088	1092	1097	1110	1110	1111	1098	1096	1086	1079	1077	1075	1077	1085	1084	1084	1079	1067	1070	1075	1069	1044	1044	1050	1060	1069	1071	1072	1072	1075	1068	1046	1040	1040	1055	1068	1072	1067	1058	1066	1074	1068	1044	1032	1022	1005	995	999	1005	1011	1014	1014	1015	1015	1015	1016	1020	1031	1033	1030	1027	1022	1017	1009	999	997	1001	990	985	992	988	984	981	974	978	983	987	986	983	990	1000	999	995	991	972	967	964	938	893	885	883	906	933	944	948	949	953	958	970	976	973	969	966	972	977	977	958	960	958	952	954	959	963	962	968	973	978	979	975	972	971	965	963	950	938	928	928	936	947	948	938	931	935	945	950	949	946	944	950	957	945	940	926	924	927	929	925	926	924	898	845	812	817	829	858	894	896	897	901	896	886	878	880	885	880	880	884	900	904	909	918	898	888	895	902	902	902	898	902	907	908	904	904	914	917	923	920	921	918	916	918	915	909	907	912	915	918	905	903	898	894	893	893	897	901	913	897	883	877	876	884	890	892	887	881	880	877	857	851	848	851	859	870	881	894	893	886	881	875	869	863	856	854	858	870	878	879	879	877	870	875	862	853	850	846	842	855	863	868	861	845	845	839	830	826	827	840	843	864	860	848	851	842	847	855	858	853	842	845	847	833	832	834	827	824	819	806	798	823	827	825	809	805	810	818	803	803	807	821	824	826	834	841	840	838	840	843	846	849	839	827	823	804	800	801	807	808	805	797	793	788	785	783	778	777	780	790	805	815	812	805	802	800	803	797	803	805	803	806	797	801	806	809	808	805	808	813	820	824	802	800	818	786	777	774	795	802	802	774	776	784	784	784	780	784	786	771	770	770	769	764	756	746	745	750	757	763	764	762	775	771	767	768	774	774	770	762	748	739	762	766	757	753	752	749	751	753	752	752	755	752	754	757	757	753	751	735	733	738	749	754	756	753	748	749	748	752	751	746	742	746	749	752	747	749	746	744	746	750	747	744	742	740	738	752	756	758	753	755	749	753	748	744	738	735	740	747	751	752	751	751	753	761	754	748	740	744	752	747	747	745	740	735	728	726	723	726	730	732	730	727	724	722	718	718	722	726	719	727	730	729	723	727	729	729	709	712	711	724	729	728	730	741	743	744	745	742	743	743	737	732	731	722	714	701	700	703	709	716	719	723	722	719	720	721	720	720	716	709	699	696	699	702	707	703	703	703	706	705	695	694	699	703	704	706	701	702	709	711	703	697	689	702	707	712	716	718	727	721	716	710	710	705	706	707	710	714	723	720	734	727	725	723	727	725	714	707	706	707	706	704	699	697	696	686	682	682	682	690	709	717	708	706	701	697	699	697	701	705	707	705	705	697	701	705	704	705	705	700	693	0	0	0	0	0	0	0	0
1062	1076	1084	1081	1081	1081	1084	1077	1078	1080	1080	1084	1084	1082	1081	1081	1092	1099	1079	1085	1083	1068	1068	1060	1063	1065	1065	1056	1059	1059	1069	1083	1086	1078	1070	1060	1055	1055	1056	1063	1073	1074	1075	1078	1078	1069	1069	1074	1077	1079	1072	1069	1066	1065	1059	1056	1047	1044	1044	1039	1049	1042	1033	1024	1032	1043	1055	1058	1052	1051	1058	1051	1035	1028	1025	1025	1027	1029	1027	1025	1024	1032	1039	1041	1024	1021	1019	1013	996	989	998	1003	1002	1004	1006	1008	1009	1005	1000	1000	1016	1017	1012	994	992	993	988	983	989	981	985	992	985	980	975	978	979	986	993	988	982	983	987	991	989	988	965	952	938	893	889	875	878	887	912	933	926	923	926	927	930	933	936	940	938	938	951	952	950	944	942	940	947	949	949	948	948	955	958	949	947	933	931	934	938	939	939	933	934	939	946	942	933	920	924	935	945	945	924	923	921	940	935	929	919	915	909	913	919	922	914	875	839	811	817	826	850	883	892	897	907	909	900	878	872	869	865	870	877	887	896	898	882	879	884	890	895	892	893	891	881	881	886	886	901	905	915	916	902	905	897	881	871	868	870	874	889	894	900	897	878	881	875	871	874	868	886	895	885	874	871	872	876	885	883	877	868	861	860	863	858	849	850	853	862	871	876	875	864	865	862	854	854	848	848	853	860	871	870	869	867	849	840	824	827	836	840	842	844	851	848	839	837	833	833	825	815	816	824	831	836	833	835	823	834	838	843	841	834	816	812	815	817	800	801	801	809	794	794	794	794	808	798	797	803	817	811	805	809	803	806	808	810	811	830	832	832	831	834	833	832	818	802	799	783	782	792	793	795	790	789	787	786	783	779	777	776	782	786	802	806	813	806	800	802	802	799	791	791	791	791	792	795	797	793	784	786	797	789	793	806	804	769	770	761	764	764	767	768	767	764	771	785	781	761	759	766	780	775	769	768	767	758	744	738	743	751	760	768	769	776	777	765	750	743	753	757	756	748	742	751	740	744	747	747	742	737	747	755	755	750	743	741	738	742	741	734	740	745	742	739	747	751	750	736	737	740	741	748	751	749	744	746	749	750	747	750	742	743	742	740	737	733	731	727	731	737	743	744	741	728	744	724	742	743	738	733	733	741	741	743	741	745	752	755	747	745	734	738	743	745	739	739	737	732	728	718	717	721	725	725	725	725	724	720	716	712	719	727	729	723	725	722	723	719	719	717	718	713	714	710	710	707	727	725	730	718	718	728	732	731	727	698	705	702	696	694	695	700	707	712	716	717	700	697	699	699	702	702	709	702	703	707	711	706	697	700	705	713	711	704	699	695	694	692	693	696	697	697	696	696	689	684	685	698	700	694	694	700	712	712	709	706	703	702	701	701	706	709	712	714	714	708	704	703	703	705	704	704	706	705	706	702	697	696	703	699	698	694	689	689	688	691	692	697	691	686	685	690	693	700	702	700	685	684	692	694	692	683	683	691	690	0	0	0	0	0	0	0	0
1060	1065	1066	1068	1068	1066	1063	1064	1058	1058	1058	1061	1064	1063	1066	1070	1070	1072	1045	1034	1031	1028	1028	1032	1039	1050	1054	1048	1043	1043	1048	1054	1062	1061	1050	1040	1040	1040	1047	1054	1050	1049	1029	1018	1024	1025	1025	1033	1045	1039	1032	1034	1052	1039	1033	1026	1021	1018	1018	1021	1021	1017	1014	1013	1018	1018	1021	1019	1014	1013	1014	1020	1021	1021	1020	1020	1016	994	990	998	998	1001	1004	1004	1008	1005	1004	993	982	977	976	986	988	988	997	1000	1001	991	985	987	988	979	971	965	971	977	976	974	973	971	971	973	980	983	979	967	969	981	975	967	971	975	980	984	979	981	972	929	876	875	878	874	874	883	896	916	921	923	921	919	919	923	927	930	927	932	932	927	915	895	888	883	916	932	937	936	929	925	927	928	917	916	919	910	910	904	907	910	911	912	920	914	911	912	917	922	930	927	917	906	893	897	906	912	911	907	902	906	905	905	896	870	833	823	826	829	835	853	864	873	878	879	874	872	869	865	864	865	867	873	881	883	881	879	879	885	889	890	884	872	863	865	868	875	878	881	900	897	879	872	856	857	853	859	860	865	872	874	869	858	842	847	852	855	850	837	845	858	866	861	862	861	860	854	846	836	840	846	851	856	857	859	853	853	861	868	856	859	856	850	846	836	836	835	836	849	852	849	841	835	830	830	821	823	808	814	821	822	822	826	820	818	816	828	828	821	813	811	813	821	824	823	807	800	804	818	822	828	820	786	783	790	793	793	796	800	800	801	793	785	783	790	795	799	802	800	790	797	795	800	797	801	788	784	791	808	819	828	829	821	813	803	791	787	779	779	777	778	782	784	785	788	787	783	779	777	777	776	786	796	799	805	797	790	780	774	778	780	780	779	773	775	770	768	775	759	765	766	764	761	763	763	760	761	763	760	767	762	757	756	755	760	766	768	756	755	754	764	766	766	766	766	761	741	737	740	746	751	750	750	747	753	759	753	739	736	731	733	745	735	735	738	733	736	730	723	728	738	739	744	741	740	740	739	739	739	735	731	733	739	734	732	737	734	732	730	734	737	737	747	737	737	737	736	728	731	730	735	736	735	733	727	720	718	719	727	727	729	735	733	724	730	717	725	740	735	727	719	720	722	724	730	719	722	719	719	726	731	736	740	735	736	735	734	730	725	717	711	711	711	712	721	722	720	715	713	712	711	710	712	717	718	718	711	715	713	716	712	708	711	712	710	709	700	707	708	699	703	706	708	703	697	695	695	693	695	691	691	694	704	702	700	693	691	689	691	696	696	700	699	704	703	705	711	715	701	702	709	703	699	698	697	695	695	689	685	689	692	692	691	685	685	683	683	687	695	690	691	689	692	697	699	691	689	688	686	686	684	684	687	688	689	679	678	678	681	691	697	693	691	692	691	692	688	698	692	683	681	682	686	686	688	688	686	683	681	671	681	681	687	695	700	684	677	681	681	679	675	684	684	687	680	0	0	0	0	0	0	0	0
1058	1051	1052	1053	1053	1042	1046	1049	1045	1045	1045	1046	1055	1047	1055	1064	1064	1056	1022	1013	1002	995	995	997	997	1011	1024	1028	1022	1022	1021	1027	1032	1035	1028	1018	1012	1012	1018	1043	1045	1026	1005	1003	1006	1019	1019	1019	1019	1016	1011	1011	1010	1011	1010	1004	1004	1009	1009	1016	1017	1010	1002	1002	1014	1021	1020	992	978	979	988	991	992	991	979	979	979	963	972	983	992	996	997	997	990	980	976	960	965	957	963	963	967	973	988	990	980	972	968	967	962	950	951	967	978	982	974	965	967	967	965	956	949	934	936	944	956	969	965	958	961	968	975	977	972	952	925	864	861	867	870	866	866	882	893	910	915	912	905	897	906	912	915	907	899	911	921	924	913	890	883	881	879	879	888	894	910	922	924	914	899	893	898	899	900	898	892	887	886	889	899	903	904	906	907	916	920	915	914	901	889	875	862	861	888	892	889	890	899	897	884	862	847	832	813	809	824	855	866	868	863	855	850	852	853	859	859	861	863	862	868	873	876	879	874	881	864	858	858	859	859	858	865	871	879	870	862	853	861	859	855	850	852	859	861	858	861	862	856	843	843	854	856	855	847	836	838	846	850	842	837	854	830	837	832	834	839	842	841	845	851	853	850	844	842	844	852	826	833	837	838	848	845	842	823	823	831	838	840	829	823	822	822	804	803	798	801	812	813	816	807	803	800	818	825	822	814	812	809	804	805	801	796	795	796	803	802	786	790	787	783	778	785	788	789	798	799	803	795	787	778	780	778	771	780	780	778	780	780	794	796	797	794	783	777	780	791	801	802	788	781	785	776	776	773	766	763	770	782	786	785	787	787	784	781	777	771	757	754	764	765	769	770	767	762	750	744	748	757	763	761	767	754	753	752	748	741	742	747	752	757	757	755	753	753	763	755	766	767	746	751	747	746	745	732	750	758	760	756	755	761	750	757	743	738	736	734	736	736	737	739	737	741	752	747	739	731	728	727	729	735	733	732	735	730	729	719	717	727	740	739	737	739	738	740	739	734	729	727	726	731	728	728	732	736	733	729	725	728	730	730	728	714	717	722	724	724	724	710	722	727	722	715	712	716	721	725	728	729	730	726	716	719	723	729	728	719	717	717	713	712	711	712	708	709	708	707	708	703	699	695	689	692	702	705	712	720	712	710	710	710	709	705	705	706	710	711	710	706	706	707	714	710	703	710	712	708	706	702	701	701	701	704	701	691	687	690	694	693	689	687	687	688	698	694	689	686	695	695	699	697	696	676	688	688	689	690	691	696	694	694	688	701	702	698	687	691	686	680	685	680	683	684	684	683	681	683	687	687	685	680	680	682	682	683	687	691	683	681	689	695	703	702	695	689	680	675	677	680	685	687	675	673	675	681	683	686	690	703	696	688	685	683	688	687	677	670	670	672	686	686	687	683	680	678	676	676	671	679	681	682	671	671	670	668	671	669	681	681	678	676	676	0	0	0	0	0	0	0	0
