0	0	0	0	0	0	0	0	0	0	0	0	0	0	0	0	0	0	0	0	0	0	0	0	0	0	0	0	0	0	0	0	0	0	0	0	0	0	0	0	0	0	0	0	0	0	0	0	0	0	0	0	0	0	0	0	0	0	0	0	0	0	0	0	0	0	1095	1220	1253	1276	1297	1285	1285	1272	1278	1284	1301	1316	1322	1324	1333	1335	1333	1340	1339	1333	1320	1308	1289	1282	1292	1310	1327	1330	1330	1316	1313	1313	1312	1307	1304	1296	1277	1275	1297	1323	1336	1333	1332	1330	1325	1321	1303	1302	1305	1310	1317	1345	1368	1382	1385	1364	1367	1386	1372	1350	1345	1336	1321	1320	1328	1350	1365	1370	1367	1351	1344	1341	1347	1343	1339	1343	1342	1343	1342	1340	1345	1350	1367	1396	1389	1378	1374	1385	1394	1395	1381	1361	1366	1488	1496	1513	1447	1439	1505	1411	1357	1347	1370	1416	1428	1404	1388	1380	1396	1365	1382	1481	1513	1524	1515	1561	1621	1702	1779	1805	1792	1782	1770	1743	1762	1763	1713	1741	1717	1751	1780	1786	1762	1772	1717	1560	0	0	0	0	0	0	0	0	0	0	0	0	0	0	0	0	0	0	0	0	0	1204	1267	1285	1276	1302	1319	1318	1338	1364	1365	1367	1365	1361	1374	1370	1367	1379	1388	1402	1410	1419	1420	1416	1405	1401	1415	1419	1387	1387	1395	1429	1429	1411	1400	1385	1400	1408	1400	1404	1406	1398	1424	1428	1431	1429	1422	1425	1427	1428	1438	1432	1406	1402	1419	1418	1408	1434	1453	1449	1448	1445	1441	1436	1424	1429	1441	1439	1442	1426	1428	1430	1439	1444	1459	1471	1474	1459	1450	1446	1445	1460	1464	1462	1450	1447	1432	1474	1654	2070	2540	2678	2705	2742	2753	2737	2756	2756	2740	2700	2668	2655	2668	2698	2726	2749	2778	2830	2888	2959	2985	2984	2955	2902	2844	2780	2751	2732	2715	2604	2164	0	0	0	0	2079	2158	2258	2394	2406	2393	2346	2297	2245	2102	1843	1797	1791	1785	1770	1730	1691	1657	1624	1588	1586	1632	1708	1774	1827	1866	1865	1849	1870	1866	1852	1837	1834	1841	1848	1795	1649	1529	1479	1445	1443	1440	1442	1474	1494	1523	1526	1520	1493	1441	1360	1381	1421	1419	1412	1403	1412	1453	1460	1470	1474	1467	1450	1444	1427	1428	1429	1438	1447	1450	1455	1459	1459	1454	1449	1449	1458	1461	1453	1452	1458	1467	1467	1472	1490	1482	1477	1469	1469	1464	1360	1308	1285	1286	1293	1295	1310	1330	1313	1361	1615	1666	1788	1830	1850	1833	1810	1779	1747	1728	1687	1649	1686	1852	2047	2065	2034	1986	1938	1951	1938	2007	2115	2234	2259	2270	2256	2217	2210	2197	2179	2173	2181	2167	2144	2126	2120	2131	2139	2118	2052	1912	1649	1563	1548	1557	1564	1570	1585	1593	1596	1582	1580	1589	1604	1617	1615	1604	1599	1595	1583	1541	1513	1491	1428	1391	1374	1341	1339	1365	1567	1763	1805	1853	1856	1856	1856	1861	1867	1848	1868	1866	1863	1840	1816	1783	1809	1843	1855	1858	1870	1879	1883	1897	1903	1903	1893	1881	1879	1861	1832	1782	1760	1754	1746	1740	1736	1731	1765	1776	1751	1717	1682	1653	1637	1651	1669	1697	1726	1750	1722	1706	1702	1676	1672	1638	1604	1595	1572	1570	1545	1536	1468	1493	1540	1612	1630	1664	1686	1703	1697	1696	1652	1598	1561	1524	1460	1426	1370	1358	1366	1404	1413	1421	1414	1406	1396	1419	1448	1479	1489	1486	1484	1483	1485	1490	1477	1477	1475	1490	1497	1490	1482	1478	1477	1479	1482	1476	1464	1458	1466	1480	1486	1483	0	0	0	0	0	0	0	0	0
0	0	0	0	0	0	0	0	0	0	0	0	0	0	0	0	0	0	0	0	0	0	0	0	0	0	0	0	0	0	0	0	0	0	0	0	0	0	0	0	0	0	0	0	0	0	0	0	0	0	0	0	0	0	0	0	0	0	0	0	0	0	0	0	0	0	1088	1196	1241	1278	1307	1297	1297	1288	1302	1308	1307	1307	1308	1318	1329	1335	1337	1333	1327	1334	1336	1329	1299	1293	1301	1314	1324	1324	1314	1308	1303	1304	1318	1316	1307	1299	1294	1310	1324	1347	1356	1345	1332	1324	1324	1306	1301	1303	1307	1310	1310	1330	1367	1384	1383	1367	1365	1386	1386	1370	1342	1327	1313	1309	1322	1343	1346	1339	1336	1335	1334	1331	1321	1326	1338	1341	1341	1358	1360	1365	1380	1416	1435	1458	1520	1526	1517	1511	1529	1541	1574	1586	1595	1488	1588	1603	1605	1583	1505	1587	1570	1506	1509	1539	1558	1561	1549	1559	1617	1638	1639	1744	1767	1748	1721	1741	1796	1851	1888	1889	1882	1883	1896	1913	1905	1934	1858	1821	1817	1831	1851	1885	1933	1968	1890	0	0	0	0	0	0	0	0	0	0	0	0	0	0	0	0	0	0	0	0	0	0	1108	1203	1247	1284	1306	1300	1295	1324	1345	1361	1372	1368	1367	1366	1354	1357	1375	1390	1405	1410	1407	1410	1412	1408	1406	1418	1428	1393	1390	1383	1393	1425	1430	1407	1414	1406	1413	1418	1411	1397	1407	1413	1438	1435	1429	1408	1412	1430	1436	1441	1433	1423	1406	1412	1413	1411	1439	1428	1453	1433	1429	1442	1431	1428	1437	1444	1449	1447	1434	1426	1442	1439	1447	1454	1466	1471	1451	1456	1439	1461	1473	1475	1465	1471	1451	1427	1483	1666	2019	2394	2691	2715	2735	2729	2734	2713	2679	2703	2685	2668	2676	2685	2707	2741	2769	2797	2830	2874	2900	2912	2939	2925	2880	2784	2741	2716	2697	2675	2638	2541	2108	0	0	2085	2099	2176	2243	2352	2361	2358	2340	2313	2284	2112	1835	1783	1781	1779	1755	1726	1696	1678	1652	1634	1620	1603	1685	1772	1834	1866	1878	1864	1868	1864	1855	1851	1849	1856	1860	1821	1691	1568	1492	1455	1447	1445	1444	1482	1509	1530	1528	1520	1489	1432	1377	1401	1428	1419	1412	1413	1424	1463	1464	1461	1473	1466	1452	1449	1449	1443	1443	1443	1449	1456	1464	1467	1472	1463	1446	1441	1446	1451	1447	1439	1441	1457	1475	1492	1487	1497	1488	1462	1462	1454	1396	1346	1303	1305	1312	1319	1347	1375	1377	1502	1640	1712	1760	1782	1770	1763	1760	1749	1715	1670	1634	1585	1616	1767	1941	2010	1985	1954	1917	1861	1810	1792	1803	2073	2220	2199	2176	2146	2160	2174	2173	2166	2140	2102	2072	2063	2069	2087	2105	2103	2046	1924	1640	1585	1578	1572	1578	1590	1607	1603	1586	1580	1581	1598	1609	1628	1620	1600	1588	1585	1578	1565	1521	1498	1448	1407	1387	1379	1376	1382	1524	1730	1824	1844	1845	1843	1848	1854	1844	1823	1833	1848	1834	1811	1771	1770	1791	1821	1840	1852	1855	1863	1866	1875	1876	1872	1861	1852	1840	1818	1791	1723	1707	1709	1716	1725	1731	1735	1744	1751	1742	1726	1707	1687	1675	1673	1675	1683	1688	1666	1644	1626	1614	1611	1569	1552	1527	1494	1508	1498	1485	1424	1403	1420	1431	1459	1560	1591	1628	1653	1672	1657	1617	1563	1499	1442	1401	1381	1368	1395	1442	1441	1442	1439	1433	1423	1421	1435	1452	1472	1477	1473	1475	1476	1479	1483	1482	1482	1465	1470	1488	1491	1487	1457	1464	1459	1465	1473	1485	1489	1489	1485	1475	1467	0	0	0	0	0	0	0	0	0
0	0	0	0	0	0	0	0	0	0	0	0	0	0	0	0	0	0	0	0	0	0	0	0	0	0	0	0	0	0	0	0	0	0	0	0	0	0	0	0	0	0	0	0	0	0	0	0	0	0	0	0	0	0	0	0	0	0	0	0	0	0	0	0	0	0	1062	1179	1226	1278	1318	1318	1318	1329	1341	1328	1312	1303	1303	1310	1321	1337	1332	1325	1321	1332	1336	1329	1322	1320	1317	1325	1320	1318	1319	1320	1307	1311	1309	1338	1348	1340	1326	1326	1334	1357	1356	1345	1326	1311	1307	1303	1300	1306	1316	1315	1318	1326	1362	1382	1376	1382	1362	1352	1382	1363	1336	1320	1307	1306	1320	1333	1353	1370	1373	1364	1357	1347	1346	1365	1378	1396	1409	1447	1466	1486	1523	1565	1579	1573	1570	1576	1588	1595	1603	1616	1639	1636	1644	1661	1757	1778	1773	1652	1635	1624	1580	1534	1563	1581	1599	1610	1604	1614	1674	1704	1767	1810	1810	1788	1770	1804	1867	1938	1973	1977	1994	1994	2000	2121	2133	2056	1930	1893	1896	1924	1946	1970	2024	2074	2055	0	0	0	0	0	0	0	0	0	0	0	0	0	0	0	0	0	0	0	0	0	0	1049	1145	1227	1298	1305	1274	1281	1305	1345	1371	1396	1367	1374	1363	1358	1354	1372	1385	1405	1409	1390	1400	1405	1395	1392	1395	1421	1423	1402	1398	1392	1404	1417	1420	1404	1415	1413	1428	1404	1395	1398	1418	1422	1428	1430	1411	1403	1410	1425	1438	1447	1423	1432	1417	1429	1437	1436	1444	1440	1434	1446	1433	1432	1444	1443	1450	1449	1453	1454	1428	1428	1452	1435	1451	1441	1448	1468	1464	1457	1470	1482	1476	1466	1472	1455	1436	1497	1659	1997	2460	2716	2726	2710	2675	2643	2603	2576	2594	2594	2643	2622	2636	2666	2701	2742	2739	2733	2750	2791	2797	2841	2824	2790	2729	2697	2672	2624	2590	2556	2581	2438	2281	2152	2110	2198	2234	2256	2320	2332	2344	2356	2355	2324	2125	1853	1801	1768	1763	1747	1720	1692	1679	1671	1663	1640	1608	1685	1785	1836	1860	1886	1893	1862	1866	1862	1856	1861	1870	1875	1859	1796	1632	1516	1478	1453	1461	1475	1487	1512	1513	1522	1503	1471	1431	1388	1393	1417	1423	1410	1416	1435	1463	1464	1442	1465	1463	1458	1457	1459	1457	1459	1445	1442	1450	1457	1469	1474	1464	1446	1441	1444	1451	1446	1434	1434	1449	1470	1486	1493	1494	1489	1472	1464	1436	1401	1375	1339	1325	1321	1330	1372	1388	1397	1536	1634	1706	1766	1783	1784	1768	1751	1731	1696	1646	1579	1560	1584	1667	1831	1879	1897	1905	1903	1882	1858	1829	1818	1869	2086	2116	2111	2121	2130	2153	2165	2140	2097	2076	2059	2045	2047	2049	2071	2057	2000	1897	1662	1632	1622	1612	1611	1612	1621	1616	1588	1577	1577	1590	1609	1625	1607	1578	1558	1568	1576	1557	1528	1504	1474	1420	1402	1390	1390	1399	1499	1695	1815	1828	1829	1835	1844	1847	1839	1825	1826	1827	1822	1800	1744	1748	1770	1802	1818	1827	1848	1868	1874	1868	1859	1851	1843	1840	1823	1807	1787	1726	1724	1717	1724	1730	1738	1736	1737	1735	1716	1693	1694	1696	1687	1670	1654	1644	1641	1630	1617	1613	1609	1641	1624	1614	1606	1533	1480	1468	1414	1397	1367	1365	1386	1409	1416	1545	1505	1526	1523	1430	1432	1448	1451	1447	1446	1403	1483	1438	1440	1445	1424	1416	1409	1407	1408	1425	1451	1467	1473	1475	1476	1475	1460	1458	1472	1472	1462	1457	1461	1462	1465	1465	1464	1456	1439	1457	1460	1458	1439	1432	1419	1406	0	0	0	0	0	0	0	0	0
0	0	0	0	0	0	0	0	0	0	0	0	0	0	0	0	0	0	0	0	0	0	0	0	0	0	0	0	0	0	0	0	0	0	0	0	0	0	0	0	0	0	0	0	0	0	0	0	0	0	0	0	0	0	0	0	0	0	0	0	0	0	0	0	0	0	1043	1179	1224	1273	1322	1332	1332	1343	1345	1329	1308	1296	1293	1303	1327	1333	1329	1324	1321	1328	1334	1330	1322	1321	1327	1316	1307	1302	1316	1330	1331	1336	1336	1344	1347	1349	1346	1336	1339	1339	1345	1340	1312	1298	1296	1302	1301	1303	1308	1321	1332	1333	1357	1381	1372	1389	1374	1351	1347	1349	1327	1311	1308	1311	1317	1341	1366	1380	1383	1382	1373	1378	1386	1386	1386	1405	1444	1476	1472	1493	1537	1582	1605	1615	1622	1633	1636	1647	1650	1656	1667	1666	1678	1697	1764	1775	1775	1716	1672	1683	1637	1574	1595	1610	1618	1627	1645	1667	1694	1767	1799	1815	1818	1796	1790	1824	1909	1987	2035	2051	2070	2081	2085	2214	2210	2095	1994	1966	1971	1997	2002	2014	2043	2115	2170	0	0	0	0	0	0	0	0	0	0	0	0	0	0	0	0	0	0	0	0	0	0	968	1083	1183	1268	1299	1268	1280	1302	1349	1378	1393	1371	1358	1355	1349	1353	1364	1381	1400	1404	1372	1376	1383	1384	1378	1384	1385	1427	1417	1395	1394	1393	1408	1410	1407	1418	1417	1427	1405	1398	1390	1405	1408	1414	1420	1414	1420	1407	1416	1425	1436	1430	1411	1405	1412	1431	1445	1421	1414	1429	1447	1447	1446	1444	1450	1450	1451	1450	1439	1439	1423	1429	1430	1450	1437	1448	1450	1452	1443	1467	1482	1468	1451	1467	1463	1458	1500	1652	1978	2437	2628	2693	2647	2616	2589	2548	2515	2484	2525	2544	2521	2531	2549	2563	2568	2548	2507	2544	2561	2591	2575	2559	2525	2488	2476	2475	2486	2524	2482	2396	2352	2352	2338	2328	2308	2277	2292	2313	2321	2342	2377	2379	2344	2162	2005	1831	1787	1781	1757	1731	1697	1673	1674	1670	1648	1640	1710	1791	1820	1845	1900	1903	1833	1859	1855	1853	1859	1873	1895	1904	1875	1709	1534	1500	1470	1471	1486	1504	1499	1495	1494	1484	1463	1433	1394	1379	1412	1427	1409	1417	1445	1462	1460	1429	1462	1466	1465	1464	1461	1457	1447	1438	1434	1434	1439	1457	1463	1464	1460	1459	1459	1459	1452	1437	1432	1433	1447	1462	1471	1468	1472	1474	1467	1443	1422	1389	1353	1331	1331	1341	1365	1372	1389	1525	1595	1682	1753	1785	1794	1787	1758	1720	1672	1607	1585	1576	1605	1650	1729	1795	1858	1875	1881	1872	1853	1833	1815	1861	1967	2036	2064	2101	2089	2085	2077	2052	2045	2055	2045	2021	2021	2024	2035	2008	1966	1886	1681	1650	1634	1624	1621	1629	1635	1627	1606	1573	1565	1580	1602	1603	1614	1613	1609	1614	1594	1564	1538	1520	1476	1438	1421	1414	1416	1424	1505	1680	1717	1817	1817	1819	1827	1830	1829	1820	1821	1823	1813	1792	1744	1747	1759	1790	1816	1830	1851	1865	1862	1853	1836	1813	1791	1775	1770	1772	1764	1736	1721	1719	1725	1737	1743	1736	1725	1711	1694	1689	1697	1692	1677	1660	1645	1634	1632	1629	1622	1613	1621	1633	1633	1628	1595	1597	1527	1477	1403	1354	1327	1311	1314	1343	1397	1443	1490	1477	1499	1472	1449	1462	1479	1490	1491	1487	1463	1450	1437	1434	1428	1422	1408	1404	1409	1424	1450	1470	1476	1479	1480	1474	1457	1457	1468	1468	1461	1452	1445	1440	1440	1447	1448	1448	1433	1429	1430	1417	1413	1409	1403	1397	0	0	0	0	0	0	0	0	0
0	0	0	0	0	0	0	0	0	0	0	0	0	0	0	0	0	0	0	0	0	0	0	0	0	0	0	0	0	0	0	0	0	0	0	0	0	0	0	0	0	0	0	0	0	0	0	0	0	0	0	0	0	0	0	0	0	0	0	0	0	0	0	0	0	0	0	1186	1227	1274	1316	1316	1324	1325	1332	1320	1308	1301	1304	1311	1315	1324	1321	1319	1321	1332	1334	1327	1321	1324	1327	1326	1317	1313	1315	1325	1332	1336	1334	1336	1335	1331	1325	1323	1333	1332	1320	1305	1289	1285	1296	1306	1320	1322	1312	1327	1339	1333	1350	1348	1344	1370	1354	1362	1350	1346	1327	1308	1311	1321	1334	1346	1364	1377	1386	1397	1409	1415	1417	1397	1396	1416	1450	1467	1462	1479	1535	1589	1621	1645	1660	1674	1676	1691	1698	1697	1686	1675	1682	1707	1726	1779	1783	1716	1676	1702	1668	1610	1625	1633	1637	1650	1666	1690	1711	1748	1767	1796	1802	1788	1793	1853	1937	2018	2071	2093	2114	2114	2119	2215	2217	2110	2045	2019	2037	2040	2033	2025	2042	2120	2206	2295	0	0	0	0	0	0	0	0	0	0	0	0	0	0	0	2561	2552	2489	2387	0	0	1033	1065	1171	1265	1297	1276	1288	1314	1351	1373	1386	1375	1360	1357	1357	1361	1368	1381	1375	1394	1359	1365	1371	1380	1385	1382	1386	1400	1405	1393	1395	1393	1406	1417	1412	1411	1411	1421	1404	1389	1392	1404	1407	1404	1422	1434	1415	1421	1420	1414	1414	1397	1394	1414	1411	1438	1424	1425	1426	1442	1445	1449	1447	1445	1444	1443	1442	1434	1435	1437	1423	1419	1422	1454	1438	1431	1442	1436	1443	1451	1433	1439	1441	1465	1473	1469	1490	1635	1970	2362	2471	2602	2553	2522	2500	2481	2449	2407	2391	2392	2390	2392	2392	2393	2406	2377	2329	2337	2385	2424	2426	2422	2402	2363	2359	2346	2357	2355	2314	2258	2252	2278	2305	2314	2314	2290	2275	2275	2294	2320	2333	2344	2341	2226	2018	1878	1822	1795	1765	1732	1690	1667	1658	1660	1657	1677	1757	1782	1781	1823	1874	1873	1800	1843	1845	1843	1850	1867	1879	1911	1922	1724	1540	1505	1483	1511	1513	1517	1499	1490	1481	1478	1456	1444	1405	1375	1410	1424	1390	1411	1438	1450	1451	1452	1469	1472	1469	1460	1455	1448	1442	1433	1427	1425	1430	1442	1457	1471	1476	1477	1472	1466	1455	1438	1434	1434	1439	1441	1437	1442	1451	1454	1451	1444	1431	1398	1366	1343	1337	1344	1356	1356	1373	1489	1569	1651	1723	1773	1796	1793	1763	1716	1657	1610	1598	1599	1619	1669	1737	1772	1803	1841	1857	1873	1864	1839	1815	1823	1930	1990	2003	2030	2042	2029	2025	2009	1989	1973	1951	1959	1976	1982	1995	1975	1939	1876	1702	1652	1631	1626	1631	1644	1640	1633	1621	1612	1568	1563	1585	1603	1622	1617	1622	1623	1616	1598	1570	1533	1482	1449	1439	1437	1438	1444	1505	1636	1718	1756	1779	1799	1812	1812	1799	1793	1785	1795	1785	1763	1739	1742	1748	1763	1807	1839	1849	1854	1840	1828	1830	1813	1787	1768	1756	1757	1754	1730	1719	1718	1724	1731	1733	1721	1699	1689	1670	1665	1654	1653	1648	1632	1620	1621	1620	1623	1616	1617	1599	1588	1586	1583	1584	1582	1555	1484	1381	1355	1308	1293	1296	1371	1391	1391	1412	1459	1498	1469	1451	1454	1462	1467	1475	1478	1468	1449	1434	1431	1434	1428	1417	1418	1422	1427	1454	1472	1482	1481	1477	1475	1464	1474	1481	1481	1478	1467	1456	1444	1434	1433	1440	1439	1420	1409	1399	1395	1398	1402	1401	1396	0	0	0	0	0	0	0	0	0
0	0	0	0	0	0	0	0	0	0	0	0	0	0	0	0	0	0	0	0	0	0	0	0	0	0	0	0	0	0	0	0	0	0	0	0	0	0	0	0	0	0	0	0	0	0	0	0	0	0	0	0	0	0	0	0	0	0	0	0	0	0	0	0	0	0	0	1200	1247	1283	1300	1300	1290	1307	1319	1314	1309	1310	1315	1319	1316	1315	1318	1320	1332	1340	1342	1330	1315	1326	1335	1335	1327	1318	1317	1318	1326	1334	1335	1329	1318	1310	1306	1313	1320	1326	1315	1291	1288	1301	1305	1321	1336	1345	1349	1346	1337	1330	1320	1336	1342	1352	1351	1348	1350	1346	1351	1314	1322	1341	1347	1353	1362	1371	1386	1406	1428	1436	1428	1413	1408	1418	1441	1438	1440	1463	1522	1584	1631	1661	1680	1689	1699	1714	1709	1707	1695	1684	1692	1700	1752	1772	1774	1708	1667	1688	1678	1637	1644	1655	1653	1671	1695	1722	1729	1729	1737	1755	1774	1780	1802	1856	1943	2025	2076	2096	2119	2124	2122	2217	2220	2136	2079	2053	2047	2043	2036	2029	2052	2141	2232	2329	2427	0	0	0	0	0	0	2536	2576	2646	0	0	0	2621	2616	2610	2586	2532	2461	2259	1596	1167	1049	1167	1259	1307	1309	1312	1332	1338	1348	1373	1388	1373	1370	1371	1370	1372	1367	1374	1384	1370	1378	1378	1379	1388	1395	1400	1400	1405	1411	1409	1389	1405	1407	1406	1406	1409	1423	1405	1398	1394	1412	1419	1417	1419	1436	1414	1422	1426	1422	1421	1425	1418	1400	1414	1418	1431	1434	1434	1438	1447	1447	1447	1443	1439	1435	1435	1435	1438	1437	1421	1418	1413	1410	1422	1432	1440	1442	1441	1416	1431	1431	1438	1460	1473	1468	1494	1631	1936	2113	2348	2382	2358	2358	2353	2356	2367	2339	2307	2295	2284	2285	2305	2317	2306	2272	2267	2271	2291	2300	2328	2347	2310	2258	2274	2272	2238	2209	2198	2209	2198	2199	2203	2198	2212	2226	2231	2240	2243	2237	2238	2262	2276	2246	2088	1948	1844	1803	1769	1746	1699	1669	1652	1668	1679	1720	1772	1795	1768	1803	1842	1837	1777	1836	1839	1843	1844	1869	1887	1911	1902	1714	1548	1512	1514	1525	1527	1510	1495	1479	1478	1482	1467	1449	1420	1399	1410	1411	1393	1418	1434	1441	1449	1467	1476	1475	1471	1464	1458	1458	1444	1436	1430	1426	1424	1433	1448	1469	1478	1479	1468	1461	1450	1439	1437	1441	1442	1446	1434	1423	1431	1437	1438	1436	1431	1397	1363	1344	1343	1351	1354	1347	1361	1469	1537	1613	1674	1728	1743	1745	1733	1711	1661	1623	1605	1611	1638	1701	1755	1787	1791	1803	1851	1854	1862	1830	1803	1800	1845	1948	1956	1951	1975	1988	1982	1970	1957	1948	1950	1948	1932	1921	1925	1944	1926	1876	1717	1663	1626	1617	1624	1632	1636	1626	1621	1614	1601	1572	1569	1601	1616	1611	1611	1611	1614	1605	1578	1537	1491	1464	1450	1448	1461	1466	1521	1624	1718	1747	1765	1782	1787	1781	1766	1762	1758	1758	1751	1738	1728	1739	1741	1745	1766	1772	1780	1790	1774	1787	1787	1803	1792	1764	1742	1727	1732	1724	1706	1705	1706	1716	1717	1706	1687	1665	1651	1639	1637	1621	1603	1584	1577	1586	1593	1597	1598	1598	1590	1583	1578	1573	1568	1574	1553	1481	1475	1371	1354	1347	1352	1378	1383	1394	1415	1429	1442	1480	1456	1447	1451	1456	1463	1466	1466	1449	1441	1436	1441	1443	1439	1429	1428	1427	1447	1471	1478	1477	1473	1474	1477	1484	1488	1488	1490	1475	1453	1438	1427	1427	1427	1424	1407	1394	1383	1384	1386	1394	1403	1399	0	0	0	0	0	0	0	0	0
0	0	0	0	0	0	0	0	0	0	0	0	0	0	0	0	0	0	0	0	0	0	0	0	0	0	0	0	0	0	0	0	0	0	0	0	0	0	0	0	0	0	0	0	0	0	0	0	0	0	0	0	0	0	0	0	0	0	0	0	0	0	0	0	0	0	0	1202	1273	1292	1288	1288	1288	1303	1309	1308	1313	1319	1322	1317	1313	1309	1314	1328	1339	1342	1336	1323	1307	1324	1340	1345	1345	1330	1316	1312	1322	1326	1329	1319	1313	1305	1306	1318	1328	1324	1309	1302	1310	1311	1322	1334	1349	1358	1357	1346	1336	1332	1354	1366	1342	1357	1363	1353	1334	1338	1352	1339	1343	1353	1344	1352	1350	1358	1385	1415	1439	1443	1439	1429	1421	1420	1432	1420	1419	1448	1508	1576	1626	1658	1682	1705	1725	1726	1719	1708	1699	1701	1711	1726	1746	1728	1715	1707	1667	1676	1676	1653	1654	1671	1676	1686	1719	1740	1741	1722	1729	1763	1776	1778	1796	1845	1924	2028	2073	2104	2114	2120	2124	2142	2214	2171	2097	2056	2033	2032	2031	2052	2080	2175	2274	2371	2445	2512	2543	2577	2588	2568	2586	2593	2610	2673	2712	2713	2685	2658	2663	2654	2615	2544	2480	2329	1634	1317	1056	1204	1264	1300	1320	1324	1333	1342	1336	1376	1381	1378	1376	1380	1372	1362	1364	1364	1371	1393	1396	1390	1387	1389	1396	1397	1395	1399	1411	1422	1424	1398	1397	1398	1409	1412	1432	1414	1411	1421	1418	1425	1427	1432	1431	1413	1416	1420	1441	1437	1451	1434	1430	1426	1446	1449	1452	1445	1442	1440	1445	1431	1424	1425	1403	1431	1416	1437	1432	1418	1426	1414	1417	1429	1444	1442	1436	1434	1395	1391	1422	1445	1459	1464	1463	1472	1636	1935	2035	2182	2238	2266	2242	2230	2196	2210	2223	2223	2217	2224	2225	2241	2247	2207	2205	2205	2215	2214	2217	2235	2232	2225	2197	2193	2186	2194	2170	2165	2165	2119	2111	2119	2147	2170	2188	2186	2203	2215	2205	2186	2170	2141	2164	2121	2070	1986	1879	1827	1783	1749	1710	1704	1709	1743	1759	1787	1815	1772	1796	1829	1822	1789	1822	1839	1848	1856	1869	1875	1884	1839	1700	1614	1541	1542	1539	1525	1503	1485	1479	1483	1474	1462	1452	1433	1418	1420	1413	1423	1439	1441	1446	1455	1489	1484	1481	1474	1469	1471	1475	1469	1449	1441	1430	1428	1435	1444	1454	1468	1477	1464	1456	1451	1449	1448	1447	1445	1440	1430	1419	1425	1429	1430	1425	1416	1404	1368	1346	1342	1348	1349	1333	1350	1451	1520	1596	1671	1721	1734	1735	1722	1702	1669	1630	1612	1619	1644	1705	1753	1781	1783	1782	1809	1823	1820	1799	1782	1793	1831	1872	1886	1912	1942	1949	1944	1927	1926	1935	1936	1933	1926	1913	1907	1903	1885	1858	1728	1679	1621	1597	1588	1586	1583	1581	1588	1595	1595	1583	1567	1561	1590	1585	1580	1581	1582	1569	1554	1530	1512	1489	1466	1466	1472	1481	1532	1602	1693	1743	1759	1768	1770	1763	1752	1741	1738	1745	1729	1715	1721	1727	1725	1734	1739	1749	1756	1764	1763	1756	1751	1746	1753	1755	1739	1727	1730	1683	1663	1633	1602	1597	1603	1618	1621	1622	1614	1603	1575	1570	1555	1545	1536	1546	1544	1549	1557	1568	1583	1588	1571	1563	1557	1560	1563	1537	1462	1444	1431	1420	1417	1432	1445	1440	1440	1434	1441	1466	1452	1445	1445	1451	1456	1461	1464	1456	1445	1443	1442	1442	1442	1436	1427	1424	1423	1436	1447	1449	1454	1459	1461	1471	1463	1463	1459	1451	1430	1425	1419	1418	1412	1405	1394	1386	1381	1377	1378	1383	1385	1397	0	0	0	0	0	0	0	0	0
0	0	0	0	0	0	0	0	0	0	0	0	0	0	0	0	0	0	0	0	0	0	0	0	0	0	0	0	0	0	0	0	0	0	0	0	0	0	0	0	0	0	0	0	0	0	0	0	0	0	0	0	0	0	0	0	0	0	0	0	0	0	0	0	0	0	0	1189	1280	1295	1289	1289	1304	1324	1310	1307	1311	1322	1328	1319	1308	1310	1323	1337	1340	1333	1322	1309	1308	1323	1340	1349	1346	1337	1317	1305	1303	1319	1321	1317	1313	1317	1324	1334	1338	1330	1316	1309	1308	1324	1333	1345	1352	1352	1348	1344	1338	1339	1356	1372	1339	1340	1373	1352	1343	1340	1347	1351	1350	1337	1339	1343	1351	1355	1369	1393	1415	1426	1430	1422	1418	1411	1415	1419	1419	1446	1500	1565	1621	1657	1686	1728	1747	1751	1729	1714	1705	1706	1718	1729	1748	1740	1730	1720	1691	1685	1674	1654	1641	1665	1688	1695	1716	1741	1742	1734	1750	1773	1787	1786	1793	1819	1901	2013	2061	2093	2110	2124	2134	2157	2202	2198	2117	2058	2022	2025	2047	2071	2142	2232	2313	2397	2465	2515	2543	2585	2590	2579	2593	2589	2627	2643	2643	2636	2640	2666	2684	2673	2616	2561	2485	2346	1676	1413	1072	1214	1259	1290	1311	1318	1332	1359	1389	1383	1376	1380	1378	1372	1368	1366	1358	1363	1363	1404	1408	1405	1395	1392	1397	1395	1397	1399	1411	1425	1433	1432	1407	1409	1414	1422	1440	1430	1432	1422	1422	1424	1428	1428	1427	1419	1422	1437	1452	1444	1429	1432	1432	1425	1431	1434	1434	1420	1423	1427	1416	1418	1415	1410	1405	1406	1417	1439	1424	1426	1424	1436	1434	1430	1438	1437	1430	1426	1384	1383	1430	1450	1453	1453	1440	1452	1618	1823	1999	2107	2163	2171	2170	2156	2144	2140	2145	2165	2177	2180	2178	2177	2134	2096	2098	2123	2173	2171	2187	2185	2186	2168	2147	2112	2102	2113	2124	2110	2073	2046	2025	2065	2099	2116	2087	2073	2108	2156	2174	2149	2101	2057	2037	2026	2031	2033	1992	1915	1878	1839	1801	1778	1763	1768	1776	1783	1823	1794	1817	1837	1835	1821	1835	1843	1855	1868	1877	1876	1889	1844	1714	1641	1591	1560	1545	1519	1488	1472	1466	1456	1454	1445	1453	1452	1424	1424	1421	1435	1464	1479	1473	1477	1491	1485	1482	1480	1480	1485	1492	1491	1470	1457	1439	1428	1435	1440	1452	1461	1465	1475	1475	1467	1467	1462	1446	1425	1412	1406	1412	1422	1431	1430	1414	1408	1409	1387	1362	1348	1350	1345	1311	1327	1446	1505	1601	1697	1734	1734	1720	1711	1691	1664	1633	1620	1629	1660	1711	1740	1752	1761	1762	1783	1796	1787	1791	1782	1788	1823	1851	1860	1869	1912	1921	1917	1909	1900	1913	1919	1916	1894	1887	1880	1870	1855	1840	1755	1677	1633	1590	1562	1559	1563	1581	1583	1587	1594	1589	1576	1549	1531	1534	1539	1545	1552	1543	1531	1522	1514	1498	1486	1482	1483	1493	1537	1589	1655	1733	1745	1740	1752	1740	1720	1705	1697	1704	1705	1692	1706	1704	1698	1695	1688	1699	1682	1697	1703	1696	1674	1656	1665	1672	1682	1680	1648	1635	1635	1610	1598	1600	1586	1573	1573	1574	1573	1557	1549	1549	1547	1546	1548	1556	1551	1543	1521	1519	1536	1543	1547	1564	1571	1577	1569	1554	1526	1480	1458	1441	1439	1442	1436	1433	1437	1446	1456	1465	1456	1451	1446	1451	1455	1456	1459	1451	1445	1439	1435	1428	1420	1411	1401	1400	1406	1421	1435	1438	1440	1439	1435	1427	1419	1419	1409	1420	1411	1411	1409	1403	1392	1380	1372	1373	1374	1375	1371	1368	1367	1358	0	0	0	0	0	0	0	0	0
0	0	0	0	0	0	0	0	0	0	0	0	0	0	0	0	0	0	0	0	0	0	0	0	0	0	0	0	0	0	0	0	0	0	0	0	0	0	0	0	0	0	0	0	0	0	0	0	0	0	0	0	0	0	0	0	0	0	0	0	0	0	0	0	0	0	0	1139	1241	1283	1296	1296	1325	1335	1305	1297	1306	1326	1334	1333	1322	1323	1329	1336	1337	1336	1324	1317	1317	1333	1346	1350	1347	1338	1316	1308	1305	1315	1316	1315	1317	1322	1333	1344	1343	1332	1318	1310	1316	1333	1343	1349	1348	1346	1339	1338	1332	1336	1344	1354	1333	1334	1336	1354	1352	1337	1333	1344	1332	1327	1334	1344	1358	1365	1368	1373	1390	1404	1410	1409	1412	1403	1405	1422	1437	1466	1527	1590	1647	1678	1705	1744	1749	1745	1734	1720	1705	1691	1703	1712	1750	1755	1747	1730	1728	1710	1677	1652	1633	1652	1677	1711	1713	1730	1736	1735	1753	1780	1784	1775	1768	1793	1876	1991	2053	2096	2116	2132	2150	2173	2210	2224	2144	2073	2016	2014	2043	2101	2167	2245	2308	2385	2468	2510	2531	2567	2568	2548	2544	2551	2576	2586	2591	2538	2496	2482	2524	2568	2584	2556	2489	2346	1660	1438	1100	1207	1245	1278	1291	1299	1321	1360	1369	1363	1374	1376	1377	1368	1371	1371	1360	1345	1378	1407	1417	1411	1398	1396	1405	1411	1414	1402	1402	1417	1422	1437	1432	1430	1424	1417	1404	1434	1434	1434	1415	1421	1426	1423	1432	1431	1433	1431	1440	1435	1427	1426	1430	1438	1434	1430	1430	1432	1427	1407	1417	1409	1412	1441	1432	1420	1432	1435	1424	1426	1418	1444	1440	1430	1430	1431	1440	1440	1402	1388	1432	1453	1449	1447	1435	1445	1562	1756	1949	2020	2076	2087	2095	2107	2100	2087	2100	2123	2131	2137	2108	2097	2082	2070	2070	2090	2118	2132	2147	2150	2136	2091	2088	2079	2063	2059	2057	2049	2035	2011	1998	2009	2011	1990	1993	2011	2045	2073	2091	2088	2038	1999	1990	1983	1988	2003	2010	2009	1986	1942	1919	1889	1844	1793	1789	1827	1820	1805	1841	1889	1873	1871	1869	1854	1858	1875	1887	1898	1909	1886	1736	1652	1592	1558	1548	1520	1500	1472	1449	1438	1430	1435	1466	1480	1450	1430	1420	1435	1469	1479	1486	1484	1491	1479	1477	1481	1494	1501	1500	1506	1491	1468	1448	1433	1427	1437	1448	1457	1465	1473	1482	1485	1476	1463	1446	1429	1415	1408	1415	1431	1438	1436	1423	1408	1415	1416	1389	1372	1360	1353	1312	1324	1451	1501	1599	1709	1717	1708	1700	1697	1681	1662	1636	1641	1656	1680	1710	1722	1730	1735	1750	1768	1778	1790	1780	1774	1765	1782	1805	1812	1820	1832	1878	1884	1879	1874	1867	1860	1854	1846	1847	1848	1846	1829	1809	1750	1698	1640	1579	1562	1565	1582	1590	1582	1588	1591	1585	1559	1541	1528	1526	1529	1534	1527	1518	1516	1509	1507	1501	1492	1491	1498	1505	1559	1598	1646	1694	1707	1708	1710	1711	1705	1700	1686	1656	1644	1643	1658	1653	1639	1648	1669	1679	1668	1655	1644	1637	1630	1618	1622	1634	1645	1648	1624	1603	1581	1582	1588	1586	1575	1560	1548	1546	1534	1528	1529	1533	1530	1533	1517	1535	1542	1533	1509	1490	1465	1472	1471	1482	1501	1509	1500	1485	1478	1476	1471	1461	1456	1450	1437	1430	1420	1422	1434	1441	1413	1412	1404	1410	1423	1441	1446	1436	1434	1427	1423	1417	1408	1399	1389	1384	1391	1405	1417	1426	1429	1425	1418	1407	1398	1400	1400	1395	1397	1397	1392	1380	1366	1356	1352	1359	1362	1365	1362	1358	1355	1339	0	0	0	0	0	0	0	0	0
0	0	0	0	0	0	0	0	0	0	0	0	0	0	0	0	0	0	0	0	0	0	0	0	0	0	0	0	0	0	0	0	0	0	0	0	0	0	0	0	0	0	0	0	0	0	0	0	0	0	0	0	0	0	0	0	0	0	0	0	0	0	0	0	0	0	0	1129	1218	1274	1308	1308	1334	1315	1279	1284	1300	1318	1334	1337	1334	1333	1333	1329	1327	1330	1334	1334	1337	1342	1347	1349	1344	1336	1328	1316	1308	1313	1317	1318	1321	1324	1336	1346	1344	1332	1315	1307	1314	1331	1346	1349	1349	1342	1334	1333	1319	1316	1316	1344	1324	1327	1330	1355	1365	1337	1322	1336	1305	1313	1326	1351	1371	1377	1371	1357	1356	1375	1397	1409	1414	1414	1416	1417	1435	1478	1537	1606	1659	1690	1715	1729	1737	1735	1733	1730	1720	1715	1717	1717	1739	1763	1760	1742	1735	1714	1675	1656	1640	1645	1656	1695	1702	1714	1716	1729	1728	1745	1766	1760	1751	1782	1865	2013	2068	2103	2126	2132	2151	2173	2221	2247	2201	2101	2028	2024	2042	2102	2155	2215	2269	2347	2425	2468	2487	2494	2493	2487	2482	2499	2540	2562	2544	2469	2416	2420	2422	2438	2486	2485	2446	2355	1685	1490	1164	1228	1295	1296	1286	1284	1297	1341	1360	1368	1384	1371	1371	1374	1374	1372	1368	1347	1375	1404	1414	1409	1403	1404	1407	1411	1413	1407	1400	1410	1424	1445	1441	1434	1425	1428	1405	1435	1428	1416	1418	1422	1423	1416	1426	1442	1441	1430	1424	1419	1429	1430	1432	1428	1431	1416	1413	1421	1411	1409	1411	1407	1431	1436	1430	1426	1436	1428	1415	1417	1426	1449	1454	1434	1429	1429	1429	1425	1412	1394	1432	1458	1449	1438	1440	1451	1521	1739	1947	2014	2032	2044	2043	2051	2054	2058	2062	2071	2083	2081	2045	2044	2046	2040	2056	2073	2081	2091	2077	2073	2021	2021	2046	2040	2037	2019	2013	2010	1995	1963	1964	1971	1971	1973	1969	1974	1988	1999	2009	2010	1994	1966	1967	1973	1981	1992	1990	1958	1935	1938	1932	1918	1896	1860	1840	1821	1808	1871	1882	1906	1911	1905	1887	1878	1872	1882	1897	1921	1938	1922	1761	1627	1563	1543	1537	1529	1514	1483	1448	1429	1429	1448	1493	1499	1459	1435	1402	1425	1460	1462	1473	1486	1482	1467	1464	1473	1492	1503	1509	1497	1477	1463	1455	1443	1425	1431	1443	1456	1469	1479	1478	1480	1477	1459	1445	1432	1419	1417	1425	1438	1445	1441	1431	1411	1423	1426	1427	1406	1387	1374	1332	1328	1434	1474	1632	1680	1678	1673	1675	1677	1672	1660	1654	1668	1677	1698	1710	1716	1716	1714	1729	1745	1762	1764	1761	1760	1756	1769	1804	1805	1803	1802	1828	1841	1833	1836	1825	1817	1815	1818	1821	1811	1792	1785	1779	1750	1691	1629	1587	1574	1573	1600	1609	1603	1582	1573	1558	1526	1529	1531	1533	1533	1536	1524	1516	1511	1503	1497	1487	1487	1495	1511	1526	1581	1629	1643	1645	1650	1651	1644	1636	1630	1630	1636	1638	1625	1624	1610	1607	1614	1628	1643	1644	1637	1621	1612	1605	1593	1590	1593	1606	1621	1620	1574	1548	1532	1529	1537	1558	1557	1550	1541	1522	1503	1496	1490	1488	1494	1494	1483	1478	1491	1490	1469	1456	1422	1422	1428	1439	1463	1480	1482	1473	1472	1470	1462	1449	1447	1448	1446	1441	1437	1433	1421	1398	1382	1373	1372	1385	1397	1417	1415	1413	1412	1412	1399	1395	1395	1381	1367	1359	1366	1382	1395	1406	1389	1390	1387	1377	1365	1367	1367	1373	1370	1371	1368	1357	1346	1338	1340	1346	1349	1347	1353	1348	1340	1304	0	0	0	0	0	0	0	0	0
0	0	0	0	0	0	0	0	0	0	0	0	0	0	0	0	0	0	0	0	0	0	0	0	0	0	0	0	0	0	0	0	0	0	0	0	0	0	0	0	0	0	0	0	0	0	0	0	0	0	0	0	0	0	0	0	0	0	0	0	0	0	0	0	0	0	0	1157	1221	1255	1312	1312	1323	1298	1280	1283	1294	1308	1327	1334	1339	1345	1341	1325	1321	1325	1340	1349	1344	1345	1337	1331	1336	1339	1336	1321	1311	1309	1314	1322	1325	1326	1330	1342	1339	1331	1319	1312	1314	1324	1345	1353	1347	1336	1332	1324	1316	1302	1315	1349	1330	1332	1332	1357	1374	1341	1319	1332	1298	1299	1319	1354	1377	1387	1369	1351	1347	1364	1395	1418	1435	1440	1441	1427	1434	1472	1538	1619	1676	1703	1718	1731	1736	1741	1743	1738	1741	1734	1731	1731	1729	1728	1718	1718	1725	1705	1664	1632	1636	1650	1655	1660	1681	1694	1710	1724	1734	1740	1749	1746	1741	1771	1851	2016	2077	2113	2126	2136	2149	2182	2230	2266	2235	2141	2044	2024	2038	2087	2122	2161	2219	2301	2364	2397	2431	2429	2396	2411	2416	2443	2467	2476	2415	2384	2376	2381	2381	2384	2377	2398	2364	2297	1663	1493	1256	1243	1305	1313	1299	1294	1304	1331	1361	1374	1391	1379	1378	1381	1378	1377	1371	1368	1366	1405	1411	1412	1406	1405	1407	1404	1404	1401	1398	1396	1412	1438	1439	1434	1426	1427	1428	1435	1437	1420	1422	1426	1423	1418	1433	1436	1430	1417	1416	1407	1415	1422	1423	1424	1424	1446	1449	1439	1425	1403	1421	1414	1422	1432	1425	1429	1435	1422	1405	1411	1414	1426	1443	1440	1435	1433	1428	1428	1415	1398	1429	1466	1456	1443	1432	1453	1554	1745	1831	2003	2029	2027	2001	1984	1994	2017	2027	2018	2000	1979	1978	1989	2001	2004	1999	1989	1972	1934	1882	1872	1889	1955	1965	1961	1971	1978	1969	1953	1944	1928	1922	1938	1950	1957	1958	1955	1939	1933	1930	1928	1946	1946	1934	1945	1964	1979	1976	1941	1917	1911	1893	1869	1860	1870	1882	1900	1892	1888	1899	1900	1901	1901	1891	1879	1882	1886	1901	1913	1939	1944	1850	1608	1543	1532	1538	1534	1520	1487	1459	1444	1438	1458	1493	1497	1472	1444	1404	1417	1449	1456	1473	1485	1472	1452	1453	1464	1484	1490	1480	1469	1454	1448	1445	1435	1425	1429	1443	1458	1470	1479	1480	1474	1460	1447	1438	1429	1423	1418	1422	1430	1437	1436	1426	1420	1430	1460	1455	1434	1421	1405	1362	1343	1420	1449	1615	1666	1656	1654	1656	1661	1662	1664	1666	1690	1701	1709	1714	1712	1703	1701	1707	1703	1713	1725	1737	1735	1751	1771	1789	1807	1752	1754	1784	1797	1799	1811	1800	1796	1792	1793	1786	1773	1756	1742	1727	1701	1678	1636	1587	1579	1579	1593	1601	1592	1573	1547	1517	1506	1511	1527	1529	1533	1530	1530	1517	1504	1481	1473	1465	1473	1502	1525	1548	1601	1629	1643	1642	1637	1621	1616	1611	1612	1609	1602	1599	1586	1579	1578	1584	1603	1616	1620	1603	1588	1600	1586	1574	1553	1550	1569	1579	1586	1581	1551	1531	1517	1507	1506	1521	1527	1522	1499	1483	1479	1468	1451	1450	1465	1469	1471	1474	1476	1471	1455	1442	1409	1396	1391	1396	1429	1470	1478	1478	1474	1469	1448	1435	1433	1430	1427	1414	1391	1386	1390	1373	1358	1353	1358	1369	1375	1387	1393	1386	1373	1368	1364	1366	1368	1362	1353	1349	1349	1355	1362	1367	1367	1367	1362	1353	1355	1358	1358	1349	1340	1331	1337	1336	1328	1329	1337	1342	1336	1323	1318	1316	1289	1285	0	0	0	0	0	0	0	0	0
0	0	0	0	0	0	0	0	0	0	0	0	0	0	0	0	0	0	0	0	0	0	0	0	0	0	0	0	0	0	0	0	0	0	0	0	0	0	0	0	0	0	0	0	0	0	0	0	0	0	0	0	0	0	0	0	0	0	0	0	0	0	0	0	0	0	0	1164	1216	1229	1302	1302	1303	1285	1281	1281	1291	1295	1306	1321	1335	1345	1338	1324	1309	1312	1332	1343	1340	1329	1310	1317	1328	1340	1336	1321	1313	1311	1314	1323	1328	1327	1330	1338	1337	1335	1328	1326	1323	1325	1337	1345	1341	1324	1313	1309	1307	1307	1328	1355	1338	1342	1361	1356	1373	1346	1330	1343	1322	1315	1327	1348	1372	1375	1366	1359	1356	1372	1404	1426	1443	1451	1449	1437	1436	1471	1537	1616	1678	1711	1721	1736	1734	1745	1751	1754	1750	1743	1738	1738	1717	1702	1701	1712	1715	1691	1665	1614	1622	1644	1653	1653	1688	1727	1763	1793	1798	1804	1779	1770	1759	1772	1842	2019	2078	2101	2117	2129	2143	2184	2228	2254	2217	2132	2091	2036	2047	2068	2093	2127	2215	2264	2299	2327	2374	2338	2322	2314	2329	2345	2355	2346	2332	2313	2305	2316	2317	2315	2299	2293	2268	2221	1776	1513	1364	1257	1317	1318	1300	1299	1325	1348	1369	1384	1393	1388	1387	1389	1388	1381	1377	1374	1362	1402	1409	1411	1411	1411	1409	1405	1401	1401	1397	1383	1405	1435	1437	1429	1426	1421	1426	1431	1437	1435	1431	1429	1427	1419	1436	1432	1423	1419	1409	1390	1398	1405	1418	1425	1422	1448	1452	1440	1431	1413	1414	1433	1426	1426	1426	1449	1431	1404	1427	1396	1416	1412	1441	1455	1448	1436	1434	1440	1422	1405	1438	1466	1456	1441	1427	1455	1576	1695	1842	1916	1954	1957	1941	1937	1947	1955	1952	1944	1942	1938	1936	1929	1910	1905	1914	1916	1913	1896	1872	1859	1855	1879	1895	1913	1932	1937	1934	1915	1908	1907	1908	1921	1926	1937	1935	1919	1903	1901	1906	1884	1860	1854	1877	1901	1909	1921	1901	1896	1907	1888	1857	1837	1834	1852	1866	1847	1825	1833	1852	1864	1870	1871	1865	1865	1849	1836	1845	1863	1896	1883	1814	1640	1563	1544	1548	1537	1519	1504	1479	1463	1447	1444	1459	1479	1486	1464	1434	1418	1430	1447	1455	1485	1468	1449	1446	1452	1461	1471	1464	1452	1441	1438	1437	1435	1426	1433	1444	1459	1467	1461	1462	1446	1438	1434	1425	1422	1415	1407	1405	1407	1421	1428	1421	1423	1462	1466	1462	1452	1441	1428	1402	1370	1409	1428	1585	1655	1662	1650	1649	1656	1660	1668	1673	1693	1703	1707	1704	1699	1695	1683	1661	1659	1685	1703	1713	1724	1736	1755	1754	1735	1713	1716	1732	1745	1750	1753	1743	1726	1717	1720	1727	1732	1714	1704	1680	1661	1646	1626	1596	1578	1574	1567	1569	1560	1546	1528	1498	1491	1496	1507	1515	1518	1511	1499	1488	1479	1472	1468	1461	1467	1496	1517	1533	1581	1605	1626	1626	1613	1603	1593	1591	1594	1587	1570	1562	1551	1556	1553	1561	1583	1592	1569	1557	1544	1536	1518	1520	1519	1513	1520	1525	1533	1543	1530	1517	1504	1500	1478	1472	1476	1466	1459	1438	1436	1427	1412	1404	1411	1426	1446	1458	1458	1449	1427	1410	1377	1369	1373	1376	1390	1417	1434	1421	1417	1418	1406	1401	1401	1397	1393	1385	1375	1372	1364	1351	1342	1342	1347	1355	1355	1350	1345	1351	1338	1345	1347	1344	1335	1334	1337	1341	1346	1342	1338	1349	1352	1354	1350	1346	1350	1349	1349	1344	1330	1321	1304	1298	1300	1317	1327	1326	1317	1305	1294	1281	1271	1273	0	0	0	0	0	0	0	0	0
0	0	0	0	0	0	0	0	0	0	0	0	0	0	0	0	0	0	0	0	0	0	0	0	0	0	0	0	0	0	0	0	0	0	0	0	0	0	0	0	0	0	0	0	0	0	0	0	0	0	0	0	0	0	0	0	0	0	0	0	0	0	0	0	0	0	0	1134	1159	1202	1220	1220	1276	1279	1281	1284	1284	1282	1299	1309	1322	1334	1329	1319	1306	1306	1323	1327	1320	1311	1304	1312	1324	1326	1324	1321	1316	1317	1314	1317	1320	1326	1329	1329	1330	1337	1341	1340	1337	1331	1326	1319	1316	1312	1310	1309	1313	1320	1333	1354	1339	1349	1371	1355	1367	1351	1343	1355	1348	1337	1342	1354	1365	1369	1364	1366	1367	1372	1393	1414	1430	1440	1446	1435	1445	1471	1525	1601	1671	1698	1712	1733	1734	1740	1750	1745	1738	1730	1732	1725	1711	1706	1706	1716	1715	1699	1671	1625	1611	1621	1644	1655	1692	1744	1774	1813	1822	1828	1840	1822	1800	1816	1866	1985	2062	2096	2104	2127	2135	2180	2206	2204	2183	2126	2093	2065	2057	2076	2129	2179	2211	2201	2189	2203	2249	2244	2242	2246	2258	2259	2284	2285	2270	2264	2252	2232	2231	2214	2198	2206	2200	2177	1951	1522	1401	1257	1318	1318	1307	1304	1336	1361	1364	1380	1386	1384	1385	1392	1398	1392	1385	1382	1383	1397	1405	1408	1412	1413	1408	1404	1411	1407	1399	1385	1387	1416	1435	1426	1424	1407	1414	1422	1437	1438	1437	1436	1435	1420	1423	1431	1421	1420	1402	1419	1417	1415	1420	1425	1431	1444	1439	1432	1433	1434	1416	1423	1434	1440	1448	1449	1455	1429	1407	1410	1410	1447	1473	1451	1456	1459	1458	1452	1437	1426	1448	1453	1449	1461	1436	1467	1589	1701	1832	1889	1922	1915	1903	1901	1907	1918	1910	1897	1915	1918	1921	1907	1891	1869	1867	1879	1896	1884	1870	1850	1845	1839	1841	1847	1863	1877	1881	1881	1886	1898	1899	1912	1903	1907	1896	1878	1866	1882	1886	1858	1830	1820	1806	1825	1842	1845	1847	1849	1852	1845	1833	1824	1811	1795	1778	1774	1769	1782	1793	1788	1786	1806	1831	1847	1843	1830	1828	1827	1834	1814	1735	1663	1587	1568	1555	1545	1524	1508	1495	1468	1428	1422	1434	1449	1485	1489	1447	1414	1421	1437	1450	1499	1475	1460	1460	1457	1456	1461	1456	1453	1446	1442	1436	1430	1425	1432	1450	1461	1465	1462	1443	1432	1423	1420	1422	1419	1412	1404	1398	1403	1409	1423	1429	1440	1460	1464	1454	1445	1445	1434	1440	1407	1409	1432	1561	1657	1662	1661	1660	1660	1656	1663	1663	1674	1680	1682	1680	1683	1680	1670	1658	1656	1672	1694	1711	1722	1729	1729	1712	1698	1701	1703	1703	1705	1710	1708	1698	1686	1675	1680	1681	1682	1666	1647	1630	1635	1631	1611	1584	1577	1562	1548	1515	1501	1486	1481	1467	1464	1485	1506	1512	1505	1485	1470	1459	1447	1453	1459	1459	1461	1477	1503	1537	1562	1577	1583	1594	1587	1581	1570	1563	1553	1552	1544	1537	1524	1521	1529	1539	1543	1545	1532	1523	1508	1497	1473	1477	1477	1474	1482	1484	1499	1509	1498	1491	1482	1473	1460	1457	1457	1452	1439	1422	1408	1394	1391	1382	1388	1399	1415	1422	1419	1413	1398	1386	1363	1353	1355	1355	1355	1349	1363	1378	1374	1375	1371	1376	1375	1377	1369	1364	1359	1347	1341	1332	1333	1334	1337	1341	1339	1327	1314	1319	1317	1324	1322	1330	1325	1325	1330	1328	1327	1325	1318	1318	1323	1332	1325	1317	1308	1325	1325	1326	1313	1288	1263	1258	1263	1278	1288	1284	1283	1281	1269	1265	1264	1255	0	0	0	0	0	0	0	0	0
0	0	0	0	0	0	0	0	0	0	0	0	0	0	0	0	0	0	0	0	0	0	0	0	0	0	0	0	0	0	0	0	0	0	0	0	0	0	0	0	0	0	0	0	0	0	0	0	0	0	0	0	2299	0	0	0	0	2320	0	0	0	2233	0	0	0	0	0	1126	1171	1203	1225	1225	1267	1277	1282	1283	1281	1281	1289	1304	1310	1320	1319	1314	1308	1301	1302	1306	1299	1298	1299	1305	1313	1315	1313	1316	1321	1324	1319	1313	1310	1316	1322	1321	1326	1335	1346	1349	1340	1327	1307	1291	1309	1316	1318	1314	1320	1331	1339	1363	1358	1370	1354	1346	1354	1357	1358	1374	1357	1350	1353	1359	1357	1365	1371	1380	1373	1360	1371	1386	1409	1421	1426	1418	1434	1476	1543	1607	1650	1671	1679	1707	1724	1731	1733	1728	1727	1719	1713	1703	1698	1729	1720	1726	1708	1708	1698	1663	1625	1608	1611	1631	1677	1719	1757	1803	1808	1819	1827	1830	1817	1836	1865	1953	2048	2086	2106	2113	2115	2125	2155	2177	2168	2133	2085	2077	2077	2103	2145	2176	2195	2172	2140	2129	2153	2154	2150	2142	2165	2178	2139	2112	2111	2137	2159	2159	2136	2116	2128	2164	2166	2131	2110	1535	1430	1248	1273	1312	1311	1310	1347	1364	1349	1357	1376	1388	1388	1397	1403	1398	1395	1393	1399	1389	1395	1400	1405	1405	1406	1403	1407	1404	1403	1405	1403	1404	1404	1404	1405	1406	1411	1423	1428	1437	1437	1437	1440	1440	1424	1431	1427	1418	1421	1424	1418	1419	1422	1418	1421	1421	1431	1423	1437	1437	1423	1421	1431	1437	1438	1452	1436	1438	1443	1449	1460	1466	1460	1458	1454	1448	1445	1444	1428	1439	1443	1436	1436	1461	1480	1465	1502	1668	1788	1857	1887	1880	1869	1867	1876	1881	1873	1865	1866	1876	1889	1892	1867	1854	1860	1864	1867	1867	1843	1823	1825	1823	1815	1803	1797	1801	1816	1828	1844	1862	1877	1888	1885	1866	1830	1807	1801	1796	1787	1805	1816	1804	1784	1774	1775	1775	1779	1772	1780	1784	1789	1787	1769	1768	1768	1755	1752	1755	1761	1775	1779	1793	1811	1826	1831	1818	1803	1798	1803	1780	1728	1673	1590	1577	1562	1544	1529	1514	1481	1446	1413	1390	1395	1419	1481	1508	1461	1417	1415	1440	1475	1489	1486	1468	1466	1465	1463	1464	1465	1462	1462	1453	1441	1429	1424	1428	1437	1441	1455	1445	1442	1423	1412	1421	1429	1422	1415	1406	1402	1402	1409	1430	1441	1438	1454	1464	1458	1447	1438	1437	1440	1409	1422	1478	1601	1648	1659	1664	1665	1661	1663	1666	1664	1662	1667	1663	1660	1654	1651	1651	1651	1653	1667	1678	1681	1677	1657	1649	1659	1676	1692	1697	1695	1694	1698	1693	1679	1662	1653	1650	1648	1638	1617	1613	1609	1591	1589	1588	1584	1579	1568	1542	1510	1496	1483	1472	1456	1455	1464	1486	1480	1461	1445	1436	1417	1413	1409	1418	1446	1455	1464	1468	1518	1535	1558	1547	1511	1504	1516	1517	1510	1510	1518	1523	1516	1510	1498	1489	1496	1501	1503	1486	1474	1455	1446	1450	1453	1454	1454	1453	1455	1467	1471	1454	1449	1435	1427	1433	1436	1434	1431	1422	1406	1392	1381	1372	1365	1369	1381	1398	1399	1398	1386	1376	1371	1357	1342	1334	1330	1317	1315	1313	1339	1350	1347	1345	1345	1344	1348	1339	1334	1324	1314	1314	1308	1309	1316	1317	1308	1299	1298	1300	1293	1286	1301	1307	1311	1307	1311	1310	1311	1316	1301	1303	1301	1302	1306	1309	1302	1293	1282	1282	1274	1272	1261	1254	1252	1259	1267	1270	1263	1250	1240	1239	1241	1240	1231	0	0	0	0	0	0	0	0	0
0	0	0	0	0	0	0	0	0	0	0	0	0	0	0	0	0	0	0	0	0	0	0	0	0	0	0	0	0	0	0	0	0	0	0	0	0	0	0	0	0	0	0	0	2250	2270	0	0	0	0	2340	2359	2366	2394	2394	2443	2461	2442	2413	2371	2351	2317	2273	2135	0	0	1431	1160	1200	1230	1241	1241	1262	1280	1285	1283	1286	1295	1301	1296	1301	1305	1312	1312	1307	1302	1291	1293	1295	1299	1303	1307	1308	1307	1306	1316	1324	1327	1321	1310	1311	1317	1313	1313	1318	1333	1346	1351	1341	1326	1303	1283	1301	1322	1326	1331	1334	1333	1346	1364	1363	1362	1360	1349	1356	1366	1370	1381	1356	1353	1355	1345	1345	1362	1370	1375	1366	1352	1353	1370	1390	1406	1413	1417	1443	1481	1557	1621	1649	1660	1666	1679	1707	1716	1724	1723	1711	1702	1693	1687	1695	1731	1727	1738	1702	1701	1703	1680	1635	1596	1600	1618	1652	1682	1721	1774	1777	1794	1817	1827	1826	1840	1880	1939	2038	2080	2103	2104	2100	2084	2101	2087	2073	2071	2064	2057	2059	2080	2110	2145	2164	2150	2129	2116	2105	2093	2082	2082	2066	2059	2034	2042	2053	2063	2064	2045	2025	2017	2066	2087	2091	2053	2058	1618	1522	1243	1266	1310	1317	1325	1356	1369	1349	1350	1380	1390	1393	1389	1400	1401	1395	1400	1407	1402	1394	1394	1400	1406	1403	1396	1389	1392	1398	1410	1407	1408	1390	1389	1397	1405	1414	1424	1427	1439	1438	1441	1433	1431	1413	1426	1429	1423	1419	1431	1417	1406	1425	1411	1420	1424	1419	1439	1443	1439	1421	1429	1425	1425	1428	1436	1431	1430	1432	1446	1447	1423	1444	1448	1440	1436	1434	1433	1437	1452	1457	1443	1425	1456	1477	1454	1495	1642	1720	1814	1833	1833	1836	1839	1846	1846	1843	1839	1838	1834	1838	1864	1863	1860	1852	1839	1826	1790	1775	1775	1773	1790	1791	1786	1781	1788	1794	1792	1800	1811	1814	1824	1831	1814	1800	1787	1777	1754	1765	1785	1798	1792	1773	1754	1754	1764	1763	1758	1748	1744	1740	1724	1708	1700	1725	1732	1712	1714	1727	1755	1761	1776	1783	1787	1784	1774	1767	1767	1769	1757	1723	1669	1633	1578	1561	1541	1525	1497	1465	1424	1389	1381	1403	1442	1472	1510	1478	1428	1416	1445	1478	1482	1472	1466	1468	1468	1469	1467	1472	1475	1474	1458	1444	1435	1434	1433	1436	1437	1439	1435	1432	1422	1421	1427	1434	1430	1420	1411	1402	1409	1422	1447	1457	1455	1459	1471	1470	1458	1448	1447	1443	1439	1431	1519	1596	1635	1648	1650	1655	1660	1663	1663	1666	1640	1627	1625	1633	1638	1637	1623	1625	1636	1647	1645	1634	1631	1627	1629	1636	1651	1652	1631	1630	1645	1670	1681	1669	1642	1623	1618	1594	1591	1571	1549	1560	1568	1571	1570	1580	1573	1561	1537	1502	1490	1481	1463	1451	1449	1446	1448	1447	1431	1412	1386	1370	1367	1379	1399	1418	1449	1459	1460	1478	1500	1497	1469	1435	1423	1425	1429	1434	1440	1470	1487	1491	1483	1472	1455	1446	1446	1442	1446	1440	1432	1422	1423	1427	1433	1436	1437	1441	1444	1425	1411	1406	1397	1389	1386	1397	1402	1400	1399	1392	1381	1370	1359	1347	1351	1359	1366	1384	1366	1357	1353	1345	1339	1325	1313	1306	1296	1288	1296	1314	1322	1324	1319	1314	1316	1316	1320	1312	1306	1303	1299	1284	1283	1286	1290	1281	1273	1270	1263	1257	1259	1264	1262	1255	1261	1266	1261	1258	1270	1281	1288	1287	1281	1285	1290	1286	1278	1264	1264	1257	1253	1245	1251	1256	1253	1262	1265	1260	1253	1244	1229	1223	1216	1221	0	0	0	0	0	0	0	0	0
0	0	0	0	0	0	0	0	0	0	0	0	0	0	0	0	0	0	0	0	0	0	0	0	0	0	0	0	0	0	0	0	0	0	0	0	0	0	0	0	0	2323	2306	2306	2305	2318	2336	2364	2384	2399	2414	2398	2392	2403	2403	2466	2499	2500	2440	2380	2365	2345	2315	2227	0	0	0	1258	1257	1259	1253	1253	1263	1292	1291	1284	1287	1296	1308	1308	1306	1308	1314	1321	1315	1305	1294	1295	1300	1299	1309	1308	1306	1304	1305	1311	1315	1311	1309	1305	1313	1317	1308	1306	1311	1330	1348	1356	1349	1335	1319	1297	1305	1328	1336	1339	1339	1342	1342	1357	1367	1366	1366	1355	1358	1368	1368	1373	1342	1320	1320	1324	1332	1346	1365	1371	1362	1354	1350	1370	1379	1393	1423	1430	1441	1458	1520	1613	1632	1653	1660	1674	1692	1704	1713	1714	1704	1695	1683	1683	1704	1727	1741	1744	1704	1710	1715	1668	1643	1615	1607	1619	1648	1673	1703	1745	1763	1777	1805	1823	1831	1848	1872	1939	2005	2066	2077	2069	2043	2012	2012	2004	2002	2011	2029	2033	2030	2027	2022	2029	2033	2034	2089	2069	2047	2031	2007	2007	1997	1998	1992	1999	2029	2036	2036	2016	1967	1963	1973	1997	1997	2010	2024	1604	1529	1287	1277	1299	1324	1339	1367	1374	1362	1360	1384	1393	1392	1386	1388	1394	1396	1403	1408	1405	1388	1388	1393	1401	1401	1393	1382	1383	1403	1416	1410	1407	1390	1388	1391	1397	1417	1420	1422	1420	1429	1427	1431	1422	1411	1415	1420	1420	1408	1411	1422	1414	1420	1425	1424	1426	1432	1436	1439	1445	1439	1424	1425	1433	1441	1449	1445	1441	1438	1440	1428	1433	1438	1427	1433	1434	1433	1432	1434	1450	1473	1450	1428	1451	1463	1447	1476	1529	1706	1775	1809	1790	1790	1808	1812	1805	1806	1807	1807	1799	1796	1811	1814	1806	1796	1773	1751	1724	1720	1717	1717	1739	1757	1776	1768	1762	1754	1750	1751	1749	1762	1783	1788	1780	1770	1748	1737	1736	1741	1760	1779	1778	1739	1741	1743	1738	1749	1741	1720	1705	1693	1684	1670	1667	1672	1671	1673	1660	1653	1646	1645	1656	1661	1680	1692	1708	1713	1724	1726	1725	1731	1702	1650	1569	1530	1494	1478	1513	1488	1460	1449	1450	1447	1454	1463	1495	1474	1428	1410	1439	1466	1471	1468	1453	1459	1473	1471	1464	1464	1473	1483	1471	1458	1454	1457	1460	1454	1449	1449	1453	1447	1438	1438	1441	1442	1435	1418	1422	1417	1425	1441	1463	1474	1473	1478	1487	1488	1481	1471	1463	1473	1464	1495	1561	1593	1606	1609	1614	1620	1623	1633	1637	1645	1610	1597	1603	1617	1621	1615	1602	1596	1590	1613	1617	1614	1613	1606	1605	1606	1615	1616	1590	1575	1578	1599	1548	1546	1543	1531	1529	1526	1523	1514	1500	1491	1512	1525	1538	1540	1542	1533	1506	1481	1475	1470	1456	1447	1432	1418	1410	1412	1404	1391	1369	1354	1352	1362	1387	1402	1419	1425	1429	1433	1445	1440	1426	1409	1402	1410	1418	1420	1417	1411	1410	1415	1411	1410	1410	1411	1409	1403	1402	1413	1410	1411	1408	1411	1414	1425	1428	1421	1407	1401	1396	1385	1374	1365	1347	1344	1345	1356	1357	1320	1328	1340	1351	1342	1336	1333	1330	1328	1314	1312	1326	1305	1300	1300	1295	1287	1278	1277	1281	1290	1299	1298	1292	1291	1295	1302	1302	1296	1284	1279	1273	1260	1258	1269	1278	1264	1248	1249	1244	1238	1236	1233	1233	1236	1242	1249	1248	1247	1254	1265	1269	1264	1260	1266	1269	1270	1260	1244	1244	1224	1221	1225	1241	1253	1252	1261	1260	1259	1252	1242	1223	1215	1207	1207	0	0	0	0	0	0	0	0	0
0	0	0	0	0	0	0	0	0	0	0	0	0	0	0	0	0	0	0	0	0	0	0	2360	2393	2416	2416	2408	2374	2333	2318	2325	2341	2359	2359	2372	2366	2368	2385	2399	2390	2373	2384	2384	2362	2371	2384	2404	2423	2446	2446	2437	2411	2403	2403	2437	2468	2458	2411	2369	2344	2328	2305	2230	0	0	1672	1330	1277	1272	1267	1267	1282	1302	1290	1287	1291	1311	1318	1315	1318	1321	1332	1335	1326	1314	1306	1306	1308	1308	1311	1309	1303	1304	1307	1311	1309	1298	1300	1303	1311	1315	1309	1303	1309	1326	1346	1353	1357	1352	1334	1316	1314	1332	1339	1343	1342	1342	1337	1358	1376	1375	1376	1357	1362	1356	1351	1357	1329	1308	1312	1318	1323	1340	1355	1362	1363	1356	1353	1361	1369	1381	1422	1428	1428	1448	1485	1566	1616	1632	1664	1678	1692	1699	1710	1727	1722	1706	1692	1689	1708	1715	1731	1738	1705	1719	1726	1675	1647	1626	1625	1615	1662	1683	1705	1738	1748	1767	1784	1805	1799	1795	1823	1908	1955	1977	1984	1959	1953	1947	1976	1971	1962	1960	1951	1949	1970	1980	1977	1976	1989	1963	1933	1907	1913	1917	1939	1938	1945	1967	1973	1978	2001	2015	1963	1954	1944	1935	1935	1945	1943	1956	1966	1653	1537	1358	1285	1292	1324	1354	1366	1376	1367	1382	1388	1387	1385	1386	1386	1391	1394	1397	1398	1398	1386	1383	1381	1393	1393	1383	1382	1386	1402	1414	1421	1409	1400	1395	1400	1404	1403	1410	1415	1419	1421	1434	1435	1418	1412	1417	1436	1417	1414	1418	1441	1435	1445	1409	1406	1436	1440	1440	1437	1446	1433	1427	1414	1424	1427	1444	1428	1425	1426	1429	1425	1427	1432	1423	1428	1430	1432	1438	1447	1442	1457	1447	1436	1449	1455	1451	1482	1529	1601	1679	1724	1728	1723	1746	1748	1738	1729	1718	1713	1715	1723	1712	1721	1712	1704	1705	1708	1705	1697	1698	1709	1726	1731	1724	1694	1685	1712	1709	1693	1697	1711	1750	1755	1737	1704	1710	1698	1696	1707	1723	1735	1704	1683	1687	1687	1684	1687	1686	1678	1682	1674	1661	1646	1638	1644	1655	1654	1643	1622	1597	1602	1609	1614	1632	1648	1660	1670	1696	1694	1676	1667	1666	1627	1570	1552	1548	1525	1551	1578	1558	1540	1533	1488	1468	1467	1469	1452	1415	1403	1420	1433	1462	1469	1461	1465	1475	1473	1459	1456	1468	1489	1485	1478	1479	1484	1484	1476	1461	1461	1457	1461	1456	1459	1455	1449	1443	1430	1435	1444	1452	1470	1486	1494	1491	1489	1494	1500	1492	1491	1493	1499	1521	1552	1575	1587	1592	1585	1583	1585	1589	1604	1617	1624	1594	1583	1586	1588	1594	1591	1578	1571	1574	1571	1571	1566	1582	1579	1571	1570	1576	1499	1506	1502	1509	1506	1502	1494	1474	1455	1455	1450	1463	1477	1482	1460	1446	1452	1466	1477	1474	1454	1434	1431	1425	1421	1424	1429	1421	1388	1376	1371	1375	1375	1368	1364	1358	1361	1373	1381	1395	1409	1410	1400	1406	1400	1397	1391	1393	1397	1408	1406	1399	1384	1376	1365	1354	1356	1375	1380	1383	1384	1366	1358	1363	1378	1384	1384	1381	1380	1377	1372	1372	1376	1373	1369	1369	1355	1342	1324	1312	1303	1289	1293	1308	1323	1335	1338	1317	1308	1299	1292	1285	1275	1270	1270	1270	1272	1270	1261	1255	1259	1266	1265	1265	1274	1275	1278	1281	1281	1277	1273	1258	1251	1247	1253	1253	1260	1256	1246	1238	1236	1234	1230	1226	1219	1217	1223	1230	1234	1232	1242	1249	1246	1241	1235	1237	1239	1243	1241	1235	1223	1223	1209	1200	1211	1213	1227	1240	1253	1253	1247	1242	1228	1218	1212	1201	1196	0	0	0	0	0	0	0	0	0
0	0	0	0	0	0	0	0	0	0	0	0	0	0	0	0	0	0	2332	2332	2328	2329	2342	2360	2380	2378	2378	2369	2344	2336	2335	2340	2352	2361	2361	2386	2396	2393	2374	2377	2372	2381	2397	2397	2402	2411	2416	2435	2454	2471	2462	2449	2411	2384	2384	2373	2367	2361	2365	2340	2315	2291	2278	2223	2022	1826	1691	1407	1284	1267	1284	1284	1303	1313	1297	1295	1307	1322	1326	1322	1325	1335	1347	1348	1339	1321	1311	1315	1316	1311	1307	1304	1305	1305	1319	1320	1314	1309	1307	1307	1310	1312	1304	1298	1302	1321	1339	1353	1355	1349	1336	1321	1323	1339	1347	1342	1341	1337	1334	1354	1381	1375	1372	1352	1354	1345	1336	1345	1329	1308	1315	1324	1326	1338	1349	1355	1350	1345	1334	1345	1354	1368	1409	1408	1409	1430	1482	1537	1615	1648	1674	1684	1700	1703	1717	1733	1747	1736	1718	1699	1726	1706	1705	1705	1700	1724	1742	1735	1658	1626	1615	1611	1656	1700	1724	1744	1758	1763	1768	1763	1752	1784	1849	1894	1924	1927	1911	1900	1893	1896	1954	1952	1943	1917	1899	1901	1918	1930	1928	1933	1941	1927	1910	1901	1894	1887	1879	1872	1860	1858	1877	1955	1959	1937	1927	1923	1917	1914	1915	1920	1908	1906	1907	1707	1522	1436	1310	1297	1332	1356	1358	1371	1383	1396	1389	1383	1383	1386	1394	1406	1402	1398	1396	1392	1387	1383	1383	1381	1386	1384	1386	1398	1412	1423	1425	1418	1406	1405	1410	1421	1403	1403	1405	1414	1416	1424	1430	1429	1407	1414	1419	1433	1427	1426	1441	1451	1436	1438	1440	1445	1439	1427	1439	1434	1425	1407	1404	1417	1432	1434	1426	1425	1421	1417	1419	1422	1427	1425	1426	1431	1449	1457	1459	1453	1453	1450	1450	1450	1441	1456	1497	1535	1582	1639	1655	1661	1670	1679	1676	1674	1673	1677	1688	1694	1693	1677	1691	1686	1683	1678	1682	1673	1677	1697	1714	1726	1716	1695	1679	1671	1680	1694	1686	1679	1673	1669	1657	1634	1610	1604	1616	1636	1649	1650	1649	1598	1589	1603	1633	1639	1643	1644	1646	1650	1648	1634	1625	1607	1604	1613	1618	1611	1598	1583	1580	1573	1575	1590	1599	1622	1637	1643	1596	1574	1575	1570	1576	1578	1589	1608	1610	1600	1581	1547	1509	1490	1457	1442	1444	1422	1413	1406	1401	1414	1446	1474	1480	1473	1479	1480	1472	1459	1459	1467	1488	1492	1497	1500	1500	1496	1483	1472	1471	1471	1467	1465	1471	1467	1456	1452	1465	1481	1486	1491	1494	1501	1494	1494	1494	1495	1495	1499	1508	1515	1522	1538	1558	1569	1573	1571	1561	1554	1558	1564	1585	1602	1595	1580	1572	1561	1555	1561	1558	1553	1548	1551	1549	1532	1523	1532	1531	1532	1522	1497	1492	1485	1476	1481	1473	1468	1449	1449	1441	1440	1436	1445	1458	1451	1439	1417	1417	1434	1451	1449	1435	1423	1410	1416	1418	1421	1412	1395	1366	1363	1361	1367	1373	1372	1370	1360	1355	1358	1370	1378	1389	1386	1382	1383	1387	1378	1377	1382	1382	1380	1370	1364	1358	1361	1353	1344	1337	1336	1341	1351	1351	1347	1347	1353	1349	1349	1341	1331	1327	1324	1332	1327	1324	1350	1355	1352	1347	1336	1319	1298	1278	1270	1283	1301	1323	1327	1316	1304	1295	1282	1272	1266	1265	1265	1258	1251	1247	1244	1237	1235	1235	1238	1237	1246	1257	1261	1254	1242	1249	1249	1243	1236	1232	1229	1234	1238	1238	1232	1231	1225	1223	1225	1227	1223	1212	1205	1204	1186	1201	1217	1230	1230	1222	1217	1206	1213	1217	1224	1225	1220	1215	1215	1208	1192	1197	1200	1206	1227	1238	1238	1233	1230	1211	1199	1199	1193	1185	0	0	0	0	0	0	0	0	0
0	0	0	0	0	0	0	0	0	0	2256	2249	2258	2258	2276	2306	2334	2345	2343	2343	2333	2332	2333	2345	2348	2337	2337	2318	2307	2320	2326	2341	2358	2372	2372	2395	2406	2393	2377	2372	2350	2338	2366	2366	2390	2412	2424	2425	2435	2433	2420	2398	2376	2365	2365	2354	2344	2337	2334	2329	2276	2255	2244	2211	2047	1832	1698	1492	1305	1273	1297	1297	1321	1325	1313	1308	1313	1312	1319	1325	1324	1336	1350	1352	1339	1323	1312	1318	1320	1313	1302	1299	1309	1323	1332	1335	1328	1315	1312	1313	1311	1305	1300	1294	1297	1315	1331	1342	1342	1334	1324	1321	1322	1331	1338	1336	1337	1333	1334	1342	1369	1367	1366	1349	1348	1343	1336	1343	1341	1313	1317	1325	1330	1334	1338	1334	1325	1327	1334	1347	1363	1374	1402	1406	1419	1426	1469	1542	1633	1668	1699	1724	1714	1704	1707	1731	1750	1748	1730	1721	1731	1690	1686	1682	1697	1728	1754	1742	1649	1610	1606	1591	1634	1692	1747	1767	1776	1795	1800	1803	1823	1841	1853	1871	1884	1893	1890	1888	1876	1870	1905	1921	1916	1890	1869	1876	1892	1910	1915	1908	1881	1880	1880	1884	1885	1873	1849	1849	1847	1852	1856	1861	1867	1867	1859	1874	1887	1893	1896	1893	1887	1868	1850	1712	1566	1489	1331	1314	1345	1359	1349	1369	1378	1390	1370	1378	1384	1399	1408	1405	1401	1402	1398	1389	1382	1380	1382	1384	1388	1394	1397	1413	1428	1436	1439	1427	1415	1412	1422	1423	1410	1401	1407	1411	1420	1413	1414	1404	1402	1403	1417	1414	1417	1419	1433	1429	1416	1418	1432	1442	1434	1427	1438	1424	1406	1401	1411	1437	1446	1448	1441	1437	1432	1427	1421	1420	1429	1427	1431	1451	1451	1456	1456	1447	1453	1455	1465	1447	1439	1454	1505	1533	1584	1635	1648	1653	1651	1658	1671	1677	1675	1676	1687	1687	1672	1667	1666	1663	1658	1655	1651	1646	1635	1637	1685	1697	1685	1668	1664	1656	1630	1628	1608	1610	1624	1643	1644	1628	1602	1593	1596	1597	1600	1593	1573	1524	1515	1516	1521	1522	1524	1515	1519	1521	1561	1566	1568	1576	1578	1587	1594	1592	1575	1564	1547	1541	1540	1546	1571	1583	1584	1561	1543	1547	1542	1540	1531	1533	1540	1568	1567	1564	1554	1524	1494	1447	1452	1466	1460	1437	1415	1398	1422	1468	1468	1487	1493	1484	1483	1480	1479	1459	1456	1452	1469	1492	1505	1508	1505	1490	1482	1478	1488	1489	1486	1478	1473	1469	1465	1464	1474	1485	1489	1496	1503	1500	1484	1489	1492	1486	1498	1514	1521	1519	1517	1515	1530	1550	1553	1547	1522	1521	1525	1536	1544	1528	1507	1542	1532	1527	1505	1494	1467	1460	1492	1507	1473	1488	1488	1472	1486	1507	1509	1485	1462	1458	1444	1438	1429	1418	1414	1421	1424	1419	1418	1407	1386	1395	1412	1404	1403	1417	1429	1430	1423	1407	1400	1403	1405	1407	1396	1384	1357	1355	1356	1367	1368	1369	1364	1351	1349	1351	1349	1359	1363	1364	1349	1349	1356	1357	1352	1341	1337	1338	1349	1350	1352	1353	1342	1331	1317	1309	1299	1304	1311	1328	1333	1333	1324	1318	1305	1306	1308	1308	1314	1315	1315	1321	1328	1337	1335	1327	1310	1286	1268	1261	1276	1307	1313	1306	1297	1284	1263	1227	1213	1208	1209	1220	1223	1217	1214	1219	1210	1207	1208	1208	1202	1208	1224	1230	1228	1219	1218	1216	1214	1215	1220	1226	1228	1218	1209	1220	1217	1214	1214	1217	1224	1225	1212	1198	1176	1168	1177	1194	1205	1209	1211	1200	1181	1175	1184	1192	1198	1198	1195	1195	1198	1185	1180	1181	1188	1197	1201	1192	1191	1195	1184	1178	1179	1175	1178	0	0	0	0	0	0	0	0	0
0	0	0	0	0	0	0	0	2296	2278	2257	2246	2228	2228	2217	2271	2303	2329	2335	2335	2325	2303	2293	2306	2308	2305	2305	2292	2283	2300	2320	2326	2314	2337	2337	2361	2372	2371	2367	2351	2323	2297	2294	2294	2333	2373	2388	2395	2374	2319	2285	2262	2255	2302	2302	2332	2336	2330	2312	2288	2233	2216	2212	2190	2096	1840	1704	1543	1366	1344	1321	1321	1319	1326	1326	1312	1307	1303	1306	1312	1319	1335	1348	1347	1329	1323	1320	1324	1326	1317	1306	1309	1319	1331	1338	1335	1330	1322	1324	1320	1314	1308	1301	1303	1309	1316	1326	1332	1328	1315	1315	1315	1323	1327	1328	1323	1325	1335	1337	1325	1337	1363	1364	1358	1361	1356	1347	1334	1336	1328	1320	1317	1339	1345	1335	1325	1316	1318	1328	1376	1388	1399	1416	1418	1430	1433	1451	1552	1628	1693	1739	1740	1731	1720	1703	1727	1745	1755	1743	1732	1733	1691	1683	1678	1707	1738	1750	1743	1647	1607	1595	1597	1611	1713	1764	1785	1817	1830	1845	1841	1836	1834	1830	1836	1848	1862	1866	1864	1860	1849	1848	1875	1865	1860	1843	1845	1863	1877	1856	1835	1834	1827	1835	1849	1860	1865	1839	1831	1828	1822	1809	1806	1819	1829	1816	1812	1806	1807	1821	1873	1860	1827	1799	1744	1586	1524	1362	1335	1354	1358	1357	1378	1394	1385	1372	1375	1382	1394	1398	1401	1399	1397	1401	1397	1369	1372	1382	1390	1394	1390	1398	1420	1434	1443	1442	1438	1425	1418	1413	1421	1420	1402	1405	1416	1424	1415	1402	1382	1391	1399	1405	1411	1417	1420	1422	1416	1403	1397	1408	1428	1441	1440	1428	1424	1417	1415	1422	1433	1445	1452	1449	1446	1443	1435	1427	1427	1432	1433	1438	1447	1445	1441	1442	1434	1449	1462	1475	1449	1442	1462	1508	1530	1564	1612	1638	1652	1658	1662	1667	1673	1676	1675	1680	1672	1638	1614	1603	1605	1605	1597	1592	1594	1589	1581	1588	1631	1626	1616	1609	1607	1596	1591	1573	1555	1574	1590	1596	1592	1582	1581	1572	1561	1547	1530	1503	1476	1472	1470	1463	1455	1459	1461	1459	1456	1471	1515	1538	1549	1551	1552	1555	1541	1528	1514	1521	1524	1519	1507	1488	1463	1466	1485	1500	1505	1509	1505	1505	1512	1516	1520	1512	1507	1507	1505	1497	1484	1500	1494	1472	1453	1442	1441	1484	1484	1479	1489	1497	1492	1484	1480	1475	1464	1449	1446	1452	1478	1489	1482	1485	1480	1489	1493	1503	1501	1495	1485	1475	1473	1475	1473	1472	1470	1471	1475	1471	1460	1429	1443	1461	1481	1502	1509	1501	1488	1482	1474	1476	1487	1498	1513	1525	1530	1528	1518	1504	1481	1475	1469	1477	1472	1463	1448	1422	1420	1422	1429	1446	1466	1461	1445	1441	1429	1422	1429	1427	1422	1407	1395	1381	1373	1365	1369	1379	1379	1352	1344	1338	1371	1380	1349	1347	1351	1403	1412	1409	1381	1369	1365	1377	1386	1385	1373	1350	1339	1341	1356	1361	1357	1349	1325	1328	1331	1330	1327	1339	1340	1327	1325	1307	1318	1319	1318	1312	1316	1332	1338	1337	1335	1325	1318	1299	1288	1261	1259	1271	1289	1301	1306	1303	1291	1283	1278	1276	1277	1287	1302	1296	1291	1297	1302	1293	1290	1281	1267	1253	1253	1268	1275	1283	1274	1253	1228	1203	1193	1194	1199	1201	1204	1203	1198	1190	1183	1182	1176	1180	1182	1183	1186	1192	1203	1214	1215	1204	1189	1189	1197	1200	1207	1213	1212	1191	1182	1181	1177	1178	1187	1197	1197	1185	1173	1161	1160	1163	1175	1184	1192	1191	1185	1169	1169	1169	1175	1172	1173	1163	1163	1156	1156	1157	1164	1170	1175	1175	1176	1178	1173	1165	1152	1143	1150	1154	0	0	0	0	0	0	0	0	0
0	0	0	0	2178	2224	2269	2269	2280	2256	2234	2224	2194	2194	2180	2215	2266	2311	2316	2316	2294	2266	2266	2268	2276	2286	2286	2276	2265	2263	2262	2272	2268	2271	2271	2296	2318	2316	2318	2322	2287	2240	2221	2221	2234	2319	2339	2330	2275	2258	2225	2225	2209	2218	2218	2240	2273	2273	2235	2196	2171	2176	2179	2151	2094	1841	1679	1575	1403	1360	1328	1328	1311	1316	1314	1306	1296	1295	1298	1309	1319	1333	1343	1341	1330	1325	1323	1325	1326	1323	1320	1322	1322	1325	1324	1324	1317	1316	1319	1319	1321	1322	1321	1321	1315	1317	1328	1330	1330	1317	1313	1314	1324	1328	1328	1331	1329	1335	1338	1315	1316	1336	1339	1367	1381	1384	1354	1337	1323	1329	1325	1318	1336	1344	1337	1325	1327	1329	1340	1389	1404	1417	1423	1422	1423	1435	1464	1557	1642	1705	1736	1740	1731	1719	1711	1717	1728	1741	1738	1727	1735	1714	1709	1695	1717	1731	1743	1740	1745	1642	1596	1601	1665	1733	1760	1786	1818	1838	1841	1829	1816	1802	1801	1802	1817	1832	1841	1827	1814	1807	1807	1832	1827	1815	1803	1794	1783	1764	1751	1760	1761	1780	1760	1758	1785	1810	1797	1775	1755	1742	1744	1759	1771	1766	1731	1722	1735	1751	1758	1752	1753	1741	1770	1691	1583	1543	1390	1349	1357	1353	1367	1396	1402	1386	1378	1383	1392	1392	1393	1385	1392	1393	1391	1379	1376	1376	1384	1391	1393	1393	1405	1421	1430	1437	1442	1436	1424	1411	1412	1420	1414	1401	1405	1408	1414	1405	1416	1393	1398	1402	1409	1410	1408	1410	1416	1419	1419	1407	1416	1430	1438	1441	1429	1420	1412	1409	1417	1425	1440	1446	1451	1450	1448	1441	1438	1436	1442	1448	1440	1431	1435	1431	1427	1416	1428	1465	1471	1437	1436	1463	1490	1524	1555	1588	1616	1632	1616	1613	1614	1607	1598	1597	1582	1578	1590	1596	1594	1585	1571	1567	1545	1540	1526	1542	1553	1565	1568	1566	1558	1548	1534	1519	1512	1509	1527	1537	1539	1532	1529	1527	1521	1503	1481	1465	1464	1463	1448	1445	1445	1449	1461	1465	1461	1453	1444	1438	1451	1475	1500	1519	1517	1501	1498	1506	1502	1497	1488	1477	1458	1440	1449	1469	1490	1486	1488	1483	1488	1492	1487	1486	1489	1501	1506	1506	1498	1501	1511	1499	1483	1465	1453	1460	1469	1465	1460	1465	1466	1466	1463	1451	1449	1446	1438	1435	1435	1460	1468	1469	1470	1471	1483	1491	1500	1501	1496	1480	1461	1452	1460	1468	1473	1474	1469	1456	1443	1432	1429	1437	1451	1457	1465	1438	1452	1467	1463	1454	1450	1445	1453	1468	1479	1473	1472	1466	1456	1441	1455	1463	1405	1407	1411	1411	1411	1392	1387	1389	1409	1427	1426	1425	1414	1392	1390	1388	1382	1368	1338	1327	1313	1307	1313	1329	1338	1342	1335	1317	1319	1322	1319	1324	1311	1316	1335	1340	1337	1319	1306	1302	1315	1347	1366	1369	1312	1286	1284	1295	1297	1303	1309	1303	1313	1319	1320	1309	1299	1311	1300	1277	1288	1296	1300	1288	1286	1290	1293	1298	1303	1307	1295	1290	1282	1263	1252	1242	1252	1264	1272	1270	1267	1261	1257	1254	1248	1249	1255	1256	1263	1267	1270	1270	1265	1268	1263	1264	1254	1238	1227	1225	1233	1228	1218	1210	1199	1193	1190	1189	1192	1190	1189	1181	1177	1169	1155	1156	1161	1166	1168	1171	1171	1173	1185	1197	1181	1156	1153	1148	1159	1180	1188	1182	1172	1164	1163	1162	1169	1176	1158	1136	1138	1144	1147	1151	1154	1162	1166	1168	1168	1167	1166	1162	1161	1161	1158	1152	1142	1142	1141	1142	1145	1148	1148	1152	1160	1165	1162	1145	1137	1127	1129	1134	1139	0	0	0	0	0	0	0	0	0
2140	2140	2119	2099	2121	2157	2189	2189	2200	2205	2199	2193	2175	2175	2176	2180	2226	2271	2280	2280	2272	2252	2242	2250	2262	2252	2252	2240	2213	2179	2192	2204	2227	2207	2207	2221	2232	2221	2247	2256	2237	2177	2167	2167	2179	2201	2224	2216	2175	2193	2195	2168	2157	2163	2163	2187	2180	2190	2177	2161	2147	2146	2136	2093	2032	1870	1676	1595	1435	1357	1334	1334	1303	1295	1295	1294	1293	1295	1294	1314	1327	1336	1339	1334	1328	1328	1329	1325	1322	1324	1326	1326	1323	1317	1313	1312	1310	1313	1313	1319	1325	1331	1332	1329	1319	1315	1325	1335	1335	1330	1318	1319	1323	1330	1330	1333	1340	1349	1348	1309	1308	1312	1319	1355	1379	1399	1366	1332	1316	1324	1323	1320	1331	1335	1338	1343	1344	1347	1365	1393	1406	1412	1408	1409	1412	1423	1444	1540	1636	1705	1728	1732	1724	1714	1707	1711	1715	1717	1711	1710	1720	1745	1744	1735	1735	1748	1742	1742	1754	1747	1739	1732	1734	1745	1768	1767	1776	1792	1793	1780	1764	1749	1756	1762	1752	1748	1744	1751	1754	1750	1766	1777	1766	1748	1734	1729	1699	1690	1685	1701	1693	1670	1675	1683	1694	1701	1723	1715	1700	1686	1678	1672	1681	1688	1682	1679	1692	1679	1647	1655	1680	1680	1701	1649	1507	1506	1418	1353	1347	1349	1363	1394	1408	1394	1398	1400	1401	1394	1386	1381	1380	1385	1386	1386	1389	1390	1389	1379	1382	1383	1399	1401	1409	1428	1433	1429	1421	1407	1407	1412	1418	1408	1395	1396	1395	1405	1408	1412	1412	1414	1418	1416	1417	1420	1424	1428	1432	1406	1407	1427	1451	1449	1408	1400	1392	1394	1414	1421	1426	1429	1431	1434	1440	1444	1442	1443	1448	1448	1442	1432	1426	1424	1421	1424	1415	1455	1466	1434	1421	1450	1481	1491	1508	1538	1568	1591	1585	1563	1569	1569	1566	1563	1559	1545	1544	1567	1575	1564	1543	1519	1503	1478	1479	1489	1502	1512	1516	1516	1512	1507	1494	1477	1490	1503	1512	1513	1512	1507	1505	1499	1486	1461	1447	1438	1442	1443	1440	1430	1430	1441	1447	1452	1448	1425	1400	1390	1391	1415	1437	1451	1454	1446	1454	1465	1460	1463	1461	1465	1466	1458	1446	1449	1455	1447	1448	1443	1447	1444	1442	1441	1453	1461	1472	1483	1474	1470	1462	1464	1472	1461	1440	1429	1426	1422	1424	1433	1435	1440	1435	1440	1436	1438	1438	1433	1439	1448	1450	1438	1436	1446	1464	1482	1489	1490	1486	1447	1431	1431	1431	1443	1442	1433	1423	1412	1404	1410	1416	1409	1403	1402	1408	1415	1428	1448	1455	1446	1440	1433	1441	1454	1460	1454	1435	1409	1383	1336	1344	1347	1345	1329	1313	1360	1372	1383	1380	1386	1395	1392	1387	1371	1376	1367	1383	1348	1335	1316	1291	1284	1277	1286	1298	1314	1320	1311	1295	1274	1277	1289	1292	1302	1300	1299	1301	1312	1308	1290	1280	1274	1290	1318	1337	1346	1284	1271	1269	1277	1286	1291	1288	1293	1304	1308	1314	1300	1283	1281	1249	1254	1264	1271	1272	1264	1254	1249	1249	1257	1272	1267	1276	1263	1236	1224	1216	1210	1209	1221	1239	1242	1243	1238	1235	1231	1231	1232	1228	1219	1212	1210	1203	1202	1209	1223	1235	1238	1231	1216	1203	1194	1194	1195	1195	1189	1187	1188	1190	1190	1183	1177	1165	1162	1161	1156	1147	1146	1141	1149	1153	1158	1161	1163	1164	1164	1148	1141	1142	1142	1142	1149	1155	1147	1141	1139	1145	1155	1145	1135	1128	1124	1122	1130	1137	1142	1146	1148	1146	1150	1148	1151	1147	1144	1149	1148	1144	1136	1128	1128	1127	1126	1131	1133	1128	1126	1125	1130	1131	1121	1109	1109	1115	1122	1128	0	0	0	0	0	0	0	0	0
2153	2153	2124	2096	2098	2115	2134	2134	2153	2151	2145	2145	2138	2138	2127	2116	2155	2215	2229	2229	2232	2223	2204	2217	2233	2211	2211	2176	2132	2092	2120	2135	2150	2149	2149	2168	2177	2164	2145	2116	2127	2134	2138	2138	2130	2099	2081	2091	2114	2109	2122	2125	2131	2125	2125	2122	2108	2114	2112	2134	2128	2080	2028	1993	1979	1893	1703	1618	1465	1342	1346	1346	1301	1277	1279	1285	1292	1298	1299	1323	1333	1338	1335	1327	1324	1326	1327	1318	1317	1321	1327	1330	1323	1315	1307	1305	1306	1312	1317	1325	1331	1334	1335	1330	1321	1316	1322	1328	1335	1335	1324	1320	1322	1323	1327	1337	1349	1359	1362	1321	1312	1321	1330	1349	1361	1392	1377	1334	1325	1326	1324	1317	1317	1326	1336	1348	1357	1364	1379	1384	1390	1392	1367	1387	1390	1399	1444	1534	1636	1701	1730	1724	1711	1715	1714	1708	1699	1692	1690	1704	1728	1756	1743	1727	1721	1759	1766	1751	1710	1713	1724	1737	1743	1734	1726	1720	1730	1742	1742	1733	1707	1684	1686	1688	1684	1683	1700	1700	1701	1721	1728	1678	1657	1648	1665	1671	1663	1666	1665	1651	1631	1617	1630	1651	1664	1661	1644	1637	1654	1674	1673	1668	1675	1688	1689	1685	1669	1618	1575	1567	1579	1622	1614	1602	1545	1454	1439	1350	1343	1344	1354	1379	1401	1398	1402	1413	1406	1399	1386	1387	1390	1394	1395	1393	1393	1396	1384	1378	1392	1404	1411	1407	1401	1405	1414	1424	1413	1408	1403	1403	1407	1408	1395	1391	1384	1391	1403	1427	1425	1419	1416	1418	1416	1416	1414	1413	1412	1426	1397	1409	1416	1415	1395	1395	1398	1405	1409	1409	1411	1409	1406	1399	1399	1413	1428	1443	1444	1441	1443	1441	1441	1427	1432	1428	1435	1459	1470	1438	1416	1422	1460	1491	1474	1475	1497	1514	1530	1539	1547	1549	1549	1550	1547	1525	1521	1522	1533	1531	1515	1485	1475	1455	1451	1454	1466	1473	1485	1482	1475	1459	1443	1445	1464	1472	1476	1482	1481	1481	1474	1455	1439	1420	1409	1395	1385	1385	1399	1398	1393	1389	1394	1411	1411	1395	1381	1369	1365	1378	1392	1398	1401	1408	1412	1413	1416	1433	1436	1441	1449	1444	1437	1422	1436	1428	1412	1398	1387	1389	1394	1422	1428	1428	1422	1410	1400	1392	1392	1410	1432	1432	1417	1397	1389	1377	1380	1386	1391	1395	1399	1399	1401	1410	1422	1423	1424	1426	1422	1411	1405	1407	1414	1419	1419	1413	1413	1409	1406	1418	1421	1432	1423	1417	1408	1394	1390	1394	1399	1390	1386	1382	1384	1392	1395	1401	1428	1423	1422	1420	1431	1440	1441	1426	1368	1334	1331	1329	1341	1343	1333	1306	1291	1301	1324	1351	1356	1368	1372	1363	1359	1359	1346	1340	1329	1304	1290	1286	1287	1284	1280	1279	1276	1280	1288	1282	1262	1258	1262	1274	1278	1279	1276	1272	1276	1279	1282	1278	1268	1259	1260	1272	1283	1280	1270	1258	1257	1268	1267	1263	1256	1247	1249	1268	1275	1276	1267	1257	1234	1228	1229	1236	1234	1221	1215	1224	1238	1242	1246	1253	1250	1240	1218	1204	1205	1201	1200	1204	1215	1224	1229	1221	1213	1210	1211	1213	1208	1199	1196	1194	1190	1188	1191	1202	1215	1215	1214	1203	1189	1174	1168	1166	1169	1168	1171	1175	1177	1170	1159	1148	1117	1108	1106	1126	1132	1133	1134	1138	1142	1146	1155	1158	1164	1163	1157	1150	1145	1138	1139	1134	1137	1134	1128	1127	1135	1137	1129	1125	1118	1116	1119	1126	1133	1137	1137	1133	1130	1129	1129	1125	1116	1119	1125	1133	1133	1124	1115	1115	1113	1114	1113	1115	1111	1110	1112	1111	1111	1105	1094	1086	1086	1087	1093	0	0	0	0	0	0	0	0	0
2108	2108	2095	2090	2077	2084	2100	2100	2117	2115	2100	2092	2082	2082	2067	2076	2104	2128	2127	2127	2126	2121	2148	2162	2176	2162	2162	2135	2058	2044	2060	2078	2088	2099	2099	2113	2139	2090	2089	2094	2096	2092	2085	2085	2058	2044	2026	2035	2038	2039	2050	2073	2082	2085	2085	2060	2038	2032	2020	2017	2019	1996	1967	1936	1929	1887	1719	1622	1498	1347	1350	1350	1305	1273	1274	1277	1282	1294	1307	1315	1325	1320	1326	1325	1323	1323	1324	1319	1313	1315	1319	1320	1321	1310	1296	1295	1303	1310	1315	1318	1324	1328	1336	1333	1325	1318	1317	1315	1317	1328	1324	1321	1318	1319	1325	1343	1363	1377	1378	1345	1338	1338	1347	1339	1345	1375	1370	1342	1345	1344	1327	1315	1318	1324	1332	1351	1365	1365	1365	1377	1374	1373	1350	1378	1390	1417	1463	1565	1670	1711	1713	1701	1691	1683	1698	1698	1693	1690	1693	1706	1721	1717	1712	1700	1697	1707	1715	1715	1693	1676	1675	1676	1677	1663	1657	1665	1705	1711	1711	1690	1657	1659	1667	1673	1673	1660	1649	1641	1638	1631	1633	1633	1613	1605	1598	1598	1614	1629	1634	1621	1595	1585	1584	1607	1629	1628	1603	1601	1616	1642	1654	1662	1662	1651	1623	1597	1578	1575	1568	1556	1539	1523	1531	1535	1517	1447	1435	1352	1331	1337	1327	1360	1389	1386	1397	1404	1410	1398	1388	1383	1384	1392	1395	1397	1400	1393	1385	1391	1402	1407	1408	1401	1392	1394	1399	1405	1412	1403	1399	1395	1394	1398	1399	1391	1385	1385	1387	1413	1430	1423	1415	1418	1412	1399	1404	1399	1398	1432	1423	1416	1410	1410	1404	1405	1413	1420	1419	1391	1385	1377	1375	1380	1392	1398	1408	1434	1440	1433	1445	1443	1444	1445	1451	1455	1445	1459	1457	1422	1423	1417	1424	1446	1467	1469	1474	1485	1494	1492	1488	1482	1474	1473	1474	1480	1480	1471	1465	1472	1472	1464	1450	1445	1437	1433	1431	1432	1430	1429	1426	1424	1420	1417	1423	1437	1439	1439	1443	1441	1442	1430	1407	1380	1365	1361	1357	1361	1370	1365	1367	1368	1365	1366	1370	1377	1379	1362	1344	1335	1351	1376	1403	1416	1412	1403	1407	1414	1411	1408	1405	1406	1391	1408	1424	1418	1396	1384	1368	1370	1389	1405	1422	1427	1413	1407	1396	1382	1374	1375	1381	1378	1377	1389	1382	1356	1354	1360	1367	1371	1368	1361	1360	1380	1391	1388	1383	1375	1375	1374	1359	1362	1376	1380	1392	1390	1390	1388	1387	1385	1383	1376	1371	1390	1382	1373	1366	1357	1356	1359	1366	1366	1361	1365	1364	1370	1366	1376	1391	1388	1394	1348	1354	1346	1334	1331	1333	1333	1336	1329	1305	1286	1275	1268	1286	1312	1329	1332	1323	1312	1312	1299	1286	1289	1296	1295	1285	1283	1287	1288	1287	1281	1265	1257	1258	1257	1248	1250	1253	1247	1249	1255	1254	1252	1255	1265	1274	1269	1260	1244	1234	1237	1247	1259	1250	1223	1204	1208	1220	1226	1229	1221	1233	1250	1266	1270	1263	1252	1226	1230	1233	1231	1232	1215	1207	1206	1218	1224	1219	1211	1208	1207	1208	1201	1197	1196	1193	1194	1200	1213	1213	1207	1202	1197	1198	1199	1192	1190	1187	1183	1178	1178	1182	1189	1185	1192	1197	1190	1178	1162	1153	1153	1144	1144	1141	1144	1149	1141	1132	1130	1112	1099	1099	1101	1110	1113	1114	1115	1119	1134	1143	1148	1151	1151	1155	1156	1143	1117	1111	1107	1107	1105	1109	1116	1120	1121	1122	1117	1114	1112	1117	1122	1132	1132	1124	1120	1119	1119	1116	1110	1104	1102	1103	1105	1112	1112	1104	1104	1101	1098	1084	1089	1093	1096	1097	1097	1096	1085	1085	1079	1071	1073	1072	0	0	0	0	0	0	0	0	0
1988	2017	2017	2044	2031	2027	2036	2036	2054	2068	2068	2057	2041	2041	2032	2022	2029	2052	2058	2058	2076	2072	2069	2084	2116	2123	2123	2040	2009	2007	2013	2011	1994	1978	1978	1990	2023	2044	2045	2056	2059	2022	2007	2007	1996	2003	2002	1980	1979	1995	2019	2049	2067	2043	2043	1986	1956	1939	1908	1857	1842	1831	1817	1809	1835	1845	1741	1623	1525	1357	1309	1309	1308	1293	1286	1281	1283	1290	1303	1309	1315	1320	1328	1326	1319	1318	1324	1324	1326	1323	1318	1313	1311	1303	1302	1299	1306	1310	1313	1315	1314	1317	1326	1326	1322	1316	1317	1310	1307	1318	1329	1327	1321	1319	1329	1350	1365	1372	1371	1343	1350	1356	1362	1342	1343	1361	1365	1350	1356	1367	1347	1333	1327	1330	1337	1347	1362	1362	1363	1371	1377	1365	1343	1388	1410	1451	1468	1572	1662	1675	1680	1671	1656	1659	1676	1687	1686	1670	1675	1680	1690	1675	1668	1660	1656	1669	1657	1648	1649	1643	1638	1633	1628	1632	1637	1647	1650	1647	1634	1628	1630	1633	1644	1652	1658	1645	1610	1585	1569	1574	1576	1594	1593	1581	1554	1541	1560	1554	1556	1554	1545	1548	1563	1581	1591	1598	1593	1581	1593	1622	1640	1645	1640	1618	1598	1571	1561	1566	1566	1561	1545	1543	1537	1536	1493	1434	1408	1353	1339	1348	1332	1333	1358	1381	1389	1393	1393	1392	1394	1386	1390	1394	1410	1408	1407	1402	1402	1402	1401	1396	1389	1388	1384	1385	1382	1390	1393	1393	1387	1382	1384	1383	1384	1388	1386	1381	1375	1387	1409	1395	1392	1386	1378	1385	1397	1388	1382	1394	1430	1419	1405	1400	1416	1420	1426	1417	1405	1392	1397	1401	1399	1402	1398	1400	1404	1411	1427	1430	1421	1421	1427	1434	1436	1437	1440	1426	1425	1439	1393	1385	1396	1425	1427	1433	1442	1443	1443	1428	1431	1433	1426	1424	1417	1434	1437	1427	1424	1420	1435	1441	1436	1409	1401	1395	1395	1401	1407	1407	1403	1398	1397	1394	1397	1402	1404	1394	1389	1376	1375	1376	1370	1365	1351	1349	1353	1367	1361	1371	1378	1377	1378	1379	1378	1373	1362	1338	1329	1332	1344	1376	1397	1403	1393	1390	1378	1386	1403	1394	1382	1363	1372	1389	1410	1413	1387	1376	1362	1364	1369	1382	1379	1375	1390	1408	1399	1384	1361	1355	1351	1358	1372	1381	1382	1354	1352	1354	1358	1363	1359	1345	1342	1347	1343	1331	1319	1321	1329	1346	1347	1336	1333	1329	1350	1370	1372	1367	1342	1324	1315	1313	1319	1351	1347	1341	1336	1325	1325	1332	1339	1338	1335	1311	1309	1327	1339	1344	1337	1315	1320	1330	1333	1322	1319	1309	1312	1315	1304	1284	1265	1257	1258	1259	1271	1289	1303	1294	1280	1274	1266	1262	1263	1269	1290	1269	1255	1251	1280	1283	1285	1276	1265	1247	1232	1239	1243	1239	1220	1225	1227	1238	1238	1243	1248	1251	1259	1266	1261	1239	1219	1209	1215	1227	1204	1186	1186	1187	1198	1203	1205	1210	1226	1244	1258	1259	1249	1219	1224	1233	1234	1236	1228	1214	1199	1192	1187	1191	1195	1200	1193	1194	1198	1195	1193	1188	1179	1173	1169	1185	1201	1195	1188	1185	1184	1185	1185	1186	1177	1175	1171	1171	1174	1163	1156	1168	1183	1184	1170	1161	1147	1134	1127	1125	1126	1134	1139	1135	1127	1121	1108	1103	1099	1096	1095	1099	1098	1107	1110	1116	1118	1120	1123	1120	1118	1116	1103	1095	1092	1090	1087	1085	1081	1081	1088	1100	1105	1107	1100	1104	1113	1115	1107	1101	1100	1111	1125	1119	1112	1104	1099	1097	1088	1087	1100	1101	1096	1096	1086	1079	1067	1068	1072	1074	1074	1074	1073	1071	1072	1069	1066	1061	1059	0	0	0	0	0	0	0	0	0
1912	1944	1944	1982	1996	1978	1965	1965	1952	1972	1990	2005	2017	2017	2012	1990	1984	1980	1998	1998	2009	2005	2011	2024	2036	2013	2013	1970	1969	1980	1986	1974	1951	1947	1947	1948	1964	1980	1991	2005	1979	1945	1937	1937	1946	1948	1933	1928	1922	1955	1977	1992	1971	1959	1959	1924	1895	1859	1835	1815	1805	1802	1794	1780	1777	1773	1707	1615	1535	1392	1307	1307	1309	1311	1314	1296	1290	1293	1301	1306	1311	1318	1324	1320	1308	1312	1316	1323	1327	1325	1316	1308	1302	1302	1306	1310	1314	1319	1315	1313	1306	1304	1306	1314	1315	1311	1315	1316	1316	1321	1327	1324	1316	1315	1322	1338	1359	1360	1354	1347	1365	1368	1371	1345	1343	1354	1353	1342	1358	1372	1368	1348	1333	1326	1330	1342	1362	1367	1365	1369	1371	1371	1367	1399	1429	1460	1469	1550	1609	1630	1638	1638	1621	1623	1647	1656	1648	1629	1637	1647	1654	1645	1630	1619	1621	1621	1618	1617	1625	1621	1620	1623	1619	1620	1624	1627	1626	1624	1620	1611	1611	1617	1620	1631	1623	1609	1588	1571	1559	1552	1566	1584	1586	1565	1542	1529	1521	1532	1535	1539	1535	1539	1550	1563	1574	1579	1573	1565	1571	1583	1594	1605	1599	1594	1569	1550	1545	1559	1562	1541	1529	1526	1537	1537	1499	1415	1385	1335	1350	1370	1352	1338	1360	1383	1385	1382	1385	1389	1393	1394	1407	1421	1424	1417	1415	1408	1397	1390	1389	1384	1385	1386	1386	1380	1376	1377	1383	1390	1388	1379	1382	1380	1383	1383	1382	1392	1376	1368	1371	1381	1387	1392	1392	1392	1390	1379	1384	1393	1418	1407	1396	1393	1393	1409	1413	1404	1395	1404	1408	1410	1411	1408	1410	1411	1413	1412	1416	1414	1416	1418	1424	1416	1405	1397	1397	1410	1419	1418	1410	1389	1381	1389	1392	1398	1408	1422	1415	1397	1392	1418	1423	1415	1404	1395	1396	1390	1392	1392	1393	1396	1402	1404	1402	1394	1387	1392	1399	1401	1401	1394	1390	1391	1395	1396	1395	1388	1378	1371	1368	1365	1361	1353	1335	1337	1350	1357	1355	1360	1358	1361	1375	1377	1367	1356	1328	1311	1317	1324	1334	1350	1356	1355	1358	1362	1357	1356	1358	1367	1355	1338	1348	1365	1395	1407	1390	1370	1353	1350	1348	1356	1353	1346	1339	1335	1345	1345	1333	1336	1334	1340	1356	1364	1367	1348	1344	1339	1340	1335	1338	1328	1319	1308	1304	1302	1302	1302	1309	1321	1327	1310	1304	1300	1307	1311	1323	1327	1290	1284	1284	1288	1287	1294	1311	1318	1315	1300	1300	1277	1278	1290	1286	1277	1295	1311	1312	1314	1307	1299	1296	1295	1296	1298	1298	1295	1292	1288	1277	1271	1260	1254	1254	1256	1262	1259	1260	1271	1270	1260	1247	1243	1246	1248	1240	1217	1223	1213	1250	1265	1261	1254	1214	1211	1203	1202	1201	1202	1205	1203	1215	1220	1215	1214	1214	1215	1216	1215	1212	1195	1191	1191	1197	1206	1185	1167	1167	1174	1183	1193	1200	1203	1212	1220	1222	1213	1203	1202	1212	1236	1244	1229	1225	1203	1180	1177	1174	1174	1176	1188	1184	1176	1185	1183	1185	1181	1165	1147	1149	1157	1181	1177	1168	1170	1175	1176	1175	1176	1170	1167	1167	1163	1159	1153	1155	1169	1173	1174	1163	1147	1133	1126	1125	1125	1118	1118	1125	1126	1125	1118	1113	1105	1100	1090	1086	1089	1093	1093	1097	1099	1105	1112	1113	1112	1109	1108	1098	1091	1086	1084	1084	1077	1073	1063	1058	1068	1075	1073	1073	1082	1089	1080	1062	1051	1051	1066	1086	1085	1080	1078	1077	1073	1067	1059	1057	1062	1063	1063	1064	1065	1064	1061	1060	1058	1064	1062	1055	1056	1048	1057	1051	1050	1051	0	0	0	0	0	0	0	0	0
1863	1892	1892	1933	1941	1938	1919	1919	1914	1921	1941	1967	1995	1995	1978	1953	1924	1923	1935	1935	1938	1936	1937	1935	1935	1919	1919	1917	1931	1948	1965	1952	1941	1938	1938	1940	1937	1926	1928	1934	1933	1916	1912	1912	1906	1898	1890	1884	1886	1913	1922	1905	1897	1893	1893	1866	1845	1801	1800	1795	1794	1788	1784	1773	1760	1751	1665	1590	1529	1419	1324	1324	1312	1321	1328	1314	1300	1296	1296	1304	1310	1317	1323	1320	1309	1305	1311	1320	1327	1326	1317	1306	1302	1302	1316	1332	1334	1323	1318	1309	1301	1301	1300	1306	1308	1311	1319	1325	1322	1326	1322	1316	1311	1309	1312	1324	1338	1341	1344	1349	1375	1362	1357	1351	1341	1350	1344	1341	1357	1366	1350	1340	1331	1331	1330	1333	1343	1361	1361	1366	1378	1381	1391	1403	1419	1450	1461	1528	1572	1600	1606	1605	1601	1601	1605	1602	1601	1593	1600	1623	1630	1622	1609	1597	1594	1591	1586	1579	1574	1581	1593	1600	1605	1604	1601	1598	1593	1587	1597	1593	1571	1570	1581	1595	1591	1580	1571	1567	1568	1563	1563	1566	1566	1544	1524	1521	1528	1535	1533	1528	1526	1533	1547	1555	1562	1563	1559	1534	1547	1559	1571	1573	1567	1551	1537	1516	1492	1511	1510	1491	1481	1499	1510	1517	1506	1408	1371	1339	1358	1381	1370	1358	1381	1389	1384	1384	1385	1388	1390	1398	1411	1416	1422	1415	1401	1395	1387	1372	1369	1377	1385	1387	1386	1380	1375	1378	1385	1395	1395	1390	1385	1394	1401	1394	1399	1396	1373	1360	1362	1365	1388	1391	1399	1397	1393	1389	1386	1394	1402	1399	1397	1402	1401	1400	1392	1391	1398	1404	1402	1404	1405	1409	1409	1410	1409	1412	1407	1397	1398	1403	1415	1411	1399	1395	1395	1398	1396	1397	1394	1385	1370	1372	1377	1385	1390	1392	1388	1371	1350	1349	1368	1392	1382	1370	1373	1378	1377	1373	1365	1364	1372	1395	1412	1404	1401	1404	1406	1401	1388	1379	1380	1378	1381	1380	1384	1376	1370	1355	1354	1355	1351	1331	1325	1330	1342	1345	1341	1334	1320	1320	1314	1302	1310	1312	1302	1297	1301	1315	1323	1330	1330	1330	1327	1331	1338	1337	1336	1331	1326	1326	1326	1340	1363	1380	1380	1361	1342	1336	1334	1331	1323	1317	1304	1296	1292	1293	1307	1314	1314	1318	1312	1336	1341	1338	1325	1320	1323	1318	1297	1278	1273	1279	1285	1292	1293	1288	1285	1287	1298	1291	1286	1277	1278	1280	1265	1262	1252	1245	1244	1234	1224	1235	1257	1268	1275	1255	1249	1243	1240	1253	1264	1247	1259	1267	1284	1290	1284	1260	1249	1243	1259	1247	1244	1254	1265	1249	1247	1245	1251	1249	1249	1240	1235	1236	1229	1244	1250	1245	1234	1225	1222	1225	1217	1203	1205	1201	1205	1212	1209	1198	1189	1197	1197	1199	1196	1184	1185	1184	1192	1204	1192	1178	1183	1193	1186	1180	1172	1156	1167	1176	1188	1185	1167	1160	1158	1170	1185	1190	1195	1194	1197	1201	1191	1176	1168	1164	1172	1182	1189	1191	1186	1158	1157	1159	1157	1156	1150	1145	1138	1126	1136	1158	1167	1161	1126	1120	1116	1094	1083	1094	1120	1126	1138	1147	1156	1157	1162	1157	1156	1148	1146	1138	1136	1144	1155	1159	1139	1131	1115	1118	1121	1117	1109	1103	1109	1112	1117	1113	1108	1105	1096	1084	1080	1080	1078	1079	1073	1075	1081	1088	1094	1104	1103	1100	1095	1089	1079	1074	1076	1067	1053	1053	1042	1030	1020	1024	1035	1047	1054	1053	1046	1029	1023	1021	1034	1056	1073	1072	1069	1071	1065	1053	1050	1047	1046	1046	1061	1073	1070	1063	1060	1066	1067	1061	1052	1045	1041	1046	1044	1044	1042	0	0	0	0	0	0	0	0	0
1847	1872	1872	1897	1907	1902	1891	1891	1887	1893	1893	1886	1893	1893	1878	1862	1840	1847	1871	1871	1854	1850	1872	1886	1886	1874	1874	1848	1860	1898	1934	1924	1915	1917	1917	1910	1897	1864	1830	1836	1833	1822	1818	1818	1803	1807	1816	1830	1841	1855	1847	1843	1833	1817	1817	1796	1784	1770	1774	1780	1784	1786	1780	1773	1754	1729	1670	1579	1535	1449	1337	1337	1314	1323	1332	1324	1308	1296	1298	1302	1311	1316	1324	1326	1316	1306	1307	1318	1326	1324	1318	1307	1301	1296	1314	1331	1342	1329	1317	1305	1304	1299	1301	1307	1306	1322	1329	1336	1331	1328	1324	1322	1312	1310	1310	1314	1320	1322	1328	1341	1366	1350	1349	1341	1333	1333	1337	1354	1356	1354	1350	1335	1328	1334	1337	1339	1332	1335	1350	1363	1382	1396	1395	1398	1402	1427	1443	1516	1547	1574	1586	1583	1584	1584	1578	1578	1575	1564	1566	1586	1602	1601	1594	1590	1576	1551	1535	1533	1535	1547	1556	1573	1576	1579	1579	1571	1560	1562	1554	1544	1545	1543	1552	1565	1561	1554	1549	1551	1546	1522	1507	1523	1520	1503	1502	1510	1521	1524	1527	1526	1524	1517	1533	1538	1538	1534	1520	1497	1501	1519	1538	1538	1523	1510	1494	1486	1465	1457	1452	1448	1456	1460	1462	1458	1468	1463	1379	1398	1380	1382	1379	1396	1403	1393	1386	1391	1395	1394	1393	1393	1392	1390	1403	1384	1381	1381	1378	1368	1360	1383	1389	1394	1390	1383	1378	1378	1397	1409	1403	1400	1393	1392	1400	1394	1393	1387	1372	1359	1358	1361	1379	1392	1398	1400	1395	1392	1394	1398	1403	1400	1397	1404	1405	1398	1390	1385	1391	1391	1388	1386	1387	1386	1393	1393	1398	1398	1393	1375	1372	1382	1397	1406	1403	1399	1388	1378	1360	1350	1362	1372	1364	1365	1369	1372	1382	1379	1369	1352	1331	1325	1336	1351	1357	1354	1357	1358	1359	1349	1337	1344	1355	1356	1354	1365	1364	1361	1347	1338	1332	1329	1331	1335	1341	1344	1343	1341	1332	1322	1331	1337	1318	1310	1311	1319	1328	1324	1312	1306	1295	1291	1286	1286	1286	1288	1285	1291	1308	1312	1308	1308	1305	1303	1310	1323	1332	1331	1326	1325	1323	1320	1318	1313	1309	1307	1305	1311	1317	1315	1325	1312	1301	1290	1284	1271	1267	1267	1296	1297	1293	1290	1277	1275	1320	1300	1302	1305	1303	1279	1253	1243	1254	1265	1271	1281	1281	1277	1264	1257	1264	1255	1247	1252	1257	1256	1235	1233	1230	1225	1223	1222	1214	1210	1209	1214	1221	1237	1235	1223	1225	1210	1210	1202	1207	1216	1231	1239	1239	1231	1227	1227	1225	1215	1204	1192	1191	1200	1203	1205	1203	1204	1207	1208	1210	1213	1212	1217	1216	1223	1213	1200	1198	1197	1204	1206	1202	1201	1199	1199	1196	1184	1176	1175	1190	1195	1191	1183	1174	1131	1169	1180	1178	1169	1173	1172	1165	1154	1141	1145	1152	1160	1156	1161	1156	1156	1159	1164	1165	1167	1169	1162	1145	1128	1123	1125	1131	1118	1112	1114	1128	1141	1132	1126	1124	1124	1120	1104	1091	1093	1094	1092	1103	1118	1130	1131	1109	1097	1090	1080	1071	1071	1088	1092	1100	1101	1102	1106	1137	1136	1129	1118	1100	1087	1086	1094	1109	1119	1117	1108	1106	1098	1091	1088	1090	1089	1093	1081	1080	1101	1093	1085	1069	1059	1059	1067	1069	1066	1061	1056	1058	1065	1072	1078	1086	1088	1086	1080	1071	1066	1063	1036	1034	1031	1027	1015	1005	1001	1003	1009	1016	1029	1026	1019	1013	1023	1029	1030	1054	1050	1043	1038	1036	1035	1041	1044	1045	1045	1051	1052	1051	1051	1055	1064	1066	1054	1038	1027	1019	1012	1009	1012	1015	0	0	0	0	0	0	0	0	0
1834	1851	1851	1869	1889	1888	1886	1886	1875	1860	1836	1847	1862	1862	1841	1814	1800	1800	1787	1787	1769	1794	1831	1860	1845	1820	1820	1806	1779	1799	1832	1834	1836	1845	1845	1841	1794	1788	1791	1788	1789	1783	1775	1775	1773	1778	1780	1786	1778	1768	1775	1767	1756	1751	1751	1751	1738	1737	1739	1750	1753	1759	1754	1726	1677	1661	1661	1566	1504	1462	1345	1345	1310	1314	1328	1326	1309	1306	1306	1309	1320	1332	1339	1336	1325	1318	1315	1312	1318	1320	1315	1313	1301	1296	1303	1328	1335	1331	1313	1305	1300	1306	1310	1313	1326	1332	1335	1336	1338	1334	1330	1325	1318	1312	1312	1315	1317	1314	1318	1327	1348	1345	1344	1336	1325	1328	1336	1355	1352	1341	1348	1332	1325	1331	1345	1350	1342	1334	1347	1364	1390	1392	1394	1397	1404	1420	1468	1516	1541	1561	1572	1558	1548	1550	1556	1556	1553	1552	1551	1561	1571	1579	1584	1585	1568	1543	1525	1513	1522	1529	1533	1540	1560	1569	1564	1555	1544	1529	1524	1519	1515	1517	1527	1535	1544	1543	1535	1513	1490	1461	1443	1456	1496	1505	1500	1500	1507	1518	1507	1508	1507	1499	1497	1492	1484	1490	1490	1461	1449	1439	1429	1430	1439	1494	1482	1443	1428	1428	1431	1433	1422	1422	1421	1410	1399	1432	1433	1415	1402	1387	1405	1408	1409	1392	1385	1392	1396	1405	1395	1387	1383	1378	1367	1362	1368	1370	1370	1383	1392	1405	1401	1390	1377	1372	1373	1384	1402	1412	1416	1408	1398	1389	1385	1381	1371	1363	1354	1349	1350	1359	1356	1365	1381	1392	1398	1389	1385	1385	1391	1397	1395	1400	1386	1368	1357	1354	1369	1361	1352	1355	1356	1360	1364	1364	1363	1372	1363	1350	1345	1359	1373	1396	1396	1390	1372	1349	1340	1343	1343	1341	1349	1354	1352	1335	1340	1341	1332	1319	1307	1303	1316	1313	1323	1326	1336	1338	1333	1326	1314	1315	1319	1316	1326	1337	1338	1305	1312	1308	1306	1303	1301	1306	1323	1328	1333	1334	1317	1297	1291	1297	1297	1293	1288	1288	1286	1273	1277	1280	1280	1281	1263	1270	1275	1277	1275	1283	1295	1295	1285	1279	1282	1288	1300	1310	1326	1325	1309	1309	1320	1317	1305	1274	1249	1240	1237	1231	1226	1223	1227	1255	1244	1238	1243	1255	1255	1254	1269	1274	1270	1265	1256	1249	1247	1273	1285	1285	1261	1243	1239	1238	1233	1241	1256	1264	1263	1261	1245	1242	1240	1242	1245	1242	1235	1226	1228	1228	1222	1212	1210	1214	1211	1208	1189	1193	1212	1222	1223	1193	1186	1181	1187	1195	1208	1215	1223	1222	1209	1199	1189	1182	1181	1177	1167	1167	1171	1168	1170	1172	1171	1169	1169	1172	1184	1196	1197	1192	1188	1176	1154	1149	1143	1141	1156	1166	1175	1176	1172	1169	1166	1169	1160	1155	1154	1153	1165	1157	1131	1101	1103	1116	1134	1158	1162	1162	1153	1141	1137	1149	1158	1147	1137	1127	1133	1138	1144	1147	1142	1136	1133	1124	1114	1105	1106	1111	1118	1106	1101	1106	1113	1114	1113	1106	1101	1097	1090	1081	1073	1077	1094	1092	1095	1102	1112	1109	1095	1077	1071	1065	1056	1051	1045	1045	1050	1056	1068	1069	1092	1089	1088	1088	1081	1082	1086	1090	1094	1088	1088	1083	1082	1082	1072	1067	1060	1061	1054	1058	1058	1065	1054	1043	1040	1029	1032	1041	1057	1065	1062	1048	1042	1045	1053	1062	1065	1062	1059	1051	1051	1049	1036	1022	1022	1024	1020	1009	1005	999	998	1002	1006	1017	1015	1010	1008	1014	1025	1020	1015	1009	1005	999	999	1004	1007	1009	1004	1004	1003	994	997	1004	1022	1033	1039	1041	1036	1024	1016	990	980	981	990	0	0	0	0	0	0	0	0	0
1809	1823	1823	1841	1865	1873	1874	1874	1841	1802	1788	1800	1809	1809	1807	1782	1764	1748	1737	1737	1758	1788	1819	1820	1765	1736	1736	1730	1731	1735	1756	1773	1787	1798	1798	1758	1752	1747	1749	1755	1755	1754	1762	1762	1770	1756	1761	1759	1752	1737	1732	1726	1724	1730	1730	1734	1732	1726	1717	1715	1693	1695	1695	1694	1675	1652	1622	1541	1486	1451	1354	1354	1300	1299	1300	1309	1314	1316	1327	1337	1333	1333	1337	1335	1330	1325	1325	1322	1315	1311	1309	1311	1311	1300	1294	1299	1307	1311	1312	1313	1316	1321	1332	1343	1340	1345	1344	1351	1359	1348	1342	1331	1319	1310	1314	1324	1323	1323	1320	1315	1331	1342	1345	1338	1325	1327	1320	1339	1341	1327	1333	1332	1322	1324	1345	1354	1351	1343	1352	1365	1384	1385	1384	1395	1416	1448	1483	1510	1536	1525	1523	1502	1504	1510	1517	1524	1526	1526	1526	1524	1532	1530	1557	1541	1549	1530	1519	1519	1513	1512	1509	1509	1522	1542	1552	1549	1536	1512	1508	1502	1500	1500	1501	1512	1529	1533	1518	1495	1472	1448	1435	1447	1477	1479	1475	1465	1466	1465	1461	1466	1467	1466	1458	1449	1456	1453	1450	1432	1431	1422	1416	1405	1405	1412	1420	1415	1408	1412	1425	1433	1427	1418	1409	1399	1387	1366	1383	1403	1413	1394	1393	1401	1395	1386	1373	1372	1378	1391	1388	1389	1379	1368	1357	1342	1333	1337	1363	1382	1394	1401	1385	1366	1358	1357	1361	1369	1375	1389	1409	1403	1396	1389	1373	1359	1348	1345	1352	1344	1347	1351	1353	1364	1372	1377	1370	1354	1351	1356	1370	1386	1377	1374	1362	1352	1341	1331	1324	1327	1324	1330	1338	1345	1350	1342	1332	1333	1338	1322	1327	1329	1338	1347	1356	1360	1348	1328	1333	1337	1337	1328	1318	1314	1318	1322	1326	1323	1316	1306	1297	1294	1289	1294	1299	1305	1311	1314	1311	1306	1304	1291	1289	1297	1300	1308	1303	1274	1274	1288	1289	1291	1296	1297	1303	1315	1324	1321	1308	1294	1287	1290	1288	1284	1274	1268	1249	1241	1230	1231	1235	1241	1262	1269	1273	1274	1271	1269	1266	1276	1264	1250	1245	1260	1262	1273	1281	1284	1286	1297	1304	1297	1278	1231	1209	1202	1206	1210	1214	1213	1206	1205	1205	1213	1230	1247	1258	1255	1252	1250	1246	1249	1244	1232	1232	1240	1246	1245	1234	1230	1233	1230	1225	1218	1220	1227	1238	1230	1227	1223	1206	1209	1206	1209	1205	1205	1210	1216	1211	1196	1188	1190	1194	1193	1186	1185	1181	1185	1172	1168	1170	1168	1174	1185	1211	1212	1205	1198	1191	1187	1182	1175	1167	1159	1161	1166	1168	1161	1162	1162	1163	1163	1157	1150	1163	1171	1183	1182	1176	1159	1156	1154	1149	1144	1146	1156	1162	1165	1153	1142	1139	1142	1144	1153	1154	1148	1143	1132	1122	1103	1104	1111	1117	1138	1150	1151	1139	1128	1127	1131	1132	1126	1122	1113	1112	1110	1103	1108	1115	1118	1111	1108	1111	1121	1126	1125	1118	1075	1075	1076	1084	1091	1096	1095	1090	1085	1071	1071	1064	1064	1085	1092	1089	1095	1099	1090	1079	1055	1047	1046	1039	1043	1044	1041	1044	1057	1063	1063	1039	1073	1073	1083	1088	1085	1086	1082	1070	1068	1071	1054	1067	1071	1065	1048	1034	1030	1025	1029	1018	1022	1024	1028	1024	1022	1025	1039	1057	1070	1067	1054	1044	1043	1043	1048	1052	1053	1051	1048	1043	1034	1010	1009	1011	1015	1009	1002	1002	998	994	998	1003	1009	1007	1001	996	995	1001	1006	1005	1004	999	990	984	995	998	998	990	990	978	977	974	974	978	986	1002	1033	1022	1003	973	970	970	973	973	0	0	0	0	0	0	0	0	0
1776	1777	1777	1805	1827	1842	1826	1826	1793	1763	1747	1740	1754	1754	1752	1759	1727	1715	1710	1710	1722	1743	1763	1757	1738	1722	1722	1719	1710	1710	1707	1718	1731	1736	1736	1716	1711	1715	1709	1714	1723	1734	1736	1736	1749	1752	1741	1735	1733	1718	1715	1698	1699	1708	1708	1717	1718	1712	1699	1690	1673	1683	1693	1649	1634	1616	1585	1534	1484	1455	1393	1393	1290	1271	1285	1303	1308	1312	1322	1331	1333	1338	1329	1328	1319	1317	1324	1332	1327	1319	1319	1321	1313	1298	1289	1291	1299	1310	1315	1317	1321	1326	1332	1338	1336	1336	1344	1350	1355	1356	1341	1323	1312	1308	1320	1326	1327	1323	1314	1302	1306	1336	1341	1343	1336	1326	1297	1317	1321	1312	1311	1330	1328	1329	1342	1356	1355	1350	1361	1369	1375	1373	1378	1395	1458	1480	1467	1487	1488	1480	1476	1478	1479	1486	1503	1508	1506	1500	1493	1487	1488	1495	1502	1499	1508	1514	1507	1504	1503	1496	1474	1466	1476	1505	1526	1526	1492	1490	1489	1482	1474	1461	1431	1435	1445	1469	1477	1481	1465	1444	1429	1426	1460	1454	1451	1440	1431	1433	1437	1444	1443	1443	1429	1438	1443	1436	1426	1407	1415	1415	1405	1393	1398	1413	1425	1430	1421	1408	1408	1412	1416	1416	1408	1392	1387	1365	1364	1367	1365	1367	1379	1388	1389	1377	1364	1354	1364	1376	1383	1383	1369	1354	1345	1336	1334	1342	1362	1369	1381	1373	1363	1348	1342	1349	1354	1355	1358	1370	1366	1365	1369	1368	1361	1354	1348	1346	1348	1346	1340	1344	1342	1353	1358	1360	1348	1332	1329	1331	1343	1357	1353	1343	1327	1324	1323	1314	1305	1300	1318	1313	1321	1335	1335	1330	1310	1312	1307	1295	1298	1309	1318	1319	1317	1316	1314	1317	1314	1316	1315	1299	1260	1257	1275	1292	1299	1313	1318	1311	1298	1290	1286	1285	1291	1293	1294	1289	1289	1277	1277	1278	1272	1281	1281	1281	1270	1257	1253	1261	1280	1290	1295	1293	1290	1286	1286	1286	1282	1280	1274	1279	1270	1268	1260	1241	1230	1220	1223	1235	1238	1249	1258	1258	1253	1239	1228	1200	1200	1209	1220	1219	1228	1239	1242	1257	1261	1261	1254	1247	1245	1233	1220	1207	1200	1195	1194	1203	1205	1204	1201	1202	1203	1205	1208	1215	1225	1232	1237	1231	1226	1223	1223	1228	1230	1238	1235	1228	1226	1218	1221	1222	1214	1206	1200	1201	1202	1212	1218	1198	1183	1162	1160	1155	1145	1146	1171	1180	1172	1166	1158	1154	1154	1162	1142	1150	1147	1148	1124	1123	1142	1158	1171	1187	1198	1192	1195	1184	1175	1173	1172	1166	1160	1138	1136	1161	1163	1157	1154	1146	1143	1142	1146	1138	1129	1129	1138	1171	1165	1156	1150	1150	1147	1145	1140	1144	1148	1148	1138	1131	1125	1124	1130	1145	1146	1141	1124	1113	1104	1105	1105	1107	1108	1117	1129	1129	1119	1107	1105	1114	1115	1105	1090	1089	1096	1090	1075	1065	1070	1086	1090	1085	1091	1097	1093	1091	1083	1057	1058	1064	1064	1065	1078	1083	1076	1070	1062	1058	1058	1061	1075	1085	1084	1083	1087	1057	1050	1039	1032	1035	1038	1040	1045	1044	1048	1053	1060	1049	1037	1032	1031	1039	1043	1049	1049	1039	1029	1026	1025	1025	1030	1034	1038	1036	1017	1004	1005	1000	1006	1009	1004	1001	1008	1017	1024	1019	1029	1027	1018	1014	1015	1017	1015	1012	1016	1025	1032	1036	1027	1009	998	996	1002	1013	1002	994	990	991	994	994	995	997	994	986	982	988	994	989	991	994	989	983	982	983	991	985	980	980	974	972	971	969	975	977	978	988	982	973	957	952	950	956	965	0	0	0	0	0	0	0	0	0
