602	600	600	600	599	599	597	597	594	594	594	595	595	602	602	590	593	593	589	589	589	605	605	610	610	611	611	611	613	613	614	614	614	614	614	612	612	607	607	609	609	623	623	623	625	625	631	631	627	627	625	625	625	623	623	621	621	616	616	616	616	617	617	618	618	618	625	625	626	626	625	625	623	623	621	621	620	620	621	621	626	626	625	625	625	624	624	626	626	630	630	630	630	631	631	625	625	625	625	622	622	625	625	625	625	625	625	626	626	627	627	626	626	628	628	629	629	633	633	630	630	625	625	627	627	621	621	626	626	626	615	615	616	616	634	634	641	641	640	640	636	636	633	633	629	629	630	630	630	630	637	637	635	631	631	635	635	629	629	625	625	622	629	625	625	625	625	639	639	650	650	654	647	647	646	646	645	645	651	651	647	647	644	644	642	642	641	640	640	643	643	646	646	649	649	651	651	652	652	653	653	655	655	655	653	653	649	649	646	646	648	648	648	648	655	655	656	656	650	650	653	651	651	652	652	650	650	645	645	649	649	651	651	653	653	647	647	645	645	642	642	641	641	641	639	639	642	642	652	652	646	646	648	648	648	648	652	652	651	651	649	649	650	650	655	655	656	656	656	657	657	656	656	656	656	655	655	655	655	655	662	662	662	664	664	663	663	664	664	663	663	663	663	663	663	664	664	664	664	662	662	648	648	661	661	663	670	670	672	672	671	671	671	671	666	666	665	665	671	671	672	672	672	672	665	665	656	656	658	658	666	666	671	671	666	666	664	664	665	665	669	669	673	673	676	676	679	679	680	680	682	682	683	683	675	675	675	675	677	677	665	665	668	668	683	683	683	683	683	683	670	670	669	669	666	666	668	670	670	672	672	673	673	679	679	688	688	682	682	693	693	690	690	689	689	686	686	683	683	683	681	674	674	679	679	676	676	672	672	677	677	678	678	679	678	678	674	674	667	667	667	667	673	673	689	689	676	676	661	661	661	661	665	665	670	670	666	666	669	667	667	669	669	669	669	680	680	689	689	694	694	686	686	686	686	686	686	684	680	680	682	682	687	687	688	688	687	687	687	687	692	692	694	694	699	702	702	704	704	708	708	712	712	711	711	705	705	686	686	689	684	684	696	696	695	695	700	700	691	691	690	690	694	694	698	700	700	700	700	701	682	682	682	680	680	680	680	683	683	699	699	697	682	682	698	698	695	695	691	691	695	695	696	696	703	703	704	704	704	684	684	684	684	691	691	694	694	693	693	691	691	693	693	695	695	695	695	703	703	703	703	698	698	696	696	692	690	690	689	689	691	691	687	687	689	689	692	692	698	698	687	687	687	687	689	689	692	692	705	705	702	702	705	705	705	705	698	698	693	693	693	694	729	691	691	690	690	693	693	693	693	705	705	725	725	719	719	708	708	718	718	716	716	716	717	717	721	721	729	729	729	729	0	0	0	0	0	0	0	0
599	598	598	593	593	593	593	593	593	593	593	590	590	590	590	590	593	593	589	589	589	605	605	610	610	611	611	611	613	613	614	614	614	614	614	612	612	607	607	609	609	623	623	623	625	625	610	610	615	615	615	615	615	614	614	612	612	613	613	614	614	615	615	616	616	616	619	619	620	620	620	620	618	618	616	616	616	616	617	617	619	619	621	621	621	622	622	623	623	624	624	624	624	625	625	625	625	625	625	622	622	625	625	625	625	625	625	626	626	627	627	626	626	628	628	629	629	633	633	630	630	625	625	627	627	621	621	626	626	626	615	615	616	616	634	634	641	641	640	640	636	636	633	633	629	629	630	630	630	630	637	637	635	631	631	635	635	629	629	625	625	622	622	622	622	623	623	624	624	626	626	629	630	630	629	629	633	633	637	637	643	643	640	640	639	639	638	638	633	633	633	635	635	643	643	645	645	648	648	650	650	650	650	620	625	625	641	641	638	638	638	638	626	626	627	627	620	620	625	625	639	639	642	643	643	643	650	645	645	649	649	651	651	653	653	647	647	645	645	642	642	641	641	641	639	639	642	642	652	652	646	646	648	648	648	648	652	652	651	651	649	649	650	650	655	655	656	656	656	657	657	656	656	656	656	655	655	655	655	655	655	655	655	656	656	657	657	658	658	658	658	657	657	656	656	654	654	646	646	645	645	646	646	646	646	649	655	655	663	663	661	661	659	659	655	655	655	655	654	654	654	654	648	648	647	647	651	651	653	653	656	656	660	660	660	660	658	658	661	661	663	663	665	665	667	667	672	672	665	665	670	670	659	659	660	660	661	661	662	662	661	661	662	662	672	672	672	672	670	670	661	661	662	662	662	665	665	667	667	670	670	672	672	669	669	665	665	666	666	672	672	679	679	681	681	682	682	681	681	681	681	674	674	679	679	676	676	672	672	677	677	678	678	679	678	678	674	674	667	667	667	667	673	673	689	689	676	676	661	661	661	661	665	665	670	670	666	666	669	667	667	669	669	669	669	680	680	689	689	694	694	686	686	676	676	674	674	672	671	671	672	672	670	670	673	673	684	684	687	687	683	683	678	678	691	688	688	684	684	677	677	695	695	675	675	679	679	681	681	683	684	684	684	684	688	688	686	686	685	685	686	686	688	688	687	685	685	682	682	682	682	682	682	680	680	680	680	683	683	699	699	697	682	682	698	698	695	695	691	691	695	695	696	696	703	703	704	704	704	684	684	684	684	691	691	694	694	693	693	691	691	693	693	695	695	695	695	703	703	703	703	698	698	696	696	692	690	690	689	689	691	691	687	687	689	689	692	692	698	698	687	687	687	687	689	689	692	692	705	705	702	702	705	705	705	705	698	698	693	693	693	694	694	691	691	690	690	691	691	691	691	691	691	697	697	692	692	700	700	703	703	703	704	704	702	702	695	695	696	696	704	704	0	0	0	0	0	0	0	0
599	598	598	593	593	593	593	593	593	593	593	590	590	590	590	590	580	580	581	581	583	583	583	601	601	604	604	604	609	609	601	601	605	605	605	605	605	603	603	601	601	602	602	602	606	606	610	610	615	615	615	615	615	614	614	612	612	613	613	614	614	615	615	616	616	616	619	619	620	620	620	620	618	618	616	616	616	616	617	617	619	619	621	621	622	622	622	623	623	624	610	617	617	620	620	618	618	618	618	618	618	617	617	616	616	614	614	619	619	619	619	619	619	616	616	619	619	627	627	617	617	621	621	620	620	618	618	617	612	612	611	611	611	611	609	609	612	612	611	611	610	610	611	611	621	621	624	624	629	629	629	629	629	627	627	627	627	621	621	621	621	621	621	621	621	621	621	623	623	622	626	629	630	630	629	629	633	633	637	637	643	643	640	640	639	639	638	638	633	633	633	635	635	643	643	645	645	648	648	650	650	650	650	620	620	625	641	641	638	638	638	638	626	626	627	627	620	620	625	625	639	639	642	643	643	643	643	643	643	642	642	640	640	630	630	632	632	632	632	633	633	637	637	637	638	638	636	636	632	632	632	632	633	633	641	641	643	643	642	642	634	634	627	627	642	642	651	644	644	642	642	630	630	631	631	645	645	650	650	646	646	646	646	640	640	657	657	658	658	658	658	657	657	656	656	654	654	646	646	645	645	646	646	646	646	649	655	655	663	663	661	661	659	659	655	655	655	655	654	654	654	654	648	648	647	647	651	651	653	653	656	656	660	660	660	660	658	658	661	661	663	663	665	665	667	667	672	672	665	665	670	670	659	659	660	660	661	661	662	662	661	661	662	662	672	672	672	672	670	670	661	661	662	662	662	665	665	667	667	670	670	672	672	669	669	665	665	666	666	672	672	679	679	681	681	678	678	677	677	676	676	670	670	669	669	669	669	667	667	667	667	669	669	669	668	668	665	665	664	664	665	665	669	669	667	667	659	659	658	658	658	658	660	660	664	664	662	662	663	663	663	664	664	665	665	667	667	670	670	672	672	666	666	676	676	674	674	672	671	671	672	672	670	670	673	673	684	684	687	687	683	683	678	678	691	688	688	684	684	677	677	695	695	675	675	679	679	681	681	683	684	684	684	684	688	688	686	686	685	685	686	686	688	665	673	673	673	674	674	676	676	676	676	674	674	671	671	670	670	669	669	667	666	666	675	675	681	681	689	689	687	687	687	687	688	688	685	685	674	676	676	675	675	679	679	687	687	681	681	684	684	688	688	692	692	694	694	694	694	685	685	686	686	693	693	692	691	691	684	684	681	681	681	681	682	682	681	681	683	683	685	685	687	687	689	689	691	691	695	695	691	691	688	688	678	678	677	677	683	683	683	685	685	687	687	687	690	691	691	691	691	691	691	697	697	692	692	700	700	703	703	703	704	704	702	702	695	695	696	696	704	704	0	0	0	0	0	0	0	0
572	574	574	572	572	572	585	585	585	585	585	584	584	583	583	583	580	580	581	581	583	583	583	601	601	604	604	604	609	609	601	601	605	605	605	605	605	603	603	601	601	602	602	602	606	606	609	609	611	611	612	612	612	612	612	611	611	609	609	609	609	609	609	610	610	610	611	611	616	616	615	615	609	609	610	610	609	609	609	609	606	606	613	613	613	613	613	614	614	610	610	617	617	620	620	618	618	618	618	618	618	617	617	616	616	614	614	619	619	619	619	619	619	616	616	619	619	627	627	617	617	621	621	620	620	618	618	617	612	612	611	611	611	611	609	609	612	612	611	611	610	610	611	611	621	621	624	624	629	629	629	629	629	627	627	627	627	621	621	621	621	621	621	621	621	621	621	623	623	622	622	620	622	622	619	619	628	628	630	630	635	635	634	634	632	632	630	630	626	628	628	630	630	639	639	643	643	641	641	615	615	617	617	616	616	619	621	621	615	615	622	622	618	618	621	621	620	620	619	619	623	623	623	625	625	634	634	633	633	628	642	640	640	630	630	632	632	632	632	633	633	637	637	637	638	638	636	636	632	632	632	632	633	633	641	641	643	643	642	642	634	634	627	627	642	642	651	644	644	642	642	630	630	631	631	645	645	650	650	646	646	646	646	640	640	645	645	653	653	653	653	649	649	640	640	639	639	638	638	639	639	640	640	643	643	648	650	650	654	654	647	647	647	647	651	651	652	652	647	647	644	644	642	642	642	642	645	645	647	647	650	650	651	651	652	652	654	654	654	654	653	653	649	649	649	649	650	650	650	650	652	652	656	656	658	658	660	660	660	660	661	661	660	660	659	659	657	657	658	658	659	659	660	660	660	662	662	663	663	663	663	662	662	658	658	659	659	666	666	666	666	664	664	673	673	678	678	677	677	676	676	670	670	669	669	669	669	667	667	667	667	669	669	669	668	668	665	665	664	664	665	665	669	669	667	667	659	659	658	658	658	658	660	660	664	664	662	663	663	663	663	664	664	665	665	667	667	670	670	663	663	664	664	664	664	666	666	670	668	668	665	665	659	659	659	659	658	658	668	668	662	662	664	664	667	667	667	670	670	667	667	669	669	672	672	673	673	676	676	677	678	678	678	678	679	679	678	678	677	677	679	679	665	665	673	673	673	674	674	676	676	676	676	674	674	671	671	670	670	669	669	667	666	666	675	675	681	681	689	689	687	687	687	687	688	688	685	685	674	676	676	675	675	679	679	687	687	681	681	684	684	688	688	692	692	694	694	694	694	685	685	686	686	693	693	692	691	691	684	684	681	681	681	681	682	682	681	681	683	683	685	685	687	687	689	689	691	691	695	695	691	691	688	688	678	678	677	677	677	683	683	685	685	687	687	687	687	688	688	687	687	686	686	684	684	687	687	688	688	690	690	690	690	690	690	690	691	691	693	693	692	692	0	0	0	0	0	0	0	0
572	574	574	572	572	572	585	585	585	585	585	584	584	583	583	583	579	579	575	575	575	575	575	576	576	576	576	584	584	584	590	590	592	592	594	594	594	597	597	596	596	602	602	602	606	606	609	609	611	611	612	612	612	612	612	611	611	609	609	609	609	609	609	610	610	611	611	611	616	616	615	615	609	609	610	610	609	609	609	609	606	606	613	613	613	613	598	597	597	596	596	597	597	594	594	606	606	612	612	611	611	610	610	607	607	605	605	607	607	611	611	604	604	604	604	603	603	606	606	611	611	611	611	613	613	607	607	611	606	606	608	608	608	608	607	607	606	606	606	606	606	606	608	608	608	608	618	618	618	618	622	622	622	621	621	620	620	618	618	616	616	615	615	615	615	616	616	618	618	619	619	619	613	613	616	616	618	628	630	630	635	635	634	634	632	632	630	630	626	628	628	630	630	639	639	643	643	641	641	615	615	617	617	616	616	619	621	621	615	615	622	622	618	618	621	621	620	620	619	619	623	623	623	625	625	634	634	633	633	628	628	622	622	622	622	622	622	630	630	632	632	632	632	632	631	631	627	627	625	625	625	625	627	627	632	632	632	632	631	631	630	630	620	620	622	622	624	624	626	627	627	628	628	627	627	628	628	631	631	631	631	629	629	627	627	627	627	635	635	636	636	649	649	640	640	639	639	638	638	639	639	640	640	643	643	648	648	650	654	654	647	647	647	647	651	651	652	652	647	647	644	644	642	642	642	642	645	645	647	647	650	650	651	651	652	652	654	654	654	654	653	653	649	649	649	649	650	650	650	650	652	652	656	656	658	658	660	660	660	660	661	661	660	660	659	659	657	657	658	658	659	659	660	660	660	662	662	663	663	663	663	662	662	658	658	659	659	666	666	654	654	649	649	643	643	643	643	644	644	649	649	664	664	663	663	661	661	664	664	664	664	665	665	665	665	665	663	663	662	662	662	662	660	660	659	659	652	652	653	653	656	656	658	658	660	660	661	661	661	662	662	662	662	664	664	665	665	664	664	663	663	664	664	664	664	666	670	670	668	668	665	665	659	659	659	659	658	658	668	668	662	662	664	667	667	667	667	670	670	667	667	669	669	672	672	673	673	676	676	677	678	678	678	678	679	679	678	666	670	670	669	669	665	665	669	672	672	673	673	673	673	672	672	672	672	670	670	664	664	662	662	662	661	661	659	659	655	655	667	667	674	674	658	658	670	670	670	670	671	673	673	674	674	673	673	678	678	675	675	674	674	681	681	682	682	681	681	678	678	676	676	670	670	666	666	666	678	678	679	679	679	679	679	679	679	679	675	675	674	674	674	674	656	656	686	686	689	689	689	689	689	689	673	673	672	672	670	670	670	675	675	684	684	685	685	685	685	683	683	687	687	686	686	684	684	687	687	688	688	690	690	690	690	690	690	690	691	691	693	693	692	692	0	0	0	0	0	0	0	0
566	566	566	571	571	571	572	572	572	572	572	573	573	576	576	576	579	579	575	575	575	575	575	576	576	576	576	584	584	584	590	590	592	592	594	594	594	597	597	596	596	602	602	606	572	572	575	575	576	576	577	577	577	577	577	584	584	606	606	604	604	604	604	604	604	598	598	598	594	594	593	593	593	593	599	599	602	602	603	603	602	602	599	599	598	598	598	597	597	596	596	597	597	594	594	606	606	612	612	611	611	610	610	607	607	605	605	607	607	611	611	604	604	604	604	603	603	606	606	611	611	611	611	613	613	607	607	611	606	606	608	608	608	608	607	607	606	606	606	606	606	606	608	608	608	608	618	618	618	618	622	622	622	621	621	620	620	618	618	616	616	615	615	615	615	616	616	618	618	619	619	619	613	613	616	616	618	618	624	624	626	626	623	623	620	620	618	618	619	620	620	620	620	623	623	611	611	615	615	613	613	614	614	615	615	614	613	613	609	609	613	613	616	616	617	617	617	617	618	618	617	617	617	614	614	620	620	624	624	626	626	617	617	618	618	622	622	630	630	632	632	632	632	632	631	631	627	627	625	625	625	625	627	627	632	632	632	632	631	631	630	630	620	620	622	622	624	624	626	627	627	628	628	627	627	628	628	631	631	631	631	629	629	627	627	627	627	635	635	636	636	630	630	632	632	633	633	634	634	636	636	637	637	639	639	642	642	644	645	645	639	639	641	641	644	644	645	645	644	644	642	642	640	640	639	639	640	640	641	641	641	641	641	641	639	639	642	642	645	645	647	647	648	648	644	644	642	642	646	646	650	650	653	653	654	654	656	656	656	656	655	655	655	655	651	651	652	652	655	655	655	655	654	656	656	657	657	657	657	655	655	652	652	647	647	647	647	655	655	654	654	649	649	643	643	643	643	644	644	649	649	664	664	663	663	661	661	664	664	664	664	665	665	665	665	665	663	663	662	662	662	662	660	660	659	659	652	652	653	653	656	656	658	658	660	660	661	661	661	662	662	662	662	664	658	660	660	661	661	661	661	662	662	662	662	663	662	662	661	661	659	659	655	655	655	655	654	654	656	656	660	660	661	662	662	660	660	664	664	658	658	657	657	659	659	665	665	671	671	672	672	672	671	671	666	666	666	666	670	670	669	669	665	665	669	672	672	673	673	673	673	672	672	672	672	670	670	664	664	662	662	662	661	661	659	659	655	655	667	667	674	674	658	658	670	670	670	670	671	673	673	674	674	673	673	678	678	675	675	674	674	681	681	682	682	681	681	678	678	676	676	670	670	666	666	666	678	678	679	679	679	679	679	679	679	679	675	675	674	674	674	674	656	656	686	686	689	689	689	689	689	689	673	673	672	672	670	670	670	675	675	684	684	685	685	685	685	683	683	682	682	680	680	680	680	678	678	676	676	673	673	673	675	675	674	674	681	681	685	685	686	686	0	0	0	0	0	0	0	0
566	566	566	571	571	571	572	572	572	572	572	573	573	576	576	576	573	573	573	573	571	571	571	570	570	570	570	573	573	573	578	578	590	590	591	591	591	591	591	579	579	576	576	572	572	572	575	575	576	576	577	577	577	577	577	584	584	606	606	604	604	604	604	604	604	598	598	598	594	594	593	593	593	593	599	599	602	602	603	603	602	602	599	593	591	591	593	593	593	592	592	590	590	589	589	584	584	587	587	597	597	604	604	602	602	601	601	599	599	601	601	601	601	598	598	598	598	604	604	607	607	607	607	607	607	598	598	599	601	601	602	602	603	603	604	604	604	604	605	605	604	604	606	606	608	608	607	607	607	607	609	609	612	617	617	612	612	610	610	609	609	609	609	604	604	611	611	612	612	613	613	612	611	611	605	605	602	602	609	609	607	607	616	616	620	620	618	618	619	620	620	620	620	623	623	611	611	615	615	613	613	614	614	615	615	614	613	613	609	609	613	613	616	616	617	617	617	617	618	618	617	617	617	614	614	620	620	624	624	626	626	617	617	618	618	619	619	615	615	623	623	624	624	625	626	626	625	625	624	624	624	624	625	625	623	623	629	629	621	621	619	619	617	617	618	618	619	619	622	626	626	626	626	624	624	622	622	620	620	620	620	620	620	619	619	619	619	620	620	621	621	627	627	627	627	629	629	630	634	636	636	637	637	639	639	642	642	644	645	645	639	639	641	641	644	644	645	645	644	644	642	642	640	640	639	639	640	640	641	641	641	641	641	641	639	639	642	642	645	645	647	647	648	648	644	644	642	642	646	646	650	650	653	653	654	654	656	656	656	656	655	655	655	655	651	651	652	652	655	655	655	655	654	656	656	657	657	657	657	655	655	652	646	643	643	645	645	644	644	642	642	642	642	642	642	641	641	640	640	639	639	644	644	654	654	659	659	661	661	658	658	656	659	659	660	660	658	658	655	655	649	649	648	648	649	649	648	648	649	649	649	649	645	645	654	654	655	656	656	657	657	658	658	658	658	660	660	661	661	661	661	662	662	662	662	663	662	662	661	661	659	659	655	655	655	655	654	654	656	656	660	660	661	662	662	660	660	664	664	658	658	657	657	659	659	665	665	671	672	672	672	672	663	663	663	663	662	662	662	662	663	663	663	663	663	665	665	665	665	667	667	669	669	667	667	664	664	662	662	661	660	660	659	659	654	654	650	650	648	648	651	651	656	656	660	660	662	662	665	668	668	669	669	669	669	669	669	669	669	671	671	671	671	670	670	669	669	669	669	665	665	661	661	659	659	658	659	659	666	666	671	671	673	673	672	672	672	672	665	665	659	659	656	656	654	654	653	653	657	657	667	667	662	662	666	666	666	669	669	671	671	676	676	680	680	679	679	675	675	674	674	674	680	680	680	678	678	676	676	673	673	673	675	675	674	674	681	681	685	685	686	686	0	0	0	0	0	0	0	0
563	565	565	565	565	565	565	565	565	565	565	571	571	572	572	573	573	573	573	573	571	571	571	570	570	570	570	573	573	573	578	578	590	590	591	591	591	591	591	579	579	576	576	572	572	572	573	573	574	574	575	575	574	574	574	574	574	572	572	603	603	601	601	599	599	592	592	592	588	588	588	588	587	587	589	589	595	595	596	596	595	595	593	593	591	591	593	593	593	592	592	590	590	589	589	584	584	587	587	597	597	604	604	602	602	601	601	599	599	601	601	601	601	598	598	598	598	604	604	607	607	607	607	607	607	598	598	599	601	601	602	602	603	603	604	604	604	604	605	605	604	604	606	606	608	608	607	607	607	607	609	609	612	612	617	612	612	610	610	609	609	609	609	604	604	611	611	612	612	613	613	612	611	611	605	605	602	602	609	609	607	607	616	616	609	609	612	612	614	614	614	611	611	612	612	611	611	610	610	610	610	611	611	611	611	610	608	608	605	605	607	607	607	607	611	611	611	611	611	611	612	612	614	614	619	620	620	604	604	597	597	612	612	612	612	611	611	611	611	623	623	624	624	625	626	626	625	625	624	624	624	624	625	625	623	623	629	629	621	621	619	619	617	617	618	618	619	619	622	626	626	626	626	624	624	622	622	620	620	620	620	620	620	619	619	619	619	620	620	621	621	627	627	627	627	629	629	630	630	631	631	632	632	633	633	634	634	633	633	633	635	635	637	637	638	638	638	638	638	638	637	637	634	634	633	633	633	633	633	633	636	636	632	632	633	633	633	633	639	639	639	639	640	640	640	640	640	640	641	641	638	638	647	647	652	652	653	653	651	651	652	652	649	649	647	647	646	646	646	646	648	648	648	650	650	650	650	649	649	647	647	646	646	643	643	645	645	644	644	642	642	642	642	642	642	641	641	640	640	639	639	644	644	654	654	659	659	661	661	658	658	656	659	659	660	660	658	658	655	655	649	649	648	648	649	649	648	648	649	649	649	649	645	645	654	654	655	656	656	657	651	652	652	653	653	654	654	654	654	655	655	658	658	657	657	650	653	653	653	653	650	650	651	651	651	651	653	653	655	655	657	657	658	659	659	659	659	658	658	654	654	651	651	648	648	649	649	660	657	657	663	663	663	663	663	663	662	662	662	662	663	663	663	663	663	665	665	665	665	667	667	669	669	667	667	664	664	662	662	661	660	660	659	659	654	654	650	650	648	648	651	651	656	656	660	660	662	662	665	668	668	669	669	669	669	669	669	669	669	671	671	671	671	670	670	669	669	669	669	665	665	661	661	659	659	658	658	659	666	666	671	671	673	673	672	672	672	672	665	665	659	659	656	656	654	654	653	653	657	657	667	667	662	662	666	666	666	669	669	671	671	676	676	680	680	679	679	675	675	674	674	674	674	674	674	674	674	665	665	665	663	663	664	664	662	662	661	661	659	659	667	667	667	0	0	0	0	0	0	0
563	565	565	565	565	565	565	565	565	565	565	571	571	572	572	573	568	568	568	568	567	567	567	568	568	568	568	565	565	565	567	567	566	566	573	573	573	573	573	570	570	571	571	572	572	572	573	573	574	574	575	575	574	574	574	574	574	572	572	603	603	601	601	599	599	592	592	592	588	588	588	588	587	587	589	589	595	595	596	596	591	591	591	591	589	589	588	588	588	587	587	589	589	585	585	580	580	576	576	575	575	578	578	587	587	594	594	599	599	598	598	595	595	594	594	593	593	591	591	578	578	577	577	581	581	589	589	593	594	594	597	597	598	598	598	598	598	598	598	598	599	599	599	599	598	598	598	598	598	598	596	596	593	593	588	582	582	584	584	600	600	601	601	598	598	602	602	604	604	610	610	608	608	606	599	599	593	593	593	593	593	593	597	597	599	599	607	607	606	606	614	611	611	612	612	611	611	610	610	610	610	611	611	611	611	610	608	608	605	605	607	607	607	607	611	611	611	611	611	611	612	612	614	614	619	620	620	604	604	597	597	612	612	612	612	611	611	611	611	612	612	616	616	618	619	619	617	617	616	616	616	616	617	617	613	613	609	609	607	607	610	610	612	612	615	615	617	617	619	619	620	619	619	619	619	617	617	619	619	617	617	617	617	616	616	615	615	611	611	614	614	619	619	622	622	622	622	623	623	624	624	624	624	625	625	625	634	633	633	633	635	635	637	637	638	638	638	638	638	638	637	637	634	634	633	633	633	633	633	633	636	636	632	632	633	633	633	633	639	639	639	639	640	640	640	640	640	640	641	641	638	638	647	647	652	652	653	653	651	651	652	652	649	649	647	647	646	646	646	646	648	648	648	650	641	638	638	635	635	640	640	637	637	638	638	638	638	641	641	641	641	640	640	639	639	638	638	638	638	637	637	634	634	631	631	630	630	629	629	630	632	632	639	639	647	647	646	646	637	637	635	635	637	637	639	639	641	641	642	642	641	641	645	645	647	649	649	651	651	651	651	652	652	653	653	654	654	654	654	655	655	658	658	657	657	650	653	653	653	653	650	650	651	651	651	651	653	653	655	655	657	657	658	659	659	659	659	658	658	654	654	651	651	648	648	649	644	646	645	645	646	646	652	652	654	654	653	653	656	656	656	656	656	656	656	656	656	647	647	642	642	657	657	638	638	662	662	654	654	655	655	655	653	653	650	650	647	647	643	643	643	643	645	645	648	648	650	650	662	665	665	667	667	667	667	666	666	663	663	663	663	663	663	666	666	662	662	665	665	664	664	657	657	657	657	653	653	655	654	654	664	664	665	665	669	669	668	668	659	659	650	650	649	649	650	650	652	652	653	653	653	653	656	656	660	660	660	662	662	661	661	671	671	674	674	655	655	640	640	651	651	649	649	642	674	674	674	665	665	665	663	663	664	664	662	662	661	661	659	659	667	667	667	0	0	0	0	0	0	0
556	557	557	557	557	557	561	561	560	560	564	564	564	566	566	568	568	568	568	568	567	567	567	568	568	568	568	565	565	565	567	567	566	566	573	573	573	573	573	570	570	571	570	571	571	571	572	572	573	573	573	573	572	572	570	570	570	569	569	568	568	567	567	568	568	585	585	585	584	584	583	583	584	584	587	587	590	590	591	591	591	591	591	591	589	589	588	588	587	587	587	589	589	585	585	580	580	576	576	575	575	578	578	587	587	594	594	599	599	598	598	595	595	594	594	593	593	591	591	578	578	577	577	581	581	589	589	593	594	594	597	597	598	598	598	598	598	598	598	598	599	599	599	599	598	598	598	598	598	598	596	596	593	593	588	582	582	584	584	600	600	601	601	598	598	602	602	604	604	610	610	608	608	606	599	599	593	593	593	593	593	593	597	597	599	599	607	607	606	606	606	599	599	599	599	599	599	593	593	605	605	605	605	606	606	604	604	603	602	602	602	602	603	603	604	604	600	600	598	598	596	596	592	592	598	600	600	597	597	597	597	600	600	605	605	606	606	607	607	608	608	610	610	610	618	619	617	617	616	616	616	616	617	617	613	613	609	609	607	607	610	610	612	612	615	615	617	617	619	619	620	619	619	619	619	617	617	619	619	617	617	617	617	616	616	615	615	611	611	614	614	619	619	622	622	622	622	623	623	624	624	624	624	625	625	625	625	629	629	630	630	630	630	630	631	631	631	631	630	630	630	630	628	628	628	628	628	628	629	629	629	629	630	630	631	631	631	631	631	631	628	628	629	629	632	632	632	632	626	626	626	626	624	624	624	624	624	624	628	628	643	643	641	641	628	628	636	636	632	632	632	640	640	641	641	638	638	635	635	640	640	637	637	638	638	638	638	641	641	641	641	640	640	639	639	638	638	638	638	637	637	634	634	631	631	630	630	629	629	630	632	632	639	639	647	647	646	646	637	637	635	635	637	637	639	639	641	641	642	642	641	641	645	645	647	643	643	644	644	645	645	645	645	642	642	645	645	646	646	646	646	637	637	633	628	628	631	631	641	641	644	644	645	645	645	645	646	646	649	649	650	650	655	655	655	653	653	649	649	646	646	646	646	643	643	644	644	646	645	645	646	646	652	652	654	654	653	653	656	656	656	656	656	656	656	656	656	647	647	642	642	657	657	638	638	662	662	654	654	655	655	655	653	653	650	650	647	647	643	643	643	643	645	645	648	648	650	650	662	665	665	667	667	667	667	666	666	663	663	663	663	663	663	666	666	662	662	665	665	664	664	657	657	657	657	653	653	655	654	654	664	664	665	665	669	669	668	668	659	659	650	650	649	649	650	650	652	652	653	653	653	653	656	656	656	660	660	662	662	661	661	671	671	674	674	655	655	640	640	651	651	649	649	642	642	644	644	647	647	647	657	657	656	656	655	655	653	653	653	653	652	652	652	0	0	0	0	0	0	0
556	557	557	557	557	557	561	561	560	560	564	564	564	566	566	568	562	562	563	563	563	563	563	563	563	563	563	562	562	562	564	564	566	566	566	566	568	568	568	569	569	570	570	571	571	571	572	572	573	573	573	573	572	572	570	570	570	569	569	568	568	567	567	568	568	585	585	584	584	584	583	583	584	584	587	587	590	587	588	588	588	588	588	588	586	586	567	567	570	570	570	581	581	576	576	570	570	571	571	569	569	568	568	575	575	588	588	579	579	559	559	578	578	588	588	584	584	581	581	573	573	574	574	576	576	583	583	588	590	590	592	592	592	592	592	592	592	592	590	590	591	591	592	592	586	586	592	592	585	585	585	585	583	583	581	582	582	584	584	592	592	597	597	596	596	585	585	579	579	577	577	579	579	584	590	590	591	591	589	589	585	585	585	585	585	585	594	594	597	597	597	592	592	591	591	599	599	593	593	605	605	605	605	606	606	604	604	603	602	602	602	602	603	603	604	604	600	600	598	598	596	596	592	592	598	600	600	597	597	597	597	600	600	605	605	606	606	607	607	608	608	610	610	610	610	603	603	603	603	603	604	604	608	608	603	603	602	602	603	603	604	604	608	608	610	610	612	612	614	614	614	610	610	611	611	609	609	611	611	610	610	610	610	609	609	609	609	610	610	610	610	614	614	615	615	615	615	610	610	609	609	611	611	618	618	621	621	622	622	623	620	620	618	618	616	616	625	631	630	630	630	630	628	628	628	628	628	628	629	629	629	629	630	630	631	631	631	631	631	631	628	628	629	629	632	632	632	632	626	626	626	626	624	624	624	624	624	624	628	628	643	643	641	629	628	628	629	629	630	630	625	626	626	628	628	626	626	630	630	631	631	632	632	632	632	633	633	633	633	632	632	631	631	618	618	631	631	631	631	630	630	628	628	628	628	627	627	628	628	628	632	632	633	633	633	633	632	632	632	632	631	631	635	635	631	631	637	637	637	637	638	638	639	639	641	643	643	644	644	645	645	645	645	642	642	645	645	646	646	646	646	637	637	633	628	628	631	631	641	641	644	644	645	645	645	645	646	646	649	649	650	655	655	655	655	653	653	649	649	646	646	639	639	639	639	638	638	641	640	640	637	637	638	638	638	638	652	652	652	652	645	645	641	642	642	642	642	641	641	639	639	637	637	638	638	637	637	641	641	648	649	649	648	648	646	646	642	642	640	640	635	635	633	633	637	637	631	631	630	629	629	627	627	626	626	630	630	657	657	659	659	658	658	658	658	659	659	656	656	651	651	647	647	649	649	648	648	650	652	652	654	654	645	645	640	640	645	645	644	644	646	646	648	648	648	648	650	650	647	647	644	644	647	647	647	653	653	655	655	632	632	640	640	637	637	636	636	638	638	637	637	637	637	637	637	636	644	647	647	647	657	657	656	656	655	655	653	653	653	653	652	652	652	0	0	0	0	0	0	0
547	547	547	553	553	554	554	554	553	553	557	557	557	561	561	562	562	562	563	563	563	563	563	563	563	563	563	562	562	562	564	564	566	566	566	566	568	568	568	569	569	570	566	567	567	567	568	568	569	569	568	568	568	568	568	568	568	567	567	566	566	565	565	562	562	561	561	561	561	561	569	569	571	571	581	581	587	587	588	588	588	588	588	588	586	586	567	567	570	570	570	581	581	576	576	570	570	571	571	569	569	568	568	575	575	588	588	579	579	559	559	578	578	588	588	584	584	581	581	573	573	574	574	576	576	583	583	588	590	590	592	592	592	592	592	592	592	592	590	590	591	591	592	592	586	586	592	592	585	585	585	585	583	583	581	582	582	584	584	592	592	597	597	596	596	585	585	579	579	577	577	579	579	584	590	590	591	591	589	589	585	585	585	585	585	585	594	594	597	597	597	592	592	591	591	592	592	593	593	597	597	600	600	599	599	598	598	597	596	596	597	597	597	597	598	598	593	593	595	595	590	590	590	590	590	592	592	592	592	593	593	596	596	599	599	600	600	600	600	600	600	601	601	598	598	601	598	598	600	603	604	604	608	608	603	603	602	602	603	603	604	604	608	608	610	610	612	612	614	614	614	610	610	611	611	609	609	611	611	610	610	610	610	609	609	609	609	610	610	610	610	614	614	615	615	615	615	610	610	609	609	611	611	618	618	621	621	622	622	623	620	620	618	618	616	616	625	625	622	622	618	618	621	621	619	619	620	620	622	622	625	625	625	625	626	626	625	625	624	624	624	624	621	621	622	622	625	625	624	624	621	621	621	621	619	619	619	619	620	620	625	625	629	629	628	628	629	629	630	630	625	626	626	628	628	626	626	630	630	631	631	632	632	632	632	633	633	633	633	632	632	631	631	618	618	631	631	631	631	630	630	628	628	628	628	627	627	628	628	628	632	632	633	633	633	633	632	632	632	632	631	631	635	635	631	631	637	637	637	637	634	634	635	635	636	636	636	636	636	637	637	636	636	624	624	626	626	633	633	636	636	631	631	627	625	625	626	626	626	626	636	636	637	637	637	637	630	630	623	623	622	622	622	622	622	625	625	637	637	637	637	639	639	639	639	638	638	641	640	640	637	637	638	638	638	638	652	652	652	652	645	645	641	642	642	642	642	641	641	639	639	637	637	638	638	637	637	641	641	648	649	649	648	648	646	646	642	642	640	640	635	635	633	633	637	637	631	631	630	629	629	627	627	626	626	630	630	657	657	659	659	658	658	658	658	659	659	656	656	651	651	647	647	649	649	648	648	650	652	652	654	654	645	645	640	640	645	645	644	644	646	646	648	648	648	648	650	650	647	647	644	644	644	647	647	653	653	655	655	632	632	640	640	637	637	636	636	638	638	637	637	637	637	637	637	636	636	639	639	639	640	640	643	643	649	649	649	649	647	647	648	648	648	0	0	0	0	0	0	0
547	547	547	553	553	554	554	554	553	553	557	557	557	561	561	562	560	560	560	560	558	558	558	558	558	558	558	559	559	561	561	561	563	563	565	565	567	567	567	566	566	566	566	567	567	568	568	568	569	569	568	568	568	568	568	568	568	567	567	566	566	565	565	562	562	561	561	561	561	561	569	569	571	571	581	566	568	568	552	552	552	552	554	554	556	556	557	557	557	557	557	560	560	561	561	566	566	567	567	568	568	565	565	572	572	574	574	563	563	559	559	563	563	567	567	568	568	569	569	567	567	571	571	570	570	571	571	579	583	583	585	585	587	587	586	586	586	586	587	587	586	586	585	585	583	583	577	577	574	574	571	571	576	576	579	577	577	575	575	575	575	587	587	588	588	574	574	575	575	575	575	577	577	578	583	583	585	585	584	584	583	583	580	580	579	579	582	582	576	576	586	590	590	590	590	590	590	591	591	591	591	600	600	599	599	598	598	597	596	596	597	597	597	597	598	598	593	593	595	595	590	590	590	590	590	590	592	592	592	593	593	596	596	599	599	600	600	600	600	600	600	601	601	598	598	601	598	598	600	600	602	602	602	602	601	601	600	600	600	600	599	599	601	601	591	591	608	608	606	606	607	607	599	598	598	597	597	597	597	603	603	603	603	603	603	603	603	604	604	606	606	607	607	607	607	607	607	600	600	601	601	605	605	612	612	613	613	611	611	607	607	604	604	604	604	604	605	605	611	611	611	611	610	610	606	606	604	604	605	605	614	614	618	618	619	619	619	619	617	617	616	616	617	617	618	618	618	618	618	618	617	617	617	617	617	617	618	618	617	617	616	616	616	616	618	618	618	618	620	620	621	622	622	624	624	624	624	619	619	614	614	616	616	624	624	625	625	625	625	619	619	616	616	615	615	616	616	624	624	624	624	625	625	625	625	626	626	626	627	627	628	628	627	627	628	628	626	626	627	627	628	628	628	628	630	630	631	631	633	633	634	634	635	635	636	636	636	636	636	637	637	636	636	624	624	626	626	633	633	636	636	631	631	627	625	625	626	626	626	626	636	636	637	637	637	637	630	630	623	623	622	622	622	622	622	625	621	622	622	632	632	632	632	633	633	633	633	633	632	632	630	630	624	624	622	622	615	615	621	621	617	617	619	619	619	629	629	632	632	634	634	633	633	631	631	630	630	629	629	635	642	642	644	644	639	639	636	636	632	632	631	631	625	625	624	624	625	625	625	626	626	625	625	624	624	624	624	621	621	646	646	655	655	652	652	653	653	634	634	639	639	640	640	638	638	642	642	642	641	641	638	638	636	636	638	638	637	637	637	637	639	639	640	640	640	640	631	631	630	630	626	626	626	629	629	645	645	633	633	628	628	629	629	629	629	631	631	633	633	630	630	631	631	633	633	635	635	635	639	639	640	640	643	643	649	649	649	649	647	647	648	648	648	0	0	0	0	0	0	0
544	544	544	546	546	548	548	548	546	546	553	553	553	557	557	560	560	560	560	560	558	558	558	558	558	558	558	559	559	561	561	561	563	563	565	565	567	567	567	566	566	561	561	563	563	564	564	564	564	564	563	563	562	562	561	561	561	562	562	562	562	562	562	560	560	559	559	558	558	558	559	559	563	563	566	566	568	568	552	552	552	552	554	554	556	556	557	557	557	557	560	560	560	561	561	566	566	567	567	568	568	565	565	572	572	574	574	563	563	559	559	563	563	567	567	568	568	569	569	567	567	571	571	570	570	571	571	579	583	583	585	585	587	587	586	586	586	586	587	587	586	586	585	585	583	583	577	577	574	574	571	571	576	576	579	577	577	575	575	575	575	587	587	588	588	574	574	575	575	575	575	577	577	578	583	583	585	585	584	584	583	583	580	580	579	579	582	582	576	576	586	590	590	590	590	590	590	591	591	591	591	593	593	587	587	591	591	589	590	590	590	590	590	590	590	590	589	589	588	588	588	588	588	588	589	589	589	589	589	589	589	589	589	592	592	593	593	593	593	588	588	588	588	593	593	594	595	595	595	595	596	596	596	596	601	601	600	600	600	600	599	599	601	601	591	591	608	608	606	606	607	607	599	598	598	597	597	597	597	603	603	603	603	603	603	603	603	604	604	606	606	607	607	607	607	607	607	600	600	601	601	605	605	612	612	613	613	611	611	607	607	604	604	604	604	604	605	605	611	611	611	611	610	610	606	606	604	604	605	605	614	614	618	618	619	619	619	619	617	617	616	616	617	617	618	618	618	618	618	618	617	617	617	617	617	617	618	618	617	617	616	616	616	616	618	618	618	618	620	620	621	622	622	624	624	624	624	619	619	614	614	616	616	624	624	625	625	625	625	619	619	616	616	615	615	616	616	624	624	624	624	625	625	625	625	626	626	626	627	627	628	628	627	627	628	628	626	626	627	627	628	628	628	628	630	630	625	625	627	627	629	629	630	629	629	629	629	623	623	619	619	614	614	614	614	616	616	623	623	629	629	626	626	625	623	623	621	621	617	617	623	623	624	624	628	628	622	622	621	621	621	621	621	621	621	621	621	622	622	632	632	632	632	633	633	633	633	633	632	632	630	630	624	624	622	622	615	615	621	621	617	617	619	619	619	629	629	632	632	634	634	633	633	631	631	630	630	629	629	635	642	642	644	644	639	639	636	636	632	632	631	631	625	625	624	624	625	625	625	626	626	625	625	624	624	624	624	621	621	646	646	655	655	652	652	653	653	634	634	639	639	640	640	638	638	642	642	642	642	641	638	638	636	636	638	638	637	637	637	637	639	639	640	640	640	640	631	631	630	630	626	626	626	629	629	645	645	633	633	628	628	629	629	629	629	631	631	633	633	630	630	631	631	633	633	635	635	635	634	634	633	633	632	632	635	635	642	642	641	641	641	641	641	0	0	0	0	0	0	0
544	544	544	546	546	548	548	548	546	546	553	553	553	557	557	560	560	524	525	525	530	530	553	553	553	553	553	555	555	557	557	557	559	559	560	560	561	561	561	561	561	561	561	563	563	564	564	564	564	564	563	563	562	562	561	561	561	562	562	562	562	562	562	560	560	559	559	558	558	558	559	559	563	557	555	555	553	553	552	552	552	552	551	551	552	552	553	553	554	554	557	557	557	558	558	561	561	562	562	562	562	558	558	555	555	554	554	554	554	557	557	558	558	559	559	560	560	562	562	563	563	564	564	564	564	567	567	569	560	560	553	553	583	583	584	584	584	584	584	584	583	583	582	582	573	573	565	565	565	565	567	567	573	573	574	574	574	572	572	566	566	566	566	566	566	568	568	572	572	574	574	575	575	576	578	578	579	579	575	575	577	577	577	577	575	575	575	575	576	576	582	584	584	585	585	585	585	586	586	586	586	585	585	580	580	584	591	589	590	590	590	590	590	590	590	590	589	589	588	588	588	588	588	588	589	589	589	589	589	589	589	589	589	592	592	593	593	593	593	588	588	588	588	593	593	594	594	595	595	595	596	596	596	596	595	595	594	594	594	594	591	591	589	589	591	591	596	596	599	599	599	599	598	595	595	595	595	590	590	596	596	596	596	596	596	597	597	599	599	601	601	601	601	601	601	599	599	596	596	595	595	594	594	600	600	609	609	598	598	598	598	601	602	602	599	599	601	601	602	602	603	603	602	602	599	599	599	599	599	599	601	601	605	605	612	612	611	611	608	608	607	607	609	609	609	609	608	608	611	611	610	610	610	610	610	610	610	610	608	608	607	607	605	605	605	605	605	605	605	611	611	616	616	620	620	619	619	613	613	605	605	607	607	606	606	615	615	620	620	618	618	611	611	605	605	605	605	612	612	618	618	619	619	620	620	621	621	624	616	616	616	616	615	615	622	622	623	623	623	623	622	622	623	623	623	623	625	625	627	627	629	629	630	629	629	629	629	623	623	619	619	614	614	614	614	616	616	623	623	629	629	626	626	625	623	623	621	621	617	617	623	623	624	624	628	628	622	622	621	621	621	619	619	619	619	618	618	615	615	615	615	623	623	626	626	628	620	620	617	617	622	622	615	615	619	619	615	615	615	615	615	615	617	626	626	626	626	621	621	625	625	628	628	629	629	629	629	627	616	616	614	614	627	627	631	631	626	626	625	625	624	624	621	621	619	619	622	622	623	624	624	624	624	623	623	619	619	616	616	615	615	614	614	618	618	620	620	628	628	629	629	634	634	633	633	632	632	635	635	633	633	633	629	629	634	634	634	634	631	631	632	632	634	634	630	630	624	624	624	624	624	622	622	620	620	620	620	621	621	623	623	623	623	623	623	627	627	627	627	627	627	626	626	628	628	627	627	627	627	627	633	633	632	632	635	635	642	642	641	641	641	641	641	0	0	0	0	0	0	0
536	536	536	536	536	544	544	544	543	543	526	526	526	526	526	524	524	525	525	525	530	530	553	553	553	553	553	555	555	557	557	557	559	559	560	560	561	561	561	561	561	555	555	557	557	561	561	561	561	561	556	556	555	555	549	549	549	549	549	555	555	555	555	553	553	555	555	556	556	558	558	558	557	557	555	555	553	553	552	552	552	552	551	551	552	552	553	553	554	554	557	557	557	558	558	561	561	562	562	562	562	558	558	555	555	554	554	554	554	557	557	558	558	559	559	560	560	562	562	563	563	564	564	564	564	567	567	569	560	560	553	553	583	583	584	584	584	584	584	584	583	583	582	582	573	573	565	565	565	565	567	567	573	573	574	574	574	572	572	566	566	566	566	566	566	568	568	572	572	574	574	575	575	576	578	578	579	579	575	575	577	577	577	577	575	575	575	575	576	576	582	582	584	585	585	585	585	586	586	586	586	585	585	580	580	584	584	584	584	582	583	583	579	579	568	568	577	577	582	582	583	583	583	583	584	584	584	583	583	583	583	584	584	583	583	586	586	586	586	586	586	586	586	581	581	586	586	588	590	590	590	590	589	589	589	589	588	588	587	594	591	591	589	589	591	591	596	596	599	599	599	599	598	595	595	595	595	590	590	596	596	596	596	596	596	597	597	599	599	601	601	601	601	601	601	599	599	596	596	595	595	594	594	600	600	609	609	598	598	598	598	601	602	602	599	599	601	601	602	602	603	603	602	602	599	599	599	599	599	599	601	601	605	605	612	612	611	611	608	608	607	607	609	609	609	609	608	608	611	611	610	610	610	610	610	610	610	610	608	608	607	607	605	605	605	605	605	605	605	611	611	616	616	620	620	619	619	613	613	605	605	607	607	606	606	615	615	620	620	618	618	611	611	605	605	605	605	612	612	618	618	619	619	620	620	621	621	624	616	616	616	616	615	615	622	622	623	623	623	623	622	616	615	615	616	616	616	616	612	612	621	621	622	622	622	620	620	614	614	612	612	611	611	613	613	613	613	614	614	605	605	608	616	616	615	615	616	616	614	614	615	615	614	614	617	617	621	621	619	619	619	619	619	619	619	618	618	615	615	615	615	623	623	626	626	628	620	620	617	617	622	622	615	615	619	619	615	615	615	615	615	615	617	626	626	626	626	621	621	625	625	628	628	629	629	629	629	627	616	616	614	614	627	627	631	631	626	626	625	625	624	624	621	621	619	619	622	623	623	624	619	618	618	616	616	615	615	613	613	612	612	611	611	613	613	616	616	614	614	629	629	634	634	633	633	632	632	635	635	633	633	633	629	629	634	634	634	634	631	631	632	632	634	634	630	630	624	624	624	624	624	622	622	620	620	620	620	621	621	623	623	623	623	623	623	627	627	627	627	627	627	626	626	628	628	627	627	627	627	627	624	624	629	629	632	632	635	635	636	636	636	630	630	0	0	0	0	0	0	0
536	536	536	536	536	544	544	544	543	543	526	526	526	526	526	524	524	525	525	525	530	530	539	539	539	546	546	549	549	545	545	545	550	550	550	550	550	550	550	555	555	555	555	557	557	561	561	561	561	561	556	556	555	555	549	549	549	549	549	555	555	555	555	553	553	555	555	556	556	558	558	558	551	551	546	546	547	547	547	547	548	548	550	550	551	551	552	552	553	553	554	554	555	555	555	555	555	556	556	555	555	553	553	551	551	550	550	553	553	555	555	556	556	558	558	559	559	559	559	559	559	559	559	560	560	558	559	559	556	556	553	553	549	549	548	548	547	547	547	547	548	548	550	550	553	553	557	557	562	562	565	565	567	567	568	567	567	565	565	560	560	562	562	563	563	565	565	568	568	568	568	569	569	569	564	564	564	564	575	575	574	574	570	570	572	572	572	572	573	573	575	575	578	579	579	580	580	580	580	579	579	574	574	575	575	575	575	577	577	577	574	583	579	579	568	568	577	577	582	582	583	583	583	583	584	584	584	583	583	583	583	584	584	583	583	586	586	586	586	586	586	586	586	581	581	586	586	588	590	590	590	590	589	589	589	589	588	588	587	587	586	586	585	585	585	585	586	586	586	586	587	587	588	588	588	588	588	588	588	589	589	589	589	590	590	591	591	592	592	593	593	594	594	594	594	593	593	591	591	591	591	586	586	587	587	590	590	590	590	594	594	595	595	595	596	596	598	598	599	599	599	599	598	598	597	597	597	597	599	599	600	600	601	601	604	604	599	599	599	599	598	598	592	592	595	595	607	607	592	592	593	593	606	606	594	594	595	595	602	602	602	602	598	598	597	597	597	597	599	608	608	593	593	586	586	588	588	598	598	601	601	605	605	593	593	585	585	603	603	590	590	593	593	594	594	603	603	608	608	610	610	611	611	610	610	602	599	599	602	602	603	603	606	606	613	613	618	618	616	616	616	616	615	615	616	616	616	616	612	612	621	621	622	622	622	620	620	614	614	612	612	611	611	613	613	613	613	614	614	605	605	608	616	616	615	615	616	616	614	614	615	615	614	614	617	617	615	615	615	615	615	614	614	613	613	612	612	611	611	610	610	607	607	615	615	615	607	607	608	608	610	610	613	613	613	613	613	613	611	611	613	608	608	607	607	615	615	613	613	617	617	621	621	622	622	620	620	617	606	606	607	607	611	611	612	612	611	611	617	617	617	617	617	617	617	617	618	618	618	619	619	618	618	616	616	615	615	613	613	612	612	611	611	613	613	616	616	614	614	619	619	624	624	625	625	618	618	628	628	625	625	625	620	620	625	625	624	624	629	629	630	630	629	629	622	622	621	621	621	620	620	620	620	617	617	616	616	616	616	618	618	619	619	620	620	620	620	618	618	618	618	620	620	621	621	621	621	621	621	621	615	624	629	629	632	632	635	635	636	636	636	630	630	0	0	0	0	0	0	0
518	518	518	521	521	521	521	521	521	521	520	520	522	522	522	524	524	525	525	525	530	530	539	539	539	546	546	549	549	545	545	545	550	550	550	550	550	550	555	555	555	544	544	531	531	538	538	538	533	533	539	539	546	546	545	545	542	542	542	547	547	548	548	548	548	550	550	550	550	550	550	550	551	551	546	546	547	547	547	547	548	548	550	550	551	551	552	552	553	553	554	554	555	555	555	555	555	556	556	555	555	553	553	551	551	550	550	553	553	555	555	556	556	558	558	559	559	559	559	559	559	559	559	560	560	558	559	559	556	556	553	553	549	549	548	548	547	547	547	547	548	548	550	550	553	553	557	557	562	562	565	565	567	567	568	567	567	565	565	560	560	562	562	563	563	565	565	568	568	568	568	569	569	569	569	564	564	564	575	575	574	574	570	570	572	572	572	572	573	573	575	575	578	579	579	580	580	580	580	579	579	574	574	575	575	575	575	577	577	577	574	574	569	569	568	568	568	568	575	575	575	575	576	576	577	577	573	573	577	576	576	576	576	573	573	572	572	578	578	578	578	578	578	577	577	577	577	582	583	583	583	583	582	582	582	582	581	581	580	580	580	580	581	581	585	585	586	586	586	586	587	587	588	588	588	588	588	588	588	589	589	589	589	590	590	591	591	592	592	593	593	594	594	594	594	593	593	591	591	591	591	586	586	587	587	590	590	590	590	594	594	595	595	595	596	596	598	598	599	599	599	599	598	598	597	597	597	597	599	599	600	600	601	601	604	604	599	599	599	599	598	598	592	592	595	595	607	607	592	592	593	593	606	606	594	594	595	595	602	602	602	602	598	598	597	597	597	597	599	608	608	593	593	586	586	588	588	598	598	601	601	605	605	593	593	585	585	603	603	590	590	593	593	594	594	603	603	608	608	610	610	611	611	610	610	602	599	599	602	602	603	603	606	606	613	598	597	597	609	609	610	610	610	610	603	603	598	598	607	607	607	607	607	607	607	600	600	611	611	608	608	608	608	608	608	608	608	604	604	600	600	599	600	600	600	600	602	602	606	606	609	609	610	610	613	613	615	615	615	615	615	614	614	613	613	612	612	611	611	610	610	607	607	615	615	615	607	607	608	608	610	610	613	613	613	613	613	613	611	611	613	608	608	607	607	615	615	613	613	617	617	621	621	622	622	620	620	617	606	606	607	607	611	611	612	604	605	605	611	611	612	612	612	612	613	613	614	614	614	613	613	603	603	601	601	608	608	608	608	608	608	609	609	607	607	607	607	611	611	611	611	614	614	613	613	604	604	608	608	609	609	625	620	620	625	625	624	624	629	629	630	630	629	629	622	622	622	621	621	620	620	620	620	617	617	616	616	616	616	618	618	619	619	620	620	620	620	618	618	618	618	620	620	621	621	621	621	621	621	621	615	615	602	602	616	616	629	629	629	629	629	623	623	0	0	0	0	0	0	0
518	518	518	521	521	521	521	521	521	521	520	520	522	522	522	524	524	524	524	524	528	528	530	530	540	540	540	541	541	538	538	538	536	536	539	539	546	546	543	543	543	544	544	531	531	538	538	533	533	533	539	539	546	546	545	545	542	542	542	547	547	548	548	548	548	550	550	550	550	550	541	541	530	530	544	544	545	545	546	546	546	546	546	546	547	547	547	547	548	548	548	548	550	550	542	542	542	542	542	545	545	548	548	548	548	548	548	549	549	549	549	550	550	551	551	552	552	553	553	553	553	552	552	550	550	545	546	546	548	548	552	552	546	546	546	546	546	546	546	546	547	547	548	548	551	551	554	554	557	557	559	559	560	560	557	557	557	559	559	558	558	559	559	560	560	561	561	561	561	561	561	558	558	556	556	556	554	554	550	550	562	562	553	553	564	564	565	565	566	566	565	565	565	564	564	569	569	566	566	574	574	571	571	563	563	559	559	560	560	567	560	560	565	565	565	565	565	568	575	575	575	575	576	576	577	577	573	573	577	576	576	576	576	573	573	572	572	578	578	578	578	578	578	577	577	577	577	582	582	583	583	583	582	582	582	582	581	581	580	580	580	580	581	581	583	583	584	584	583	583	578	578	580	580	583	582	582	582	582	582	582	583	583	583	583	584	584	580	580	579	579	585	585	585	585	585	585	584	584	583	583	584	584	580	580	584	584	586	586	588	588	588	588	587	579	579	574	574	592	592	591	591	591	591	592	592	593	593	594	594	595	595	595	595	591	591	588	588	586	586	588	588	584	584	583	583	582	582	583	583	582	582	584	584	583	583	584	584	593	593	595	595	596	596	596	596	596	592	592	589	589	586	586	586	586	588	588	590	590	594	594	592	592	586	586	585	585	587	587	588	588	591	591	594	594	597	597	599	599	596	596	593	593	592	592	594	595	595	598	598	602	602	599	599	598	598	597	597	609	609	610	610	610	610	603	603	598	598	607	607	607	607	607	607	607	600	600	611	611	608	608	608	608	608	608	608	608	604	604	600	600	599	600	600	600	600	602	602	606	606	609	601	603	603	603	603	601	601	608	608	608	609	609	608	608	608	608	606	606	607	607	605	605	601	601	598	599	599	604	604	607	607	608	608	608	608	608	608	607	607	605	598	598	599	599	602	602	609	609	612	612	611	611	607	607	604	604	603	604	604	604	604	604	604	604	604	605	605	611	611	612	612	612	612	613	613	614	614	614	613	613	603	603	601	601	608	608	608	608	608	608	609	609	607	607	607	607	611	611	611	611	614	614	613	613	604	604	608	608	609	609	612	610	610	609	609	602	602	623	623	593	593	594	594	594	600	600	606	606	611	611	612	612	612	612	612	612	612	612	613	613	614	614	614	614	613	613	611	611	612	612	613	613	615	615	615	614	614	613	613	598	598	602	602	616	616	629	629	629	629	629	623	623	0	0	0	0	0	0	0
514	514	515	515	515	515	515	518	518	518	519	519	521	521	521	522	522	524	524	524	528	528	530	530	540	540	540	541	541	538	538	536	536	536	539	539	546	546	543	543	531	532	532	531	531	531	531	532	532	532	533	533	535	535	537	537	538	538	538	541	541	542	542	543	543	544	544	544	544	541	541	530	530	530	544	544	545	545	546	546	546	546	546	546	547	547	547	547	548	548	548	548	550	550	542	542	542	542	542	545	545	548	548	548	548	548	548	549	549	549	549	550	550	551	551	552	552	553	553	553	553	552	552	550	550	545	546	546	548	548	552	552	546	546	546	546	546	546	546	546	547	547	548	548	551	551	554	554	557	557	559	559	560	560	557	557	557	559	559	558	558	559	559	560	560	561	561	561	561	561	561	558	558	556	556	556	554	554	550	550	562	562	553	553	564	564	565	565	566	566	565	565	565	564	564	569	569	566	566	574	574	571	571	563	563	559	559	560	560	567	560	560	565	565	565	565	565	565	567	567	560	560	562	562	560	560	563	563	569	570	570	568	568	565	565	567	567	566	566	569	569	571	571	572	572	571	571	573	573	572	575	575	570	570	567	567	568	568	572	572	574	574	576	576	577	577	578	578	577	577	578	578	580	580	583	582	582	582	582	582	582	583	583	583	583	584	584	580	580	579	579	585	585	585	585	585	585	584	584	583	583	584	584	580	580	584	584	586	586	588	588	588	588	587	579	579	574	574	592	592	591	591	591	591	592	592	593	593	594	594	595	595	595	595	591	591	588	588	586	586	588	588	584	584	583	583	582	582	583	583	582	582	584	584	583	583	584	584	593	593	595	595	596	596	596	596	596	592	592	589	589	586	586	586	586	588	588	590	590	594	594	592	592	586	586	585	585	587	587	588	588	591	591	594	594	597	597	599	599	596	596	593	593	592	592	594	595	595	598	598	595	595	593	593	588	588	587	587	590	590	589	589	585	585	584	584	588	588	595	595	600	600	600	602	602	600	600	598	598	592	592	599	599	602	602	602	602	601	601	597	597	596	593	593	591	591	591	591	592	592	601	601	603	603	603	603	601	601	608	608	608	609	609	608	608	608	608	606	606	607	607	605	605	601	601	598	599	599	604	604	607	607	608	608	608	608	608	608	607	607	605	598	598	599	599	602	602	609	609	612	612	611	611	607	607	595	595	595	596	596	596	596	595	595	596	596	601	601	601	601	604	604	598	598	601	601	587	588	588	589	589	593	593	595	595	599	599	602	602	603	603	603	603	604	604	606	606	605	605	602	602	590	590	601	601	601	601	603	603	607	607	608	608	604	598	598	596	596	623	623	593	593	593	594	594	600	600	606	606	611	611	612	612	612	612	612	612	612	612	613	613	614	614	614	614	613	613	611	611	612	612	613	613	615	615	615	614	614	613	613	598	598	597	597	595	595	593	593	593	599	599	616	616	0	0	0	0	0	0	0
514	514	515	515	515	515	515	518	518	518	519	519	521	521	521	522	522	524	521	521	525	525	527	527	533	533	533	533	533	530	530	527	527	527	527	527	534	534	531	531	531	532	532	531	531	531	531	532	532	532	533	533	535	535	537	537	538	538	541	541	541	542	542	543	543	544	544	544	544	530	530	530	530	530	534	534	542	542	542	542	541	541	542	542	542	542	542	542	542	542	541	541	534	534	534	534	534	535	535	538	538	543	543	543	543	544	544	543	543	543	543	542	542	537	537	539	539	544	544	546	546	545	545	538	538	539	537	537	538	538	545	545	543	543	544	544	545	545	545	545	546	546	547	547	548	548	550	550	552	552	551	551	547	547	547	547	549	550	550	552	552	553	553	554	554	554	554	548	548	548	548	549	549	554	554	553	552	552	550	550	549	549	552	552	550	550	551	551	544	544	552	552	553	557	557	552	552	558	558	561	561	551	551	552	552	554	554	554	554	555	556	556	558	558	560	560	559	559	557	557	554	554	562	562	560	560	563	563	569	570	570	568	568	565	565	567	567	566	566	569	569	571	571	572	572	571	571	573	573	572	575	575	570	570	567	567	568	568	572	572	574	574	576	576	577	577	578	578	577	577	577	577	576	576	576	576	576	575	575	576	576	576	576	576	576	576	576	572	572	573	573	572	572	572	572	572	572	575	575	574	574	576	576	572	572	572	572	580	580	580	580	580	580	573	570	570	569	569	569	569	571	571	578	578	583	583	589	589	589	589	591	591	589	589	588	588	580	580	575	575	576	576	577	577	578	578	580	580	580	580	579	579	579	579	581	581	582	582	587	587	589	589	592	592	592	592	591	589	589	587	587	583	583	583	583	585	585	587	587	586	586	583	583	583	583	583	583	584	584	587	587	588	588	588	588	589	589	588	588	586	586	586	586	586	590	590	593	593	594	594	595	595	593	593	588	588	587	587	590	590	589	589	585	585	584	584	588	588	595	595	600	600	600	602	602	600	600	598	598	592	592	599	599	602	602	602	602	601	601	597	596	596	593	593	591	591	588	588	586	586	591	591	589	589	594	594	591	591	593	597	597	602	602	602	602	601	601	600	600	599	599	596	596	594	594	594	597	597	600	600	601	601	602	602	602	602	602	602	597	597	598	597	597	593	593	601	601	604	604	606	606	604	604	598	598	595	595	595	596	596	596	596	595	595	596	596	601	601	601	601	604	604	598	598	601	601	587	588	588	589	589	593	593	595	595	599	599	602	602	603	603	603	603	604	604	606	606	605	605	602	602	590	590	601	601	601	601	603	603	607	607	608	608	604	604	598	598	596	596	593	593	593	593	594	594	596	596	597	597	597	597	597	597	601	601	605	605	606	606	607	607	608	608	607	607	606	606	606	606	605	605	606	606	610	610	610	587	587	587	587	593	593	592	597	595	595	593	593	593	599	599	616	616	0	0	0	0	0	0	0
513	513	514	514	514	514	514	515	515	515	515	515	517	517	517	518	518	521	521	521	525	525	527	527	533	533	533	533	533	530	530	527	527	527	527	527	534	534	531	531	523	526	526	525	525	529	529	530	530	530	529	529	530	530	527	527	529	529	532	532	532	534	534	537	537	537	537	536	536	530	530	530	530	530	534	534	542	542	542	542	541	541	542	542	542	542	542	542	542	542	541	541	534	534	534	534	535	535	535	538	538	543	543	543	543	544	544	543	543	543	543	542	542	537	537	539	539	544	544	546	534	532	532	531	531	530	533	533	531	531	537	537	539	539	539	539	540	540	540	540	540	540	541	541	542	542	542	542	543	543	544	544	546	546	546	546	538	537	537	546	552	553	553	554	554	554	554	548	548	548	548	549	549	554	554	553	552	552	550	550	549	549	552	552	550	550	551	551	544	544	552	552	553	557	557	552	552	558	558	561	561	551	551	552	552	554	554	554	554	555	555	556	558	558	560	560	559	559	557	557	554	554	554	554	555	555	560	560	562	563	563	563	563	562	562	562	562	563	563	563	563	566	566	566	566	565	565	564	564	562	561	561	561	561	561	561	562	562	565	565	569	569	571	571	571	571	574	574	560	560	566	566	569	569	569	569	576	575	575	576	576	576	576	576	576	576	576	572	572	573	573	572	572	572	572	572	572	575	575	574	574	576	576	572	572	572	572	580	580	580	580	580	580	573	570	570	569	569	569	569	571	571	578	578	583	583	589	589	589	589	591	591	589	589	588	588	580	580	575	575	576	576	577	577	578	578	580	580	580	580	579	579	579	579	581	581	582	582	587	587	589	589	592	592	592	592	591	589	589	587	587	583	583	583	583	585	585	587	587	586	586	583	583	583	583	583	583	584	584	587	587	588	588	588	588	589	589	588	588	586	586	586	586	586	585	585	586	586	583	583	587	587	585	585	587	587	584	584	582	582	579	579	579	579	583	583	587	587	591	597	597	598	598	596	596	594	594	592	592	592	592	594	594	595	595	598	598	597	597	592	591	591	590	590	586	586	588	588	586	586	591	591	589	589	594	594	591	593	593	597	597	602	602	602	602	601	601	600	600	599	599	596	596	594	594	594	597	597	600	600	601	601	602	602	602	602	602	602	597	597	598	597	597	593	593	601	601	601	601	602	602	598	598	592	592	587	587	591	591	591	587	587	586	586	586	586	592	592	592	592	595	595	588	588	586	586	585	584	584	586	586	590	590	593	593	594	594	596	596	597	597	596	596	597	597	583	583	594	594	589	589	590	590	592	592	598	598	599	599	601	601	600	600	599	599	596	596	592	592	591	591	590	590	594	594	596	596	597	597	597	597	597	597	601	601	605	605	606	606	607	607	608	608	607	607	606	606	606	606	605	605	606	606	606	610	610	587	587	587	587	593	593	592	592	591	591	589	589	589	588	588	587	587	0	0	0	0	0	0	0
513	513	514	514	514	514	514	515	515	515	515	515	517	517	517	518	518	521	511	514	514	514	514	514	520	520	520	520	520	524	524	523	523	523	523	523	524	524	523	523	523	526	526	525	525	529	529	530	530	530	529	529	530	530	527	527	529	529	532	532	532	534	534	537	537	537	537	536	526	527	527	522	522	522	520	520	519	519	522	522	538	538	536	536	537	537	535	535	534	534	531	531	532	532	532	532	533	533	533	534	534	527	527	536	536	536	536	537	537	537	537	537	537	534	534	530	530	531	531	534	534	532	532	531	531	530	533	533	531	531	537	537	539	539	539	539	540	540	540	540	540	540	541	541	542	542	542	542	543	543	544	544	546	546	546	546	538	537	537	546	546	548	548	547	547	547	547	539	539	541	541	547	547	548	548	548	547	547	548	548	547	547	548	548	546	546	545	545	544	544	545	545	551	551	549	546	546	544	544	544	544	545	545	550	550	551	551	553	553	554	554	554	554	554	554	554	554	554	553	553	553	553	552	552	554	554	554	560	562	562	563	563	563	562	562	562	562	563	563	563	563	566	566	566	566	565	565	564	564	562	562	561	561	561	561	561	562	562	565	565	569	569	571	571	571	571	574	574	560	560	566	566	569	569	569	569	570	570	570	569	569	567	567	564	564	563	563	568	568	568	568	568	568	570	570	567	567	568	568	564	564	565	565	565	565	561	561	567	567	574	574	571	571	569	568	568	568	568	567	567	567	567	567	567	567	567	566	566	571	571	586	586	586	586	558	558	558	558	560	560	565	565	574	574	575	575	575	575	575	575	574	574	575	575	575	575	575	575	572	572	579	579	580	580	564	564	561	561	561	574	574	577	577	579	579	581	581	582	582	582	582	581	581	580	580	581	581	582	582	583	583	583	583	583	583	582	582	582	582	585	585	584	584	584	585	585	586	586	583	583	587	587	585	585	587	587	584	584	582	582	579	579	579	579	583	583	587	587	591	597	597	598	598	596	596	594	594	592	592	592	592	594	594	595	595	598	598	597	597	592	591	588	583	583	582	582	583	583	582	582	582	582	583	583	583	583	586	584	584	576	576	578	578	598	598	584	584	589	589	581	581	594	594	585	589	589	589	589	592	592	595	595	595	595	596	596	593	593	594	594	592	591	591	589	589	593	593	601	601	602	602	598	598	592	592	587	587	591	591	591	587	587	586	586	586	586	592	592	592	592	595	595	588	588	586	586	585	584	584	586	586	590	590	593	593	594	594	596	596	597	597	596	596	597	597	583	583	594	594	589	589	590	590	592	592	598	598	599	599	601	601	600	600	599	599	596	596	592	592	591	591	590	590	592	592	594	594	595	595	593	593	588	588	587	587	590	590	600	600	601	601	601	601	600	600	599	599	598	598	594	594	585	585	585	582	582	583	583	586	586	588	588	589	589	591	591	589	589	589	588	588	587	587	0	0	0	0	0	0	0
508	508	509	509	509	510	510	511	511	511	511	511	512	512	512	512	512	511	511	514	514	514	514	514	520	520	520	520	520	524	524	523	523	523	523	523	524	524	523	523	523	523	523	524	524	525	525	525	525	525	525	525	524	524	522	522	519	519	523	523	523	526	526	528	528	525	525	526	526	527	527	522	522	522	520	520	519	519	522	522	538	538	536	536	537	537	535	535	534	534	531	531	532	532	532	532	533	533	534	534	534	527	527	536	536	536	536	537	537	537	537	537	537	528	528	526	526	523	523	523	523	524	524	525	521	521	520	520	523	523	524	524	517	517	526	526	528	528	527	527	522	522	528	528	530	530	529	529	528	528	535	535	538	538	535	535	526	527	527	536	536	537	537	540	540	541	541	533	533	539	539	547	547	548	548	548	547	547	548	548	547	547	548	548	546	546	545	545	544	544	545	545	551	551	549	546	546	544	544	544	544	545	545	550	550	551	551	553	553	554	554	554	554	554	554	554	554	554	553	553	553	553	552	552	554	554	554	554	557	557	558	558	558	558	558	559	559	559	559	560	560	560	560	560	560	561	561	561	561	561	561	559	558	558	559	559	560	560	562	562	563	563	563	563	560	560	553	553	551	551	555	555	556	556	563	563	563	563	563	562	562	562	567	564	564	563	563	568	568	568	568	568	568	570	570	567	567	568	568	564	564	565	565	565	565	561	561	567	567	574	574	571	571	569	569	568	568	568	567	567	567	567	567	567	567	567	566	566	571	571	586	586	586	586	558	558	558	558	560	560	565	565	574	574	575	575	575	575	575	575	574	574	575	575	575	575	575	575	572	572	579	579	580	580	564	564	561	561	561	574	574	577	577	579	579	581	581	582	582	582	582	581	581	580	580	581	581	582	582	583	583	583	583	583	583	582	582	578	578	579	579	579	579	578	574	574	572	572	573	573	576	576	579	579	580	580	579	579	577	577	574	574	577	577	578	578	578	578	586	590	590	592	592	594	594	589	589	585	585	588	588	592	592	591	591	565	565	577	577	578	588	588	583	583	582	582	583	583	582	582	582	582	583	583	583	583	586	584	584	576	576	578	578	598	598	584	584	589	589	581	581	594	594	585	589	589	589	589	592	592	595	595	595	595	596	596	593	593	594	594	586	585	585	581	581	580	580	577	577	574	574	578	578	583	583	585	585	585	585	585	584	584	584	584	584	584	585	585	577	577	579	579	584	584	584	584	583	583	583	584	584	586	586	588	588	589	589	590	590	590	590	589	589	585	585	583	583	582	582	587	587	588	588	589	589	592	592	592	592	590	590	589	589	589	589	588	588	588	588	588	588	589	589	590	590	590	590	595	595	593	593	588	588	587	587	590	590	600	600	601	601	601	601	600	600	599	599	598	598	594	594	585	585	585	582	582	583	583	586	586	588	588	589	589	588	588	588	586	586	584	584	583	583	0	0	0	0	0	0	0
508	508	509	509	509	510	510	511	511	511	511	511	512	512	512	512	512	511	509	510	510	510	513	513	513	513	513	514	514	518	518	519	519	519	518	518	518	518	518	518	523	523	523	524	524	525	525	525	525	525	525	525	524	524	522	522	519	519	523	523	523	526	526	528	528	525	525	521	521	520	520	520	520	515	515	515	513	513	513	513	514	514	511	511	511	511	520	520	520	520	521	521	523	523	525	525	530	530	525	525	525	522	522	523	523	525	525	530	530	530	530	529	529	528	528	526	526	523	523	523	523	524	524	525	521	521	520	520	523	523	524	524	517	517	526	526	528	528	527	527	522	522	528	528	530	530	529	529	528	528	535	535	538	538	535	535	526	527	527	536	536	537	537	540	540	541	541	533	533	539	539	543	543	544	544	544	543	543	543	543	543	543	543	543	542	542	541	541	542	542	542	542	542	542	541	539	539	540	540	541	541	543	543	545	545	546	546	547	547	547	547	547	547	547	545	545	546	546	548	548	547	547	547	547	547	547	549	549	550	550	552	552	558	558	558	559	559	559	559	560	560	560	560	560	560	561	561	561	561	561	561	559	558	558	559	559	560	560	562	562	563	563	563	563	560	560	553	553	551	551	555	555	556	556	563	563	563	563	563	562	562	562	562	557	557	558	558	561	561	563	563	564	564	563	563	563	563	563	563	563	563	561	561	560	560	556	556	548	548	567	567	567	567	564	564	566	565	565	565	565	565	565	564	564	563	563	559	559	558	558	557	557	554	554	554	554	555	555	555	555	564	564	566	566	562	562	569	569	569	569	567	567	568	568	569	569	563	563	567	567	564	564	563	563	561	561	561	561	561	564	564	566	566	569	569	575	575	576	576	576	576	575	575	575	575	576	576	577	577	577	577	577	577	576	576	577	577	578	578	579	579	579	578	578	574	574	572	572	573	573	576	576	579	579	580	580	579	579	577	577	574	574	577	577	578	578	578	578	586	590	590	592	592	594	594	589	589	585	585	588	588	592	592	591	591	565	565	565	565	567	568	568	571	571	575	575	577	577	578	578	579	579	580	580	581	581	581	580	580	574	574	573	573	573	573	573	573	571	571	573	573	578	578	579	576	576	576	576	578	578	582	582	588	588	590	590	590	590	590	586	586	585	585	581	581	580	580	577	577	574	574	578	578	583	583	585	585	585	585	585	584	584	584	584	584	584	585	585	577	577	579	579	584	584	584	584	583	583	583	584	584	586	586	588	588	589	589	590	590	590	590	589	589	585	585	583	583	582	582	587	587	588	588	589	589	592	592	592	592	590	590	589	589	589	589	588	588	588	588	588	588	589	589	590	590	590	590	588	588	586	586	585	585	583	583	578	578	577	577	591	591	592	592	589	589	592	592	591	591	589	589	580	580	580	580	580	581	581	583	583	584	584	584	584	583	588	588	586	586	584	584	583	583	0	0	0	0	0	0	0
503	503	504	504	504	505	505	507	507	507	507	507	508	508	509	509	509	509	509	510	510	510	513	513	513	513	514	514	514	518	518	519	519	518	518	518	518	518	518	518	514	514	514	517	517	519	519	519	519	519	519	519	517	517	517	517	512	512	515	515	519	519	519	519	519	520	520	521	521	520	520	520	520	515	515	515	513	513	513	513	514	514	511	511	511	511	520	520	520	520	521	521	523	523	525	525	530	530	525	525	522	522	522	523	523	525	525	523	523	521	521	517	517	518	518	521	521	520	520	518	518	518	518	520	518	518	517	517	516	516	517	517	517	517	518	518	521	521	520	520	522	522	522	522	522	522	521	521	520	520	520	520	519	519	521	521	525	526	526	526	526	528	528	531	531	528	528	523	523	523	523	514	514	538	538	541	538	538	538	543	543	543	543	543	542	542	541	541	542	542	542	542	542	542	541	539	539	540	540	541	541	543	543	545	545	546	546	547	547	547	547	547	547	547	545	545	546	546	548	548	547	547	547	547	547	547	549	549	550	550	552	552	552	552	552	553	553	554	554	555	555	555	555	555	555	555	555	555	555	554	554	554	554	554	554	554	555	555	557	557	558	558	558	558	549	549	549	549	550	550	552	552	549	549	558	558	555	555	536	555	555	555	555	555	555	554	554	554	554	563	563	564	564	563	563	563	563	563	563	563	563	561	561	560	560	556	556	548	548	567	567	567	567	564	564	566	565	565	565	565	565	565	564	564	563	563	559	559	558	558	557	557	554	554	554	554	555	555	555	555	564	564	566	566	562	562	569	569	569	569	567	567	568	568	569	569	563	563	567	567	564	564	563	563	561	561	561	561	561	564	564	566	566	569	569	575	575	576	576	576	576	575	575	575	575	576	576	577	577	577	571	564	564	564	564	565	565	573	573	574	574	573	572	572	566	566	565	565	568	568	573	573	574	574	574	574	574	574	572	572	571	571	571	571	567	567	565	565	566	563	563	571	571	588	588	568	568	564	564	560	560	579	579	570	570	565	565	565	567	567	568	568	571	571	575	575	577	577	578	578	579	579	580	580	581	581	581	580	580	574	574	573	573	573	573	573	573	571	571	573	573	578	578	579	576	576	576	576	578	578	582	582	588	582	583	583	584	584	585	572	572	558	558	560	560	564	564	569	569	568	568	568	568	574	574	578	578	578	564	564	576	576	575	575	573	573	572	572	571	571	571	571	573	573	578	578	577	578	578	580	580	581	581	582	582	582	582	582	582	580	580	579	579	580	580	579	579	580	580	581	581	582	582	582	582	584	584	582	582	578	578	577	577	580	580	582	582	584	584	584	584	585	585	585	585	584	584	574	574	571	586	585	585	583	583	578	578	577	577	591	591	592	592	589	589	592	592	591	591	589	589	589	580	580	580	580	581	581	583	583	584	584	584	584	583	583	583	582	582	581	581	581	581	0	0	0	0	0	0	0
503	503	504	504	505	505	505	507	507	507	507	507	508	508	509	509	509	509	509	507	507	507	508	508	507	507	512	512	512	513	513	514	514	514	514	514	514	514	510	510	514	514	514	517	517	519	519	519	519	519	519	519	517	517	517	517	512	512	515	515	519	519	519	519	519	520	514	509	509	502	502	510	510	511	511	511	511	511	510	510	509	509	509	509	509	509	509	509	511	511	512	512	512	512	512	512	513	513	515	515	517	517	518	518	518	523	523	523	523	521	521	517	517	518	518	521	521	520	520	518	518	518	518	520	518	518	517	517	516	516	517	517	517	517	518	518	521	521	520	520	522	522	522	522	522	522	521	521	520	520	520	520	519	519	521	521	525	526	526	526	526	528	528	531	531	528	528	523	523	523	523	514	514	538	538	541	541	538	538	538	538	538	537	537	538	538	537	537	537	537	538	538	538	538	538	538	538	538	538	538	538	540	540	541	541	540	540	538	538	537	537	536	536	537	540	540	541	541	542	542	542	542	539	539	539	539	541	541	542	542	540	546	546	546	546	540	540	554	554	555	555	555	555	555	555	555	555	555	555	554	554	554	554	554	554	554	555	555	557	557	558	558	558	558	549	549	549	549	550	550	552	552	549	549	558	558	555	555	536	555	555	555	555	555	555	554	554	554	554	545	545	545	545	554	554	556	556	557	557	557	557	556	556	553	553	549	549	548	548	551	551	552	552	562	562	564	563	563	561	561	561	561	560	560	559	559	558	558	555	555	551	551	552	552	552	552	553	553	554	554	554	554	555	555	557	557	558	558	561	561	560	560	561	561	559	559	560	560	560	560	560	560	559	559	559	559	559	560	560	562	562	565	565	567	567	570	570	570	570	570	570	569	569	569	569	570	570	570	570	571	571	564	564	564	564	565	565	573	573	574	574	573	572	572	566	566	565	565	568	568	573	573	574	574	574	574	574	574	572	572	571	571	571	571	567	567	565	566	566	563	563	571	571	588	588	568	568	564	564	560	560	560	560	559	559	562	562	564	565	565	563	563	564	564	571	571	573	573	574	574	574	574	575	575	575	575	576	574	574	573	573	571	571	570	570	569	569	567	567	568	568	570	566	566	571	571	575	575	576	576	576	576	582	582	583	583	584	584	585	572	572	558	558	560	560	564	564	569	569	568	568	568	568	574	574	578	578	578	564	564	576	576	575	575	573	573	572	572	571	571	571	571	573	573	578	578	577	578	578	580	580	581	581	582	582	582	582	582	582	580	580	579	579	580	580	579	579	580	580	581	581	582	582	582	582	584	584	582	582	578	578	577	577	580	580	582	582	584	584	584	584	585	585	585	585	584	584	574	574	571	571	575	575	576	576	575	575	570	570	569	569	578	578	584	584	585	585	584	584	581	581	581	579	579	577	577	577	577	578	578	578	578	578	578	579	579	583	582	582	581	581	581	581	0	0	0	0	0	0	0
503	498	500	500	501	501	501	502	502	504	504	504	504	504	505	505	505	506	506	507	507	507	508	508	507	507	512	512	512	513	513	514	514	514	514	514	514	514	510	510	504	504	504	504	504	507	507	513	513	513	513	513	509	509	508	508	511	511	512	512	513	513	513	515	515	514	514	509	509	502	502	510	510	511	511	511	511	511	510	510	509	509	509	509	509	509	509	509	511	511	512	512	512	512	512	512	513	513	515	515	517	517	518	518	515	516	516	516	516	514	514	511	511	511	511	515	515	515	515	515	515	515	515	515	514	514	514	514	515	515	515	515	516	516	517	517	519	519	519	519	519	519	520	520	520	520	520	520	518	518	516	516	515	515	517	517	518	519	519	518	518	517	517	517	517	518	518	515	515	514	514	514	514	513	513	516	516	532	531	531	532	532	531	531	530	530	537	537	537	537	538	538	538	538	538	538	538	538	538	538	538	540	540	541	541	540	540	538	538	537	537	536	536	537	540	540	541	541	542	542	542	542	539	539	539	539	541	541	542	542	540	540	546	546	546	540	540	547	547	547	547	548	548	548	548	548	548	543	543	548	548	548	548	548	548	548	549	549	548	548	534	534	536	536	538	538	543	543	544	544	545	545	543	543	537	537	536	536	536	547	547	549	549	549	549	548	548	547	547	542	542	542	542	544	544	551	551	552	557	557	557	556	556	553	553	549	549	548	548	551	551	552	552	562	562	564	563	563	561	561	561	561	560	560	559	559	558	558	555	555	551	551	552	552	552	552	553	553	554	554	554	554	555	555	557	557	558	558	561	561	560	560	561	561	559	559	560	560	560	560	560	560	559	559	559	559	559	560	560	562	562	565	565	567	567	570	570	570	570	570	570	569	562	561	561	553	553	554	554	556	556	557	557	562	562	562	562	565	565	566	566	567	566	566	564	564	564	564	565	565	566	566	568	568	569	569	568	568	567	567	566	566	565	565	565	565	563	562	562	560	560	561	561	561	561	561	561	563	563	560	560	560	560	559	559	562	562	564	565	565	563	563	564	564	571	571	573	573	574	574	574	574	575	575	575	576	576	574	574	573	573	571	571	570	570	569	569	567	567	568	568	570	566	566	571	571	575	569	571	571	573	573	577	577	580	580	547	547	574	555	555	557	557	555	555	557	557	558	558	561	561	565	565	565	565	551	561	561	556	556	562	562	564	564	565	565	566	566	567	567	565	565	567	567	569	569	572	573	573	575	575	577	577	576	576	570	570	566	566	566	566	569	569	574	574	575	575	573	573	573	573	573	573	575	575	576	576	574	574	568	568	569	569	575	575	576	576	580	580	557	557	583	583	583	583	570	570	560	560	563	563	567	567	576	576	575	575	570	570	569	569	578	578	584	584	585	585	584	584	581	581	581	579	579	577	577	577	577	578	578	578	578	578	578	579	579	579	576	576	576	576	578	578	0	0	0	0	0	0	0
498	498	500	500	501	501	501	502	502	504	504	504	504	504	505	505	505	506	506	503	503	503	503	503	503	503	494	494	494	494	494	506	506	507	507	507	508	508	506	506	504	504	504	504	504	507	507	513	513	513	513	513	509	509	508	508	511	511	512	512	513	513	513	515	515	502	502	499	499	498	498	499	499	504	504	506	506	506	507	507	508	508	508	508	508	508	506	506	505	505	509	509	511	511	510	510	510	510	511	511	514	514	515	515	516	516	516	516	516	514	514	511	511	511	511	515	515	515	515	515	515	515	515	515	514	514	514	514	515	515	515	515	516	516	517	517	519	519	519	519	519	519	520	520	520	520	520	520	518	518	516	516	515	515	517	517	518	519	519	518	518	517	517	517	517	518	518	515	515	514	514	514	514	513	513	516	516	532	531	531	532	532	531	531	530	530	531	531	533	533	532	532	532	532	532	533	533	533	533	534	534	535	535	535	535	534	534	535	535	535	535	535	535	536	536	536	536	536	536	536	536	536	536	536	536	536	537	537	538	538	535	535	534	539	539	539	539	534	534	532	532	531	531	548	548	548	548	543	543	548	548	548	548	548	548	548	549	549	548	548	534	534	536	536	538	538	543	543	544	544	545	545	543	543	537	537	536	536	536	536	547	549	549	549	549	548	548	547	547	542	542	542	542	544	544	551	551	552	552	552	552	551	551	549	549	547	547	545	545	544	544	541	541	541	541	534	534	534	558	558	554	554	554	554	553	553	548	548	550	550	550	550	549	549	549	549	548	548	547	547	545	545	547	547	546	546	547	547	549	549	554	554	553	553	553	553	553	553	556	556	557	557	557	557	557	557	557	557	557	558	558	559	559	561	561	563	563	564	564	564	564	562	562	561	561	553	553	554	554	556	556	557	557	562	562	562	562	565	565	566	567	567	566	566	564	564	564	564	565	565	566	566	568	568	569	569	568	568	567	567	566	566	565	565	565	565	563	562	562	560	560	561	561	561	561	561	560	559	559	557	557	555	555	556	556	558	558	559	560	560	561	561	562	562	565	565	568	568	569	569	569	569	568	568	570	570	570	569	569	568	568	568	568	567	567	566	566	565	565	564	564	563	562	562	568	568	569	569	571	571	573	573	577	577	580	580	547	547	574	555	555	557	557	555	555	557	557	558	558	561	561	565	565	565	565	551	561	561	556	556	562	562	564	564	565	565	566	566	567	567	565	565	567	567	569	569	572	573	573	575	575	577	577	576	576	570	570	566	566	566	566	569	569	574	574	575	575	573	573	573	573	573	573	575	575	576	576	574	574	568	568	569	569	575	575	576	576	580	580	557	557	583	583	583	583	570	570	560	560	563	563	567	567	569	569	569	569	567	567	567	567	567	567	580	580	580	580	570	570	570	570	570	571	571	571	571	571	571	569	569	563	563	569	569	569	564	564	576	576	576	576	578	578	0	0	0	0	0	0	0
498	492	495	495	496	496	496	498	498	500	500	500	500	500	502	502	502	502	502	503	503	503	503	503	503	503	494	494	494	494	494	506	506	507	507	507	508	508	506	506	501	501	501	501	501	501	501	507	507	506	506	505	505	505	506	506	506	506	507	507	509	509	509	508	508	502	502	499	499	498	498	499	499	504	504	506	506	506	507	507	508	508	508	508	508	508	506	506	505	505	509	509	511	511	510	510	510	510	511	511	509	509	509	509	508	508	504	504	504	506	506	508	508	509	509	510	510	510	510	510	510	510	510	510	510	510	510	510	510	510	511	511	512	512	512	512	513	513	514	514	515	515	516	516	515	515	515	515	514	514	514	514	514	514	515	515	515	515	515	512	512	511	511	511	511	512	512	515	515	513	513	512	512	512	512	513	513	520	525	525	525	525	524	524	516	516	514	514	522	522	524	524	521	532	532	532	533	533	533	534	534	535	535	535	535	534	534	535	535	535	535	535	535	536	536	536	536	536	536	536	536	536	536	536	536	536	537	537	538	538	535	535	534	539	539	539	539	534	534	532	532	531	531	534	534	535	535	542	542	541	541	541	541	540	534	534	531	531	529	529	530	530	532	532	533	533	538	538	539	539	538	538	536	536	533	533	532	532	534	534	537	543	543	543	543	543	543	541	541	539	539	540	540	542	542	544	544	545	545	545	545	545	545	544	544	543	543	542	545	544	544	541	541	541	541	534	534	534	558	558	554	554	554	554	553	553	548	548	550	550	550	550	549	549	549	549	548	548	547	547	545	545	547	547	546	546	547	547	549	549	554	554	553	553	553	553	553	553	556	556	557	557	557	557	557	557	557	557	557	558	558	554	554	554	554	553	553	557	557	557	557	555	555	551	551	549	549	549	549	551	551	553	553	555	555	556	556	555	555	554	560	560	560	560	558	558	557	557	558	558	557	557	562	562	563	563	562	562	562	562	561	561	559	559	558	558	558	558	558	558	558	559	559	560	560	560	560	559	559	557	557	555	555	556	556	558	559	559	560	560	561	561	562	562	565	565	568	568	569	569	569	569	568	568	570	570	570	569	569	568	568	568	568	567	567	566	566	565	565	564	564	552	551	551	552	552	562	562	563	563	564	564	556	556	547	547	547	547	549	551	551	553	553	554	554	554	554	556	556	556	556	555	555	553	553	551	553	553	556	556	560	560	562	562	563	563	563	563	563	563	562	562	562	562	556	556	564	567	567	568	568	567	567	558	558	557	557	559	559	556	556	554	554	551	551	554	554	568	568	569	569	570	570	570	570	570	570	568	568	567	567	566	566	564	564	568	568	570	570	557	557	554	554	552	552	553	553	558	558	567	567	561	561	560	560	569	569	567	567	567	567	567	567	580	580	580	580	570	570	570	570	570	571	571	571	571	571	571	569	569	563	563	569	569	569	564	564	559	559	557	557	565	565	0	0	0	0	0	0	0
492	492	495	495	496	496	496	498	498	500	500	500	500	500	502	502	502	502	502	503	498	497	497	497	494	494	494	494	494	494	494	495	495	498	498	498	501	501	502	502	501	501	501	501	501	501	501	507	507	506	506	505	505	505	506	506	506	506	507	507	509	509	508	508	502	497	497	495	495	495	495	496	496	496	496	501	501	501	502	502	503	503	503	503	503	503	503	503	504	504	504	504	506	506	507	507	507	507	508	508	509	509	509	509	508	508	504	504	506	506	506	508	508	509	509	510	510	510	510	510	510	510	510	510	510	510	510	510	510	510	511	511	512	512	512	512	513	513	514	514	515	515	516	516	515	515	515	515	514	514	514	514	514	514	515	515	515	515	515	512	512	511	511	511	511	512	512	515	515	513	513	512	512	512	512	513	513	520	525	525	525	525	524	524	516	516	514	514	522	522	524	524	521	521	524	524	526	526	526	527	527	527	527	525	525	527	527	528	528	528	528	528	528	530	531	531	530	530	531	531	530	530	529	529	529	529	530	530	531	531	530	530	529	531	531	532	532	528	528	525	525	524	524	523	523	524	524	532	542	541	541	541	541	540	534	534	531	531	529	529	530	530	532	532	533	533	538	538	539	539	538	538	536	536	533	533	532	532	534	534	537	543	543	543	543	543	543	541	541	539	539	540	540	542	542	544	544	545	545	545	545	545	545	544	544	543	543	542	542	542	542	539	539	536	536	534	534	534	538	538	550	550	541	541	541	541	545	545	541	541	543	543	544	544	544	544	544	544	543	543	538	538	537	537	537	537	537	537	539	539	547	547	547	547	538	538	549	549	548	548	552	552	530	553	553	553	553	554	554	554	554	554	554	554	554	553	553	557	557	557	557	555	555	551	551	549	549	549	549	551	551	553	553	555	555	556	556	555	555	554	560	560	560	560	558	558	557	557	558	558	557	557	562	562	563	563	562	562	562	562	561	561	559	559	558	558	558	558	558	558	554	555	555	556	556	556	556	555	555	554	554	553	553	553	553	554	554	554	555	555	556	556	555	555	556	556	561	561	563	563	566	566	562	562	561	558	558	562	562	566	566	566	566	561	561	561	561	559	559	558	558	552	551	551	552	552	562	562	563	563	564	564	556	556	547	547	547	547	549	551	551	553	553	554	554	554	554	556	556	556	556	555	555	553	553	551	553	553	556	556	560	560	562	562	563	563	563	563	563	563	562	562	562	562	556	556	564	567	567	568	568	567	567	558	558	557	557	559	559	556	556	554	554	551	551	554	554	568	568	569	569	570	570	570	570	570	570	568	568	567	567	566	566	564	564	568	568	570	570	557	557	554	554	552	552	553	553	558	558	567	567	561	561	560	560	559	559	558	558	557	557	555	555	554	554	556	556	557	557	557	562	562	566	566	565	565	564	564	558	558	557	557	557	557	557	553	553	559	559	557	557	565	565	0	0	0	0	0	0	0
492	492	490	490	490	490	490	493	493	494	494	494	496	496	498	498	498	498	498	498	498	497	497	497	494	494	494	494	494	494	494	495	495	498	498	501	501	501	502	502	496	496	498	498	498	498	498	501	501	501	501	501	501	501	501	501	502	502	503	503	502	502	502	502	502	497	497	495	495	495	495	496	496	496	496	501	501	501	502	502	503	503	503	503	503	503	503	503	504	504	504	504	506	506	507	507	507	507	503	503	503	503	502	502	501	501	497	497	503	503	503	503	505	505	505	505	506	506	506	506	506	506	506	506	506	506	507	507	506	506	506	506	506	506	506	506	503	503	508	508	504	504	509	509	510	510	511	511	511	511	511	511	510	510	511	511	511	511	511	510	510	509	509	509	509	510	510	510	510	510	510	510	510	511	511	512	512	514	515	515	518	518	516	516	516	516	512	512	512	512	513	513	518	518	515	515	515	515	515	512	527	527	527	525	525	527	527	528	528	528	528	528	528	530	531	531	530	530	531	531	530	530	529	529	529	529	530	530	531	531	530	530	529	531	531	532	532	528	528	525	525	524	524	523	523	524	524	532	532	533	533	533	533	532	532	527	526	526	527	527	529	529	530	530	531	531	532	532	533	533	533	533	532	532	531	531	531	531	533	533	535	537	537	537	537	534	534	536	536	535	535	535	535	534	534	534	534	533	533	535	535	539	539	539	539	538	538	538	538	537	537	536	536	534	534	532	532	529	530	530	531	531	537	537	541	541	545	545	541	541	543	543	544	544	544	544	544	544	543	543	538	538	537	537	537	537	537	537	539	539	547	547	547	547	538	536	546	546	538	538	543	543	530	550	550	550	550	550	550	549	549	548	548	546	546	546	546	549	549	551	551	549	549	548	548	547	547	547	547	548	548	549	549	549	549	548	548	544	544	547	551	551	551	551	551	551	549	549	547	547	553	553	555	555	555	555	555	555	552	552	553	553	552	552	552	553	553	553	553	554	554	555	555	556	556	556	556	555	555	554	554	553	553	553	553	554	554	554	555	555	556	556	555	555	556	556	561	561	563	563	566	566	562	562	561	558	558	562	562	566	566	566	566	561	561	547	547	550	550	549	549	547	545	545	545	545	546	546	555	555	550	550	545	545	543	543	544	544	546	548	548	550	550	550	550	550	550	550	550	549	549	548	548	547	547	547	550	550	553	553	555	555	557	557	557	557	558	558	556	556	554	554	550	550	545	545	548	555	555	554	554	552	552	551	551	553	553	555	555	554	554	546	546	547	547	549	549	561	561	563	563	564	564	563	563	557	557	551	551	556	556	557	557	561	561	559	559	558	558	555	555	550	550	548	548	547	547	548	548	549	549	547	547	547	547	547	547	558	558	557	557	555	555	554	554	556	556	557	557	557	562	562	566	566	565	565	564	564	558	558	557	557	557	557	557	553	553	554	554	553	553	554	554	0	0	0	0	0	0	0
489	489	490	490	490	490	490	493	493	494	494	494	496	496	498	498	498	498	498	498	494	493	493	493	492	492	492	492	491	491	491	493	493	494	494	490	490	490	494	494	496	496	498	498	498	498	498	501	501	501	501	501	501	501	501	501	502	502	503	503	502	502	502	496	496	495	495	493	493	493	493	494	494	495	495	497	497	498	498	498	499	499	499	499	499	499	499	499	499	499	499	499	501	501	501	501	503	503	503	503	503	503	502	502	501	501	497	497	503	503	503	503	505	505	505	505	506	506	506	506	506	506	506	506	506	506	507	507	506	506	506	506	506	506	506	506	503	503	508	508	504	504	509	509	510	510	511	511	511	511	511	511	510	510	511	511	511	511	511	510	510	509	509	509	509	510	510	510	510	510	510	510	510	511	511	512	512	514	515	515	518	518	516	516	516	516	512	512	512	512	513	513	518	518	515	515	515	515	515	512	512	514	514	515	515	521	521	522	522	518	518	513	513	514	514	516	522	522	522	522	523	523	523	523	521	521	519	519	512	512	524	524	525	525	525	525	525	523	523	522	522	521	521	520	520	518	518	521	521	521	521	521	521	524	532	527	526	526	527	527	529	529	530	530	531	531	532	532	533	533	533	533	532	532	531	531	531	531	533	533	535	537	537	537	537	534	534	536	536	535	535	535	535	534	534	534	534	533	533	535	535	539	539	539	539	538	538	538	538	537	537	536	536	534	534	532	532	529	530	530	531	531	537	537	539	539	538	538	538	538	533	533	537	537	537	537	538	538	537	537	536	536	536	536	534	534	533	533	531	531	538	538	544	544	536	536	546	546	538	538	543	543	530	550	550	550	550	550	550	549	549	548	548	546	546	546	546	549	549	551	551	549	549	548	548	547	547	547	547	548	548	549	549	549	549	548	548	544	544	547	551	551	551	551	551	551	549	549	547	547	553	553	555	555	555	555	555	555	552	552	553	553	552	552	552	546	546	547	547	549	549	550	550	549	549	550	550	550	550	549	549	549	549	548	548	549	549	549	550	550	550	550	548	548	548	548	544	544	533	533	561	561	560	560	549	545	545	545	545	553	553	541	541	543	543	547	547	550	550	549	549	547	545	545	545	545	546	546	555	555	550	550	545	545	543	543	544	546	546	548	548	550	550	550	550	550	550	550	550	549	549	548	548	547	547	547	550	550	553	553	555	555	557	557	557	557	558	558	556	556	554	554	550	550	545	545	548	555	555	554	554	552	552	551	551	553	553	555	555	554	554	546	546	547	547	549	549	561	561	563	563	564	564	563	563	557	557	551	551	556	556	557	557	561	561	559	559	558	558	555	555	550	550	548	548	547	547	548	548	549	549	547	547	547	547	547	547	546	546	547	547	548	548	549	549	550	550	550	551	551	557	557	560	560	560	560	555	555	555	555	557	557	557	549	549	551	551	552	554	553	553	554	554	0	0	0	0	0	0	0
489	490	490	484	485	485	486	486	486	480	480	490	490	490	492	492	493	493	493	494	494	493	493	493	492	492	492	492	491	491	491	493	493	494	494	490	490	490	494	494	490	490	492	492	492	494	494	493	493	495	495	495	495	495	496	496	497	497	496	496	494	494	496	496	496	495	495	493	493	493	493	494	494	495	495	497	497	498	498	498	499	499	499	499	499	499	499	499	499	499	499	499	501	501	501	488	495	495	486	486	491	491	492	492	492	492	493	493	495	495	501	501	501	501	496	496	499	499	500	500	501	501	502	502	502	502	502	502	502	502	501	501	501	501	501	501	500	500	498	498	498	498	499	499	505	505	505	505	506	506	506	506	507	507	508	508	508	507	507	505	505	504	504	504	504	504	504	505	505	506	506	507	507	507	507	509	509	509	512	512	512	512	510	510	510	510	510	510	509	509	512	512	513	513	513	513	513	509	509	507	507	509	509	514	514	516	521	522	522	518	518	513	513	514	514	516	522	522	522	522	523	523	523	523	521	521	519	519	512	512	524	524	525	525	525	525	525	523	523	522	522	521	521	520	520	518	518	521	521	521	521	521	521	524	524	524	525	525	525	525	526	526	526	526	526	526	526	526	528	528	528	528	527	527	527	527	526	526	526	526	527	527	531	532	532	531	531	530	530	529	529	529	529	530	530	529	529	526	526	532	532	533	533	533	533	533	533	533	533	532	532	531	531	529	529	528	528	528	525	525	529	529	529	529	532	532	532	532	531	531	531	531	528	528	527	527	532	532	531	531	531	531	530	530	529	529	529	529	526	526	524	524	523	523	519	519	522	522	524	524	524	524	522	520	520	515	515	547	547	546	546	543	543	543	543	543	543	543	543	544	544	544	544	543	543	543	543	542	542	542	542	543	543	540	540	539	539	543	543	543	542	542	546	546	546	546	545	545	545	545	546	546	546	546	543	543	541	541	541	541	538	538	542	542	545	546	546	547	547	549	549	550	550	549	549	550	550	550	550	549	549	549	549	548	548	549	549	549	550	550	550	550	548	548	548	548	544	544	533	533	561	561	560	549	549	545	545	545	545	553	538	540	540	541	541	545	545	545	545	546	544	544	544	544	542	542	545	545	547	547	543	543	541	541	541	541	541	544	544	546	546	546	546	546	546	546	546	545	545	545	545	545	545	545	545	546	546	546	548	548	549	549	552	552	552	552	551	551	549	549	542	542	542	542	543	543	544	546	546	545	545	547	547	548	548	550	550	549	549	547	547	544	544	543	543	546	546	553	553	559	559	561	561	548	548	547	547	545	545	545	545	547	547	550	550	549	549	551	551	546	546	547	547	546	546	545	545	543	543	540	540	540	540	543	543	541	541	540	540	547	547	548	548	549	549	550	550	550	551	551	557	557	560	560	560	560	555	555	555	555	557	557	557	549	549	551	551	552	552	553	553	554	554	554	0	0	0	0	0	0
479	484	484	484	485	485	486	486	486	480	480	490	490	490	492	492	493	493	493	494	494	489	489	489	491	491	486	486	490	490	490	488	488	488	488	484	484	484	485	485	490	490	492	492	494	494	494	493	493	495	495	495	495	496	496	496	497	497	496	496	494	494	496	490	490	490	490	489	489	490	490	490	490	492	492	493	493	494	494	494	494	494	495	495	495	495	494	494	493	493	491	491	488	488	488	488	495	495	486	486	491	491	492	492	492	492	493	493	495	495	501	501	501	501	496	496	499	499	500	500	501	501	502	502	502	502	502	502	502	502	501	501	501	501	501	501	500	500	498	498	498	498	499	499	505	505	505	505	506	506	506	506	507	507	508	508	508	507	507	505	505	504	504	504	504	504	504	505	505	506	506	507	507	507	507	509	509	509	512	512	512	512	510	510	510	510	510	510	509	509	512	512	513	513	513	513	513	509	509	507	507	509	509	514	514	516	516	517	517	516	516	510	510	510	510	509	510	510	510	510	512	512	516	516	516	516	512	512	512	512	513	513	518	518	519	520	520	520	520	519	519	517	517	517	517	516	516	517	517	515	515	515	515	520	520	520	521	521	521	521	526	526	526	526	526	526	526	526	528	528	528	528	527	527	527	527	526	526	526	526	527	527	531	532	532	531	531	530	530	529	529	529	529	530	530	529	529	526	526	532	532	533	533	533	533	533	533	533	533	532	532	531	531	529	529	528	528	528	525	525	529	529	529	529	532	532	532	532	531	531	531	531	528	528	527	527	532	532	531	531	531	531	530	530	529	529	529	529	526	526	524	524	523	523	519	519	522	522	524	524	524	524	522	520	520	515	515	547	547	546	546	543	543	543	543	543	543	543	543	544	544	544	544	543	543	543	543	542	542	542	542	543	543	540	540	539	539	543	543	543	542	542	546	546	546	546	545	545	545	545	546	546	546	546	543	543	541	541	541	535	539	539	539	539	539	540	540	541	541	541	541	541	541	535	535	531	531	542	542	543	543	543	543	544	543	543	543	543	544	544	544	544	543	543	537	537	533	533	528	528	527	527	527	528	528	533	533	539	539	538	538	540	540	541	541	545	545	545	545	546	544	544	544	544	542	542	545	545	547	547	543	543	541	541	541	541	541	544	544	546	546	546	546	546	546	546	546	545	545	545	545	545	545	545	545	546	546	546	548	548	549	549	552	552	552	552	551	551	549	549	542	542	542	542	543	543	544	546	546	545	545	547	547	548	548	550	550	549	549	547	547	544	544	543	543	546	546	553	553	559	559	561	561	548	548	547	547	545	545	545	545	547	547	550	550	549	549	551	551	546	546	547	547	546	546	545	545	543	543	540	540	540	540	543	543	541	541	540	540	540	540	547	547	548	548	549	549	549	549	549	543	543	537	537	532	532	536	536	553	553	545	545	545	541	541	543	543	545	552	553	553	554	554	554	0	0	0	0	0	0
479	484	484	484	477	477	477	477	477	471	471	471	471	471	484	484	490	490	490	492	492	489	489	491	491	491	486	486	490	490	490	488	488	488	488	484	484	484	485	485	485	485	486	486	488	488	488	485	485	486	486	486	486	491	491	491	492	492	492	492	490	490	490	490	490	490	490	489	489	490	490	490	490	492	492	493	493	494	494	494	494	494	495	495	495	495	494	494	493	493	491	491	488	482	481	481	482	482	484	484	485	485	485	485	489	489	485	485	484	484	483	483	482	482	481	481	487	487	495	495	496	496	498	498	498	498	498	498	497	497	496	496	496	496	496	496	496	496	496	496	494	494	497	497	498	498	499	499	496	496	499	499	502	502	503	503	503	502	502	500	500	499	499	498	498	496	496	501	501	501	501	502	502	503	503	504	504	505	505	503	503	503	498	498	504	504	504	504	505	505	505	505	507	507	508	508	508	497	497	504	504	505	505	503	503	503	503	510	510	509	509	509	510	510	510	509	510	510	510	510	512	512	516	516	516	516	512	512	512	512	513	513	518	518	519	520	520	520	520	519	519	517	517	517	517	516	516	517	517	515	515	515	515	520	520	520	521	521	521	521	521	521	522	522	522	522	522	522	522	522	523	523	523	523	522	522	521	521	517	517	518	518	524	526	526	525	525	524	524	520	520	523	523	524	524	524	524	524	524	522	522	524	524	525	525	527	527	527	527	526	526	525	525	524	524	519	519	521	521	521	521	521	520	520	519	519	524	524	525	525	525	525	525	525	525	525	525	525	525	525	525	525	522	522	524	524	523	523	521	521	519	519	518	518	518	518	519	519	520	520	522	522	519	518	518	515	515	513	513	510	510	541	541	539	539	537	537	534	534	530	530	535	535	541	541	539	539	537	537	537	537	538	538	537	537	537	537	537	536	536	535	535	539	539	539	539	538	538	537	537	537	537	534	534	534	534	535	535	535	535	539	539	539	539	539	540	540	541	541	541	541	541	541	535	535	531	531	542	542	543	543	543	543	544	543	543	543	543	544	544	544	544	543	543	537	537	533	533	528	528	527	527	527	528	526	529	529	534	534	536	536	538	538	539	539	541	541	542	542	542	541	541	540	540	540	540	539	539	538	538	537	537	537	537	537	537	537	538	538	540	540	541	541	541	541	541	541	541	541	541	541	541	541	541	541	542	542	542	543	543	544	544	546	546	546	546	544	544	538	538	538	538	540	540	540	540	541	540	540	544	544	544	544	544	544	544	544	543	543	535	535	533	533	529	529	532	532	534	534	538	538	538	538	538	538	542	542	543	543	542	542	540	540	536	536	535	535	535	535	535	535	539	539	540	540	539	539	539	539	538	538	538	538	538	538	538	538	537	537	538	538	547	547	548	548	548	549	549	549	549	543	543	537	537	532	532	536	536	553	553	545	545	545	541	541	543	543	545	545	545	545	547	547	547	0	0	0	0	0	0
471	478	478	478	477	477	477	477	477	471	471	471	471	471	484	484	490	490	490	492	492	463	463	468	468	468	469	469	469	469	469	478	478	481	481	480	480	480	480	480	485	485	486	486	488	488	488	485	485	486	486	486	486	491	491	491	492	492	492	492	490	490	485	485	483	483	483	486	486	486	486	487	487	488	488	489	489	490	490	490	490	490	490	490	490	490	489	489	488	488	486	486	482	482	481	481	482	482	484	484	485	485	485	485	489	489	485	485	484	484	483	483	482	482	481	481	487	487	495	495	496	496	498	498	498	498	498	498	497	497	496	496	496	496	496	496	496	496	496	496	494	494	497	497	498	498	499	499	496	496	499	499	502	502	503	503	503	502	502	500	500	499	499	498	498	496	496	501	501	501	501	502	502	503	503	504	504	505	505	503	503	503	498	498	504	504	504	504	505	505	505	505	507	507	508	508	508	508	497	504	504	505	505	503	503	503	503	510	510	509	509	509	509	508	508	506	508	508	507	507	510	510	511	511	512	512	510	510	509	509	508	508	508	508	509	514	514	515	515	515	515	514	514	514	514	514	514	514	514	514	514	514	514	514	514	516	516	516	517	517	517	517	517	517	517	517	522	522	522	522	523	523	523	523	522	522	521	521	517	517	518	518	524	526	526	525	525	524	524	520	520	523	523	524	524	524	524	524	524	522	522	524	524	525	525	527	527	527	527	526	526	525	525	524	524	519	519	521	521	521	521	521	520	520	519	519	524	524	525	525	525	525	525	525	525	525	525	525	525	525	525	525	522	522	524	524	523	523	521	521	519	519	518	518	518	518	519	519	520	520	522	522	519	518	518	515	515	513	513	510	510	541	541	539	539	537	537	534	534	530	530	535	535	541	541	539	539	537	537	537	537	538	538	537	537	537	537	537	536	536	535	535	539	539	539	539	538	538	537	537	537	537	534	529	530	530	533	533	533	533	533	533	533	532	532	531	531	533	533	529	529	528	528	525	525	526	526	528	528	534	534	537	537	538	538	538	534	534	538	538	537	537	537	537	532	532	529	529	527	527	526	526	525	526	526	529	529	534	534	536	536	538	538	539	539	541	541	542	542	542	541	541	540	540	540	540	539	539	538	538	537	537	537	537	537	537	537	538	538	540	540	541	541	541	541	541	541	541	541	541	541	541	541	541	542	542	542	542	543	543	544	544	546	546	546	546	544	544	538	538	538	538	540	540	540	540	541	540	540	544	544	544	544	544	544	544	544	543	543	535	535	533	533	529	529	532	532	534	534	538	538	538	538	538	538	542	542	543	543	542	542	540	540	536	536	535	535	535	535	535	535	539	539	540	540	539	539	539	539	538	538	538	538	538	538	538	538	537	537	538	538	542	542	544	544	544	544	544	543	543	536	536	532	532	530	530	530	530	532	532	532	533	533	534	534	535	535	536	536	545	545	547	547	547	0	0	0	0	0	0
