638	640	640	645	650	650	650	649	646	637	632	632	629	635	642	647	648	648	646	646	646	650	650	652	647	648	649	650	650	647	639	641	651	655	650	650	648	647	648	648	644	637	637	640	646	643	653	657	655	655	655	653	651	651	653	652	653	656	659	661	661	655	657	661	661	656	654	647	649	655	658	655	655	653	652	647	652	655	657	658	661	664	664	667	665	653	653	653	653	658	668	668	663	655	648	648	658	655	655	650	653	656	656	659	659	653	654	656	657	658	656	652	652	654	659	664	670	670	666	657	663	678	683	682	660	662	668	671	672	671	668	665	666	666	664	662	655	650	655	662	667	668	664	661	656	659	664	668	669	668	669	672	673	675	674	666	661	663	667	672	670	666	663	662	657	661	666	677	678	675	668	658	658	665	668	668	667	669	673	672	670	669	671	671	668	669	671	674	668	664	659	652	655	658	663	673	673	663	659	662	660	669	671	670	673	673	669	675	680	689	689	680	675	663	667	669	683	691	695	684	670	672	676	677	671	670	675	680	683	682	681	677	671	670	670	671	671	677	685	686	678	673	672	671	679	682	684	674	674	679	683	681	687	685	684	683	689	694	688	689	691	693	677	673	670	669	672	672	677	675	678	687	684	674	675	673	680	687	688	688	690	688	686	680	679	680	685	683	673	670	671	672	672	673	666	666	668	672	678	683	683	681	675	671	666	663	665	669	687	691	684	674	675	678	678	681	682	682	681	688	687	680	680	678	693	679	674	671	668	669	673	675	672	680	687	695	697	700	693	693	690	688	684	678	678	682	687	690	688	679	679	689	707	708	706	705	702	703	701	688	689	684	685	701	701	696	678	698	697	698	699	710	708	707	702	703	699	700	708	702	700	702	698	699	704	709	708	709	719	722	720	708	701	703	701	704	710	713	712	707	704	703	700	700	698	696	696	694	701	706	708	713	706	700	701	700	702	710	712	712	707	707	707	708	709	715	719	716	704	710	713	715	713	711	713	716	717	716	704	706	714	720	724	725	734	735	732	729	719	725	725	723	725	730	730	724	724	725	737	737	733	721	721	723	720	719	715	723	734	737	730	723	723	736	742	742	735	731	732	730	729	732	733	732	727	722	718	721	723	722	722	723	722	728	731	730	725	723	726	729	730	731	731	731	730	728	729	728	740	744	745	744	734	719	722	734	741	744	741	734	734	738	742	759	756	754	738	726	723	716	721	729	737	742	749	755	748	745	744	743	734	733	733	732	739	742	745	742	721	736	735	736	735	738	746	746	736	738	747	752	755	759	762	753	756	754	755	753	748	742	733	736	740	745	755	759	758	760	760	762	773	772	753	754	757	756	756	759	762	758	759	763	766	768	765	761	761	758	751	747	749	754	759	766	765	761	762	766	770	770	767	765	767	767	767	766	761	759	761	765	776	778	773	775	780	776	776	778	776	773	769	763	763	766	0	0	0	0	0	0
630	636	636	641	640	645	646	646	639	626	622	618	618	632	638	643	644	644	642	642	642	646	647	647	647	649	644	641	634	634	630	635	633	640	640	640	641	643	643	643	638	641	639	639	634	640	646	648	647	645	640	640	640	642	643	648	642	651	655	655	655	639	652	652	651	650	651	653	654	649	647	643	643	639	641	643	646	649	650	653	657	661	666	664	661	650	651	652	654	654	653	656	649	647	649	650	650	651	643	642	648	653	655	656	646	650	653	655	654	656	656	655	653	649	645	651	654	650	642	635	643	648	654	655	653	664	669	666	666	661	657	655	664	668	669	662	654	650	650	649	647	653	652	649	650	652	659	667	667	669	668	666	669	672	669	658	655	656	664	665	666	661	661	664	658	654	657	674	674	664	658	660	658	656	645	644	645	649	663	669	670	669	665	664	663	659	668	668	671	653	648	647	647	656	661	662	660	656	656	665	668	664	668	668	667	665	660	667	679	687	689	680	670	661	660	665	667	680	682	678	667	668	669	671	671	666	668	674	679	683	687	688	670	669	668	669	665	669	685	680	674	671	669	669	667	672	675	673	672	674	678	662	664	663	671	673	678	682	686	688	689	677	670	668	665	669	673	672	674	673	674	675	671	677	673	670	672	673	686	688	678	678	679	679	677	676	675	673	668	670	671	671	671	667	663	663	667	669	672	677	677	666	662	664	660	663	664	663	664	664	667	668	670	671	672	676	675	675	676	677	682	682	671	671	674	674	671	668	666	667	670	672	682	684	686	682	687	694	693	690	688	686	684	674	673	679	685	686	682	672	664	681	690	698	705	702	700	699	691	681	673	674	680	690	697	686	674	684	681	686	687	687	694	699	699	695	691	691	692	696	698	697	699	699	698	705	704	703	703	714	706	699	695	693	692	691	691	695	699	702	700	697	691	692	690	691	688	693	700	702	703	697	697	695	697	700	702	708	711	713	702	700	693	698	700	708	707	703	700	701	711	706	710	706	708	713	717	711	701	704	712	716	716	722	723	733	730	724	719	720	720	720	717	725	724	715	715	732	728	724	725	713	714	715	716	714	709	707	722	721	703	707	711	708	719	718	723	725	726	726	727	727	727	727	725	718	716	715	708	712	724	722	723	722	724	725	725	724	724	722	720	715	714	717	722	723	723	716	722	729	730	730	704	705	716	727	734	736	735	730	732	736	736	742	747	736	724	715	716	710	711	718	731	738	740	742	751	750	745	741	730	728	729	729	730	737	741	735	726	719	723	729	734	735	733	731	731	730	731	733	741	746	748	742	744	748	749	750	746	738	735	734	738	747	746	755	754	753	754	750	749	740	745	747	749	749	750	750	762	755	754	755	761	767	767	767	762	757	744	740	745	748	757	765	765	761	760	765	769	759	756	750	755	755	758	762	761	760	760	764	768	776	775	775	774	772	772	772	765	765	766	760	761	764	0	0	0	0	0	0
624	631	631	633	631	631	629	629	630	626	611	615	615	621	629	635	637	637	638	631	637	642	647	647	649	643	643	638	637	637	633	633	629	630	634	638	638	640	645	645	649	641	634	634	632	634	639	640	640	638	640	640	641	644	643	646	640	643	635	638	639	642	643	644	647	645	648	649	649	649	644	639	638	638	637	640	641	642	645	648	640	639	652	659	641	638	645	649	649	654	654	644	642	647	649	652	653	645	639	640	643	644	645	648	645	646	650	652	652	653	651	651	651	649	647	646	649	647	644	641	643	642	654	655	647	654	653	662	663	650	645	649	657	662	664	653	652	651	647	650	648	648	647	647	647	651	653	661	666	671	667	662	657	653	645	641	638	651	663	664	664	657	658	657	654	643	642	647	655	662	659	662	661	658	656	661	662	658	657	653	661	663	652	650	652	654	655	659	671	651	645	651	653	654	657	664	661	654	652	652	654	655	658	664	662	661	661	665	672	678	683	683	677	662	662	661	665	667	666	664	663	667	667	669	670	661	660	666	670	675	672	672	667	666	663	661	658	668	662	672	674	672	667	668	664	663	667	669	668	669	671	671	657	663	668	669	666	662	666	668	669	672	670	663	664	668	669	669	669	668	665	665	662	661	660	657	658	664	667	666	670	675	672	667	667	659	661	664	659	669	673	672	671	668	660	660	664	669	661	666	671	664	662	661	662	672	670	666	665	661	662	658	658	664	669	671	674	674	674	675	678	671	666	667	670	669	665	665	666	665	667	669	680	684	678	680	679	678	683	683	681	680	676	672	676	678	682	685	680	677	671	666	670	689	697	692	692	687	667	662	671	671	676	681	688	686	668	669	674	681	681	685	690	692	691	689	690	681	672	678	696	691	694	686	692	692	697	698	697	694	688	686	688	689	690	690	689	693	697	698	697	696	694	689	688	684	684	691	697	689	689	691	694	697	697	698	703	705	708	699	689	686	687	694	700	700	701	697	697	698	696	701	698	700	699	704	716	711	702	705	712	717	720	719	720	711	706	701	703	708	712	708	708	714	719	708	708	716	718	717	718	715	713	712	711	709	706	693	687	688	690	690	696	703	710	715	716	717	717	717	714	716	718	717	716	713	712	710	703	703	710	720	725	716	718	719	717	722	723	718	713	709	709	711	711	711	710	710	705	704	703	703	704	705	704	716	725	729	729	727	724	719	728	728	725	723	718	715	711	710	709	713	724	734	736	735	734	734	734	731	728	726	725	724	727	727	727	726	723	719	721	730	728	728	726	728	730	734	733	731	727	725	727	731	738	743	745	731	725	729	729	729	730	729	730	736	738	747	746	742	737	732	739	736	740	741	739	744	741	741	747	747	753	759	759	762	759	755	751	736	738	744	755	764	761	751	741	740	754	751	740	742	746	746	747	745	745	749	755	759	760	762	763	762	760	760	762	759	760	759	759	755	757	759	0	0	0	0	0	0
619	621	623	623	627	627	626	626	620	616	611	608	608	611	630	636	638	637	637	627	626	634	643	643	647	642	639	631	631	632	632	630	628	626	630	634	634	638	643	648	648	644	635	634	634	634	637	637	635	639	641	643	643	643	642	634	630	630	635	641	642	642	644	644	642	642	644	647	647	648	643	638	638	638	638	638	641	637	638	638	634	633	637	639	633	637	639	641	645	636	636	636	638	643	649	652	654	643	637	637	641	641	640	641	635	632	632	641	649	649	648	647	647	645	645	645	641	643	648	644	640	641	640	641	644	649	647	645	642	639	643	647	651	655	650	641	647	651	647	652	650	647	648	651	651	653	653	655	658	659	661	658	651	646	644	644	643	635	656	656	646	648	653	643	642	641	640	643	650	658	662	661	660	661	662	662	659	654	654	656	657	655	648	647	648	648	650	652	648	649	651	651	652	651	654	657	655	649	645	647	648	647	663	663	662	655	657	664	669	673	674	677	673	666	656	660	663	662	661	660	657	663	665	667	664	658	658	663	664	662	666	666	664	663	659	657	639	646	663	662	656	669	667	669	665	664	664	666	666	668	664	658	653	655	654	652	652	657	666	667	665	668	664	664	662	665	667	669	666	663	658	656	655	657	666	663	663	664	662	661	662	663	659	657	659	659	659	661	664	666	671	671	669	654	655	656	662	669	666	666	667	666	661	657	668	667	656	666	665	661	658	658	659	658	661	665	670	672	668	666	665	660	661	664	668	666	663	661	661	659	660	661	663	671	674	673	671	668	669	677	676	673	675	664	667	673	680	681	682	668	667	672	670	673	674	674	668	666	666	669	675	675	678	675	679	672	660	658	665	685	684	685	688	684	677	687	678	672	673	672	680	687	679	681	689	686	692	681	669	674	673	675	674	671	674	675	690	692	692	691	694	696	695	690	687	685	677	679	688	685	686	688	690	689	689	687	690	689	688	686	685	684	683	683	695	696	695	694	694	693	693	694	691	685	687	690	693	691	702	700	707	711	701	695	696	699	698	692	691	691	692	699	703	707	703	703	701	706	707	709	716	718	712	711	707	704	700	690	687	678	680	686	692	699	703	693	691	695	707	710	705	706	707	709	702	706	706	706	703	704	707	717	715	702	706	712	709	700	712	714	710	705	708	710	705	699	699	707	707	705	700	701	699	702	704	712	717	725	725	726	723	717	719	723	727	719	718	716	714	711	712	716	721	722	734	733	732	724	728	731	730	725	722	722	712	711	709	710	715	705	721	725	722	722	725	725	728	729	729	727	726	723	723	726	731	739	729	726	719	713	713	712	720	724	727	729	731	739	740	738	727	731	735	736	736	732	734	737	737	737	735	734	745	748	748	751	752	746	743	737	735	738	741	744	740	737	731	729	749	739	739	741	741	742	742	742	740	742	746	748	749	752	749	740	744	744	755	747	746	749	754	743	743	740	0	0	0	0	0	0
611	613	619	619	624	626	623	616	616	611	611	604	614	614	625	633	631	626	626	625	623	628	633	638	638	642	630	626	625	629	629	629	625	624	624	629	631	631	636	641	644	639	637	644	644	646	642	639	637	637	640	640	640	638	631	624	625	629	632	640	642	634	634	632	636	637	642	644	645	643	639	636	636	638	638	644	644	638	635	632	633	634	633	632	633	637	641	638	632	632	632	632	630	638	645	646	643	643	633	631	639	639	634	637	632	633	631	632	637	642	643	641	640	639	642	643	639	643	640	638	639	640	644	638	640	642	642	642	639	640	643	647	648	644	635	630	629	642	645	649	649	647	644	653	654	649	652	654	653	651	648	643	642	647	647	648	640	636	642	632	637	641	642	639	636	635	639	643	647	651	657	657	652	651	655	655	650	650	649	649	654	653	644	644	644	646	646	649	643	646	648	647	648	647	652	654	646	644	645	643	643	643	656	659	659	649	650	655	657	662	669	664	658	653	649	644	653	658	655	649	646	643	658	659	657	657	657	657	655	661	658	657	654	647	648	651	641	643	651	651	657	648	658	657	649	650	664	665	667	669	664	655	654	650	648	645	647	651	659	660	660	657	657	658	660	663	663	664	663	661	659	653	656	666	668	666	666	666	660	653	653	657	655	657	657	658	661	652	661	663	662	664	663	649	643	655	661	667	668	666	668	664	659	662	664	657	654	652	664	664	661	657	661	660	660	661	667	672	668	664	666	658	659	663	664	663	659	658	654	655	660	661	661	667	657	661	659	659	663	668	672	669	660	661	662	664	661	658	655	654	668	670	669	667	666	667	665	663	665	666	671	675	674	674	674	659	658	664	669	670	688	687	683	677	675	677	674	669	666	666	679	686	689	684	695	681	675	670	673	673	669	669	665	670	672	679	690	695	692	689	689	695	694	688	688	682	676	670	675	678	685	685	685	688	687	686	688	687	685	684	681	681	680	682	691	681	683	687	682	681	685	687	687	684	685	688	686	686	688	697	694	693	692	690	691	693	697	691	683	683	688	692	690	690	696	700	701	699	702	707	711	714	710	702	697	691	694	692	688	680	679	680	680	687	698	694	697	695	690	696	703	699	698	689	691	697	698	710	706	706	707	706	700	688	684	691	695	708	704	704	702	693	693	695	699	695	700	704	704	702	700	701	693	700	704	709	712	713	715	717	719	717	719	724	721	715	717	708	709	707	705	708	710	723	728	727	727	721	730	728	727	722	718	717	707	711	707	706	703	704	704	707	712	715	713	717	721	724	725	723	719	718	720	723	718	722	732	721	714	709	707	708	711	717	717	703	709	715	724	732	727	716	728	729	727	723	723	726	730	728	730	731	736	736	738	745	747	742	741	737	735	742	743	740	731	734	733	731	729	740	741	737	737	737	742	740	736	737	741	744	744	743	739	736	736	731	741	741	742	742	748	748	747	741	741	0	0	0	0	0
613	612	615	615	620	624	625	619	619	620	613	608	617	617	626	630	632	626	626	622	626	627	631	635	635	637	614	619	624	623	623	625	627	625	626	626	629	629	629	634	636	636	635	638	638	642	641	638	636	629	629	628	626	626	624	621	624	626	632	634	635	633	633	632	632	632	637	636	630	625	626	630	635	644	647	647	644	639	635	633	631	633	638	632	628	633	640	637	634	629	629	626	626	625	623	623	627	629	631	633	637	636	630	627	623	623	630	631	638	639	640	640	637	635	634	637	632	635	637	636	635	638	646	640	638	636	637	637	639	640	642	640	630	630	625	622	620	626	637	644	643	640	642	643	657	654	651	648	648	648	645	642	639	640	647	648	643	644	636	633	641	643	642	637	636	634	639	642	645	651	653	651	647	648	651	651	641	643	643	644	643	639	638	642	643	646	649	627	618	622	625	626	630	629	631	632	633	634	637	645	646	643	646	649	654	645	647	648	646	648	651	652	651	644	645	634	635	641	648	646	642	641	647	645	645	654	653	651	649	646	646	640	640	637	640	641	639	642	647	644	648	647	650	646	651	654	655	659	670	669	655	649	645	642	642	643	646	647	657	652	649	650	650	650	657	658	655	657	659	661	657	657	666	670	670	668	663	660	653	649	648	650	652	656	657	659	654	650	650	650	648	649	652	644	647	655	658	657	662	663	663	656	657	655	655	657	653	649	648	661	655	650	653	661	662	668	666	661	658	658	658	657	662	663	661	659	657	651	652	663	664	657	656	657	658	652	652	651	656	659	658	660	663	665	660	671	671	657	649	645	652	665	664	663	664	665	668	665	663	663	665	669	669	669	674	665	664	669	675	676	667	665	675	676	675	673	664	659	662	664	674	684	687	688	686	679	673	672	675	673	666	664	664	668	670	675	679	690	696	695	692	690	686	663	662	662	659	662	664	672	676	681	684	679	677	678	680	685	685	682	681	679	681	681	675	678	675	671	673	676	678	676	676	680	684	686	687	687	688	690	685	684	683	684	695	693	683	683	680	680	679	680	682	685	685	696	697	695	699	705	689	695	699	697	691	689	694	694	691	683	681	679	678	680	691	694	696	695	686	686	686	683	681	686	689	692	693	707	710	710	706	703	683	680	681	688	695	697	696	698	696	688	691	692	692	695	697	703	704	702	702	703	693	691	695	700	701	705	709	709	706	698	694	708	714	719	713	707	706	699	703	705	710	722	728	733	728	712	710	722	719	713	699	701	704	713	711	710	696	705	708	711	712	716	710	710	714	717	717	715	713	715	717	715	709	713	724	726	718	710	707	703	706	711	698	706	706	709	709	719	718	719	722	722	721	721	718	722	719	713	715	715	715	720	724	729	730	733	732	732	741	740	739	730	727	733	733	729	726	726	731	731	733	731	733	736	733	733	732	737	735	735	724	726	726	726	725	726	727	736	743	750	748	738	738	0	0	0	0	0
613	609	611	614	614	620	618	623	623	619	608	608	614	621	621	626	630	627	622	622	614	619	622	628	628	628	605	610	619	623	625	625	624	627	626	625	626	626	628	634	630	629	619	624	623	623	629	636	625	621	618	622	625	625	619	619	623	624	629	633	632	630	630	630	630	628	626	628	625	625	626	627	633	631	628	628	625	622	633	629	629	627	636	623	621	625	624	637	633	629	623	616	619	619	618	620	618	624	625	631	638	635	626	628	621	622	629	630	632	634	638	637	634	631	628	626	628	632	628	626	629	634	631	627	626	631	635	635	637	638	636	633	626	625	621	618	619	625	632	637	641	642	640	638	636	635	631	635	641	638	637	634	637	631	634	637	635	641	636	640	644	643	641	635	631	634	642	636	637	643	650	650	648	646	645	643	635	636	636	636	635	634	632	634	635	632	625	617	618	621	622	622	624	626	630	633	632	633	634	637	641	633	634	640	647	647	642	642	642	644	647	637	637	640	638	638	637	636	638	638	640	641	640	640	638	637	638	645	648	646	641	638	637	637	639	640	642	643	642	652	653	648	645	648	652	654	653	659	664	655	638	636	638	640	644	648	654	645	646	649	648	645	647	648	652	649	650	652	658	653	651	650	648	632	635	644	646	647	649	647	649	648	651	652	653	653	647	648	648	653	648	643	641	643	644	647	655	653	655	658	654	651	650	649	651	652	652	650	644	636	636	648	649	656	664	665	661	658	655	653	652	653	653	656	658	655	650	649	655	657	659	651	646	649	647	643	645	650	654	656	657	661	662	671	670	664	661	649	645	641	656	659	661	661	664	669	667	666	657	657	663	666	667	675	668	665	664	671	675	676	668	667	666	662	657	651	655	658	657	658	659	669	684	681	679	674	676	678	679	668	664	660	659	660	664	668	670	664	675	680	673	667	664	660	659	656	655	658	659	664	671	678	681	669	666	671	682	679	674	677	675	678	677	678	669	671	670	670	665	661	663	669	668	673	676	684	688	688	689	679	672	674	677	683	693	691	677	674	681	681	679	680	680	683	688	691	688	685	686	686	683	683	683	683	681	681	686	685	692	689	680	675	671	673	679	681	689	681	681	683	685	683	680	684	689	694	696	697	700	698	689	685	682	684	692	699	700	699	698	696	693	688	687	688	688	677	681	686	695	699	703	701	685	685	688	693	695	699	703	703	700	692	689	699	707	713	712	702	691	690	694	703	710	720	718	711	706	706	709	704	701	696	690	693	694	698	704	709	690	703	711	714	715	717	710	718	717	712	713	712	708	710	713	711	709	709	709	707	705	699	694	699	708	707	698	695	701	702	702	700	714	712	715	715	717	718	717	722	715	709	703	703	701	702	704	705	717	716	717	719	727	728	724	716	715	725	728	720	716	721	721	719	719	724	728	728	730	729	728	724	723	708	705	705	710	717	718	718	721	719	739	741	739	739	734	0	0	0	0	0
613	608	601	599	599	602	614	606	603	603	602	607	612	617	617	623	623	622	611	611	613	616	626	618	609	609	605	615	622	623	621	621	620	619	614	619	624	626	626	628	624	620	619	614	620	620	624	626	618	612	612	615	620	617	617	621	625	628	633	627	629	613	614	618	618	619	623	615	619	622	628	632	632	628	624	620	620	617	619	627	625	624	623	616	615	616	618	619	619	616	612	610	611	611	614	616	617	621	625	627	630	632	625	624	626	629	627	624	626	622	624	631	632	629	619	622	623	622	619	622	626	633	630	628	627	625	629	631	632	636	645	642	625	620	614	613	618	630	635	637	638	637	636	634	632	631	631	628	629	632	630	629	635	635	633	632	631	633	634	635	639	637	625	622	624	626	620	633	633	636	646	647	649	645	641	635	632	631	630	627	626	625	628	635	635	625	618	613	615	617	621	619	622	625	629	632	631	632	624	623	625	628	629	629	635	639	641	641	641	643	632	631	629	628	621	619	621	628	640	646	643	634	635	638	637	637	634	632	633	634	633	632	633	633	635	639	641	642	639	637	629	635	636	639	647	650	650	648	641	627	634	634	637	643	648	652	651	646	639	637	639	646	644	648	645	641	645	641	637	635	635	636	633	631	631	636	640	643	631	637	633	641	641	645	645	645	643	643	644	654	645	640	640	641	643	646	651	651	651	653	644	642	642	640	640	631	635	642	637	632	630	636	641	654	656	660	657	655	652	650	649	649	651	652	651	652	652	652	649	653	654	652	648	646	643	642	641	646	654	653	654	654	650	654	660	662	657	650	642	648	652	656	659	662	665	664	664	641	640	643	649	664	670	671	669	651	648	654	668	669	662	661	661	655	656	645	649	653	657	658	657	657	669	668	670	674	678	679	679	671	663	659	656	655	659	661	658	660	675	660	659	657	656	656	656	654	655	659	661	657	652	655	659	662	663	659	677	676	669	663	669	661	659	658	657	659	664	663	663	662	662	655	661	665	673	675	686	685	675	669	665	664	670	688	688	686	681	671	669	679	680	681	681	685	685	678	679	679	684	682	678	683	685	682	681	679	679	685	685	684	678	674	673	665	666	673	671	671	677	683	686	686	680	687	688	681	689	693	695	688	684	669	685	684	677	693	693	695	693	695	690	682	675	675	673	671	677	682	682	690	695	695	682	679	683	689	692	697	699	700	697	688	691	695	700	704	703	697	690	689	692	697	704	702	701	698	695	698	706	701	696	693	692	690	686	683	687	683	690	707	716	717	715	717	712	721	717	705	713	711	707	706	710	710	707	706	703	698	690	689	694	699	705	704	700	692	692	697	698	696	688	708	710	708	710	712	714	714	710	706	706	701	700	701	703	705	704	703	709	712	720	719	711	709	706	720	723	715	708	715	715	713	708	714	718	721	725	714	712	709	707	707	707	710	711	715	718	721	717	711	732	736	733	733	726	0	0	0	0	0
613	604	596	593	593	589	592	592	595	595	600	608	606	613	613	614	613	614	602	610	610	621	615	611	609	609	613	610	612	612	612	610	610	608	611	616	621	626	626	625	622	617	614	613	617	621	621	619	613	607	607	611	614	620	620	628	631	632	618	618	612	612	610	610	610	611	614	610	613	620	626	628	626	617	615	612	612	615	620	623	621	621	617	607	606	611	613	616	615	614	609	606	604	607	607	613	616	622	625	621	622	621	616	613	619	622	622	616	617	620	622	622	621	614	620	618	625	622	620	618	622	632	629	626	623	621	619	615	625	623	620	619	618	620	621	613	617	626	630	632	632	634	632	630	628	626	628	624	625	626	630	630	637	641	618	615	624	627	628	629	632	632	623	619	618	620	626	614	629	628	629	631	636	636	625	610	613	618	633	627	625	626	627	628	624	616	611	610	618	623	625	621	622	628	632	632	628	619	615	616	622	622	617	622	630	639	640	636	641	629	629	633	630	627	620	618	620	627	639	641	637	632	621	626	634	635	634	632	630	627	627	628	631	631	632	633	638	639	636	626	630	632	632	635	639	643	646	640	632	623	626	631	636	642	646	639	634	628	626	634	639	647	648	641	641	641	645	643	635	631	629	632	634	637	635	631	627	626	625	625	625	624	623	628	640	642	643	644	649	645	642	643	640	641	642	647	650	645	645	637	637	637	640	633	632	626	632	642	634	631	631	632	639	644	655	651	650	643	641	643	640	642	644	646	644	645	646	648	647	645	647	646	645	646	644	649	640	641	646	648	648	648	646	652	657	657	655	644	646	646	649	652	656	654	658	660	664	642	644	645	645	647	668	671	669	652	650	652	657	661	657	652	653	654	646	645	644	644	647	649	651	650	650	652	650	665	672	664	667	665	656	652	651	653	655	658	659	653	652	655	657	657	653	654	655	649	651	651	656	655	651	653	656	657	655	654	658	675	676	660	659	653	652	657	654	654	661	660	662	659	657	660	659	662	669	680	683	681	673	668	665	665	676	675	674	673	673	672	669	672	666	670	674	676	681	663	675	681	683	677	680	683	676	677	677	677	677	680	675	675	674	675	671	667	666	669	667	668	677	684	688	689	687	688	683	681	681	685	685	684	684	669	682	681	675	675	681	684	686	694	701	685	680	676	666	662	672	679	676	673	681	680	677	677	682	687	690	692	694	694	693	689	691	692	695	694	693	689	685	685	687	686	688	692	698	697	691	688	689	688	692	692	691	690	682	682	683	683	687	702	712	709	701	697	708	703	696	705	708	709	707	702	703	707	700	696	700	692	682	685	688	695	691	690	688	686	686	688	687	684	682	688	699	698	703	708	713	713	710	710	706	701	698	698	699	702	702	700	704	707	712	711	697	699	697	699	713	708	703	708	705	702	702	701	706	722	714	713	709	701	698	704	704	707	713	713	716	719	715	708	707	707	707	708	707	0	0	0	0	0
608	599	592	589	588	588	585	588	594	600	600	605	606	608	606	606	604	596	600	605	605	604	604	605	606	610	610	609	613	614	608	606	606	605	607	611	617	622	620	620	611	610	611	611	614	615	615	613	611	609	608	608	613	616	620	620	620	614	607	606	610	607	607	607	610	610	613	615	613	617	619	618	617	616	613	609	616	616	621	621	618	617	610	606	602	599	591	592	597	601	606	604	600	599	609	609	616	617	609	608	609	609	604	604	612	614	611	625	621	621	613	609	608	612	619	620	624	625	622	619	621	623	626	623	613	606	610	618	623	623	620	616	610	608	607	607	612	618	624	625	626	631	626	617	615	614	619	624	623	623	626	630	630	622	631	633	636	636	623	624	626	625	623	618	615	614	613	612	627	625	623	625	624	622	614	615	614	612	616	623	626	627	629	626	618	614	609	609	616	624	625	625	624	615	617	617	615	613	609	609	618	613	614	615	632	635	630	621	620	618	630	632	630	613	610	611	613	615	617	617	632	627	623	614	617	620	634	633	628	627	626	628	631	631	630	631	633	635	631	624	625	624	623	621	631	635	626	636	627	621	620	628	631	635	633	623	622	621	622	625	627	636	642	638	637	636	645	641	637	631	629	630	635	638	635	630	624	627	625	621	623	623	625	626	631	630	633	637	641	644	641	642	641	641	641	644	643	638	635	633	635	636	636	632	624	621	625	631	638	641	642	639	638	638	646	644	642	641	638	637	633	635	635	640	640	638	631	634	645	642	635	636	633	641	647	644	638	634	642	648	650	648	648	652	656	648	645	641	640	649	650	640	647	647	648	651	656	649	654	653	650	646	648	662	671	663	659	657	659	658	652	649	648	653	645	642	645	645	640	645	644	646	649	652	650	646	650	648	653	652	653	649	647	652	655	658	654	650	650	649	652	653	654	648	644	647	651	650	651	651	651	651	653	652	651	653	658	670	674	672	657	653	654	656	656	657	665	662	663	663	665	657	655	653	668	673	681	677	674	655	658	656	649	656	654	664	675	669	663	667	667	668	672	668	662	652	665	673	673	668	671	673	662	649	651	658	666	674	676	671	673	673	668	663	664	663	664	667	672	684	689	691	690	685	686	679	681	681	682	683	681	671	669	670	671	672	679	683	688	694	679	671	666	671	675	676	673	675	675	671	669	665	667	669	670	673	679	683	684	682	685	690	689	691	690	690	690	684	679	677	675	677	680	683	684	683	679	678	682	682	681	689	690	691	686	685	685	684	684	685	688	694	693	691	687	688	692	698	703	700	693	693	699	699	685	684	677	674	675	682	690	694	693	689	683	681	680	681	687	686	685	686	687	688	691	691	702	710	710	708	704	701	698	698	701	701	701	698	693	694	698	698	694	691	688	691	690	698	698	703	700	696	694	694	713	708	709	705	696	694	692	692	694	698	702	709	711	714	713	708	703	701	701	701	702	0	0	0	0	0
599	599	594	587	584	584	582	580	585	592	592	599	605	587	590	590	593	599	594	595	595	596	600	601	603	605	605	609	611	606	607	604	604	604	605	608	613	612	614	614	609	606	607	603	605	605	605	605	604	606	606	608	613	616	614	614	606	603	601	604	608	603	603	605	606	606	611	616	617	616	614	613	613	606	604	608	614	617	617	612	613	612	601	591	599	596	592	591	598	601	603	604	601	603	608	609	609	608	607	613	615	610	610	612	616	609	606	603	611	613	612	611	609	615	605	608	620	622	620	617	617	621	623	614	604	609	612	616	619	619	616	614	605	601	595	591	593	608	608	611	613	616	614	608	603	604	605	607	607	611	610	622	621	622	626	628	634	639	622	617	615	615	616	617	620	614	614	611	614	620	619	619	618	618	618	617	616	611	612	615	614	617	617	625	618	614	612	614	619	624	624	621	620	618	619	615	612	609	607	606	611	613	609	616	632	632	626	615	609	606	625	626	614	610	608	610	613	615	615	614	614	620	618	615	612	612	610	626	622	618	618	622	629	632	632	640	639	628	624	620	621	623	621	624	624	621	612	613	613	611	608	611	619	624	620	621	623	621	620	619	623	627	631	634	638	640	643	639	640	632	630	632	631	632	630	629	615	616	624	625	621	624	626	630	632	632	632	630	618	620	629	632	633	637	637	636	636	638	632	632	632	635	637	626	615	614	621	623	621	637	634	636	637	637	637	638	637	636	641	637	629	630	630	637	631	629	633	634	635	636	630	626	626	638	644	644	638	630	627	637	643	648	647	651	642	647	638	635	643	645	646	639	633	636	640	643	643	652	656	654	652	643	639	648	650	650	650	651	651	640	639	643	646	647	645	648	648	636	635	638	641	650	649	655	647	644	637	631	622	637	644	648	646	652	653	654	652	647	642	645	648	652	652	651	651	649	651	651	645	643	638	639	651	646	649	653	664	665	667	670	650	651	654	655	660	665	660	654	659	654	662	655	653	645	641	667	670	671	665	649	647	651	648	647	649	653	661	664	656	655	654	654	654	653	655	647	651	658	657	657	656	654	646	643	651	653	652	668	662	656	673	670	664	665	665	662	665	665	672	673	670	672	671	669	682	682	680	684	685	682	679	670	666	666	667	672	675	680	672	672	671	667	665	672	677	677	670	668	670	674	669	667	666	665	667	669	677	679	679	677	680	678	681	680	679	683	694	696	676	671	670	671	673	675	674	671	669	670	671	676	679	682	687	688	685	687	686	683	678	687	693	681	677	677	679	682	682	689	689	686	679	671	667	668	673	675	675	669	678	685	680	674	672	669	672	677	677	676	676	687	688	684	679	679	681	680	698	698	700	695	699	698	696	699	700	702	698	695	690	693	694	696	691	682	675	676	679	687	687	702	697	695	685	685	689	698	703	699	692	689	687	687	688	690	697	706	710	711	713	711	704	704	699	696	697	0	0	0	0	0
599	596	588	581	579	579	576	579	576	589	589	595	596	587	587	587	591	592	585	585	593	593	597	599	597	597	607	607	598	605	602	598	596	596	595	597	600	607	605	603	603	605	605	603	597	599	594	594	601	604	609	609	612	611	593	589	589	592	596	603	603	601	600	601	603	608	608	613	615	615	614	612	609	597	597	603	609	602	602	600	599	598	580	598	597	595	593	593	594	596	597	595	594	598	601	603	605	605	610	612	615	611	608	603	613	605	602	599	603	608	612	616	613	603	600	596	596	591	592	602	620	622	623	619	612	605	605	609	613	605	601	604	603	593	590	589	591	597	603	604	608	610	604	597	599	603	603	606	609	609	613	615	618	617	617	621	635	634	630	623	611	611	613	616	620	621	610	606	602	602	606	612	613	618	624	618	616	612	613	616	616	617	621	620	619	617	614	614	616	614	617	618	617	616	617	615	610	604	605	610	612	612	613	616	620	629	623	607	602	598	603	606	611	603	605	609	613	615	612	608	607	603	611	614	604	603	603	601	594	615	611	612	616	621	609	605	616	615	618	620	619	620	618	618	619	617	612	612	615	610	612	612	616	618	621	622	621	616	618	611	614	620	622	629	634	636	636	633	625	634	632	626	630	625	623	617	614	614	614	619	620	624	626	630	633	630	626	624	618	621	626	629	629	633	630	628	621	615	619	626	623	631	621	625	627	623	628	622	623	624	635	635	639	638	637	634	633	633	632	628	624	627	626	627	633	636	635	633	633	633	629	623	623	628	637	638	634	630	625	629	637	646	645	632	634	635	636	637	635	642	644	635	633	631	631	641	646	645	651	651	648	641	636	632	637	637	641	652	649	645	640	641	643	644	643	643	644	634	627	624	627	635	638	647	643	638	631	626	626	628	637	643	648	650	649	650	642	637	636	641	644	648	649	649	651	650	650	642	635	633	633	639	639	645	648	647	647	651	656	644	643	644	648	653	656	659	655	655	653	652	644	645	641	640	650	656	666	665	652	649	651	651	651	647	650	649	648	647	647	652	651	651	653	652	649	646	641	640	638	632	636	636	638	648	651	651	648	649	651	647	645	647	658	659	660	663	666	669	671	667	660	656	656	661	663	661	660	659	661	661	659	664	668	664	665	668	667	666	666	667	669	666	654	651	661	668	664	666	668	669	669	664	664	662	660	655	662	674	674	673	673	677	678	675	675	677	680	687	685	668	665	668	668	669	665	663	661	662	667	672	673	680	681	680	678	686	686	683	678	688	692	673	674	674	678	670	681	686	683	680	674	665	660	659	666	668	670	674	679	695	681	675	669	666	668	670	676	674	675	677	682	678	675	673	674	693	693	698	693	692	680	690	694	694	701	694	692	685	689	692	693	692	690	685	676	676	677	677	675	681	697	679	665	677	691	698	700	696	691	686	686	683	695	698	696	694	703	709	711	711	706	706	696	693	692	0	0	0	0	0
596	586	578	577	579	571	571	568	577	580	594	594	593	589	597	591	591	586	586	586	582	582	587	597	593	597	594	594	590	589	586	584	591	591	592	594	598	598	586	587	587	598	600	599	594	598	600	599	599	601	603	605	605	589	583	586	586	591	611	612	608	605	598	601	603	608	608	612	614	614	612	609	607	591	592	595	594	594	593	593	590	585	598	598	596	593	593	592	593	593	593	588	588	590	597	600	603	609	609	608	610	609	605	598	607	599	594	593	595	605	608	610	614	601	597	594	587	593	587	587	594	602	602	602	604	604	603	604	607	604	602	602	602	596	590	588	592	597	597	598	600	598	600	598	594	587	590	601	607	609	612	610	607	609	607	611	629	630	623	602	604	611	609	612	615	611	609	605	603	599	601	606	608	613	615	623	618	613	612	614	615	616	621	615	616	617	608	601	600	608	614	617	614	615	615	610	604	601	602	605	610	616	612	615	616	614	621	602	597	596	599	604	608	601	602	611	612	613	611	610	607	603	606	587	602	603	602	597	598	588	607	609	610	609	606	602	601	599	615	613	624	618	615	612	611	614	612	624	623	618	619	610	612	610	612	620	619	616	609	608	615	616	620	621	623	627	625	617	627	617	622	628	624	622	619	615	612	612	614	618	618	620	625	633	618	614	619	616	618	622	625	625	626	624	624	622	620	618	617	622	620	617	615	615	618	623	619	621	623	626	622	636	639	645	640	634	634	631	621	616	612	621	620	627	630	632	631	630	630	629	624	628	627	624	631	631	627	624	620	623	629	635	630	630	631	633	638	639	641	641	638	634	631	630	627	630	634	633	636	642	641	644	636	635	637	639	640	650	645	641	641	642	636	630	628	626	621	623	624	622	629	634	636	632	633	629	626	627	627	627	628	629	642	647	647	641	635	634	632	629	629	620	622	624	642	644	644	636	632	630	630	633	635	633	630	631	632	632	634	638	640	640	647	649	649	649	650	647	651	645	641	646	642	638	642	649	651	646	645	646	646	648	648	649	648	646	645	642	648	646	647	647	639	647	647	642	634	627	623	622	625	628	641	645	648	648	645	645	644	647	638	638	640	644	650	657	663	666	665	664	660	657	657	658	655	648	644	643	644	649	655	663	666	666	663	664	663	663	664	666	665	663	653	651	659	666	656	659	661	659	652	646	639	649	653	659	661	662	665	670	663	663	665	666	668	669	668	667	660	653	657	655	666	661	663	658	663	662	665	669	670	671	670	667	668	669	684	680	674	668	666	668	676	681	673	667	679	683	678	669	656	652	658	657	661	665	669	667	679	696	681	674	666	665	670	671	671	664	662	667	678	676	674	664	680	680	688	692	689	686	678	672	668	673	679	680	680	680	683	690	692	692	690	682	676	676	676	677	676	674	686	672	670	670	679	691	687	686	679	681	681	684	693	696	694	690	689	700	707	710	710	703	692	690	688	0	0	0	0	0
586	578	574	570	572	568	568	565	567	586	589	589	598	598	597	583	583	585	586	588	588	584	584	580	581	583	588	588	590	588	588	589	588	591	591	593	594	585	581	577	581	581	587	590	591	597	600	600	600	603	610	597	591	581	580	591	604	604	605	603	606	599	600	594	599	603	599	599	600	609	606	604	597	587	593	596	593	591	589	581	581	582	597	595	592	592	589	588	589	586	581	581	584	589	595	601	602	607	605	605	602	600	597	598	599	596	591	590	599	597	597	596	597	594	589	591	587	589	589	591	593	594	599	600	599	598	603	605	593	591	598	601	600	590	589	588	594	596	586	587	590	590	592	591	588	589	590	585	592	594	592	603	591	597	602	609	618	606	598	597	603	603	606	604	597	600	600	595	592	594	600	604	607	610	609	602	597	598	606	609	607	604	599	613	613	612	603	600	597	601	599	604	606	611	604	602	600	600	603	605	609	614	609	610	610	608	599	596	595	594	600	605	609	610	612	614	614	613	610	604	600	599	587	592	604	599	588	581	582	582	601	605	605	606	606	599	598	594	612	610	602	598	604	610	608	614	615	617	610	604	610	609	610	611	610	609	619	616	607	604	607	613	616	618	622	621	621	613	614	618	623	623	614	609	604	605	608	612	612	617	614	607	611	615	614	610	607	615	619	620	623	619	621	619	621	619	618	616	614	613	604	602	610	610	607	619	612	615	614	617	623	635	637	617	601	592	613	614	618	619	614	619	620	618	613	620	621	624	621	622	621	623	623	625	625	613	617	616	617	620	626	625	627	628	630	632	636	638	641	637	629	624	622	627	627	627	625	624	622	631	621	626	631	635	637	635	627	631	633	636	637	632	630	626	623	621	617	618	620	620	625	629	634	631	627	628	630	629	630	629	629	630	630	633	641	636	633	630	634	632	626	624	623	623	628	640	637	634	629	626	629	630	628	629	628	626	623	627	632	637	640	644	646	647	646	641	638	639	645	659	651	648	646	633	633	646	645	641	640	637	640	642	643	642	647	638	633	631	638	643	647	646	638	642	637	632	628	628	632	642	641	641	643	643	644	644	643	642	641	641	634	636	639	641	644	653	658	663	664	662	660	656	656	657	654	648	644	642	642	647	652	652	661	662	662	664	663	660	663	656	650	655	654	654	651	653	654	651	652	648	645	643	639	651	656	656	657	661	669	669	664	658	649	655	646	645	658	657	652	651	649	652	652	662	661	661	656	661	664	663	665	670	673	668	662	661	676	674	668	662	660	673	677	678	672	655	676	678	674	661	662	661	662	661	659	663	663	665	669	673	667	659	660	660	668	672	672	666	660	666	666	669	664	660	660	668	678	690	687	680	676	667	666	665	672	668	676	674	668	668	670	676	684	679	674	675	675	676	672	673	676	674	672	674	676	676	676	673	677	677	680	679	667	669	679	679	681	687	697	705	705	699	691	685	684	0	0	0	0	0
577	574	566	564	564	565	563	563	573	584	587	587	595	590	584	582	582	582	587	589	585	586	586	587	588	587	583	590	590	580	584	588	589	589	589	589	589	585	581	576	578	578	581	585	585	592	596	599	600	600	602	595	588	586	588	599	601	601	600	598	599	591	592	594	591	585	587	587	586	586	590	595	580	585	594	597	597	590	589	592	592	598	593	591	588	585	587	589	587	582	577	581	585	588	599	602	605	603	600	596	596	595	596	597	597	595	590	590	587	595	596	593	587	583	580	583	585	587	591	591	595	594	596	595	592	588	586	575	579	587	593	592	590	590	587	591	593	597	595	583	584	586	587	585	588	587	589	594	599	594	584	580	580	582	589	597	597	593	598	599	601	598	594	594	596	592	584	586	585	589	594	598	603	606	607	601	598	598	603	605	604	601	598	603	613	613	605	597	597	600	598	592	600	593	592	601	599	594	603	604	592	600	604	605	604	600	597	598	595	596	599	603	610	614	623	618	609	605	609	608	605	601	592	594	603	598	592	584	585	584	587	598	601	601	593	593	592	595	604	604	599	595	600	602	601	608	612	614	606	602	595	603	608	609	608	608	619	617	604	602	598	602	606	612	618	618	610	604	609	616	618	618	611	606	602	599	599	603	605	609	608	608	609	617	615	608	605	602	604	603	614	610	597	606	609	611	617	618	615	608	603	602	608	609	605	611	611	610	610	612	611	611	610	607	599	592	592	598	611	620	616	602	605	612	613	610	611	611	615	611	604	606	605	606	609	606	605	605	612	615	614	617	618	618	621	623	627	624	632	621	618	616	613	612	613	616	616	619	618	615	618	623	627	630	632	627	625	625	623	626	627	626	625	622	620	616	616	614	615	618	621	626	628	628	626	626	632	632	632	628	622	619	617	628	631	632	624	626	624	624	625	628	626	626	623	626	634	631	630	625	628	624	620	622	625	626	625	619	631	637	641	643	640	640	636	635	636	627	638	633	632	628	627	632	628	634	634	641	621	620	621	636	637	637	635	634	635	638	641	646	648	645	637	635	633	629	627	628	632	638	642	644	643	644	634	636	638	634	633	634	629	632	637	638	639	645	642	659	660	656	653	652	653	657	652	648	646	644	643	644	649	644	647	650	649	654	649	650	653	654	654	649	643	649	651	652	650	648	651	645	644	645	649	656	656	656	657	657	655	658	659	655	651	651	648	640	638	642	644	652	652	653	649	648	656	653	648	649	650	666	663	673	673	663	656	651	667	671	663	658	657	669	673	677	671	658	663	668	659	664	665	665	664	662	660	666	666	664	668	670	662	654	655	653	655	664	668	666	662	667	668	671	671	665	660	657	659	664	666	667	671	663	663	665	667	669	664	663	663	663	666	669	666	663	661	661	667	668	665	667	674	673	673	675	678	676	673	668	668	673	679	675	666	668	676	674	673	670	678	697	699	696	687	682	688	0	0	0	0	0
573	566	566	565	568	563	567	567	576	584	586	582	582	576	579	582	580	580	583	581	580	579	579	579	581	584	587	584	584	568	576	582	585	584	586	586	583	582	579	574	578	578	580	582	585	589	592	592	586	586	585	587	586	587	587	590	590	590	590	586	589	591	581	578	578	578	580	578	578	573	568	566	567	573	577	589	587	584	582	588	592	592	586	589	588	588	591	590	586	585	583	584	592	583	591	592	599	594	591	587	589	589	592	595	595	593	585	586	584	584	586	587	582	578	576	575	581	583	584	586	596	592	591	590	587	585	580	570	572	582	593	590	588	586	586	590	591	583	581	580	583	583	584	582	581	584	590	594	600	598	590	586	575	577	584	582	582	589	597	601	594	591	586	591	591	592	592	589	583	587	589	592	596	599	601	600	602	599	600	602	600	596	594	595	609	608	604	600	596	591	587	588	588	584	584	582	583	597	593	589	593	597	602	600	599	596	595	596	595	590	592	593	602	608	608	600	596	593	589	601	603	602	602	604	604	593	594	600	599	592	588	588	591	584	587	585	594	602	603	601	599	595	597	596	595	596	600	596	592	585	585	595	598	602	603	608	607	607	592	588	596	598	598	601	605	603	600	597	604	612	612	610	604	603	602	598	597	602	604	608	607	608	607	607	607	607	605	603	608	602	600	595	596	598	602	608	614	618	612	605	603	603	609	601	601	607	601	603	607	618	610	609	608	607	603	602	595	595	599	601	597	594	602	612	610	610	611	612	613	609	604	608	621	623	612	602	601	602	604	610	610	611	610	611	612	617	620	613	615	615	613	613	610	610	613	614	613	616	617	613	615	617	617	617	618	618	619	623	627	628	623	624	622	618	614	610	610	611	611	609	614	623	625	618	614	618	628	631	625	617	610	611	614	614	616	619	622	621	623	621	621	625	625	622	617	620	623	630	631	627	629	616	619	621	625	625	626	619	631	636	639	633	621	627	635	625	624	626	629	629	627	628	628	627	630	633	632	630	623	625	630	633	637	636	630	633	632	635	638	651	647	640	637	635	631	627	626	629	630	630	625	634	636	628	627	629	631	633	634	632	631	635	637	636	634	637	636	643	647	651	644	643	642	644	653	650	648	637	632	636	644	648	650	649	645	640	630	638	644	650	647	640	644	635	655	651	651	649	649	646	644	645	650	657	656	655	650	653	650	649	646	650	653	649	639	637	637	637	637	645	661	660	656	647	641	642	643	643	648	651	653	648	647	651	650	649	652	655	658	657	659	664	664	667	665	663	657	653	655	660	664	664	661	661	660	669	666	665	663	659	660	648	649	649	654	658	666	665	662	666	668	668	672	671	665	657	658	663	663	661	664	667	671	672	665	665	668	662	661	658	659	663	660	659	659	662	664	665	659	658	670	666	671	674	675	673	670	662	662	662	670	677	675	673	670	669	672	671	671	678	691	691	678	682	683	0	0	0	0	0
572	561	565	573	568	564	567	567	571	577	579	574	574	573	573	579	577	577	575	570	574	573	574	574	576	577	581	577	568	568	573	578	577	580	580	580	577	574	571	572	574	578	578	580	580	584	587	586	586	583	583	583	581	582	582	583	586	587	587	584	579	580	572	570	572	574	577	578	573	573	571	568	568	575	578	581	582	581	578	585	585	584	584	583	581	584	587	589	584	583	587	588	579	581	580	578	582	589	585	578	577	583	583	591	591	584	583	581	580	578	579	580	575	574	574	574	574	581	579	582	581	585	589	585	580	584	577	572	570	572	573	573	575	579	584	585	583	580	580	579	579	583	582	579	579	582	589	594	594	592	588	585	588	587	587	589	585	588	595	600	592	589	578	585	586	586	586	589	593	592	588	584	579	578	592	595	595	598	598	594	592	589	590	588	602	606	603	597	590	588	586	580	580	579	580	581	580	587	586	590	595	597	595	600	598	594	594	593	594	594	596	592	592	591	599	597	592	588	587	593	596	594	598	604	603	592	594	598	596	591	585	582	584	587	585	580	589	593	598	600	599	597	589	588	592	595	598	595	594	590	587	582	593	595	597	603	604	597	591	583	582	589	592	593	595	595	597	598	598	596	590	604	602	599	600	597	598	602	604	605	606	606	598	595	596	598	604	605	603	601	600	594	593	592	600	602	604	610	615	604	601	599	597	599	604	597	598	597	602	613	612	610	609	604	604	603	602	596	598	598	596	594	599	603	606	607	608	613	606	604	606	608	617	617	615	613	604	603	602	605	608	607	597	601	602	608	610	619	615	616	616	615	620	621	613	613	609	606	614	613	616	617	617	615	614	615	617	621	628	628	628	625	619	615	610	609	608	610	609	605	605	608	607	607	611	613	616	614	613	613	611	607	606	608	614	619	620	621	619	619	624	629	629	629	622	610	617	626	640	636	631	621	620	622	621	622	620	621	629	633	633	619	619	618	618	619	621	621	623	623	626	628	628	628	627	631	631	631	625	626	627	628	632	630	627	626	631	629	646	641	640	639	637	636	631	628	625	625	625	621	621	630	634	628	623	622	626	629	632	632	634	635	636	635	633	631	633	636	640	640	639	638	638	627	626	626	630	626	629	637	635	633	636	643	639	635	627	635	642	634	635	639	630	631	649	654	652	647	644	647	643	644	653	652	654	655	655	650	649	644	642	647	647	649	641	641	641	639	638	640	642	643	645	643	641	634	636	642	645	648	658	649	654	649	649	652	648	653	655	658	659	660	660	658	658	655	651	650	652	655	658	659	658	658	659	664	666	668	661	657	647	648	648	643	646	655	654	643	650	659	659	657	666	665	659	655	656	658	658	661	664	667	669	667	670	669	663	657	654	654	654	655	656	656	658	664	667	660	658	655	658	659	662	665	668	659	654	654	655	656	656	657	656	656	665	669	672	669	669	668	671	674	673	680	681	0	0	0	0	0
567	575	573	573	575	573	561	571	571	573	568	570	565	565	567	569	577	569	569	571	571	568	567	567	574	579	577	574	569	569	573	573	573	573	576	576	575	571	569	573	576	577	577	578	575	582	583	581	582	581	581	580	580	581	580	577	578	582	579	579	580	576	573	571	568	571	575	579	575	575	570	569	573	575	578	581	583	582	579	575	578	567	567	566	564	568	573	572	573	576	578	576	573	575	572	572	571	578	576	577	573	572	572	572	575	578	581	581	580	581	580	580	579	570	569	572	574	570	568	577	571	573	570	571	581	584	580	576	565	571	574	574	573	577	580	583	577	579	574	570	575	576	576	573	573	574	572	574	575	580	581	580	575	575	575	578	580	577	577	579	580	581	577	567	563	570	573	577	583	586	587	586	580	578	569	568	563	572	579	582	586	588	587	588	593	599	599	595	590	588	586	576	577	586	588	586	585	585	584	587	590	597	599	599	596	593	591	591	587	590	590	591	591	589	589	591	588	584	584	589	590	590	591	597	590	582	577	584	591	587	581	586	588	589	588	581	589	594	596	597	598	587	586	583	582	581	578	588	592	590	587	580	590	586	589	590	590	582	582	582	581	583	582	589	589	591	594	596	600	590	587	586	596	593	600	597	599	596	597	601	605	589	589	591	595	595	598	600	600	599	598	593	593	595	590	597	598	597	596	614	594	592	588	588	588	584	594	598	600	604	606	603	590	591	601	598	599	599	597	594	595	601	602	604	611	614	618	614	609	604	605	607	613	611	615	616	614	606	602	604	605	597	594	594	607	612	614	613	612	614	614	614	610	612	611	611	599	611	602	614	614	615	616	617	615	616	611	612	614	601	610	603	603	610	614	607	606	613	606	605	607	608	607	605	610	610	610	611	615	613	610	604	601	603	613	618	621	624	620	621	622	626	627	624	620	617	620	636	641	621	632	631	623	616	620	621	620	619	620	621	619	611	613	612	611	611	614	615	616	616	623	627	626	626	619	620	626	624	624	626	627	630	628	625	626	627	623	630	630	637	636	635	634	633	629	625	624	624	623	619	621	625	628	625	622	617	618	621	627	629	634	632	634	633	632	631	635	629	631	631	630	633	624	625	630	631	623	623	628	633	632	631	632	637	635	631	627	623	623	635	633	636	631	638	641	646	644	643	641	631	631	635	647	653	652	654	653	653	642	643	641	642	643	646	639	641	639	635	635	635	633	634	637	639	636	636	635	638	645	653	662	670	642	642	645	645	645	641	647	651	664	668	656	651	651	649	646	649	649	648	643	642	648	653	654	657	654	657	658	653	649	641	637	637	641	642	640	638	638	638	640	646	648	650	652	648	647	647	644	638	636	635	660	662	658	665	662	654	650	649	649	654	657	657	660	657	653	651	650	649	656	658	657	657	658	652	653	653	655	655	655	654	652	653	654	653	655	655	661	667	667	671	671	673	677	0	0	0	0	0
559	576	579	579	570	565	552	560	560	566	562	564	560	560	560	570	573	573	573	569	567	566	559	569	569	569	570	568	573	573	573	571	569	567	570	572	572	573	570	564	565	567	571	571	579	577	575	575	574	577	574	574	576	574	570	572	571	568	574	574	576	575	569	570	568	569	576	575	572	570	570	575	575	576	574	579	580	578	576	571	568	562	561	561	565	566	567	564	569	570	568	566	567	568	570	566	567	565	570	572	569	565	563	570	570	572	579	580	581	581	582	581	578	579	569	572	571	569	568	566	569	572	573	569	570	572	570	569	566	568	570	576	575	578	580	577	570	570	571	568	568	573	576	570	574	576	578	574	575	575	576	577	573	571	573	577	574	568	567	569	572	569	565	561	560	568	570	575	583	585	576	573	571	571	570	564	562	571	575	584	585	582	582	582	573	568	566	572	581	582	580	575	583	584	583	582	582	586	592	588	588	587	584	592	592	589	588	583	579	584	578	577	576	582	583	586	584	584	586	589	588	589	591	588	582	582	582	574	572	576	586	589	596	597	595	585	578	588	594	595	584	586	585	581	579	581	583	593	596	594	583	574	574	582	587	588	586	583	582	591	588	576	576	578	584	585	593	593	591	590	588	588	590	593	594	596	596	593	586	585	583	580	581	591	592	594	593	594	595	594	593	592	591	592	593	597	597	594	600	594	596	595	593	590	589	591	594	599	594	601	600	590	586	588	590	593	595	596	595	593	594	600	598	599	614	619	619	615	608	607	606	609	608	608	613	613	610	606	602	602	603	594	604	603	600	602	602	602	598	598	614	616	607	609	608	607	599	607	601	610	609	612	610	620	621	623	617	614	610	609	602	601	601	612	612	608	615	615	606	605	606	608	607	607	610	605	607	612	612	611	606	602	599	600	603	605	608	610	617	612	611	607	615	620	616	612	610	614	614	629	626	630	620	611	613	613	615	615	619	616	612	604	606	597	603	605	608	610	610	611	611	618	626	626	623	619	616	618	623	624	625	626	622	619	621	623	623	623	624	626	628	629	636	632	628	625	623	619	612	613	612	614	620	621	615	612	612	611	612	627	635	629	627	623	627	630	625	624	623	623	625	617	619	621	627	627	621	630	627	627	637	635	631	626	627	630	625	626	621	621	627	634	636	638	627	630	634	634	627	625	627	635	638	637	648	647	645	639	635	631	637	640	640	628	631	630	627	623	624	630	631	635	640	640	639	635	635	637	642	647	649	648	637	635	633	641	641	641	639	636	652	652	644	660	645	640	644	643	642	633	636	638	637	642	644	641	650	656	655	650	642	631	631	634	637	638	638	638	634	632	633	640	646	651	653	650	648	643	639	635	634	633	638	652	653	658	657	654	646	643	651	655	655	660	660	657	646	647	647	647	648	658	655	655	654	655	655	656	656	652	647	646	650	652	648	648	649	649	651	661	664	666	666	667	670	0	0	0	0	0
551	564	576	570	570	550	546	557	557	561	557	557	557	557	557	564	573	570	569	569	566	561	558	559	559	561	563	567	568	571	571	559	559	559	561	560	560	561	560	559	562	565	574	574	576	577	567	567	567	565	565	565	567	565	566	563	558	562	564	568	568	572	567	569	570	565	568	572	574	570	570	570	578	573	566	562	574	575	570	565	566	558	558	565	565	567	566	565	560	561	560	564	565	566	566	563	561	564	566	569	575	576	575	564	569	569	563	575	580	569	572	572	579	579	571	570	569	571	568	563	572	571	567	566	569	571	573	573	566	567	568	572	573	575	573	572	568	565	566	568	568	573	576	572	566	577	578	573	572	571	573	570	565	564	562	567	571	569	569	569	570	567	562	556	552	564	569	573	579	580	574	571	571	567	565	564	560	566	571	573	584	581	579	574	567	567	565	569	577	577	576	577	577	577	572	574	577	585	592	584	583	580	580	590	591	587	583	582	580	578	578	576	575	579	580	581	581	579	577	582	587	585	583	579	579	574	575	575	573	581	586	588	588	588	585	586	571	575	577	574	580	586	584	580	581	582	583	596	595	592	579	569	588	585	585	586	581	580	580	582	589	575	570	575	569	578	578	579	584	587	589	589	586	594	594	591	591	589	585	585	578	580	581	589	590	592	590	591	590	592	592	589	590	586	579	590	593	591	592	591	595	594	593	591	592	595	595	588	593	593	594	598	585	589	590	593	592	591	592	590	590	594	594	593	586	618	617	616	608	604	601	597	599	585	594	610	608	608	604	595	595	593	605	603	596	593	590	591	590	592	608	612	615	604	605	606	600	601	607	604	602	601	603	607	618	616	611	608	607	603	596	597	602	606	609	609	613	615	603	604	606	607	608	601	600	597	599	603	605	605	602	599	591	593	598	595	597	613	617	617	611	606	603	613	606	606	608	609	609	612	613	611	604	602	605	600	604	605	614	613	606	601	598	597	615	614	607	611	610	607	606	618	623	621	618	617	615	616	618	618	619	621	619	616	612	615	618	619	618	617	622	623	628	630	625	621	617	616	616	610	600	599	609	617	615	612	613	612	612	604	622	614	613	618	620	613	602	611	611	607	606	611	614	617	620	616	617	623	621	625	627	624	616	613	614	624	626	626	627	622	621	621	620	605	600	609	616	618	619	619	622	635	636	635	630	627	620	629	627	629	630	638	636	627	623	622	619	618	622	624	626	635	639	639	630	631	627	625	626	628	633	631	627	634	633	634	636	635	627	625	630	634	637	631	630	635	639	638	638	633	635	636	633	629	633	637	642	647	649	645	636	627	626	629	633	636	636	635	633	633	631	632	631	646	650	642	641	641	636	633	634	632	634	638	644	647	649	644	637	641	646	646	653	652	654	640	636	636	638	642	645	650	652	649	651	651	652	653	654	642	640	641	648	648	646	644	644	643	651	654	653	655	658	662	663	663	0	0	0	0
549	555	558	554	554	550	555	554	552	552	555	556	555	559	559	563	567	570	567	567	567	558	555	556	559	559	559	557	557	559	559	549	550	551	556	560	563	563	565	561	562	566	570	574	574	572	565	564	559	556	558	556	556	556	563	561	556	558	556	558	566	566	565	567	560	560	560	567	566	561	570	570	571	568	562	556	557	566	566	560	561	559	559	563	563	566	564	560	555	553	554	560	562	561	562	559	556	562	562	562	572	577	575	577	566	563	563	557	559	563	561	565	565	566	565	566	567	567	569	561	557	558	562	563	570	574	577	571	565	566	567	569	573	574	572	569	564	561	563	564	571	573	576	571	562	563	568	569	568	569	563	559	559	558	556	562	555	566	569	569	566	563	559	554	551	552	557	569	578	577	572	571	567	561	561	562	559	562	565	565	561	560	564	571	569	567	566	568	570	568	568	574	576	573	572	569	572	573	574	573	573	572	570	556	562	564	574	574	578	580	582	582	575	578	576	578	577	577	571	567	574	582	573	574	573	567	566	575	571	567	570	574	572	568	564	566	578	568	566	579	585	587	588	586	586	585	588	590	593	578	568	569	571	573	585	584	578	569	571	576	575	576	576	580	580	579	578	580	585	586	579	579	580	585	588	591	589	589	585	582	577	579	581	584	588	583	580	589	590	590	587	581	586	583	582	579	587	585	584	582	581	586	592	592	591	594	594	591	589	589	584	593	595	595	589	588	587	587	587	584	588	592	591	586	583	579	607	606	601	597	600	600	601	589	595	604	607	605	604	595	596	595	598	594	585	582	585	585	589	592	598	601	603	601	598	600	599	598	603	600	602	598	600	603	605	611	604	603	601	598	597	595	597	600	601	600	600	606	596	596	601	600	598	599	592	588	589	598	596	598	597	595	594	594	596	593	595	599	605	607	596	599	598	604	604	603	601	605	601	597	606	608	601	598	596	596	595	599	599	603	596	599	599	615	617	615	608	604	603	602	604	614	616	612	610	611	610	609	611	613	614	616	615	612	612	613	617	618	619	615	618	616	619	626	620	618	612	610	608	607	608	611	615	620	617	609	606	602	601	602	613	613	613	618	619	616	609	611	610	609	601	602	611	615	615	611	614	609	613	619	621	618	612	606	605	611	625	629	627	623	614	614	607	603	600	599	604	607	608	613	616	638	634	627	625	621	615	615	619	624	624	622	630	622	621	618	616	614	618	624	624	622	627	625	626	624	621	624	619	616	617	615	616	621	616	614	614	618	618	624	622	633	635	635	625	628	630	631	631	629	634	630	629	614	614	632	636	641	645	643	632	623	622	622	622	625	632	633	633	634	635	631	627	640	644	638	635	635	631	634	637	636	636	635	638	642	627	624	626	631	631	633	639	639	639	638	629	628	633	635	645	645	647	644	641	641	643	646	642	637	637	641	644	642	637	634	634	633	639	643	640	648	647	648	655	655	0	0	0	0
554	555	547	543	539	539	548	548	547	547	551	553	555	558	558	558	564	566	562	562	560	556	552	551	551	551	552	552	552	552	549	549	544	550	559	562	565	565	564	557	552	560	563	565	565	569	566	559	556	552	549	548	548	549	551	559	556	553	551	552	562	562	560	559	546	552	553	553	551	553	555	560	560	561	561	561	554	557	561	560	558	554	559	560	563	563	560	555	548	543	552	555	557	557	555	554	552	556	559	568	562	568	574	572	570	566	563	563	558	558	558	559	553	555	556	558	562	564	559	557	555	555	554	555	559	559	559	558	561	565	565	563	557	556	569	562	559	558	558	556	556	566	573	571	567	563	562	563	563	564	562	555	552	551	562	559	555	560	565	566	565	556	555	550	547	548	551	554	565	568	564	566	560	557	556	550	550	557	557	554	552	555	560	568	565	565	568	569	567	566	563	570	579	575	568	568	570	572	572	571	576	575	571	561	562	568	570	567	576	580	581	579	579	575	578	576	574	573	566	564	563	559	563	575	568	562	562	567	565	568	567	563	567	568	563	562	563	567	573	581	586	587	583	593	593	592	592	590	576	579	566	565	564	570	574	570	569	570	580	583	580	580	580	580	581	581	579	582	580	583	578	578	579	584	584	584	578	576	578	573	574	576	581	583	583	581	580	588	587	582	577	575	580	582	579	583	581	583	581	580	582	585	588	586	585	589	590	591	588	587	580	577	585	584	584	584	585	586	583	582	584	585	592	585	580	576	575	590	598	593	594	597	595	586	588	592	602	600	598	591	586	591	599	590	582	581	580	579	586	590	593	599	600	598	596	584	583	597	597	601	598	598	599	598	592	590	595	598	575	583	590	591	591	591	593	589	590	589	587	582	580	579	596	597	589	585	590	589	593	590	589	591	590	593	591	591	593	596	598	579	582	599	600	595	593	595	599	598	599	599	603	597	595	591	590	592	593	593	600	600	600	591	597	611	619	611	606	602	601	599	602	602	604	598	598	603	606	602	602	607	608	613	612	614	613	613	606	601	610	610	614	609	610	615	620	610	605	601	597	609	600	602	603	614	610	604	603	601	597	598	607	612	616	616	616	615	609	611	610	606	595	598	610	615	614	611	609	606	602	613	617	612	610	608	597	604	621	620	619	615	609	607	605	605	602	599	600	607	613	622	625	624	618	618	615	615	614	612	618	620	621	621	624	626	619	616	615	618	620	623	622	617	617	622	622	623	620	618	611	606	612	614	620	619	621	610	609	614	616	620	618	626	630	628	617	622	623	625	624	625	629	626	614	616	617	612	616	637	642	641	634	607	607	612	621	624	630	629	628	618	617	617	612	610	625	633	635	623	630	633	637	636	635	633	631	629	627	624	624	627	627	631	632	631	625	614	612	611	619	629	632	635	639	638	638	639	635	634	626	628	635	639	644	637	637	637	637	631	633	629	632	637	635	636	636	638	0	0	0	0
555	554	551	542	542	542	548	544	540	542	542	549	551	551	553	553	554	559	562	556	556	554	547	551	550	550	548	549	550	548	546	546	544	549	556	565	568	566	566	556	550	552	559	563	566	566	566	559	554	551	544	544	545	545	546	546	551	553	551	557	559	560	560	545	543	541	543	547	546	548	550	555	555	556	558	560	560	557	553	548	550	544	542	540	543	552	552	549	541	539	550	551	551	549	550	553	552	551	553	553	555	556	563	564	564	554	556	551	551	551	547	549	556	550	553	554	554	556	558	555	555	553	553	554	554	554	553	552	557	565	565	561	551	548	557	556	555	556	554	550	551	561	571	571	566	561	557	556	556	557	559	555	550	555	558	558	556	555	559	560	558	552	544	544	545	551	553	555	555	559	553	551	556	556	554	551	551	553	552	550	553	555	566	570	564	567	568	567	567	566	567	573	586	570	567	567	567	567	566	564	565	572	576	575	573	567	565	567	565	571	570	569	570	563	577	574	571	566	561	562	561	553	571	577	571	562	557	563	564	566	562	560	563	565	562	559	562	564	564	572	572	574	568	569	576	577	576	576	577	584	570	567	567	566	567	560	564	568	570	578	587	587	579	579	578	575	578	577	577	579	577	576	580	581	578	577	577	575	574	576	575	576	568	577	580	581	582	583	583	577	575	576	575	575	576	573	578	581	582	584	584	581	574	576	578	581	586	587	583	580	577	572	572	580	579	581	584	584	583	582	583	585	586	591	578	570	579	585	586	574	573	584	593	586	586	589	594	584	580	579	579	577	580	587	578	579	569	579	582	584	587	589	593	590	591	579	578	579	577	582	586	586	588	589	587	586	585	571	575	578	581	587	583	587	582	583	583	584	578	582	583	582	581	593	593	589	590	588	589	587	587	585	588	590	594	589	582	582	579	578	581	594	595	591	583	592	595	593	595	601	596	587	583	586	588	590	591	593	596	600	599	591	591	593	597	591	592	592	599	597	601	599	596	591	590	601	603	601	598	593	594	595	601	608	607	602	594	596	600	602	611	608	605	610	614	604	597	586	585	588	598	599	606	610	600	599	594	594	594	599	604	610	609	609	603	603	601	599	597	597	597	598	602	614	610	608	602	601	601	610	613	610	599	595	596	600	604	603	603	606	605	605	604	603	601	597	592	604	612	617	620	616	618	607	605	609	611	613	617	618	619	619	621	623	619	614	616	618	622	621	616	610	614	607	606	611	613	615	611	605	607	609	619	620	619	614	608	616	612	611	616	622	618	615	615	608	616	619	622	624	618	612	615	621	618	615	620	625	624	614	614	614	616	618	621	623	625	624	612	607	611	610	608	613	614	618	619	625	627	631	633	632	628	627	627	627	625	623	621	621	622	624	626	627	620	615	612	612	605	605	624	626	633	633	637	636	622	621	620	623	631	635	636	631	631	625	625	630	623	621	625	632	635	634	634	630	0	0	0	0
552	552	547	541	548	548	546	543	539	541	541	544	546	546	545	545	549	551	555	550	550	547	544	550	549	547	547	545	544	542	543	544	544	552	557	552	557	560	560	560	555	555	557	563	565	565	562	555	552	548	542	545	547	547	548	548	540	543	545	548	557	558	558	546	541	540	544	544	543	545	549	551	553	553	556	564	565	564	550	552	548	548	545	533	537	542	547	547	541	550	548	547	545	548	551	552	553	551	550	551	551	551	555	556	540	545	545	546	546	547	547	548	550	548	549	554	549	553	549	550	552	552	551	551	552	555	555	555	550	550	555	553	549	547	547	552	554	555	553	553	555	560	558	556	546	549	551	551	553	551	550	552	548	554	555	555	552	551	552	553	551	549	547	547	554	555	556	556	556	554	549	551	553	552	553	551	551	551	546	546	550	563	566	569	564	564	559	556	555	561	567	558	572	568	565	562	563	564	563	560	567	571	573	573	572	567	564	555	562	564	561	562	551	561	554	562	563	560	561	561	557	568	569	575	574	561	562	566	567	565	560	557	557	560	561	557	560	564	562	560	565	563	563	559	561	563	567	569	570	572	570	575	569	567	562	558	561	564	569	572	573	574	576	575	572	571	576	578	576	574	572	574	575	577	572	571	572	575	574	570	564	561	565	563	557	573	581	577	578	577	570	575	577	569	567	569	584	585	581	577	574	567	564	566	574	574	584	585	581	580	577	577	573	573	573	578	579	581	581	584	583	582	582	584	590	578	578	585	585	577	576	578	580	580	578	582	580	580	574	573	567	566	581	578	575	567	574	575	577	573	576	584	581	586	585	579	579	579	579	575	580	587	589	593	591	590	587	584	577	578	578	581	580	578	582	576	583	585	576	572	581	582	578	594	592	592	590	587	588	587	584	583	585	589	596	596	582	581	579	579	581	588	587	587	586	588	588	589	591	593	588	584	579	582	590	594	592	598	598	597	595	592	591	592	588	590	576	581	586	596	599	598	596	589	588	591	600	600	597	594	592	590	594	602	602	598	593	591	592	595	605	602	596	594	603	602	600	586	600	595	596	597	601	600	595	594	590	592	599	597	600	602	602	596	592	595	601	599	597	593	598	598	602	594	591	588	590	594	596	598	596	591	595	593	594	600	598	597	599	595	600	604	604	604	600	595	592	593	595	599	602	610	605	603	603	603	603	612	616	617	606	609	610	606	607	609	613	613	613	614	611	604	602	602	604	607	612	615	613	601	598	614	619	619	616	612	607	613	609	605	605	608	607	608	610	607	608	613	613	608	606	613	624	621	617	616	617	619	619	621	616	612	612	611	620	623	615	610	607	608	609	612	613	616	616	615	613	621	624	627	624	626	624	624	615	614	610	617	617	617	618	619	623	624	620	616	615	612	610	610	612	621	626	626	632	620	617	615	618	622	626	627	626	620	620	620	621	623	623	621	622	630	634	634	632	627	0	0	0	0
545	545	539	548	549	547	547	543	540	542	542	542	545	544	544	544	544	544	547	550	539	539	546	551	551	548	548	547	542	539	541	544	544	543	545	550	553	558	554	554	550	550	553	559	559	554	554	551	547	546	547	546	548	549	549	548	545	544	543	544	542	546	546	538	538	538	538	539	538	543	547	548	550	554	554	543	545	546	550	547	547	538	541	539	538	539	539	539	538	538	538	539	542	543	544	547	549	552	553	551	547	545	545	541	544	546	545	545	546	548	546	546	551	551	549	547	546	548	548	554	553	547	547	550	548	546	546	544	542	541	544	546	545	539	543	546	550	555	556	549	549	539	544	541	537	537	538	539	545	543	551	547	549	552	555	557	554	549	547	547	545	544	546	547	557	558	561	561	556	555	553	546	547	550	551	551	551	546	544	542	548	561	563	566	563	554	553	557	557	544	546	543	548	554	557	552	551	553	568	572	571	566	568	568	568	563	561	557	549	550	552	554	550	557	561	562	561	559	558	553	564	559	560	559	558	561	566	566	565	563	559	558	549	546	555	555	564	562	562	562	562	559	554	558	560	559	560	565	566	567	567	565	566	565	562	563	562	559	562	566	565	569	572	570	570	572	573	567	570	571	571	561	560	558	561	566	570	573	571	568	561	548	549	548	561	569	578	578	572	562	563	566	574	578	573	565	569	575	577	574	571	562	563	565	572	567	577	584	574	572	570	570	571	582	577	575	577	582	584	584	581	581	579	583	582	577	576	570	580	572	573	573	569	570	568	566	578	576	577	574	567	568	569	569	568	573	573	573	563	571	572	569	575	578	585	577	579	584	579	579	579	588	593	597	595	592	589	586	587	582	584	583	581	577	575	577	582	576	573	569	570	579	582	583	583	577	586	584	578	577	575	572	575	586	594	592	584	576	577	579	582	582	583	579	579	580	583	584	584	577	579	578	578	575	586	597	596	599	599	598	594	593	591	591	585	577	574	574	581	582	588	594	593	591	585	583	585	597	592	595	599	602	600	594	597	591	588	586	582	580	582	590	592	594	596	598	594	587	588	588	593	592	591	596	592	592	589	599	597	599	597	597	591	591	592	593	595	598	597	596	596	601	590	589	589	589	591	594	594	595	596	597	590	585	586	593	598	595	592	592	600	606	613	610	601	595	592	592	595	599	599	605	603	601	601	602	602	602	603	608	606	603	601	599	598	598	602	602	602	605	602	601	600	600	601	602	605	609	612	600	597	601	617	617	613	608	607	607	615	610	606	603	602	601	605	601	603	601	604	604	612	623	622	622	618	614	614	615	619	616	610	608	604	603	602	602	604	608	607	610	611	613	614	615	615	613	612	611	628	628	627	622	611	611	608	609	610	610	612	617	619	621	623	622	618	615	615	614	613	611	608	618	618	616	610	608	608	611	608	618	622	622	620	620	617	618	617	623	616	618	620	622	626	626	629	622	0	0	0	0
531	535	535	548	548	549	549	542	538	536	538	538	541	545	545	543	543	543	543	539	543	543	549	552	550	545	546	546	539	540	540	542	543	541	543	549	554	556	555	555	552	550	548	550	548	549	549	540	543	540	546	547	547	546	546	537	534	534	538	539	540	539	538	534	532	528	525	529	533	539	542	544	540	542	542	545	544	544	543	545	541	533	536	536	537	539	534	534	534	536	537	538	539	541	535	544	545	549	551	550	546	543	535	541	543	544	543	540	543	541	546	548	548	548	544	544	545	550	554	553	550	547	541	538	537	542	543	542	539	540	543	545	545	538	543	541	544	548	549	548	546	532	536	537	539	546	545	543	543	542	539	553	552	553	556	556	555	545	538	541	543	546	546	547	555	557	559	559	561	554	553	550	543	543	550	549	546	550	541	542	543	549	561	553	554	550	554	556	557	553	542	546	541	544	546	547	547	548	564	568	568	561	557	558	557	556	557	558	555	553	551	549	553	556	559	559	557	553	550	548	547	552	558	560	560	560	563	561	563	560	560	550	547	546	546	560	563	563	566	564	558	555	552	550	557	557	558	563	563	560	559	556	557	559	559	563	563	558	556	557	558	562	561	561	562	568	562	566	566	568	565	563	560	558	559	558	564	569	568	556	552	549	551	553	555	561	575	576	568	560	563	568	573	578	572	562	561	559	563	561	560	562	562	564	563	570	573	576	582	564	567	568	567	570	569	569	570	576	579	578	580	578	577	577	577	568	566	577	577	571	569	570	568	568	563	566	576	571	571	570	568	570	570	569	570	566	566	565	572	571	568	566	572	576	581	573	572	572	576	579	580	588	591	591	596	595	589	586	588	585	585	583	576	576	572	568	566	563	568	571	575	577	578	576	576	576	571	570	574	576	573	574	570	569	577	584	574	574	576	579	577	580	572	577	575	580	581	577	572	576	576	579	579	575	579	595	593	593	592	590	588	589	592	590	580	571	572	575	579	584	584	589	587	581	585	583	582	591	591	592	597	601	594	590	587	589	590	586	583	574	576	583	588	590	592	591	585	585	586	587	586	582	582	584	584	586	586	586	588	591	593	595	592	591	591	596	601	597	590	591	594	595	582	579	584	589	592	594	596	597	599	599	596	591	592	592	595	593	592	591	591	595	598	615	605	593	590	591	595	598	599	604	603	601	601	597	594	600	602	608	604	600	604	594	594	594	596	590	593	593	594	596	597	601	597	600	610	607	604	601	599	601	601	606	606	603	602	602	614	617	617	610	598	599	600	603	598	599	597	604	614	613	613	616	618	613	608	610	613	610	608	602	602	600	600	599	599	599	610	610	611	613	611	611	613	612	609	610	612	620	615	609	607	609	604	608	608	608	613	617	620	625	623	620	621	618	617	617	614	609	615	615	615	609	605	599	598	600	600	606	609	612	613	613	611	615	613	618	611	613	616	621	621	624	626	619	0	0	0	0
528	538	538	540	540	540	539	539	538	525	530	530	539	541	543	542	542	539	533	539	543	545	545	544	543	544	540	540	537	536	536	538	541	541	540	551	544	542	542	547	547	543	547	548	547	548	540	540	541	538	543	545	542	540	533	533	531	531	535	540	542	540	534	533	533	529	525	531	534	536	537	538	539	542	545	545	545	542	545	544	537	536	535	534	535	536	532	527	530	530	534	534	536	535	534	532	542	544	548	548	547	533	536	541	535	536	537	536	537	538	542	545	545	542	542	542	543	548	549	544	548	544	537	535	538	539	541	541	538	537	537	540	537	540	543	537	539	539	533	542	533	532	531	534	537	532	545	545	545	544	541	539	544	548	551	554	548	537	536	541	542	546	546	551	554	553	555	555	555	558	552	550	548	544	545	545	548	546	537	539	540	544	546	546	548	546	546	547	544	545	541	541	541	538	542	543	543	555	559	558	554	549	546	547	551	553	553	557	550	549	550	556	555	555	551	552	547	545	544	544	544	548	553	558	558	552	550	549	548	548	553	548	546	547	556	557	561	561	560	560	561	552	550	548	551	557	561	563	563	556	555	554	558	551	550	550	551	554	550	550	555	553	557	561	558	558	563	560	558	557	562	562	560	556	557	557	562	563	554	553	550	547	546	547	548	557	568	571	561	556	558	563	570	570	567	561	560	562	557	556	557	561	563	564	566	569	568	562	556	558	558	554	560	562	570	570	570	571	573	573	575	569	575	571	571	571	573	576	575	574	570	570	567	562	557	567	568	569	566	564	569	568	566	564	563	564	565	564	562	556	558	562	568	574	571	566	567	572	563	564	574	587	587	581	583	578	575	570	571	583	562	562	567	570	566	565	566	564	567	568	574	575	574	571	572	573	575	576	579	579	578	579	575	567	567	570	575	569	569	580	574	574	571	576	574	579	581	577	571	572	580	584	584	576	576	575	589	585	582	581	582	585	588	588	578	565	569	571	576	583	583	583	581	576	573	574	578	586	590	590	580	583	585	587	585	582	585	586	585	576	578	585	588	588	587	586	585	584	584	584	581	580	578	576	580	580	582	583	585	586	577	575	591	592	597	609	591	589	587	585	583	581	576	576	580	588	590	589	596	596	597	599	598	592	589	591	591	590	592	591	591	591	595	592	599	591	587	580	581	597	597	595	598	594	597	591	585	579	593	604	602	595	590	592	597	594	594	591	595	593	592	595	596	599	599	599	600	602	600	597	593	597	599	599	604	603	599	599	609	600	604	603	604	595	595	599	603	605	596	593	593	605	611	613	612	606	599	597	599	603	602	604	603	600	600	600	598	597	600	610	610	607	608	605	603	612	610	610	610	618	616	605	601	600	603	610	610	611	613	611	607	617	618	618	621	626	626	622	614	603	607	607	603	598	595	592	593	593	593	598	601	607	607	606	607	607	604	612	612	611	612	612	619	619	617	611	0	0	0	0
534	533	533	529	532	534	533	533	527	526	530	528	528	521	523	530	532	532	531	538	544	533	533	532	534	534	532	530	530	527	529	532	535	540	528	533	534	533	531	537	537	541	539	546	547	542	545	545	539	541	543	541	539	538	531	531	529	530	531	535	541	538	535	533	526	526	529	533	535	536	537	538	537	540	541	541	541	543	544	543	539	538	541	537	536	532	527	524	525	528	528	531	533	532	532	534	536	540	544	550	538	525	530	528	530	532	532	532	533	532	536	541	541	538	538	538	539	540	535	537	538	539	539	537	535	537	537	538	536	532	534	535	537	543	543	537	536	532	527	536	537	531	530	533	534	534	540	544	544	542	541	539	541	551	551	541	541	537	538	541	542	538	532	532	532	542	550	550	540	540	540	539	536	537	533	542	544	538	535	536	534	538	544	544	542	542	542	542	542	539	540	544	540	539	544	545	546	549	553	555	551	546	543	542	545	547	542	550	539	540	548	550	553	552	552	552	547	544	537	537	541	546	555	551	546	548	548	549	547	544	545	549	550	552	553	554	554	555	561	561	558	553	549	549	550	554	562	563	558	557	552	550	552	551	548	551	553	550	551	549	548	552	555	557	559	559	562	558	556	554	559	560	553	557	555	556	557	556	552	546	547	547	544	542	546	544	555	557	554	555	556	554	568	562	552	549	558	555	552	552	552	554	552	558	563	558	561	557	553	549	546	553	557	561	559	555	555	555	556	553	556	559	562	559	557	559	561	568	568	575	564	553	546	545	548	565	560	563	563	564	563	565	566	561	555	556	553	554	558	561	562	561	559	560	561	559	558	557	558	563	565	567	562	572	571	575	570	568	568	581	562	562	564	562	562	561	564	562	565	566	570	568	562	562	573	573	574	574	573	572	572	574	573	568	562	563	567	569	568	567	571	568	565	570	573	572	580	578	572	572	577	581	585	577	572	572	569	561	572	572	577	579	581	582	581	563	566	568	573	582	581	577	574	572	570	574	572	577	582	577	578	582	584	587	579	581	581	583	582	580	582	586	584	582	584	583	582	574	573	571	570	578	574	571	571	577	577	574	580	579	580	579	586	588	594	596	593	586	585	579	577	578	577	575	579	583	584	584	592	594	595	591	592	595	593	591	591	588	587	585	584	585	591	590	589	591	585	592	590	588	593	593	597	593	591	590	577	581	587	591	591	591	591	591	596	595	594	598	598	596	602	595	597	594	593	597	595	599	597	594	592	594	596	598	594	599	595	587	590	594	596	595	592	591	593	597	599	603	600	598	600	607	607	608	606	598	594	596	597	596	590	597	596	596	598	601	599	599	597	607	606	606	599	586	583	578	579	586	595	616	617	610	599	598	604	604	607	611	610	608	602	599	598	604	606	603	607	604	601	604	603	601	598	597	595	592	592	594	593	590	589	589	594	602	604	598	596	598	600	610	611	611	606	604	603	597	0	0	0	0
528	526	527	527	528	522	518	518	517	526	527	522	522	522	518	521	527	527	526	526	530	533	524	532	532	533	532	531	531	523	518	515	519	528	528	522	526	524	523	522	526	526	542	543	546	539	541	539	540	537	536	537	537	535	528	526	526	527	530	526	535	539	537	534	529	529	530	533	534	536	536	535	535	538	538	539	539	540	533	528	534	538	536	536	534	530	529	527	528	527	524	524	524	530	529	529	531	527	525	517	514	519	524	521	522	529	529	529	525	525	526	534	539	534	526	526	527	527	529	533	534	534	535	536	536	538	537	532	535	530	527	531	531	538	542	540	532	528	523	525	536	532	532	533	536	535	537	535	536	536	540	547	551	554	549	545	539	532	531	530	524	529	531	533	541	541	539	538	533	528	532	536	537	537	531	530	535	534	530	526	528	537	542	544	541	535	537	537	537	539	539	543	546	548	545	544	543	544	547	553	546	545	543	543	540	535	547	537	539	539	536	545	548	549	547	547	550	544	539	537	535	541	527	537	548	543	541	543	543	543	541	542	547	551	552	550	550	549	547	551	553	553	551	547	547	550	554	555	555	555	551	552	551	551	546	550	551	553	550	549	548	550	553	554	554	554	553	554	552	555	556	557	556	556	555	555	550	545	544	545	546	547	546	542	539	547	550	551	551	550	549	549	559	557	554	544	543	544	549	552	549	549	550	548	543	545	548	554	556	553	541	544	545	547	547	547	548	543	543	547	549	554	558	556	551	548	553	555	559	558	558	550	546	541	547	546	552	554	554	556	558	559	559	559	554	554	556	557	557	560	545	549	559	561	559	557	556	556	554	558	567	565	564	565	563	562	560	560	560	566	560	560	559	561	559	555	555	559	562	568	569	568	560	560	559	573	572	567	567	565	568	568	569	562	562	564	568	567	567	564	564	562	562	567	567	573	578	575	575	573	576	577	580	579	575	568	561	557	553	565	565	568	571	571	567	563	561	559	558	558	561	565	567	567	572	576	576	572	571	570	573	579	581	581	578	574	582	582	577	574	576	577	573	572	570	572	573	573	565	563	565	571	575	570	568	572	572	572	576	574	574	580	584	592	594	593	591	586	582	576	575	570	577	578	580	582	581	577	580	583	583	585	589	593	592	590	588	586	585	583	582	583	584	590	589	590	589	589	591	590	592	592	593	592	587	580	574	578	583	586	587	587	586	585	593	595	597	599	603	603	594	588	583	593	590	594	591	595	594	593	588	586	588	593	582	590	588	584	584	585	588	587	588	590	592	594	597	597	595	595	596	603	603	598	590	590	591	594	595	595	595	594	593	591	595	600	600	600	596	596	601	602	586	580	578	576	575	581	592	600	600	599	596	593	593	598	604	608	606	604	600	597	600	601	600	596	589	589	598	601	604	600	599	598	596	593	592	594	595	597	599	599	602	599	594	591	596	595	595	596	596	599	601	599	596	594	0	0	0	0
523	525	523	523	522	518	516	522	522	526	527	514	515	515	517	517	517	514	514	518	522	524	530	530	531	532	531	527	526	526	530	533	523	520	522	520	524	526	525	527	529	529	533	533	533	523	540	540	540	531	530	529	528	528	520	517	517	519	520	526	536	537	537	534	527	525	525	531	531	532	533	534	535	535	530	534	536	536	532	529	531	535	531	525	521	531	527	532	531	529	526	526	523	525	529	529	529	526	520	517	515	512	520	523	523	526	529	528	524	524	524	528	526	526	519	514	521	525	525	528	532	533	533	534	535	536	529	528	529	528	528	527	530	537	529	527	521	521	523	524	531	532	528	530	536	536	529	528	532	534	541	548	549	549	542	540	530	527	525	521	523	528	534	536	539	542	539	535	530	527	532	534	534	525	519	527	524	525	526	528	534	538	539	541	541	534	534	535	533	537	540	540	531	537	541	540	539	540	540	541	541	542	542	541	534	533	526	539	543	539	538	538	536	542	543	547	549	547	542	535	533	522	527	534	545	537	537	542	542	541	540	541	546	544	544	539	540	541	538	531	537	537	540	550	546	548	546	550	552	551	551	554	552	551	545	542	542	542	551	548	548	548	549	549	548	549	549	550	550	551	558	547	552	544	551	550	547	544	543	541	541	542	546	542	542	545	549	549	551	550	550	556	558	553	550	550	548	545	544	544	545	544	541	540	539	540	547	552	554	552	545	539	543	544	545	542	544	541	540	543	549	552	553	551	549	548	547	549	550	556	555	549	546	543	543	541	537	547	547	549	548	549	551	554	552	555	558	559	559	547	544	543	547	557	558	558	552	551	551	551	555	560	559	557	555	562	561	560	561	560	557	557	560	556	555	553	555	558	563	563	564	567	560	556	550	546	551	555	552	557	560	564	561	563	564	570	569	565	565	560	559	554	558	565	569	569	572	577	575	576	578	577	574	576	572	564	560	558	550	555	562	564	568	562	559	559	558	554	553	558	563	557	567	566	570	577	576	567	563	567	570	566	574	574	572	574	579	578	566	565	566	570	567	569	568	569	571	567	564	564	566	571	574	569	567	567	572	571	575	573	572	578	587	590	590	588	585	583	578	574	567	568	574	574	575	583	581	566	564	575	576	581	584	583	584	585	586	585	582	582	582	581	590	584	578	577	578	579	581	583	583	589	590	589	585	580	574	573	572	567	567	570	581	578	582	588	595	593	591	582	582	577	575	581	587	593	595	595	593	593	586	572	572	575	572	581	581	580	583	580	580	585	587	588	591	593	596	593	591	592	593	595	599	591	586	580	585	587	585	584	583	587	586	586	588	585	586	584	585	593	592	596	585	580	577	583	578	573	587	596	600	595	589	589	588	590	591	591	592	599	597	595	594	597	594	591	586	587	587	598	595	596	601	600	597	592	590	594	596	598	598	600	596	594	590	584	590	589	588	589	589	592	595	596	593	590	0	0	0	0
521	524	523	519	519	518	520	525	525	524	523	511	513	513	514	511	510	512	512	517	519	524	530	531	531	530	527	526	525	525	529	527	521	519	520	521	525	527	527	531	529	528	528	530	525	521	524	528	531	529	527	526	524	521	520	518	521	521	521	524	526	525	527	523	518	520	520	525	528	528	525	531	528	520	518	530	533	533	533	533	534	529	522	521	517	531	525	529	532	529	526	524	524	520	520	521	520	521	521	518	515	519	520	524	525	527	527	527	524	525	525	525	520	525	524	515	514	520	523	526	526	524	524	528	531	520	521	521	526	529	528	524	526	520	521	523	523	527	523	524	532	531	527	531	536	532	528	524	527	527	531	538	537	536	536	532	531	518	519	523	524	526	531	536	538	540	536	532	525	525	527	529	525	522	518	518	522	524	526	529	531	533	535	539	541	530	529	528	528	533	538	536	536	535	536	535	538	536	539	536	535	536	540	539	531	531	531	529	537	538	538	537	531	531	533	539	547	546	535	530	531	524	529	530	530	532	537	541	539	538	531	530	536	542	538	538	536	535	533	531	534	534	538	540	542	539	538	540	543	542	541	538	552	541	547	550	541	539	543	543	543	543	547	545	544	546	547	547	548	550	558	546	546	538	546	548	547	546	542	540	541	542	545	544	545	546	547	546	546	547	549	546	543	542	539	542	544	546	545	545	544	542	539	535	536	540	544	548	546	544	542	534	537	539	544	544	541	541	545	549	548	549	549	546	546	547	547	547	546	546	544	547	543	543	538	534	537	543	543	547	543	533	534	539	540	544	553	558	552	547	543	544	547	551	563	558	555	554	547	546	545	551	554	557	557	556	557	558	562	563	559	557	558	557	555	561	560	560	561	562	562	568	557	554	548	543	545	548	553	554	559	563	562	563	566	570	565	562	560	556	549	550	553	559	566	561	569	563	576	573	566	567	570	566	566	564	559	551	551	550	548	550	557	565	568	562	558	557	557	559	557	555	552	565	565	571	568	567	566	562	560	560	567	566	570	574	577	574	564	563	564	565	568	568	567	567	568	568	567	566	567	571	575	566	564	560	565	569	573	577	578	581	574	586	586	586	580	574	568	568	565	569	572	573	583	567	567	564	573	574	577	579	576	580	583	583	584	583	580	572	581	582	582	580	577	573	573	575	579	581	578	576	590	589	582	576	575	574	570	567	566	566	568	577	577	579	583	582	582	580	578	575	576	578	584	592	591	590	586	568	572	572	576	563	566	586	578	578	582	580	582	585	588	587	586	591	593	592	590	586	585	589	587	587	583	575	577	590	589	593	585	582	579	579	582	588	589	586	586	587	582	582	591	587	581	578	573	571	572	594	594	582	582	581	587	589	588	588	594	588	592	593	593	593	591	588	584	582	582	587	594	593	590	591	594	588	589	592	597	600	600	595	593	586	583	579	583	581	580	580	583	585	589	590	594	590	0	0	0	0
521	521	522	516	516	515	519	521	523	523	512	511	514	514	514	513	500	508	508	512	518	524	531	522	522	524	523	523	520	520	516	519	518	519	521	525	520	526	526	524	520	531	531	525	524	520	521	524	529	529	524	523	521	523	519	523	520	519	519	517	518	520	524	524	518	516	519	519	521	519	527	519	515	518	522	522	532	533	533	533	533	528	520	517	523	524	524	523	523	525	525	520	516	516	517	519	520	521	519	516	516	520	524	524	521	515	517	520	523	515	518	513	526	526	518	515	510	519	521	520	520	519	519	518	513	517	516	518	522	526	526	525	519	519	516	518	518	521	526	530	533	531	531	528	518	511	512	512	520	523	527	535	539	528	527	519	517	514	516	521	523	525	527	533	536	536	533	528	521	522	525	524	522	519	517	519	522	525	525	526	526	527	528	530	533	532	528	527	529	527	531	530	534	535	534	534	536	535	530	532	532	531	531	530	527	529	539	541	534	531	533	533	528	528	532	538	540	534	534	533	530	530	526	529	529	529	529	532	535	537	536	529	535	539	537	535	531	531	532	530	534	534	537	540	538	537	536	539	540	542	541	537	535	535	541	544	539	540	540	539	537	538	543	542	542	546	546	546	544	545	546	542	535	533	534	545	544	545	541	536	529	539	545	546	546	544	544	545	546	546	546	546	545	539	541	542	544	540	541	540	541	540	538	535	538	536	542	546	544	540	534	535	534	534	540	541	540	542	546	548	545	544	542	541	542	542	546	541	536	537	538	550	544	533	528	527	532	542	539	539	533	535	540	552	554	543	540	552	553	548	547	546	550	554	558	554	553	542	543	544	546	545	545	551	551	548	548	554	562	560	558	556	558	559	566	563	560	559	559	558	560	559	553	549	550	549	548	547	551	553	558	556	561	562	560	557	555	554	550	543	545	551	556	558	562	558	556	557	552	553	556	556	558	564	564	562	558	553	546	552	553	551	546	555	559	549	557	556	557	557	554	549	547	549	554	567	568	566	565	559	555	556	556	561	566	573	571	567	561	557	558	557	561	568	567	561	566	563	567	566	568	570	570	565	561	559	555	563	568	572	570	572	569	572	567	578	571	564	563	562	558	564	565	568	575	570	566	565	571	574	572	572	571	575	581	583	582	580	577	573	579	579	581	578	575	571	569	570	568	569	571	570	571	579	576	575	574	572	569	564	565	566	573	572	570	568	570	575	575	574	575	573	566	563	569	574	573	567	563	562	563	561	564	572	576	577	572	574	577	579	581	585	586	588	585	583	586	590	587	584	583	587	577	581	575	572	574	583	583	584	581	581	580	581	582	585	588	584	581	575	574	573	576	576	577	575	573	575	575	576	586	586	585	584	585	589	587	585	587	590	590	594	592	578	577	579	581	581	581	585	584	592	586	581	580	583	580	585	593	593	596	588	585	583	577	574	577	575	575	575	577	580	583	585	590	590	0	0	0	0
518	520	518	516	516	509	515	518	511	511	509	513	515	515	515	513	501	508	513	513	521	521	519	522	516	517	520	520	515	512	512	505	513	515	516	520	518	523	519	520	519	516	524	524	524	521	522	526	527	524	521	521	520	519	517	523	520	517	517	517	517	518	519	518	516	515	515	514	514	515	513	518	518	517	519	522	514	531	529	529	523	520	515	515	519	518	523	523	523	520	518	518	513	513	513	520	521	521	518	514	517	521	522	525	510	509	518	519	517	512	511	513	516	524	520	511	508	510	519	520	520	519	518	512	511	511	515	516	514	520	518	511	512	513	518	515	511	509	513	518	523	525	520	517	513	513	508	513	513	515	517	529	524	524	522	520	513	509	516	520	523	523	523	524	524	527	525	522	519	520	523	521	518	518	517	520	521	526	525	523	522	522	525	529	531	528	525	525	526	527	527	531	522	532	534	528	528	526	525	531	531	530	530	529	525	519	537	537	530	530	531	529	529	526	534	532	538	533	532	533	532	531	527	527	525	527	527	526	530	535	528	531	537	537	537	534	529	536	538	532	535	534	537	536	536	530	534	536	538	538	539	537	535	533	532	531	532	534	536	532	539	534	539	540	541	546	545	545	540	538	539	536	533	529	531	531	535	545	541	536	531	538	543	540	544	541	537	541	544	546	546	543	542	542	537	534	530	538	540	537	539	537	539	538	539	540	537	544	542	539	537	537	535	536	535	535	538	538	541	540	538	535	543	546	542	541	540	538	535	537	541	544	544	538	529	522	535	541	542	537	535	536	543	543	543	542	539	539	546	553	548	543	543	552	557	553	551	547	537	543	543	540	538	538	537	538	539	543	543	543	543	549	552	557	557	554	551	547	553	559	563	559	546	544	541	543	542	544	550	554	553	554	552	559	552	547	551	555	549	539	544	548	554	556	552	554	545	543	542	546	551	553	558	546	556	549	548	547	550	556	556	547	545	557	559	548	555	556	556	554	551	547	544	559	559	561	564	560	557	555	551	552	553	556	563	568	563	557	553	552	552	552	557	555	553	553	556	561	562	561	563	564	562	560	558	555	553	551	558	561	564	563	557	567	568	559	559	559	558	558	555	564	564	569	565	568	561	567	567	571	571	575	573	579	578	579	579	576	572	563	572	576	571	569	567	567	571	571	569	566	567	569	569	572	571	570	570	573	568	565	564	564	564	571	570	566	565	566	568	568	578	578	562	559	563	567	567	566	565	563	564	563	566	572	571	566	566	572	574	577	573	577	580	577	577	581	578	576	573	569	567	568	569	572	574	571	571	580	579	576	574	577	578	579	581	584	587	581	570	564	568	571	572	569	571	574	575	575	578	580	580	584	582	579	578	580	580	581	590	590	593	590	574	574	574	575	575	579	580	576	583	582	577	574	572	575	567	570	570	573	587	588	584	580	577	574	572	572	572	574	578	576	576	578	580	582	582	0	0	0
520	520	515	514	508	508	507	514	512	512	508	515	515	514	514	515	505	512	518	518	522	522	516	516	516	516	516	514	511	510	510	506	508	515	516	518	523	519	513	512	505	510	510	510	512	525	527	524	518	521	519	519	513	513	514	515	515	513	512	512	509	510	515	515	515	510	508	509	509	509	509	515	516	518	521	518	513	511	513	516	516	519	512	509	509	515	511	514	515	513	513	513	508	510	514	514	515	518	514	516	516	517	511	508	507	508	509	521	517	511	510	514	518	521	517	515	503	508	517	520	519	522	514	511	510	513	514	514	512	511	510	507	507	507	507	508	506	508	511	514	511	515	515	514	513	513	515	515	509	514	515	523	520	518	520	516	509	510	512	515	520	522	517	518	517	518	518	518	518	516	519	519	518	517	521	522	520	521	522	521	519	518	518	521	526	522	524	521	525	524	524	523	521	515	520	525	525	522	525	528	527	514	513	524	520	536	536	534	536	529	528	522	524	523	532	528	533	536	534	536	533	533	527	524	526	521	525	523	529	521	525	528	534	537	537	531	531	541	542	535	535	534	531	531	525	524	527	531	533	532	535	535	535	533	533	529	529	533	537	536	535	532	533	534	539	536	537	530	531	528	529	528	527	527	528	528	532	532	541	541	538	538	537	541	541	538	534	537	538	541	544	545	536	540	529	530	536	538	539	536	535	533	533	538	536	539	535	540	535	533	531	531	531	531	534	534	533	533	534	537	537	534	531	537	536	541	536	529	530	539	545	546	544	540	531	527	529	534	538	538	536	535	537	540	542	543	539	543	550	547	545	542	541	550	547	544	547	545	536	541	533	535	534	536	536	534	538	543	543	543	540	549	551	550	549	542	536	543	549	551	551	552	542	542	540	536	536	542	544	547	549	551	550	550	547	551	554	553	547	541	543	547	549	552	548	550	548	544	541	548	548	546	550	545	553	546	548	547	551	547	545	542	544	549	551	551	552	554	555	552	542	544	539	545	550	557	557	556	554	548	542	549	550	551	553	558	559	558	559	557	555	553	555	554	544	550	550	560	559	557	560	558	557	557	555	552	553	550	553	557	562	564	558	555	552	549	547	546	547	552	552	560	560	565	564	563	561	564	563	563	569	570	575	576	572	571	572	571	564	562	563	566	563	553	564	567	572	572	569	560	559	564	571	571	570	569	569	569	568	564	563	565	570	570	566	566	564	566	568	567	572	579	573	556	557	560	566	566	559	561	558	557	559	561	560	564	566	569	575	576	578	576	573	566	568	576	574	569	565	563	568	573	572	567	573	572	571	574	577	577	576	572	573	573	577	581	583	580	569	562	563	560	569	572	568	568	571	573	574	578	583	583	583	577	578	570	573	576	588	589	587	587	579	572	573	573	573	578	578	578	578	574	568	567	567	565	568	570	570	572	575	579	581	581	578	574	574	574	574	576	576	575	574	574	574	578	578	0	0	0
518	518	515	505	507	507	507	514	516	506	506	512	514	510	512	512	508	515	520	522	522	523	519	517	516	516	513	513	510	509	508	508	506	515	516	516	519	512	509	505	503	504	505	507	507	509	509	511	513	516	519	510	505	506	509	510	511	509	508	508	508	514	516	514	514	503	504	508	508	508	507	503	499	501	507	512	515	512	508	507	507	511	505	503	504	505	505	504	508	510	509	506	506	507	511	513	513	514	513	514	512	508	506	506	505	508	508	504	517	512	511	514	519	519	517	507	504	508	516	517	519	521	507	507	509	513	514	511	509	507	507	507	507	504	501	506	508	511	511	509	509	510	502	503	505	509	511	514	512	514	513	518	518	521	516	511	506	507	512	516	514	517	514	514	512	511	507	510	514	514	519	517	518	520	522	523	519	519	520	519	520	516	514	514	516	517	516	519	521	521	520	521	519	511	514	520	521	522	522	520	518	515	513	514	524	530	523	528	526	523	514	519	521	523	521	520	524	520	521	525	527	524	521	520	519	524	522	525	521	521	530	528	532	532	535	523	531	542	542	532	532	532	532	520	519	519	521	521	528	529	529	528	528	532	533	529	528	531	536	535	529	528	530	530	529	531	533	529	526	530	528	527	524	526	528	532	523	519	526	525	527	535	544	544	537	533	528	530	532	531	536	542	537	533	536	532	534	537	539	539	531	524	513	515	525	534	532	526	530	530	528	531	530	527	528	530	536	538	536	538	534	538	535	536	536	533	541	538	536	538	538	544	533	534	543	532	530	535	537	540	537	537	538	541	542	541	536	543	541	543	543	543	541	539	542	541	534	532	536	537	538	535	534	536	539	540	539	539	543	544	545	548	549	550	547	539	535	543	549	551	546	551	541	542	539	536	539	542	544	547	548	549	546	547	544	541	540	543	541	539	542	549	551	548	545	540	541	541	544	540	539	540	540	539	540	546	540	542	547	545	544	541	540	540	540	540	542	541	542	542	542	543	540	539	545	554	552	552	548	547	543	536	534	543	546	550	560	558	558	557	554	554	552	550	548	541	552	558	557	556	558	553	553	552	551	550	549	552	552	555	561	568	558	557	553	551	549	548	546	546	548	551	558	562	562	553	548	553	554	553	557	556	554	551	545	542	546	550	554	557	562	562	566	553	553	552	554	554	554	553	552	555	562	559	556	558	560	560	566	563	564	576	570	571	569	565	558	552	567	572	563	562	563	564	556	558	563	563	559	556	555	555	557	557	560	554	559	560	572	574	574	573	567	564	566	569	569	563	558	560	564	570	568	565	563	566	569	570	573	577	573	571	571	570	571	564	563	566	565	562	558	559	560	563	559	564	568	570	570	574	584	582	581	565	562	563	566	573	580	582	580	574	572	570	570	570	570	567	568	579	579	574	570	565	562	559	564	564	567	570	569	564	561	560	562	581	580	580	577	573	574	576	576	575	574	574	573	0	0	0
504	504	507	503	500	509	509	514	514	504	504	501	501	510	510	510	505	510	521	522	522	522	521	519	516	512	512	509	508	506	506	506	504	509	515	514	512	509	508	503	503	505	505	505	505	505	505	506	509	509	510	500	500	500	504	505	508	506	503	507	507	513	515	509	504	503	503	505	507	503	503	500	498	500	505	508	512	512	507	506	504	504	501	500	503	504	503	501	499	499	503	508	504	506	507	511	511	511	510	509	505	502	500	505	505	505	504	502	500	502	504	503	508	516	515	506	506	508	512	517	508	517	502	503	505	509	511	512	509	503	505	502	502	499	503	508	511	508	507	506	510	510	502	502	506	510	508	509	511	510	515	513	503	506	512	510	508	507	509	512	512	512	508	512	510	509	502	504	507	511	512	512	517	520	523	520	514	514	514	516	522	510	510	512	514	517	513	516	519	520	520	519	515	508	511	515	517	519	519	515	515	514	513	513	517	523	516	515	513	508	511	508	510	517	519	518	517	519	518	524	524	523	515	517	519	520	523	521	520	516	522	522	525	528	528	516	529	542	532	532	531	531	519	518	518	518	517	517	517	519	522	526	522	524	528	527	518	520	529	532	530	525	520	517	512	523	525	522	525	526	524	524	521	515	516	528	525	520	518	518	526	525	529	534	533	530	525	529	529	530	534	539	533	535	534	527	530	532	536	536	534	529	524	521	526	525	522	525	524	522	524	523	525	524	520	520	528	533	540	538	533	544	546	541	527	538	540	538	538	537	536	540	539	541	540	532	527	524	527	534	536	529	536	535	538	537	537	539	542	542	541	533	532	544	545	537	536	536	545	544	540	536	534	539	539	539	538	542	543	540	542	542	532	533	533	539	543	544	544	556	553	540	539	541	540	538	536	539	547	555	559	547	545	544	543	539	535	526	535	534	536	535	534	537	531	534	530	527	531	537	538	534	535	535	541	545	539	540	546	541	542	542	540	536	535	536	541	538	541	541	542	542	544	543	542	537	536	537	540	541	536	530	530	535	544	548	552	551	559	555	555	544	541	542	543	543	549	552	558	554	551	550	548	549	549	548	553	551	554	555	558	561	558	556	549	550	555	554	549	542	543	532	550	554	556	552	544	546	548	549	549	551	547	546	545	545	547	551	552	555	555	547	547	547	546	545	537	537	544	549	549	551	552	550	549	556	554	552	563	564	568	574	571	571	570	567	561	551	556	557	556	558	560	560	558	556	560	561	555	554	552	551	547	548	550	554	559	560	563	569	569	569	564	563	566	566	563	559	554	553	558	559	560	559	562	563	565	569	572	577	573	571	569	568	567	562	561	562	562	559	563	561	558	557	560	561	559	559	561	571	575	575	578	578	576	567	563	563	573	572	573	566	563	559	559	558	559	566	568	577	577	575	571	565	560	556	556	557	559	565	565	563	559	559	562	564	564	563	566	573	574	574	575	574	575	575	574	0	0	0
498	502	502	503	503	510	510	510	507	501	499	499	497	501	510	500	500	496	518	520	518	518	516	515	511	512	503	504	504	504	503	502	502	504	511	513	510	508	508	508	505	506	507	507	505	505	503	503	505	504	504	502	502	500	499	500	504	501	503	508	510	510	511	503	501	500	498	501	503	502	502	501	501	500	502	505	509	510	506	503	502	501	501	496	499	504	505	503	503	505	509	510	506	504	505	505	507	504	504	500	495	496	494	492	488	486	500	498	498	499	499	500	497	496	500	502	502	502	512	511	510	498	499	499	502	504	509	502	502	504	506	509	501	501	506	508	509	503	498	503	507	510	507	505	509	509	507	510	511	511	509	512	502	513	514	515	514	513	507	509	510	511	508	507	506	505	502	504	511	515	512	510	513	516	514	511	511	510	510	508	506	499	502	508	511	517	513	518	519	519	518	516	511	504	508	514	513	518	513	514	511	513	517	519	522	512	513	512	513	510	508	507	510	515	516	515	514	511	511	518	522	523	511	512	516	518	519	516	517	520	523	512	520	524	522	515	512	522	531	532	527	518	519	511	513	517	516	512	515	511	512	512	524	520	520	522	521	518	518	521	524	526	518	511	509	505	516	519	518	519	519	518	515	509	505	522	519	516	509	507	508	510	515	520	523	521	521	528	526	526	528	529	528	532	529	526	526	526	526	532	532	526	526	524	524	524	523	516	519	517	517	513	509	516	519	518	516	520	525	524	526	539	535	526	523	518	523	531	533	528	527	531	534	539	537	528	526	524	526	528	533	528	534	535	537	539	537	538	537	535	528	527	530	544	542	538	536	535	542	543	542	542	538	538	539	539	542	541	541	537	536	529	524	529	529	529	530	543	551	553	540	539	538	538	538	533	534	535	540	529	527	529	537	539	536	534	531	527	528	531	536	535	532	534	528	529	527	526	530	530	530	527	530	534	534	544	543	544	540	539	539	541	539	535	532	535	541	537	539	538	539	541	539	541	536	535	535	534	536	540	533	528	528	538	542	544	549	553	550	549	547	538	533	537	545	543	549	548	550	553	550	548	548	545	544	545	549	551	555	551	555	552	547	543	545	555	557	556	544	538	529	536	542	546	548	547	548	542	543	543	548	549	545	540	539	540	546	549	551	551	544	540	540	546	552	546	539	537	540	540	541	546	547	546	545	545	543	543	543	539	534	560	561	565	569	565	554	549	551	554	554	555	558	557	557	556	559	562	554	551	547	548	549	549	550	553	555	557	562	568	565	560	559	560	564	564	561	557	554	551	547	548	549	555	564	562	560	564	562	573	574	570	566	561	555	547	549	553	560	570	564	563	560	557	558	558	558	558	557	567	568	568	573	575	567	559	560	554	563	568	563	558	554	554	550	549	557	564	567	566	569	574	572	568	563	555	555	555	557	561	567	564	555	550	558	561	561	558	560	571	574	573	573	572	572	574	576	0	0	0
