2053	2073	2113	2113	2153	2173	2196	2207	2207	2201	2192	2180	2153	2147	2147	2134	2124	2132	2142	2167	2167	2153	2159	2176	2199	2221	2226	2149	2135	2129	2136	2150	2144	2127	2136	2136	2170	2182	2193	2196	2196	2203	2226	2248	2248	2264	2250	2231	2204	2227	2258	2255	2189	2156	2170	2170	2205	2222	2235	2236	2245	2259	2264	2254	2241	2237	2241	2241	2240	2254	2272	2287	2287	2294	2285	2269	2254	2264	2274	2279	2268	2280	2310	2329	2378	2389	2365	2316	2308	2251	2095	1957	1698	1479	1435	1393	1392	1385	1385	1386	1395	1405	1405	1402	1405	1407	1430	1437	1429	1435	1428	1431	1438	1429	1419	1403	1404	1402	1399	1392	1394	1404	1415	1424	1423	1413	1411	1408	1411	1409	1415	1416	1415	1408	1411	1418	1425	1432	1441	1455	1419	1411	1417	1404	1418	1460	1467	1459	1424	1429	1423	1416	1411	1436	1461	1469	1482	1497	1514	1523	1526	1531	1553	1595	1625	1671	1732	1781	1811	1836	1864	1877	1880	1873	1861	1855	1856	1858	1869	1903	1921	1862	1818	1808	1775	1808	1827	1852	1915	1957	1955	1955	1962	1971	1975	2001	2030	2067	2119	2180	2207	2244	2293	2349	2386	2394	2385	2351	2345	2357	2385	2394	2441	2482	2497	2516	2569	2606	2625	2612	2596	2566	2541	2526	2568	2578	2591	2596	2576	2590	2605	2622	2631	2627	2613	2612	2579	2520	2385	2015	1869	1433	1437	1465	1475	1462	1457	1465	1484	1475	1479	1489	1458	1444	1449	1447	1452	1472	1474	1454	1474	1483	1485	1496	1490	1483	1477	1479	1484	1507	1507	1501	1496	1471	1474	1463	1449	1474	1484	1506	1510	1499	1502	1504	1480	1470	1478	1467	1485	1491	1493	1493	1486	1497	1495	1489	1487	1504	1509	1503	1501	1499	1510	1524	1505	1492	1484	1488	1492	1490	1499	1492	1486	1505	1507	1502	1505	1503	1516	1545	1583	1604	1635	1823	2303	2923	2972	2990	2997	3024	3061	3091	3109	3098	3027	2973	2964	3005	3004	3024	3037	3048	3048	3055	3065	3064	3033	3018	3002	3012	3025	3064	3072	2860	0	0	0	0	0	2477	2491	2537	2554	2541	2511	2483	2450	2371	2250	0	0	0	0	0	2017	1993	1981	1955	1936	1934	1952	1924	1940	1968	2009	2030	2036	2018	2002	1994	1989	1988	2015	2041	2030	1824	1728	1726	1719	1691	1684	1676	1658	1606	1562	1550	1542	1518	1562	1582	1547	1522	1523	1528	1515	1521	1535	1533	1527	1536	1549	1566	1579	1575	1552	1527	1521	1534	1552	1560	1562	1575	1568	1570	1577	1575	1571	1562	1555	1553	1547	1550	1557	1564	1567	1556	1554	1564	1560	1556	1547	1554	1586	1575	1614	1766	2200	2857	3465	3614	3714	3767	3790	3808	3780	3637	3426	3193	3126	3124	3160	3196	3190	3137	3066	3005	3021	3109	3183	3160	3147	3166	3170	3159	3154	3168	3150	3133	3099	3099	3062	3048	3036	3002	2768	2674	2634	2599	2567	2578	2589	2593	2564	2528	2500	2500	2500	2453	2396	2377	2373	2362	2239	2114	2117	2194	2257	2266	2220	2206	2190	2169	2161	2156	2143	2132	2137	2146	2153	2138	2134	2137	2131	2120	2101	2083	2058	2045	2037	2041	2053	2056	2045	2034	2021	2015	2009	2000	1992	1990	1994	1992	1980	1968	1951	1953	1952	1951	1947	1938	1931	1923	1928	1937	1936	1927	1944	1928	1887	1860	1839	1830	1825	1819	1817	1827	1835	1834	1824	1809	1790	1778	1768	1757	1747	1748	1744	1742	1757	1772	1775	1755	1729	1725	1728	1733	1733	1729	1714	1697	1681	1666	1653	1651	1651	1655	1650	1643	1629	1617	1633	1641	1632	1632	1627	1630	1627	1616	1605	1598	1594	1585	1579	1576	1576	1569	1564	1561	1563	1566	1559	1559	0	0	0	0	0	0	0	0
2008	2027	2050	2050	2080	2127	2164	2184	2184	2176	2157	2132	2110	2088	2088	2073	2066	2079	2101	2119	2119	2111	2112	2123	2141	2155	2081	2081	2073	2065	2052	2042	2059	2083	2121	2121	2144	2151	2134	2122	2141	2158	2175	2195	2195	2189	2134	2121	2122	2105	2110	2096	2102	2109	2119	2123	2123	2118	2122	2123	2129	2142	2171	2177	2174	2190	2189	2171	2165	2164	2206	2247	2247	2260	2247	2235	2211	2204	2198	2211	2201	2192	2190	2193	2215	2245	2251	2237	2235	2183	2047	1925	1618	1458	1420	1414	1406	1387	1380	1386	1396	1407	1413	1407	1403	1404	1404	1414	1424	1428	1425	1435	1440	1443	1435	1426	1425	1419	1417	1415	1405	1404	1411	1417	1419	1402	1400	1395	1395	1403	1401	1402	1409	1406	1405	1412	1420	1425	1441	1456	1428	1429	1424	1420	1427	1459	1466	1438	1433	1428	1434	1428	1425	1440	1467	1487	1496	1504	1524	1530	1529	1538	1566	1592	1639	1700	1761	1811	1837	1852	1867	1875	1883	1873	1869	1873	1876	1873	1901	1891	1877	1813	1797	1802	1775	1805	1820	1838	1880	1905	1920	1940	1956	1958	1974	1995	2022	2047	2111	2181	2213	2241	2289	2338	2376	2382	2382	2374	2365	2359	2362	2352	2405	2439	2467	2481	2499	2513	2538	2525	2523	2500	2460	2466	2497	2539	2568	2558	2535	2504	2482	2502	2502	2510	2508	2517	2475	2445	2366	2001	1854	1426	1413	1456	1469	1457	1450	1459	1469	1471	1478	1473	1469	1464	1470	1467	1464	1464	1453	1454	1464	1470	1476	1484	1489	1488	1482	1481	1476	1471	1499	1490	1488	1484	1484	1483	1467	1450	1477	1507	1511	1499	1504	1506	1487	1475	1470	1488	1490	1487	1477	1484	1512	1517	1512	1492	1492	1501	1507	1516	1510	1507	1504	1505	1503	1491	1485	1489	1497	1497	1503	1500	1495	1508	1507	1517	1511	1504	1510	1526	1552	1579	1631	1823	2272	2689	2871	2905	2920	2904	2949	2963	2946	2931	2899	2863	2872	2918	2930	2929	2926	2920	2933	2935	2990	3004	2984	2940	2960	2919	2922	2948	2976	2866	0	0	0	0	0	2519	2522	2557	2554	2537	2519	2509	2490	2376	2267	0	0	0	0	2076	2048	2017	1990	1966	1952	1945	1943	1954	1972	1977	1987	1999	2022	2031	2011	2011	2000	2012	2047	2068	2063	1831	1710	1714	1722	1702	1690	1668	1630	1596	1545	1542	1541	1521	1547	1567	1547	1530	1510	1518	1526	1531	1547	1528	1520	1528	1547	1569	1576	1566	1544	1523	1519	1536	1562	1574	1584	1574	1565	1564	1569	1573	1570	1566	1566	1559	1550	1552	1565	1575	1579	1571	1564	1573	1565	1566	1542	1548	1581	1608	1612	1733	2279	2917	3198	3431	3630	3740	3767	3758	3637	3411	3248	3100	3061	3081	3097	3124	3171	3125	3066	2990	3019	3117	3195	3146	3148	3159	3171	3170	3167	3167	3154	3146	3121	3108	3082	3070	3066	3083	3076	2913	2825	2783	2769	2668	2684	2690	2671	2639	2597	2604	2605	2636	2670	2664	2588	2510	2347	2209	2207	2282	2271	2244	2202	2194	2185	2168	2149	2126	2126	2126	2159	2193	2205	2190	2171	2163	2151	2142	2120	2096	2066	2049	2042	2049	2062	2067	2060	2050	2036	2017	2011	2001	1999	1995	1992	1984	1979	1967	1963	1959	1950	1951	1945	1938	1927	1928	1928	1934	1929	1925	1914	1900	1863	1834	1820	1835	1851	1849	1833	1816	1806	1806	1810	1809	1803	1790	1772	1760	1752	1748	1742	1742	1749	1766	1770	1749	1728	1723	1720	1729	1736	1734	1731	1719	1696	1666	1653	1655	1659	1657	1651	1639	1633	1616	1626	1632	1641	1641	1640	1650	1636	1620	1615	1608	1595	1585	1576	1573	1575	1572	1562	1558	1557	1558	1551	1551	0	0	0	0	0	0	0	0
1954	1959	1971	1971	2008	2058	2101	2139	2139	2128	2112	2093	2065	2049	2049	2036	2016	2035	2064	2074	2074	2070	2076	2088	2096	2047	2033	2033	2029	2029	2028	2034	2046	2066	2084	2084	2092	2075	2067	2071	2068	2098	2103	2104	2104	2074	2042	2045	2060	2058	2040	2039	2056	2066	2076	2065	2065	2063	2077	2091	2106	2106	2121	2123	2113	2106	2116	2117	2115	2126	2143	2172	2172	2187	2150	2121	2126	2132	2112	2115	2124	2136	2139	2124	2133	2128	2131	2157	2151	2097	1973	1845	1589	1459	1420	1428	1415	1390	1387	1387	1400	1412	1421	1422	1416	1408	1411	1418	1421	1412	1419	1431	1442	1449	1440	1436	1428	1423	1420	1414	1406	1391	1400	1416	1422	1398	1387	1390	1395	1402	1397	1401	1407	1410	1409	1409	1419	1429	1438	1448	1427	1435	1438	1438	1440	1452	1449	1426	1440	1441	1446	1437	1420	1439	1475	1499	1511	1520	1535	1537	1540	1561	1575	1579	1664	1734	1788	1832	1854	1868	1868	1875	1882	1883	1880	1878	1882	1890	1912	1906	1873	1791	1794	1791	1759	1819	1830	1833	1861	1889	1899	1927	1942	1943	1962	1992	2011	2042	2105	2204	2237	2265	2297	2331	2346	2353	2348	2363	2358	2339	2310	2309	2359	2390	2406	2413	2407	2384	2365	2388	2422	2409	2393	2426	2438	2475	2511	2516	2426	2386	2379	2396	2434	2428	2428	2432	2424	2409	2327	1993	1882	1454	1422	1453	1466	1456	1447	1454	1469	1479	1479	1477	1479	1477	1488	1481	1480	1477	1470	1468	1477	1475	1473	1472	1474	1479	1473	1471	1469	1476	1468	1487	1490	1488	1479	1475	1482	1476	1481	1474	1480	1485	1488	1499	1502	1477	1486	1499	1495	1468	1470	1489	1508	1498	1513	1497	1486	1496	1512	1515	1506	1512	1511	1506	1493	1489	1488	1499	1501	1505	1504	1501	1496	1493	1492	1507	1517	1506	1508	1530	1539	1552	1619	1820	2247	2554	2713	2789	2828	2840	2853	2837	2776	2744	2749	2755	2766	2789	2802	2792	2780	2827	2829	2843	2888	2882	2880	2844	2839	2813	2791	2808	2839	2822	2702	0	0	0	2443	2469	2497	2554	2561	2553	2526	2516	2528	2416	2261	0	0	0	2101	2073	2056	2029	1993	1969	1965	1962	1933	1952	1986	2003	2002	2003	2025	2037	2026	2008	2002	2011	2038	2072	2055	1686	1669	1676	1685	1682	1658	1620	1584	1555	1522	1527	1519	1523	1535	1563	1573	1537	1496	1497	1511	1517	1576	1531	1544	1538	1559	1566	1564	1555	1530	1526	1529	1544	1564	1583	1571	1562	1559	1556	1565	1561	1565	1567	1567	1562	1559	1573	1578	1586	1591	1594	1587	1580	1579	1574	1553	1549	1588	1616	1610	1694	2117	2829	3025	3264	3416	3514	3507	3445	3336	3226	3056	3018	3006	3027	3048	3077	3097	3066	3029	2995	3000	3114	3191	3158	3157	3159	3168	3172	3167	3152	3142	3130	3112	3102	3103	3092	3092	3124	3152	3146	3105	3066	3053	3099	3122	3127	3116	3109	2981	2893	2778	2767	2791	2767	2708	2664	2507	2350	2482	2456	2311	2228	2208	2184	2184	2175	2141	2122	2113	2141	2172	2180	2178	2166	2170	2177	2173	2164	2153	2135	2118	2103	2076	2079	2083	2085	2076	2063	2038	2016	2005	2001	2007	2001	1991	1980	1970	1971	1966	1958	1949	1946	1937	1925	1920	1924	1927	1932	1927	1923	1899	1887	1857	1837	1826	1846	1859	1863	1861	1835	1813	1798	1802	1804	1801	1784	1772	1770	1769	1760	1743	1729	1742	1752	1751	1728	1722	1724	1720	1724	1732	1731	1730	1716	1690	1668	1658	1662	1672	1664	1657	1650	1644	1631	1621	1626	1642	1642	1650	1645	1639	1634	1624	1614	1604	1587	1574	1572	1574	1570	1565	1558	1556	1554	1545	1545	0	0	0	0	0	0	0	0
1923	1928	1941	1941	1973	2018	2046	2070	2070	2057	2033	2024	2018	2001	2001	1953	1966	2003	2026	2037	2037	2036	2038	2051	2010	2010	1987	1987	1974	1995	2007	2015	2020	2027	2036	2036	2034	2040	2026	2012	2014	1988	1985	1993	1993	1990	1982	1980	1989	1998	1995	1990	2010	2046	2057	2045	2045	2035	2051	2066	2063	2064	2076	2058	2041	2037	2055	2074	2089	2095	2081	2068	2045	2045	2023	2047	2069	2059	2046	2049	2066	2092	2104	2092	2066	2050	2048	2058	2064	2034	1923	1802	1634	1450	1410	1424	1414	1399	1395	1393	1403	1404	1407	1411	1407	1411	1417	1419	1413	1409	1414	1422	1435	1440	1441	1437	1420	1412	1409	1404	1382	1380	1392	1416	1428	1407	1397	1403	1402	1405	1400	1401	1405	1412	1414	1419	1427	1432	1433	1423	1427	1442	1445	1442	1434	1436	1434	1425	1455	1453	1453	1430	1413	1438	1474	1509	1517	1513	1525	1532	1543	1554	1560	1576	1666	1760	1817	1850	1867	1868	1863	1869	1882	1885	1877	1875	1880	1886	1901	1900	1888	1806	1790	1781	1762	1852	1856	1843	1869	1881	1901	1932	1952	1963	1972	2032	2062	2085	2128	2228	2252	2270	2299	2317	2311	2311	2315	2317	2313	2275	2252	2264	2301	2323	2307	2315	2324	2324	2319	2324	2324	2341	2352	2347	2340	2359	2371	2364	2299	2290	2319	2345	2366	2371	2372	2357	2340	2350	2319	1973	1900	1500	1465	1460	1455	1448	1440	1446	1464	1484	1484	1478	1480	1491	1492	1480	1479	1476	1477	1480	1486	1483	1474	1470	1461	1459	1460	1470	1471	1475	1479	1480	1491	1489	1480	1472	1481	1483	1495	1475	1469	1476	1474	1481	1481	1485	1492	1490	1481	1454	1466	1480	1506	1515	1502	1483	1477	1493	1503	1493	1498	1509	1509	1495	1490	1495	1505	1506	1509	1492	1502	1498	1492	1477	1472	1497	1518	1505	1511	1547	1544	1541	1611	1826	2225	2453	2533	2570	2629	2758	2735	2717	2669	2667	2663	2658	2673	2697	2720	2713	2699	2697	2698	2723	2751	2765	2697	2718	2734	2715	2709	2697	2719	2737	2693	2604	2460	2410	2385	2425	2435	2507	2564	2544	2531	2514	2523	2437	2216	2149	0	2082	2079	2070	2064	2018	1983	1967	1971	1963	1943	1952	1991	2026	2022	2023	2020	2041	2024	2004	1990	2000	2031	2051	2038	1671	1635	1620	1626	1633	1602	1567	1510	1497	1513	1528	1532	1537	1535	1568	1590	1552	1508	1495	1520	1521	1545	1557	1556	1549	1554	1560	1556	1548	1539	1532	1538	1558	1566	1574	1571	1566	1561	1559	1554	1547	1542	1557	1563	1567	1573	1582	1585	1578	1580	1588	1594	1593	1584	1580	1568	1562	1581	1612	1616	1685	2021	2706	3004	3172	3229	3269	3259	3221	3168	3089	3020	2992	2978	3011	3062	3071	3075	3042	2996	2974	2981	3073	3157	3173	3160	3158	3144	3133	3114	3087	3102	3112	3105	3109	3109	3110	3113	3140	3152	3149	3113	3087	3079	3077	3092	3105	3112	3120	3149	3154	3125	3096	3084	3070	3053	3036	2993	2842	2700	2561	2365	2238	2195	2187	2182	2178	2161	2129	2117	2145	2153	2162	2181	2195	2191	2184	2176	2176	2166	2147	2151	2137	2097	2104	2127	2140	2141	2122	2064	2056	2053	2037	2022	2010	1997	1983	1980	1972	1972	1963	1966	1953	1934	1920	1916	1918	1926	1926	1927	1913	1875	1857	1846	1834	1826	1846	1858	1870	1852	1827	1803	1798	1803	1812	1796	1787	1768	1768	1777	1773	1763	1756	1753	1751	1741	1721	1703	1710	1723	1734	1726	1702	1689	1678	1669	1658	1663	1672	1683	1676	1673	1669	1655	1638	1617	1625	1639	1639	1647	1640	1637	1634	1628	1620	1604	1590	1579	1575	1569	1565	1561	1559	1559	1558	1545	1545	0	0	0	0	0	0	0	0
1892	1903	1924	1924	1950	1981	2006	2009	2009	1985	1963	1953	1940	1920	1920	1931	1957	1977	1984	2000	2001	2001	2006	2014	1963	1959	1942	1934	1934	1963	1986	1993	1989	1988	1997	1997	2001	2007	2007	2001	1971	1966	1977	1987	1977	1977	1953	1941	1942	1949	1955	1958	1967	1986	2037	2037	2037	2020	2028	2038	2033	2021	2010	1988	1991	2006	2041	2071	2084	2056	2019	1983	1972	1972	1982	1999	2017	2023	2019	2015	2017	2034	2027	2033	2019	2010	2014	2002	1992	1967	1880	1769	1671	1457	1402	1417	1418	1403	1395	1402	1400	1400	1396	1392	1390	1393	1408	1418	1422	1418	1416	1416	1425	1424	1424	1417	1410	1404	1407	1397	1380	1377	1389	1407	1419	1417	1419	1419	1416	1412	1406	1405	1411	1413	1419	1424	1431	1435	1437	1422	1432	1442	1448	1439	1425	1426	1426	1433	1470	1466	1454	1431	1427	1449	1484	1512	1523	1511	1513	1521	1533	1550	1558	1571	1643	1756	1817	1850	1864	1862	1859	1862	1876	1875	1865	1861	1867	1873	1878	1886	1891	1824	1811	1796	1792	1879	1886	1857	1874	1886	1913	1943	1977	1998	2004	2050	2088	2119	2134	2174	2239	2260	2273	2279	2258	2254	2260	2260	2245	2220	2192	2221	2243	2257	2253	2248	2254	2269	2292	2302	2299	2285	2263	2238	2227	2176	2173	2191	2220	2217	2234	2263	2274	2295	2309	2295	2253	2269	2243	1978	1911	1547	1487	1476	1448	1434	1434	1439	1464	1492	1492	1481	1484	1489	1481	1478	1478	1475	1479	1485	1493	1492	1482	1473	1461	1456	1461	1468	1472	1475	1493	1497	1491	1500	1495	1476	1483	1497	1501	1501	1479	1465	1475	1482	1483	1484	1491	1480	1453	1479	1486	1493	1488	1510	1492	1477	1490	1495	1483	1487	1492	1504	1506	1495	1490	1495	1503	1497	1499	1478	1495	1494	1494	1476	1469	1490	1516	1500	1513	1562	1567	1539	1608	1848	2244	2372	2467	2487	2483	2521	2563	2562	2560	2565	2577	2582	2589	2615	2638	2652	2637	2586	2582	2647	2633	2628	2617	2603	2599	2633	2640	2617	2616	2648	2635	2639	2602	2519	2433	2394	2423	2453	2505	2524	2491	2473	2495	2434	2174	2110	2052	2035	2059	2060	2051	2019	1985	1960	1963	1969	1967	1956	1989	2029	2026	2022	2018	2031	2012	1994	1980	1980	2004	2029	2006	1690	1619	1594	1577	1579	1555	1546	1522	1493	1490	1529	1557	1569	1547	1567	1588	1573	1536	1524	1542	1535	1539	1553	1552	1550	1551	1554	1553	1547	1547	1546	1555	1562	1556	1561	1572	1574	1563	1550	1541	1532	1535	1544	1557	1564	1572	1579	1564	1559	1564	1572	1582	1578	1595	1584	1582	1569	1584	1608	1605	1692	2015	2647	2936	3082	3146	3171	3164	3146	3102	3050	3011	2984	2970	2985	3024	3066	3063	3034	2991	2969	2977	3046	3117	3097	3148	3158	3142	3118	3067	3065	3068	3093	3106	3131	3134	3133	3135	3140	3133	3128	3115	3092	3083	3073	3081	3099	3104	3102	3146	3148	3129	3123	3129	3131	3127	3118	3049	2938	2766	2603	2332	2220	2191	2189	2184	2178	2168	2145	2142	2143	2152	2170	2185	2196	2202	2189	2175	2175	2180	2177	2161	2165	2160	2163	2168	2183	2185	2182	2150	2147	2143	2151	2126	2091	2062	2040	2040	2035	2033	2016	1997	1981	1963	1945	1944	1952	1965	1965	1946	1918	1863	1847	1832	1822	1810	1809	1833	1839	1829	1817	1798	1798	1801	1803	1790	1779	1763	1757	1775	1775	1771	1761	1756	1755	1745	1719	1698	1703	1717	1730	1729	1705	1686	1675	1658	1653	1662	1668	1661	1678	1686	1685	1670	1648	1634	1626	1616	1616	1606	1594	1591	1593	1600	1609	1602	1589	1581	1578	1567	1561	1555	1556	1559	1556	1556	1546	0	0	0	0	0	0	0	0
1870	1881	1899	1899	1929	1947	1957	1951	1927	1927	1898	1895	1901	1906	1906	1918	1928	1931	1929	1927	1949	1949	1960	1925	1934	1930	1889	1892	1892	1932	1954	1964	1960	1950	1960	1960	1976	1990	1995	1978	1962	1957	1984	1985	1972	1972	1944	1923	1918	1913	1912	1924	1928	1935	1950	1986	1986	1986	1993	1997	1994	1983	1959	1948	1953	1969	1988	2013	2029	2016	1986	1957	1937	1937	1945	1966	1990	1994	1982	1964	1958	1974	1995	2005	2006	2008	1990	1973	1947	1920	1836	1759	1696	1472	1417	1418	1423	1416	1408	1414	1409	1400	1392	1383	1383	1392	1412	1427	1430	1427	1417	1410	1412	1412	1416	1412	1414	1413	1413	1401	1385	1385	1391	1406	1409	1408	1421	1422	1427	1426	1416	1421	1422	1416	1412	1418	1432	1438	1439	1437	1435	1435	1440	1434	1423	1424	1425	1444	1474	1477	1470	1454	1454	1475	1497	1517	1525	1519	1519	1526	1539	1551	1553	1559	1626	1706	1815	1841	1853	1847	1846	1858	1865	1857	1847	1842	1849	1856	1858	1864	1870	1835	1834	1820	1830	1887	1882	1866	1871	1890	1925	1962	2004	2034	2037	2043	2034	2042	2079	2113	2108	2097	2126	2215	2191	2181	2182	2173	2159	2148	2152	2192	2202	2204	2194	2188	2194	2201	2217	2222	2220	2211	2201	2177	2157	2132	2123	2148	2173	2162	2162	2165	2209	2216	2219	2213	2207	2193	2165	1938	1878	1568	1502	1485	1449	1426	1429	1435	1465	1493	1489	1485	1487	1485	1483	1479	1478	1475	1470	1478	1497	1499	1487	1475	1462	1457	1464	1473	1473	1466	1481	1503	1511	1512	1508	1494	1497	1505	1509	1500	1480	1483	1465	1468	1465	1465	1498	1501	1494	1493	1488	1490	1487	1515	1481	1489	1495	1490	1490	1481	1482	1499	1505	1505	1503	1502	1487	1482	1472	1459	1488	1488	1491	1491	1488	1508	1509	1494	1516	1568	1571	1534	1604	1858	2191	2320	2411	2424	2413	2394	2376	2390	2387	2392	2453	2500	2541	2548	2509	2508	2521	2523	2480	2498	2531	2540	2518	2503	2522	2521	2497	2457	2434	2439	2476	2510	2523	2501	2444	2404	2396	2433	2448	2457	2452	2435	2440	2395	2153	2089	2035	2020	2026	2059	2067	2036	1990	1962	1943	1963	1978	1958	1980	2017	2016	2016	2018	2018	2000	1983	1973	1974	1988	2001	1833	1706	1661	1611	1632	1616	1616	1588	1563	1512	1507	1550	1582	1580	1541	1541	1559	1567	1566	1560	1594	1591	1551	1532	1530	1546	1554	1558	1550	1544	1547	1562	1569	1566	1557	1564	1570	1568	1556	1545	1533	1542	1542	1546	1556	1557	1557	1555	1549	1547	1551	1561	1573	1571	1577	1583	1575	1568	1582	1594	1607	1709	2050	2577	2813	2949	3020	3063	3094	3084	3059	3025	3001	2973	2965	2975	2983	3015	3039	3020	2980	2957	2911	2933	2972	3039	3063	3040	3021	3035	3007	3066	3075	3108	3130	3154	3158	3164	3136	3129	3122	3093	3078	3060	3049	3057	3068	3086	3067	3080	3085	3101	3119	3125	3130	3128	3124	3118	3042	2910	2759	2615	2233	2198	2189	2187	2187	2178	2173	2159	2154	2152	2158	2171	2187	2197	2202	2191	2174	2174	2176	2187	2167	2169	2167	2156	2168	2194	2208	2181	2163	2149	2145	2145	2154	2156	2153	2150	2149	2083	2057	2046	2035	2017	1991	1975	1994	2008	2025	2028	2015	1954	1937	1912	1879	1855	1836	1861	1829	1790	1804	1802	1791	1785	1791	1785	1776	1759	1748	1766	1780	1773	1756	1749	1749	1750	1750	1741	1705	1697	1707	1720	1726	1720	1699	1670	1650	1653	1658	1659	1655	1665	1674	1668	1657	1633	1617	1609	1606	1606	1599	1583	1572	1567	1570	1582	1593	1597	1596	1586	1574	1562	1551	1540	1542	1547	1547	1555	0	0	0	0	0	0	0	0
1833	1843	1860	1860	1885	1912	1908	1878	1839	1839	1847	1860	1876	1876	1876	1880	1884	1876	1870	1875	1891	1891	1860	1872	1891	1883	1859	1862	1862	1876	1880	1880	1880	1902	1928	1940	1940	1949	1923	1920	1920	1905	1914	1921	1927	1927	1927	1900	1883	1873	1866	1874	1892	1891	1897	1909	1909	1916	1921	1927	1928	1930	1917	1932	1945	1963	1966	1956	1958	1954	1943	1898	1898	1898	1898	1913	1951	1948	1923	1915	1924	1946	1955	1967	1975	1969	1953	1928	1911	1896	1797	1715	1670	1486	1426	1421	1419	1408	1409	1410	1412	1410	1401	1396	1388	1408	1430	1438	1430	1421	1396	1393	1397	1406	1409	1414	1418	1420	1418	1412	1397	1397	1402	1403	1411	1403	1403	1416	1435	1436	1436	1435	1430	1421	1406	1405	1421	1435	1436	1440	1439	1427	1427	1429	1430	1437	1460	1448	1473	1479	1477	1470	1476	1496	1510	1518	1525	1528	1529	1540	1549	1562	1558	1560	1604	1728	1803	1824	1849	1858	1856	1856	1859	1844	1832	1833	1834	1840	1845	1855	1860	1853	1842	1827	1838	1848	1853	1854	1868	1886	1923	1982	2014	2044	2053	2045	2028	2041	2061	2078	2080	2068	2055	2048	2053	2121	2126	2128	2122	2108	2091	2141	2155	2156	2149	2144	2146	2156	2167	2172	2171	2164	2158	2137	2103	2087	2086	2110	2135	2116	2126	2128	2131	2136	2138	2142	2138	2147	2114	1888	1842	1553	1488	1478	1454	1428	1423	1434	1457	1474	1479	1473	1475	1483	1477	1470	1471	1458	1464	1475	1490	1498	1492	1480	1469	1463	1470	1475	1467	1467	1479	1491	1504	1504	1499	1486	1486	1512	1506	1499	1487	1467	1483	1482	1467	1476	1476	1495	1480	1478	1478	1480	1479	1483	1479	1485	1514	1524	1521	1508	1481	1481	1488	1492	1496	1499	1497	1487	1476	1460	1476	1477	1483	1490	1496	1506	1502	1490	1509	1563	1548	1527	1633	1841	2120	2247	2313	2336	2312	2285	2282	2311	2330	2338	2330	2350	2379	2405	2414	2433	2443	2464	2432	2428	2419	2418	2407	2380	2360	2369	2383	2391	2399	2404	2411	2405	2425	2439	2422	2395	2381	2381	2408	2413	2416	2411	2394	2372	2191	2097	2034	2012	2038	2071	2080	2060	2012	1973	1940	1934	1955	1938	1961	2004	2006	2006	2011	2004	1990	1987	1976	1975	1978	1984	1826	1748	1783	1732	1684	1658	1650	1625	1587	1549	1535	1545	1577	1573	1523	1501	1516	1561	1586	1584	1609	1606	1573	1530	1547	1548	1561	1561	1554	1547	1549	1563	1572	1568	1558	1564	1565	1555	1540	1544	1548	1551	1557	1566	1556	1550	1542	1539	1544	1557	1570	1574	1571	1566	1565	1564	1568	1565	1567	1588	1619	1734	2075	2555	2685	2873	2971	3010	3016	3001	2973	2958	2971	2981	2967	2965	2957	2968	2990	2967	2856	2825	2837	2867	2910	2920	2918	2922	2898	2873	2880	2905	2918	2960	2971	2998	3015	3013	2987	2969	2945	2966	2977	2980	2978	3000	3006	3015	3001	2982	2963	2962	3037	3062	3093	3098	3107	3090	3006	2889	2727	2596	2227	2187	2187	2186	2189	2184	2182	2156	2151	2149	2154	2171	2188	2201	2190	2176	2166	2166	2171	2184	2171	2162	2157	2171	2174	2196	2208	2195	2173	2161	2152	2148	2154	2163	2164	2165	2161	2158	2093	2189	2205	2178	2141	2086	2086	2099	2106	2104	2069	2064	2058	2041	2001	1965	1955	1951	1920	1840	1825	1830	1827	1810	1801	1775	1772	1754	1754	1749	1754	1769	1756	1741	1739	1743	1747	1742	1721	1731	1736	1724	1711	1709	1703	1670	1647	1644	1652	1645	1642	1645	1656	1650	1635	1622	1606	1597	1597	1596	1594	1584	1574	1564	1569	1581	1590	1594	1594	1584	1574	1563	1561	1556	1553	1550	1550	1542	0	0	0	0	0	0	0	0
1772	1799	1814	1814	1830	1830	1816	1806	1808	1808	1811	1824	1815	1829	1835	1835	1836	1833	1836	1846	1855	1855	1842	1847	1848	1829	1810	1815	1815	1817	1819	1819	1830	1847	1856	1866	1866	1866	1867	1885	1884	1880	1875	1847	1822	1822	1813	1819	1835	1850	1853	1850	1849	1849	1855	1867	1867	1889	1890	1887	1877	1883	1889	1902	1922	1943	1941	1918	1879	1849	1833	1834	1850	1850	1882	1898	1893	1914	1902	1892	1889	1901	1921	1911	1903	1892	1878	1851	1822	1858	1735	1675	1602	1447	1424	1422	1423	1410	1405	1409	1412	1411	1407	1410	1417	1436	1451	1445	1435	1406	1394	1392	1394	1398	1410	1410	1402	1407	1417	1415	1412	1405	1410	1414	1416	1405	1401	1418	1430	1447	1451	1456	1455	1433	1418	1414	1418	1425	1429	1432	1442	1420	1417	1425	1445	1474	1481	1477	1479	1480	1482	1472	1480	1495	1514	1520	1511	1514	1528	1544	1564	1566	1565	1583	1641	1779	1823	1838	1852	1867	1876	1878	1867	1841	1817	1812	1822	1832	1848	1857	1853	1850	1833	1813	1816	1809	1817	1835	1844	1865	1922	1977	2022	2030	2009	2001	2004	2016	2034	2048	2049	2038	2023	2014	2019	2062	2077	2071	2097	2089	2071	2081	2096	2083	2082	2098	2116	2120	2125	2122	2110	2098	2084	2086	2071	2063	2052	2067	2085	2094	2100	2102	2105	2099	2093	2091	2095	2111	2082	1862	1817	1545	1478	1479	1467	1433	1422	1432	1452	1460	1467	1464	1468	1477	1473	1469	1460	1447	1459	1468	1481	1487	1486	1485	1473	1466	1466	1475	1472	1470	1477	1486	1494	1495	1488	1475	1481	1494	1508	1516	1503	1504	1504	1494	1483	1463	1474	1469	1463	1458	1461	1471	1473	1475	1478	1501	1515	1527	1527	1513	1500	1477	1489	1489	1483	1497	1496	1493	1488	1489	1478	1479	1481	1493	1496	1509	1499	1496	1514	1560	1553	1530	1623	1836	2081	2203	2211	2228	2228	2238	2241	2264	2271	2280	2253	2257	2275	2312	2340	2359	2370	2351	2368	2391	2388	2375	2363	2345	2331	2335	2365	2381	2394	2387	2380	2373	2384	2394	2404	2392	2369	2354	2343	2351	2359	2373	2370	2310	2194	2082	2035	2028	2051	2092	2094	2068	2021	1961	1934	1917	1933	1920	1951	2000	2010	2014	2023	2014	1990	1989	1978	1957	1966	1946	1888	1848	1821	1763	1712	1662	1633	1611	1577	1553	1538	1539	1567	1557	1502	1468	1491	1538	1573	1584	1602	1605	1588	1543	1547	1555	1566	1562	1555	1553	1553	1564	1569	1568	1559	1558	1560	1551	1547	1551	1551	1552	1554	1556	1554	1546	1541	1544	1562	1584	1595	1594	1580	1570	1562	1562	1576	1577	1571	1586	1627	1752	2071	2542	2642	2742	2898	2947	2974	2964	2935	2865	2871	2873	2862	2873	2889	2804	2777	2774	2762	2721	2737	2797	2837	2839	2827	2812	2796	2804	2805	2821	2839	2848	2861	2889	2926	2929	2913	2880	2877	2892	2910	2891	2841	2860	2872	2875	2846	2817	2825	2861	2887	2912	2952	2965	2953	2945	2888	2812	2646	2529	2238	2188	2182	2184	2188	2191	2184	2167	2146	2154	2151	2170	2193	2194	2174	2164	2150	2160	2167	2177	2176	2174	2171	2172	2187	2197	2197	2187	2191	2191	2172	2167	2153	2171	2176	2183	2182	2174	2228	2226	2444	2498	2459	2360	2270	2206	2172	2163	2167	2254	2358	2361	2323	2286	2278	2241	2197	2093	2058	2050	1997	1969	1960	1950	1897	1869	1831	1799	1783	1816	1772	1746	1726	1720	1746	1762	1768	1767	1763	1737	1715	1709	1702	1690	1655	1650	1654	1656	1639	1632	1641	1641	1633	1622	1622	1616	1616	1610	1599	1595	1585	1577	1572	1567	1575	1588	1593	1590	1580	1568	1563	1563	1560	1553	1553	1548	0	0	0	0	0	0	0	0
1740	1757	1778	1778	1792	1792	1784	1779	1778	1778	1770	1756	1759	1769	1788	1788	1790	1794	1807	1822	1839	1816	1816	1813	1802	1784	1775	1772	1772	1771	1789	1798	1803	1791	1792	1788	1788	1785	1817	1837	1856	1855	1812	1787	1781	1781	1775	1774	1791	1813	1830	1826	1823	1810	1819	1839	1855	1855	1852	1857	1856	1856	1855	1865	1882	1870	1860	1866	1846	1807	1790	1802	1841	1841	1878	1880	1877	1875	1882	1876	1863	1845	1849	1850	1850	1848	1833	1795	1796	1799	1686	1631	1569	1450	1435	1433	1428	1421	1409	1407	1407	1411	1418	1425	1433	1452	1453	1450	1431	1414	1404	1401	1402	1404	1406	1409	1396	1388	1388	1393	1408	1418	1419	1419	1418	1406	1408	1420	1437	1445	1451	1450	1448	1432	1427	1433	1426	1418	1422	1434	1443	1420	1418	1430	1458	1478	1490	1488	1480	1493	1479	1462	1476	1491	1505	1500	1492	1498	1514	1534	1542	1548	1551	1570	1603	1808	1839	1847	1859	1872	1884	1885	1882	1839	1814	1803	1812	1832	1867	1871	1863	1851	1820	1810	1819	1821	1808	1824	1843	1851	1872	1905	1938	1933	1957	1968	1998	2000	1999	2016	2019	2011	1999	1994	2008	2033	2051	2036	2017	2003	2045	2052	2046	2041	2037	2046	2057	2067	2071	2058	2017	2007	2036	2035	2035	2037	2030	2034	2049	2072	2079	2078	2075	2070	2059	2039	2044	2052	2049	1841	1782	1520	1465	1475	1465	1440	1425	1444	1461	1462	1464	1464	1459	1468	1475	1468	1448	1446	1457	1466	1474	1482	1485	1481	1474	1462	1459	1470	1482	1480	1480	1479	1470	1467	1463	1466	1461	1486	1505	1514	1486	1499	1509	1504	1496	1474	1455	1460	1457	1453	1458	1463	1476	1482	1482	1502	1515	1525	1522	1512	1497	1485	1476	1486	1498	1493	1492	1503	1498	1498	1488	1489	1502	1506	1502	1510	1503	1507	1521	1562	1578	1552	1596	1812	1943	2141	2164	2176	2207	2204	2204	2196	2187	2197	2202	2193	2221	2245	2255	2273	2288	2269	2275	2288	2299	2287	2274	2285	2286	2304	2322	2344	2341	2348	2335	2327	2321	2326	2363	2371	2368	2346	2334	2313	2307	2303	2302	2269	2241	2100	2058	2051	2080	2102	2104	2057	1997	1957	1930	1916	1938	1938	1953	1995	2017	2018	2019	2003	1993	1991	1961	1967	1980	1980	1918	1845	1811	1761	1703	1656	1617	1587	1563	1555	1547	1552	1598	1563	1479	1457	1483	1529	1555	1567	1587	1587	1586	1551	1559	1566	1566	1559	1553	1555	1561	1567	1568	1569	1557	1563	1564	1566	1560	1556	1547	1536	1535	1537	1540	1544	1539	1555	1581	1598	1613	1615	1593	1571	1562	1563	1570	1578	1579	1588	1637	1756	2031	2481	2592	2662	2699	2846	2879	2869	2728	2688	2707	2757	2746	2680	2693	2696	2682	2644	2621	2648	2684	2721	2726	2749	2734	2726	2723	2724	2720	2735	2746	2753	2763	2787	2810	2819	2809	2792	2780	2801	2784	2750	2753	2786	2805	2806	2780	2761	2764	2791	2806	2821	2829	2850	2860	2850	2841	2780	2700	2501	2276	2198	2187	2182	2193	2205	2210	2199	2165	2189	2174	2174	2172	2187	2174	2167	2156	2164	2171	2177	2179	2178	2177	2184	2188	2192	2194	2199	2212	2212	2202	2196	2183	2185	2193	2201	2202	2187	2249	2463	2543	2587	2614	2564	2460	2239	2170	2125	2123	2265	2338	2512	2564	2558	2543	2566	2579	2611	2613	2526	2365	2359	2413	2490	2458	2380	2220	2068	1972	1889	1785	1770	1761	1756	1752	1753	1737	1731	1742	1738	1724	1722	1729	1722	1699	1677	1679	1683	1654	1635	1635	1639	1633	1622	1617	1619	1619	1614	1605	1594	1590	1582	1573	1566	1567	1576	1589	1593	1594	1584	1571	1568	1561	1557	1557	1549	0	0	0	0	0	0	0	0
1720	1729	1740	1751	1751	1762	1763	1755	1734	1734	1732	1731	1730	1731	1740	1740	1751	1764	1784	1798	1816	1779	1777	1765	1753	1749	1755	1749	1749	1748	1747	1753	1751	1746	1760	1773	1773	1775	1790	1809	1814	1784	1758	1756	1754	1754	1756	1766	1777	1797	1801	1802	1800	1794	1809	1833	1852	1852	1830	1814	1823	1813	1803	1811	1811	1803	1804	1803	1798	1778	1768	1795	1837	1868	1868	1869	1853	1841	1825	1821	1810	1792	1796	1806	1807	1803	1774	1776	1772	1784	1681	1633	1579	1481	1449	1435	1437	1431	1416	1408	1416	1422	1433	1434	1441	1457	1454	1443	1429	1420	1411	1409	1409	1416	1418	1410	1393	1377	1365	1374	1392	1416	1419	1415	1407	1401	1405	1415	1425	1435	1436	1430	1419	1421	1424	1429	1417	1403	1416	1436	1429	1413	1417	1431	1454	1462	1476	1481	1466	1487	1470	1465	1477	1491	1501	1496	1487	1490	1506	1514	1505	1521	1543	1571	1601	1799	1835	1847	1855	1861	1875	1887	1872	1849	1826	1814	1821	1856	1872	1883	1888	1851	1801	1791	1821	1842	1875	1866	1851	1870	1882	1902	1910	1924	1951	1969	1987	1986	1983	1972	1975	1988	1975	1976	1995	2008	2019	2003	1981	1963	1954	1957	1980	2013	1992	1992	2004	2021	2014	1996	1981	1977	1978	1988	1992	1987	1992	2003	2036	2057	2057	2044	2032	2012	1987	1975	1975	2010	2003	1831	1768	1512	1447	1456	1462	1450	1446	1450	1468	1473	1466	1468	1463	1469	1480	1466	1449	1448	1456	1460	1473	1473	1483	1478	1467	1454	1449	1464	1490	1483	1483	1472	1464	1456	1464	1475	1483	1489	1490	1481	1488	1484	1504	1468	1462	1465	1464	1495	1480	1482	1469	1471	1488	1498	1495	1498	1502	1513	1505	1502	1501	1494	1485	1491	1497	1507	1514	1513	1505	1507	1501	1497	1506	1510	1512	1506	1495	1491	1512	1559	1585	1568	1590	1802	1921	2023	2132	2139	2157	2176	2179	2175	2162	2138	2121	2128	2153	2177	2187	2191	2185	2158	2155	2183	2200	2214	2215	2228	2236	2254	2271	2271	2278	2276	2264	2259	2257	2272	2257	2257	2297	2324	2310	2279	2261	2261	2240	2221	2226	2208	2118	2088	2108	2122	2098	2038	1987	1961	1942	1948	1965	1971	1965	1985	2015	2019	2016	2006	1995	1987	1987	1986	2001	1992	1913	1817	1767	1718	1676	1635	1605	1574	1550	1550	1563	1592	1617	1562	1461	1474	1481	1502	1530	1551	1553	1557	1551	1552	1556	1562	1561	1552	1546	1552	1557	1558	1558	1562	1553	1556	1570	1574	1572	1565	1555	1534	1524	1528	1535	1543	1548	1551	1573	1599	1608	1609	1595	1576	1567	1558	1557	1558	1573	1595	1636	1742	1989	2179	2536	2599	2596	2606	2605	2598	2594	2586	2594	2451	2469	2515	2591	2593	2590	2585	2575	2591	2630	2647	2650	2662	2664	2678	2663	2665	2662	2661	2648	2660	2654	2631	2592	2616	2659	2669	2680	2666	2637	2643	2666	2687	2714	2721	2698	2651	2660	2688	2714	2712	2726	2728	2742	2767	2752	2708	2645	2495	2294	2204	2188	2184	2191	2214	2218	2210	2194	2211	2184	2175	2163	2170	2172	2175	2168	2171	2178	2188	2192	2193	2187	2177	2183	2186	2193	2205	2220	2223	2201	2199	2191	2190	2198	2208	2205	2198	2289	2502	2628	2681	2685	2630	2520	2382	2223	2050	1987	2075	2299	2470	2569	2665	2689	2714	2723	2748	2770	2732	2712	2714	2768	2814	2813	2776	2722	2628	2500	2440	2421	2465	2502	2007	1997	1980	1947	1919	1893	1867	1839	1838	1826	1799	1768	1740	1743	1647	1669	1641	1637	1635	1631	1620	1614	1611	1611	1601	1597	1595	1587	1582	1574	1564	1565	1573	1584	1589	1592	1586	1573	1566	1556	1550	1550	1546	0	0	0	0	0	0	0	0
1704	1703	1705	1717	1717	1728	1736	1730	1724	1724	1726	1726	1724	1714	1707	1707	1707	1726	1742	1755	1729	1729	1721	1714	1714	1730	1741	1741	1741	1740	1727	1714	1715	1721	1734	1752	1752	1762	1764	1775	1767	1722	1724	1737	1742	1742	1751	1753	1770	1782	1773	1754	1752	1789	1821	1844	1841	1841	1810	1783	1759	1755	1747	1748	1742	1758	1755	1744	1737	1730	1741	1762	1784	1807	1807	1807	1802	1801	1792	1778	1763	1744	1735	1742	1738	1741	1737	1752	1771	1780	1684	1639	1586	1500	1449	1422	1423	1426	1421	1420	1424	1438	1447	1442	1437	1439	1438	1423	1417	1414	1410	1408	1411	1417	1413	1411	1398	1381	1362	1370	1392	1417	1417	1405	1394	1397	1406	1404	1410	1417	1413	1402	1401	1405	1413	1415	1406	1389	1381	1427	1423	1421	1430	1441	1445	1442	1453	1478	1460	1477	1457	1463	1486	1497	1497	1494	1494	1503	1504	1480	1478	1518	1542	1578	1624	1776	1813	1828	1838	1857	1867	1861	1839	1826	1821	1826	1839	1849	1861	1870	1880	1855	1798	1741	1754	1792	1827	1838	1847	1870	1889	1900	1892	1903	1939	1959	1960	1968	1960	1944	1924	1910	1909	1901	1908	1927	1948	1954	1955	1934	1905	1909	1933	1921	1908	1950	1964	1975	1975	1962	1963	1973	1970	1960	1962	1971	1979	1992	2022	2037	2012	1996	1988	1968	1948	1923	1938	1964	1976	1822	1776	1522	1433	1427	1455	1459	1452	1445	1469	1484	1472	1476	1470	1479	1484	1471	1462	1460	1459	1466	1473	1475	1483	1483	1466	1450	1450	1463	1488	1494	1491	1476	1469	1467	1463	1484	1491	1492	1481	1478	1485	1492	1475	1466	1451	1444	1457	1460	1475	1480	1493	1500	1508	1513	1511	1507	1507	1500	1499	1499	1502	1499	1495	1493	1510	1506	1511	1512	1504	1503	1496	1499	1494	1502	1503	1499	1493	1490	1499	1539	1569	1556	1596	1771	1878	1997	2046	2065	2097	2120	2151	2148	2149	2114	2090	2107	2132	2150	2150	2129	2109	2105	2122	2153	2179	2194	2194	2205	2205	2221	2232	2227	2226	2223	2200	2190	2187	2205	2187	2187	2210	2226	2220	2218	2207	2217	2210	2202	2201	2231	2212	2137	2120	2120	2089	2027	1986	1965	1970	1971	1977	1986	1973	1977	2004	2009	2012	1999	1989	1988	1988	1991	1999	1993	1897	1793	1737	1677	1639	1627	1611	1588	1565	1562	1583	1609	1624	1539	1452	1481	1500	1498	1521	1544	1547	1547	1534	1547	1547	1549	1541	1538	1536	1547	1552	1546	1542	1554	1564	1565	1573	1574	1576	1582	1575	1548	1539	1538	1549	1551	1550	1549	1560	1577	1590	1594	1590	1578	1569	1534	1525	1539	1557	1589	1626	1758	2038	2109	2297	2470	2505	2473	2463	2477	2468	2472	2452	2406	2421	2440	2442	2442	2469	2501	2519	2536	2516	2525	2541	2572	2599	2624	2610	2626	2618	2604	2591	2579	2559	2505	2517	2517	2522	2549	2582	2552	2537	2571	2596	2613	2618	2622	2608	2573	2579	2609	2612	2611	2605	2615	2631	2658	2646	2620	2575	2416	2259	2203	2183	2178	2179	2187	2206	2218	2213	2215	2199	2185	2160	2176	2183	2189	2183	2185	2184	2195	2203	2204	2193	2192	2195	2191	2192	2199	2202	2203	2199	2184	2165	2177	2184	2193	2186	2202	2308	2444	2516	2589	2664	2614	2511	2394	2275	2122	1994	2025	2209	2392	2546	2632	2672	2693	2718	2732	2733	2682	2659	2663	2712	2739	2762	2757	2731	2672	2543	2484	2474	2506	2541	2553	2532	2506	2484	2498	2514	2522	2478	2330	2273	2209	2025	1935	1692	1747	1645	1625	1636	1644	1632	1614	1599	1599	1591	1587	1589	1585	1579	1578	1571	1561	1558	1568	1580	1584	1575	1575	1570	1563	1556	1548	1548	1544	0	0	0	0	0	0	0	0
1692	1684	1675	1689	1689	1706	1710	1703	1707	1707	1717	1725	1715	1704	1699	1699	1699	1702	1704	1720	1696	1696	1685	1680	1682	1695	1720	1722	1722	1711	1690	1686	1693	1699	1718	1737	1737	1737	1730	1717	1708	1710	1721	1724	1732	1742	1742	1747	1757	1749	1711	1713	1716	1737	1775	1822	1805	1805	1777	1746	1723	1709	1696	1702	1717	1729	1732	1717	1699	1699	1717	1741	1753	1763	1763	1767	1773	1777	1769	1753	1731	1704	1690	1692	1696	1703	1712	1715	1738	1774	1709	1610	1578	1503	1439	1399	1404	1409	1420	1420	1444	1438	1440	1433	1421	1418	1416	1412	1408	1402	1399	1405	1409	1409	1407	1402	1399	1392	1379	1382	1401	1423	1419	1407	1401	1402	1411	1399	1392	1394	1389	1392	1389	1393	1396	1398	1400	1395	1392	1425	1423	1429	1434	1445	1441	1433	1430	1457	1453	1461	1450	1456	1479	1492	1495	1490	1494	1506	1515	1486	1517	1545	1569	1588	1638	1750	1754	1762	1784	1832	1847	1842	1818	1793	1792	1808	1822	1831	1843	1843	1846	1832	1815	1802	1810	1827	1838	1834	1834	1841	1847	1851	1857	1859	1892	1909	1894	1888	1887	1865	1854	1859	1848	1841	1831	1838	1851	1863	1867	1837	1818	1840	1879	1865	1861	1873	1894	1929	1932	1935	1946	1952	1942	1931	1931	1954	1965	1984	1983	1985	1984	1952	1945	1924	1905	1888	1908	1928	1954	1808	1766	1524	1420	1416	1449	1460	1456	1433	1440	1484	1485	1479	1472	1479	1480	1474	1471	1468	1466	1465	1468	1477	1485	1486	1475	1459	1453	1476	1493	1502	1511	1496	1483	1467	1477	1481	1496	1487	1477	1474	1485	1480	1475	1460	1477	1462	1458	1462	1464	1482	1491	1497	1501	1494	1481	1509	1492	1487	1479	1480	1494	1503	1506	1498	1502	1497	1499	1501	1482	1485	1484	1478	1477	1486	1488	1486	1488	1492	1498	1527	1546	1530	1590	1745	1851	1939	2004	2048	2075	2098	2114	2113	2111	2092	2064	2083	2102	2113	2099	2077	2063	2067	2091	2121	2136	2123	2122	2137	2156	2168	2174	2174	2155	2156	2153	2144	2128	2110	2112	2140	2157	2182	2196	2181	2170	2158	2177	2176	2183	2186	2203	2184	2137	2090	2083	2058	2017	2003	2000	1991	1957	1980	1977	1980	2002	2003	2016	1995	1981	1991	1990	1987	2004	1980	1866	1780	1728	1669	1631	1630	1642	1620	1586	1573	1578	1600	1618	1536	1456	1498	1512	1507	1510	1513	1541	1539	1526	1543	1555	1552	1542	1526	1523	1534	1543	1539	1530	1550	1562	1565	1564	1565	1573	1572	1562	1549	1550	1558	1568	1566	1557	1548	1551	1559	1573	1584	1584	1580	1569	1529	1524	1536	1552	1571	1626	1769	2070	2147	2227	2307	2352	2381	2397	2406	2420	2425	2397	2385	2370	2380	2372	2364	2374	2391	2405	2434	2459	2452	2434	2420	2424	2444	2455	2527	2530	2526	2512	2481	2457	2451	2465	2461	2460	2461	2481	2453	2455	2521	2559	2536	2523	2511	2489	2473	2497	2502	2529	2514	2509	2513	2514	2556	2554	2532	2487	2344	2221	2189	2181	2172	2167	2171	2180	2199	2217	2222	2209	2198	2184	2170	2189	2198	2200	2195	2195	2203	2208	2203	2198	2195	2195	2181	2188	2197	2178	2163	2162	2158	2161	2170	2177	2178	2182	2204	2288	2367	2434	2459	2491	2505	2499	2416	2313	2233	2025	1999	2079	2304	2488	2576	2602	2632	2649	2656	2643	2616	2601	2595	2605	2622	2615	2613	2609	2571	2525	2521	2528	2555	2574	2573	2534	2499	2481	2483	2503	2523	2517	2517	2511	2489	2421	2312	2150	1699	1644	1618	1627	1634	1628	1614	1597	1597	1575	1570	1578	1578	1576	1563	1551	1544	1547	1551	1568	1565	1573	1572	1570	1560	1550	1550	1541	1538	0	0	0	0	0	0	0	0
1654	1649	1657	1666	1666	1682	1683	1682	1682	1682	1701	1702	1694	1694	1694	1694	1688	1693	1695	1683	1675	1659	1659	1665	1665	1674	1681	1676	1662	1662	1665	1675	1681	1683	1690	1707	1707	1714	1710	1700	1695	1699	1713	1716	1724	1729	1729	1730	1719	1698	1681	1672	1675	1696	1738	1739	1741	1741	1726	1706	1689	1689	1690	1695	1706	1714	1714	1703	1683	1680	1696	1722	1737	1739	1739	1740	1750	1763	1746	1732	1709	1688	1666	1665	1673	1683	1689	1691	1695	1730	1696	1574	1539	1485	1425	1394	1393	1397	1397	1403	1417	1421	1417	1406	1402	1395	1397	1400	1399	1396	1378	1389	1390	1392	1388	1386	1390	1399	1410	1414	1420	1421	1404	1395	1396	1414	1430	1415	1391	1385	1380	1382	1386	1387	1388	1392	1396	1405	1406	1427	1427	1428	1428	1441	1444	1433	1422	1434	1454	1452	1438	1457	1473	1493	1501	1497	1501	1515	1530	1513	1549	1571	1584	1602	1635	1716	1728	1742	1779	1797	1804	1796	1781	1779	1783	1792	1790	1791	1802	1809	1808	1814	1813	1811	1804	1801	1817	1819	1808	1819	1819	1813	1813	1813	1831	1848	1848	1822	1797	1785	1798	1817	1829	1829	1811	1793	1791	1794	1795	1796	1790	1784	1810	1799	1792	1813	1835	1829	1818	1896	1909	1925	1913	1899	1907	1929	1946	1936	1919	1929	1925	1901	1898	1886	1854	1852	1865	1896	1924	1722	1677	1516	1415	1407	1443	1471	1462	1423	1430	1472	1483	1479	1474	1476	1475	1471	1466	1466	1462	1463	1474	1483	1491	1489	1477	1471	1482	1495	1502	1511	1514	1512	1503	1498	1495	1486	1486	1499	1498	1475	1482	1481	1475	1481	1480	1466	1463	1466	1479	1447	1491	1496	1498	1493	1486	1464	1479	1466	1467	1475	1493	1505	1505	1499	1497	1490	1493	1480	1475	1475	1472	1471	1476	1479	1489	1476	1485	1498	1510	1522	1522	1519	1594	1759	1856	1933	1988	2035	2060	2068	2066	2051	2038	2022	2014	2014	2016	2020	2031	2039	2045	2056	2063	2064	2047	2050	2053	2058	2059	2076	2084	2094	2098	2108	2091	2087	2073	2065	2075	2105	2132	2158	2155	2159	2136	2104	2070	2051	2066	2081	2089	2092	2082	2084	2090	2111	2087	2052	2016	1967	1935	1969	1990	2013	2035	2036	2020	1990	1982	1984	1994	1991	1999	1959	1835	1788	1738	1687	1639	1651	1671	1663	1629	1592	1575	1590	1606	1533	1488	1511	1537	1535	1520	1504	1535	1534	1522	1554	1566	1563	1547	1526	1525	1527	1536	1527	1521	1530	1549	1550	1556	1561	1557	1555	1539	1536	1545	1558	1571	1570	1558	1551	1544	1551	1554	1575	1583	1575	1572	1541	1545	1547	1552	1575	1626	1796	2003	2175	2238	2296	2309	2345	2374	2396	2401	2394	2364	2331	2314	2323	2319	2319	2323	2344	2346	2372	2389	2409	2404	2394	2387	2391	2376	2380	2442	2458	2443	2424	2423	2430	2430	2420	2410	2398	2391	2385	2394	2445	2466	2462	2454	2447	2412	2374	2353	2336	2382	2430	2434	2432	2425	2451	2479	2456	2384	2292	2212	2193	2184	2171	2153	2153	2167	2172	2186	2231	2202	2193	2185	2185	2186	2204	2209	2202	2197	2182	2176	2178	2183	2187	2188	2190	2188	2200	2190	2170	2165	2162	2162	2165	2165	2169	2168	2194	2242	2269	2383	2414	2437	2465	2479	2445	2351	2212	2103	1970	2018	2118	2416	2485	2494	2511	2531	2541	2548	2545	2545	2524	2533	2520	2509	2507	2495	2491	2495	2515	2544	2572	2575	2564	2526	2480	2452	2440	2445	2464	2463	2484	2527	2501	2421	2316	2180	1739	1636	1611	1613	1624	1615	1608	1595	1595	1575	1568	1574	1571	1573	1566	1553	1549	1545	1554	1553	1565	1568	1567	1570	1561	1547	1547	1535	1533	0	0	0	0	0	0	0	0
1604	1601	1612	1631	1631	1645	1660	1662	1652	1652	1665	1674	1677	1674	1678	1678	1685	1685	1686	1663	1656	1658	1658	1660	1661	1651	1644	1646	1635	1635	1650	1658	1666	1668	1670	1686	1694	1694	1689	1679	1678	1685	1699	1708	1712	1711	1711	1708	1696	1683	1670	1661	1660	1669	1683	1701	1708	1708	1697	1679	1666	1666	1678	1692	1699	1702	1703	1686	1658	1653	1671	1699	1715	1710	1708	1708	1706	1708	1709	1710	1692	1667	1647	1646	1652	1663	1671	1672	1674	1653	1625	1528	1490	1448	1424	1407	1398	1396	1392	1395	1410	1417	1418	1410	1402	1403	1404	1407	1405	1394	1382	1388	1387	1394	1390	1384	1389	1404	1415	1417	1423	1420	1403	1396	1402	1414	1433	1428	1410	1393	1395	1400	1400	1403	1401	1398	1398	1395	1401	1406	1413	1420	1424	1441	1441	1438	1424	1423	1457	1445	1421	1448	1477	1502	1512	1507	1502	1515	1533	1528	1546	1578	1589	1599	1627	1703	1725	1733	1752	1764	1767	1760	1756	1749	1765	1764	1760	1757	1750	1744	1759	1787	1777	1776	1774	1764	1764	1765	1756	1767	1772	1791	1785	1788	1790	1809	1819	1796	1771	1749	1747	1760	1806	1818	1805	1782	1768	1774	1764	1758	1754	1752	1752	1748	1744	1749	1747	1767	1771	1771	1770	1837	1841	1846	1839	1863	1870	1859	1862	1864	1870	1838	1833	1828	1827	1847	1859	1865	1859	1683	1619	1518	1418	1412	1437	1472	1462	1428	1434	1467	1485	1473	1473	1472	1467	1462	1458	1460	1463	1463	1481	1490	1496	1490	1485	1480	1488	1502	1507	1507	1516	1513	1505	1508	1505	1498	1491	1485	1477	1481	1466	1488	1487	1493	1487	1483	1484	1482	1457	1482	1492	1497	1497	1496	1490	1470	1471	1481	1484	1489	1496	1505	1507	1508	1504	1501	1475	1471	1469	1466	1487	1498	1499	1498	1483	1466	1482	1500	1517	1524	1518	1520	1606	1749	1845	1917	1973	2014	2035	2035	2021	2010	2011	2002	1992	1984	1981	1986	1991	2006	2027	2026	2020	2015	1991	1996	2020	2029	2034	2047	2036	2049	2043	2049	2050	2050	2052	2042	2040	2053	2105	2113	2083	2050	2060	2062	2033	2038	2053	2071	2073	2051	2023	2009	2010	2040	2099	2092	2016	1968	1974	2021	1998	2016	2036	2037	2026	1993	1999	2000	2005	1994	1976	1902	1784	1783	1747	1694	1669	1671	1685	1681	1638	1597	1587	1586	1598	1547	1530	1534	1550	1550	1547	1527	1535	1537	1533	1568	1565	1557	1540	1541	1533	1529	1526	1523	1521	1518	1523	1533	1550	1560	1552	1540	1533	1538	1541	1547	1553	1558	1551	1545	1541	1546	1551	1564	1578	1579	1565	1558	1558	1566	1565	1579	1629	1774	2017	2166	2202	2255	2290	2307	2323	2373	2373	2349	2331	2315	2295	2286	2266	2251	2234	2240	2249	2262	2291	2325	2342	2356	2361	2378	2350	2348	2365	2405	2393	2383	2384	2405	2391	2378	2351	2339	2334	2334	2330	2389	2406	2422	2423	2387	2354	2313	2296	2280	2265	2280	2287	2295	2296	2296	2323	2316	2268	2237	2207	2205	2193	2162	2151	2151	2154	2161	2172	2218	2186	2179	2170	2174	2186	2185	2181	2175	2160	2160	2166	2169	2172	2178	2184	2191	2196	2197	2171	2158	2162	2159	2160	2163	2167	2163	2167	2169	2191	2201	2240	2373	2404	2412	2452	2428	2345	2200	2077	1952	1994	2054	2127	2339	2363	2380	2418	2451	2470	2482	2499	2473	2457	2451	2453	2455	2452	2454	2457	2482	2529	2568	2560	2531	2491	2456	2420	2403	2414	2426	2436	2443	2444	2401	2325	2215	2089	1739	1634	1617	1605	1604	1600	1585	1582	1585	1579	1577	1573	1568	1570	1573	1565	1560	1555	1549	1552	1556	1558	1561	1569	1568	1557	1557	1532	1524	0	0	0	0	0	0	0	0
1587	1574	1572	1575	1575	1605	1630	1630	1627	1629	1629	1642	1642	1645	1649	1649	1657	1668	1644	1631	1626	1626	1626	1620	1619	1616	1617	1618	1627	1627	1632	1633	1631	1636	1647	1660	1664	1664	1651	1649	1660	1671	1682	1684	1681	1667	1667	1670	1665	1666	1651	1647	1651	1661	1659	1677	1674	1667	1667	1656	1654	1649	1661	1673	1683	1683	1676	1657	1637	1630	1641	1670	1675	1651	1640	1640	1660	1672	1684	1689	1678	1656	1640	1634	1627	1641	1656	1656	1642	1625	1586	1521	1478	1437	1416	1400	1399	1396	1398	1404	1411	1411	1411	1406	1403	1403	1410	1408	1411	1405	1415	1407	1412	1411	1401	1397	1399	1413	1426	1430	1431	1422	1410	1406	1413	1419	1431	1427	1419	1408	1421	1415	1417	1410	1408	1404	1395	1390	1391	1395	1416	1433	1446	1450	1445	1431	1419	1423	1456	1423	1419	1441	1470	1506	1521	1513	1508	1515	1522	1514	1541	1569	1585	1595	1614	1637	1704	1717	1721	1732	1736	1735	1730	1731	1740	1744	1746	1730	1707	1717	1725	1737	1740	1745	1745	1738	1718	1715	1717	1717	1722	1712	1708	1714	1730	1756	1756	1735	1721	1714	1715	1721	1739	1787	1782	1757	1745	1744	1746	1739	1734	1726	1709	1690	1695	1687	1688	1679	1725	1737	1740	1742	1734	1722	1794	1796	1807	1825	1826	1840	1827	1739	1713	1730	1762	1793	1799	1787	1827	1678	1627	1521	1434	1423	1438	1457	1468	1440	1445	1464	1484	1487	1482	1474	1459	1441	1435	1443	1463	1468	1483	1495	1499	1494	1492	1490	1489	1468	1460	1494	1499	1491	1484	1488	1503	1496	1488	1477	1471	1453	1458	1492	1486	1480	1471	1447	1475	1498	1504	1493	1494	1497	1492	1495	1495	1479	1469	1475	1484	1491	1496	1489	1505	1512	1513	1501	1482	1471	1481	1490	1495	1492	1491	1483	1481	1463	1479	1498	1516	1527	1524	1519	1600	1694	1810	1907	1953	1985	1997	1991	1982	1980	1981	1973	1974	1962	1955	1957	1959	1960	1974	1979	1970	1964	1959	1967	1976	1988	1998	2009	2009	2014	2014	2018	2021	2013	2010	2009	2000	2016	2022	2029	2022	2006	2011	2018	2021	2014	2043	2060	2060	2029	2007	1991	1986	1977	1982	2034	1975	1971	1977	1980	1998	2015	2025	2032	2034	2009	1999	2010	2013	2004	1984	1879	1750	1736	1720	1685	1673	1679	1686	1672	1636	1604	1584	1588	1606	1567	1573	1557	1526	1556	1567	1545	1551	1551	1548	1558	1535	1540	1545	1546	1539	1535	1528	1523	1529	1527	1529	1536	1554	1560	1557	1546	1543	1545	1536	1533	1542	1551	1549	1546	1542	1540	1562	1569	1563	1558	1555	1563	1567	1566	1580	1590	1624	1747	1956	2085	2182	2242	2258	2252	2251	2252	2267	2283	2295	2298	2285	2271	2262	2246	2239	2233	2226	2221	2238	2280	2299	2310	2313	2304	2266	2280	2287	2312	2305	2304	2316	2332	2327	2307	2295	2305	2307	2292	2282	2300	2325	2336	2327	2304	2299	2292	2280	2269	2264	2264	2269	2246	2231	2246	2261	2257	2245	2228	2213	2218	2211	2199	2172	2167	2167	2163	2155	2188	2154	2153	2163	2168	2170	2167	2166	2171	2174	2167	2162	2158	2159	2168	2174	2179	2188	2167	2148	2149	2148	2152	2146	2156	2162	2172	2165	2145	2170	2167	2195	2287	2319	2301	2249	2203	2163	2131	2061	1939	1955	1988	2040	2109	2246	2306	2359	2385	2397	2390	2381	2408	2407	2410	2420	2432	2436	2420	2411	2439	2502	2547	2537	2488	2463	2426	2395	2379	2386	2399	2411	2410	2376	2333	2254	2157	2021	1758	1632	1627	1624	1616	1609	1600	1600	1585	1590	1587	1573	1567	1572	1578	1579	1569	1558	1537	1547	1538	1539	1545	1551	1563	1555	1555	1528	1528	0	0	0	0	0	0	0	0
1565	1553	1548	1554	1554	1572	1592	1600	1594	1580	1580	1588	1592	1604	1615	1627	1627	1639	1577	1588	1592	1600	1600	1596	1595	1599	1599	1602	1607	1607	1609	1613	1619	1619	1629	1624	1614	1614	1608	1612	1619	1637	1643	1646	1632	1623	1623	1622	1633	1636	1626	1627	1633	1635	1645	1653	1648	1646	1646	1639	1634	1629	1637	1641	1658	1669	1652	1630	1607	1602	1614	1626	1632	1627	1630	1630	1629	1640	1651	1645	1588	1580	1603	1619	1639	1649	1654	1649	1644	1626	1549	1499	1464	1430	1408	1374	1387	1392	1403	1408	1407	1398	1399	1397	1393	1401	1412	1416	1415	1415	1423	1424	1407	1407	1400	1391	1396	1416	1430	1438	1436	1424	1420	1426	1426	1423	1423	1424	1413	1409	1423	1424	1415	1410	1411	1412	1399	1401	1403	1403	1424	1438	1453	1452	1443	1423	1406	1409	1424	1443	1453	1452	1463	1487	1509	1512	1505	1505	1504	1500	1529	1557	1581	1590	1607	1613	1681	1689	1696	1694	1699	1699	1705	1710	1717	1722	1715	1695	1676	1678	1687	1701	1695	1697	1698	1700	1696	1689	1683	1683	1689	1682	1677	1680	1682	1705	1702	1700	1695	1684	1689	1712	1728	1739	1750	1736	1708	1714	1727	1730	1722	1709	1686	1663	1655	1659	1656	1654	1666	1690	1708	1709	1701	1698	1686	1698	1769	1787	1793	1790	1758	1749	1698	1713	1745	1754	1748	1755	1751	1668	1605	1523	1440	1423	1427	1447	1463	1441	1450	1456	1448	1473	1457	1466	1473	1446	1427	1426	1448	1460	1463	1469	1488	1490	1494	1489	1477	1463	1457	1459	1469	1471	1462	1462	1484	1496	1486	1476	1463	1454	1463	1487	1477	1475	1459	1485	1507	1514	1501	1501	1488	1488	1496	1495	1503	1470	1466	1463	1470	1504	1503	1501	1486	1482	1486	1488	1486	1490	1492	1501	1497	1493	1491	1484	1480	1460	1470	1505	1517	1525	1527	1513	1608	1697	1775	1864	1920	1946	1947	1942	1942	1945	1946	1951	1947	1940	1938	1945	1935	1934	1941	1949	1947	1949	1951	1959	1964	1963	1973	1983	1987	1989	1984	1988	1993	1990	1968	1965	1962	1982	1992	1999	1983	1964	1950	1941	1932	1939	1980	2003	2011	2007	1993	1982	1973	1956	1953	1965	1973	1968	1966	1976	1990	2000	2001	2013	2036	2045	2029	2019	2031	2038	2008	1917	1772	1723	1701	1673	1672	1684	1691	1680	1640	1607	1604	1617	1614	1576	1606	1567	1523	1536	1574	1558	1564	1566	1556	1532	1525	1528	1539	1546	1546	1539	1531	1535	1543	1546	1535	1544	1555	1562	1556	1551	1552	1555	1540	1528	1520	1543	1549	1541	1538	1539	1544	1546	1549	1551	1552	1556	1559	1560	1567	1589	1648	1818	1896	2021	2110	2159	2163	2174	2187	2194	2209	2233	2269	2260	2253	2237	2229	2231	2223	2217	2205	2193	2186	2190	2233	2245	2243	2230	2239	2252	2250	2248	2233	2226	2250	2318	2321	2301	2268	2261	2261	2274	2254	2255	2261	2257	2270	2273	2269	2266	2267	2265	2250	2239	2231	2218	2216	2221	2242	2262	2264	2235	2233	2226	2227	2226	2217	2202	2198	2171	2168	2176	2191	2165	2147	2147	2141	2130	2126	2135	2153	2179	2174	2177	2165	2157	2159	2165	2170	2158	2141	2142	2147	2147	2148	2159	2176	2163	2120	2123	2161	2150	2151	2174	2200	2203	2180	2151	2129	2113	2071	1926	1930	1935	1951	1963	2094	2139	2163	2182	2199	2197	2225	2268	2274	2267	2254	2245	2226	2203	2178	2156	2184	2223	2239	2242	2258	2274	2269	2218	2210	2238	2261	2267	2221	2183	2145	2079	1974	1743	1631	1628	1636	1630	1621	1611	1611	1602	1598	1591	1587	1578	1575	1584	1581	1573	1564	1539	1542	1533	1529	1531	1540	1550	1536	1536	1534	1545	0	0	0	0	0	0	0	0
1538	1534	1530	1532	1532	1547	1565	1575	1568	1546	1546	1526	1536	1548	1567	1584	1584	1586	1537	1550	1557	1569	1569	1580	1582	1582	1588	1585	1580	1580	1574	1572	1587	1592	1590	1582	1568	1568	1576	1569	1576	1586	1601	1600	1602	1603	1603	1604	1609	1602	1602	1601	1599	1607	1610	1612	1629	1625	1625	1625	1615	1604	1584	1587	1607	1621	1617	1600	1583	1579	1582	1596	1624	1620	1618	1618	1620	1605	1600	1583	1569	1554	1555	1570	1591	1607	1624	1621	1637	1641	1600	1488	1447	1432	1393	1365	1354	1377	1396	1403	1399	1391	1381	1383	1382	1400	1413	1418	1417	1416	1411	1409	1399	1389	1386	1390	1410	1422	1430	1438	1439	1420	1420	1436	1438	1437	1427	1425	1418	1405	1404	1404	1406	1408	1414	1420	1417	1413	1411	1411	1426	1431	1444	1441	1429	1420	1403	1384	1399	1450	1474	1472	1462	1459	1478	1490	1496	1498	1495	1499	1519	1543	1564	1586	1582	1577	1664	1669	1667	1668	1667	1665	1667	1680	1695	1699	1679	1653	1642	1651	1661	1664	1656	1652	1640	1638	1649	1648	1648	1647	1649	1650	1650	1649	1649	1670	1678	1677	1676	1667	1677	1703	1706	1698	1687	1672	1669	1677	1696	1707	1702	1693	1679	1663	1637	1631	1623	1627	1635	1656	1676	1686	1689	1671	1658	1653	1659	1674	1725	1720	1704	1710	1709	1722	1720	1735	1737	1729	1730	1633	1585	1535	1441	1410	1407	1414	1438	1439	1451	1452	1431	1429	1446	1462	1473	1455	1448	1445	1459	1468	1471	1469	1458	1452	1458	1460	1464	1458	1459	1466	1472	1473	1463	1463	1482	1490	1488	1479	1464	1466	1472	1494	1475	1472	1470	1484	1511	1514	1500	1489	1482	1483	1492	1494	1495	1494	1472	1453	1467	1503	1505	1490	1475	1469	1468	1487	1490	1490	1501	1512	1503	1498	1496	1490	1482	1453	1465	1500	1513	1521	1514	1522	1632	1688	1761	1833	1885	1912	1912	1903	1891	1893	1889	1895	1893	1886	1920	1934	1921	1908	1905	1916	1924	1930	1936	1937	1937	1944	1951	1961	1965	1969	1966	1959	1954	1946	1925	1920	1915	1945	1970	1982	1974	1943	1919	1914	1924	1927	1946	1963	1967	1976	1946	1946	1943	1940	1946	1958	1976	1990	1993	1988	1975	1963	1968	1980	1993	2020	2018	1984	2004	2028	2030	1972	1877	1724	1688	1664	1663	1684	1699	1687	1666	1648	1641	1641	1602	1577	1607	1565	1513	1525	1563	1569	1568	1569	1551	1532	1528	1529	1540	1544	1550	1548	1538	1544	1552	1552	1551	1552	1551	1550	1549	1550	1559	1560	1545	1529	1521	1526	1551	1552	1546	1559	1559	1550	1549	1544	1548	1550	1543	1543	1546	1579	1661	1809	1886	1982	2055	2089	2106	2124	2143	2164	2183	2214	2203	2202	2205	2202	2196	2181	2186	2181	2172	2169	2148	2157	2190	2196	2199	2183	2185	2207	2217	2210	2204	2187	2196	2249	2311	2289	2233	2212	2218	2255	2268	2240	2216	2200	2219	2250	2247	2240	2224	2215	2217	2216	2206	2198	2184	2212	2226	2234	2232	2224	2225	2227	2192	2197	2181	2186	2188	2168	2168	2166	2172	2159	2124	2100	2097	2107	2115	2121	2118	2124	2120	2114	2102	2108	2101	2108	2105	2118	2132	2124	2118	2121	2120	2118	2112	2098	2101	2136	2145	2137	2130	2144	2144	2164	2161	2145	2118	2104	2087	1960	1916	1904	1896	1943	2070	2112	2104	2090	2107	2120	2141	2166	2189	2200	2198	2190	2185	2188	2193	2187	2165	2141	2135	2145	2171	2198	2204	2201	2205	2203	2204	2199	2187	2159	2129	2081	2021	1759	1630	1625	1644	1641	1632	1620	1620	1609	1604	1599	1592	1582	1576	1578	1593	1586	1569	1546	1550	1546	1531	1529	1532	1545	1545	1535	1540	1544	0	0	0	0	0	0	0	0
1525	1521	1516	1511	1524	1524	1535	1545	1537	1506	1506	1500	1505	1509	1517	1524	1524	1527	1498	1511	1522	1539	1539	1552	1548	1549	1550	1544	1540	1540	1533	1535	1549	1553	1545	1535	1530	1530	1531	1528	1528	1533	1550	1579	1601	1598	1584	1584	1584	1585	1588	1586	1571	1563	1557	1561	1574	1600	1600	1597	1573	1568	1568	1572	1580	1583	1576	1569	1562	1560	1562	1565	1580	1587	1585	1597	1597	1601	1595	1582	1556	1547	1550	1561	1575	1575	1574	1567	1589	1593	1583	1480	1450	1434	1396	1368	1351	1358	1377	1381	1393	1399	1386	1380	1383	1407	1417	1418	1412	1405	1397	1392	1386	1382	1385	1403	1413	1421	1425	1428	1429	1418	1415	1425	1432	1434	1434	1433	1424	1410	1395	1395	1405	1405	1404	1415	1421	1420	1403	1407	1420	1418	1420	1437	1429	1416	1397	1372	1380	1471	1484	1480	1466	1467	1473	1488	1486	1484	1485	1498	1504	1525	1539	1553	1540	1579	1660	1659	1651	1645	1632	1630	1635	1650	1668	1663	1642	1633	1629	1637	1640	1640	1633	1623	1617	1608	1607	1618	1632	1630	1624	1625	1625	1629	1630	1646	1650	1658	1661	1659	1674	1677	1662	1656	1655	1652	1655	1666	1673	1670	1671	1666	1658	1640	1618	1611	1615	1622	1628	1629	1641	1661	1670	1660	1602	1599	1617	1640	1671	1673	1685	1690	1701	1698	1693	1704	1719	1714	1710	1617	1578	1541	1451	1399	1383	1406	1428	1439	1459	1461	1443	1428	1437	1451	1459	1454	1454	1462	1474	1475	1473	1464	1462	1459	1454	1460	1465	1465	1470	1471	1481	1470	1463	1464	1475	1484	1482	1465	1467	1478	1483	1493	1498	1491	1488	1487	1491	1488	1481	1471	1478	1479	1503	1487	1490	1459	1472	1487	1481	1500	1497	1494	1484	1476	1488	1490	1490	1487	1494	1504	1504	1503	1499	1498	1485	1445	1461	1483	1494	1505	1511	1541	1625	1691	1757	1821	1827	1833	1831	1819	1804	1806	1812	1809	1820	1834	1862	1860	1837	1820	1832	1839	1873	1893	1904	1910	1905	1910	1924	1933	1931	1923	1920	1903	1901	1899	1894	1899	1904	1909	1934	1955	1953	1935	1907	1898	1908	1920	1932	1924	1930	1920	1915	1907	1894	1897	1916	1930	1964	1978	1980	1970	1946	1925	1908	1912	1925	1946	1949	1950	1976	1987	2013	1991	1899	1739	1701	1670	1673	1698	1707	1707	1699	1680	1663	1634	1587	1565	1585	1549	1511	1518	1554	1560	1549	1552	1565	1553	1545	1539	1536	1540	1541	1543	1542	1542	1550	1552	1552	1552	1550	1542	1535	1539	1550	1563	1557	1540	1529	1528	1536	1550	1563	1572	1565	1562	1548	1550	1555	1553	1550	1528	1539	1571	1657	1797	1871	1972	2040	2075	2093	2114	2134	2160	2169	2131	2134	2167	2165	2146	2155	2150	2144	2134	2135	2129	2109	2111	2148	2178	2175	2155	2149	2141	2131	2135	2122	2116	2134	2155	2166	2175	2167	2172	2190	2222	2251	2231	2206	2184	2181	2189	2217	2212	2198	2180	2191	2195	2189	2185	2168	2177	2191	2203	2142	2138	2133	2133	2130	2122	2114	2135	2162	2167	2165	2151	2138	2128	2100	2075	2070	2084	2094	2104	2101	2092	2072	2060	2056	2065	2063	2067	2074	2056	2052	2029	2004	1999	2014	2023	2024	2026	2043	2071	2079	2071	2074	2111	2111	2110	2106	2115	2100	2094	2056	2040	1954	1895	1897	1940	2036	2102	2101	2094	2104	2122	2139	2171	2195	2200	2198	2187	2184	2192	2192	2187	2159	2144	2141	2149	2166	2180	2191	2192	2196	2191	2187	2184	2181	2173	2149	2087	2045	1764	1633	1623	1653	1651	1633	1620	1620	1609	1599	1592	1589	1583	1581	1579	1586	1581	1572	1559	1554	1557	1540	1533	1532	1540	1540	1542	1527	1533	0	0	0	0	0	0	0	0
1513	1507	1505	1500	1501	1501	1509	1508	1504	1483	1483	1486	1482	1480	1485	1482	1482	1451	1458	1481	1497	1503	1503	1511	1505	1502	1514	1516	1516	1516	1511	1520	1534	1531	1526	1515	1509	1509	1510	1508	1504	1509	1529	1560	1580	1573	1555	1555	1561	1564	1571	1569	1554	1538	1524	1516	1518	1536	1536	1543	1545	1553	1561	1558	1547	1541	1539	1538	1548	1553	1550	1534	1554	1568	1576	1580	1580	1582	1584	1573	1553	1539	1544	1552	1558	1558	1545	1529	1525	1546	1538	1476	1452	1428	1404	1374	1358	1351	1361	1372	1391	1405	1406	1399	1404	1414	1418	1414	1402	1391	1388	1378	1377	1378	1385	1397	1411	1422	1422	1422	1423	1419	1410	1416	1419	1417	1419	1442	1429	1414	1403	1391	1403	1407	1407	1414	1414	1415	1402	1410	1409	1413	1412	1435	1420	1403	1400	1372	1367	1461	1474	1473	1471	1469	1483	1493	1489	1478	1482	1501	1526	1546	1558	1569	1578	1600	1591	1597	1608	1619	1619	1619	1620	1628	1629	1628	1622	1612	1624	1629	1629	1625	1616	1609	1602	1599	1605	1619	1623	1619	1607	1603	1610	1619	1621	1629	1646	1653	1645	1640	1638	1629	1626	1617	1628	1648	1643	1648	1644	1640	1631	1626	1625	1618	1599	1600	1603	1611	1607	1595	1601	1608	1624	1588	1581	1589	1606	1631	1654	1665	1665	1653	1678	1680	1673	1665	1682	1689	1687	1593	1568	1516	1439	1396	1384	1411	1437	1464	1473	1477	1465	1440	1437	1446	1453	1455	1452	1460	1470	1479	1473	1467	1468	1467	1461	1461	1467	1468	1468	1474	1462	1449	1447	1456	1462	1472	1463	1462	1481	1472	1478	1495	1497	1497	1493	1478	1472	1481	1488	1503	1498	1492	1483	1505	1503	1508	1499	1485	1477	1480	1494	1498	1488	1472	1477	1477	1485	1489	1494	1500	1496	1498	1497	1489	1499	1458	1471	1481	1482	1492	1519	1555	1601	1681	1739	1782	1794	1792	1789	1777	1771	1767	1758	1765	1779	1766	1761	1764	1783	1778	1786	1796	1815	1835	1844	1848	1856	1872	1862	1875	1870	1860	1854	1855	1864	1868	1872	1861	1873	1880	1893	1911	1929	1910	1887	1860	1847	1847	1870	1886	1900	1895	1886	1855	1861	1869	1881	1891	1904	1902	1949	1950	1933	1906	1866	1871	1898	1917	1907	1912	1927	1956	1980	1953	1870	1758	1721	1693	1690	1707	1726	1711	1700	1684	1657	1622	1599	1572	1560	1541	1522	1519	1541	1553	1534	1536	1580	1572	1560	1543	1533	1526	1531	1535	1528	1521	1527	1536	1545	1550	1546	1540	1532	1536	1540	1550	1557	1543	1531	1526	1529	1536	1553	1559	1555	1551	1542	1559	1560	1564	1544	1528	1528	1561	1639	1772	1833	1974	2028	2055	2083	2094	2122	2148	2149	2077	2068	2113	2120	2106	2087	2092	2088	2088	2109	2086	2082	2076	2080	2127	2140	2124	2109	2069	2056	2045	2061	2062	2070	2072	2082	2098	2136	2148	2136	2156	2181	2182	2165	2158	2153	2147	2142	2156	2160	2158	2155	2148	2153	2152	2107	2104	2109	2114	2114	2107	2095	2080	2062	2040	2043	2061	2104	2126	2138	2108	2108	2098	2082	2060	2052	2050	2059	2079	2083	2065	2054	2055	2037	2035	2044	2053	2044	2029	2026	2010	1986	1994	2012	2021	2011	2011	2022	2030	2033	2022	2009	1991	1986	1994	1996	1985	1968	1970	1985	1984	1962	1927	1912	1918	1953	2018	2064	2087	2100	2117	2153	2188	2210	2212	2198	2183	2188	2180	2164	2156	2149	2152	2154	2158	2164	2176	2184	2188	2186	2178	2167	2165	2168	2161	2137	2073	2022	1756	1635	1627	1664	1648	1633	1633	1612	1594	1586	1582	1586	1589	1590	1582	1578	1574	1567	1556	1555	1572	1552	1541	1535	1534	1534	1530	1531	1522	0	0	0	0	0	0	0	0
1470	1495	1492	1478	1473	1473	1457	1462	1465	1463	1463	1463	1467	1461	1444	1444	1444	1418	1422	1442	1456	1465	1467	1467	1457	1478	1492	1497	1487	1488	1488	1502	1508	1511	1502	1498	1495	1497	1497	1502	1505	1504	1516	1532	1534	1540	1532	1532	1529	1540	1549	1551	1533	1513	1494	1485	1496	1504	1517	1517	1534	1551	1547	1544	1535	1530	1522	1520	1530	1503	1504	1504	1529	1546	1561	1571	1571	1566	1553	1552	1533	1514	1514	1524	1547	1537	1533	1512	1499	1498	1502	1471	1445	1419	1398	1387	1360	1354	1360	1371	1387	1415	1413	1403	1404	1410	1413	1407	1398	1385	1380	1369	1365	1370	1381	1398	1406	1412	1420	1422	1426	1431	1423	1411	1399	1392	1395	1432	1429	1412	1403	1401	1407	1415	1420	1419	1411	1405	1413	1414	1413	1415	1421	1434	1419	1399	1400	1383	1377	1439	1455	1465	1466	1481	1495	1504	1517	1538	1540	1543	1547	1554	1560	1562	1553	1539	1526	1530	1573	1594	1609	1611	1609	1597	1598	1598	1598	1599	1598	1607	1613	1615	1602	1597	1595	1597	1596	1609	1609	1611	1596	1587	1595	1609	1615	1624	1632	1644	1619	1618	1602	1602	1606	1612	1612	1616	1616	1602	1597	1593	1587	1590	1600	1601	1594	1599	1602	1596	1577	1568	1558	1568	1568	1575	1575	1578	1583	1605	1627	1641	1648	1631	1624	1633	1645	1638	1638	1651	1657	1576	1548	1515	1432	1432	1442	1434	1447	1469	1479	1478	1471	1455	1446	1450	1454	1453	1446	1456	1467	1473	1473	1471	1472	1472	1470	1461	1464	1465	1455	1446	1436	1429	1435	1443	1447	1455	1453	1480	1483	1473	1486	1500	1515	1521	1519	1499	1481	1483	1502	1507	1505	1497	1483	1489	1486	1469	1435	1454	1464	1472	1472	1465	1458	1462	1462	1467	1474	1484	1493	1491	1489	1493	1486	1481	1477	1499	1510	1490	1480	1499	1514	1537	1604	1660	1711	1731	1752	1757	1761	1754	1752	1740	1742	1754	1749	1723	1712	1715	1742	1759	1765	1757	1758	1770	1796	1821	1815	1811	1796	1814	1813	1803	1809	1821	1837	1837	1834	1838	1835	1851	1869	1836	1835	1833	1800	1796	1786	1776	1809	1839	1851	1841	1828	1831	1839	1855	1863	1845	1826	1807	1818	1854	1864	1868	1862	1858	1872	1881	1870	1870	1879	1891	1929	1896	1812	1763	1719	1698	1706	1717	1713	1699	1681	1663	1643	1617	1589	1613	1551	1542	1537	1527	1535	1530	1526	1524	1578	1571	1561	1555	1544	1528	1527	1530	1525	1523	1517	1533	1539	1544	1549	1545	1548	1550	1549	1549	1545	1538	1526	1519	1524	1531	1545	1555	1556	1544	1547	1543	1549	1549	1538	1525	1527	1551	1628	1731	1796	1942	2009	2027	2032	2037	2046	2056	2047	2020	2015	2033	2054	2070	2051	2038	2043	2052	2056	2050	2045	2042	2040	2063	2095	2091	2045	1999	1991	2006	2014	2023	2046	2061	2070	2063	2072	2090	2064	2058	2060	2075	2088	2094	2109	2096	2086	2085	2095	2097	2084	2046	2046	2045	2041	2046	2067	2087	2092	2080	2066	2048	2027	2008	2024	2062	2099	2119	2101	2061	2056	2053	2046	2039	2028	2031	2034	2051	2060	2048	2058	2049	2039	2020	2029	2033	2022	2003	1988	1976	1989	2004	2019	2012	1997	1981	1993	2002	1995	1996	1989	1984	1980	1991	1993	1975	1942	1936	1946	1948	1923	1916	1914	1902	1895	1909	1935	1967	1984	2001	2020	2033	2059	2073	2074	2083	2098	2111	2106	2083	2073	2072	2092	2107	2117	2125	2149	2179	2177	2167	2155	2146	2148	2144	2121	2072	2032	1753	1626	1624	1621	1643	1621	1621	1600	1581	1568	1572	1578	1586	1588	1584	1575	1570	1565	1563	1561	1571	1548	1537	1533	1529	1529	1529	1528	1530	0	0	0	0	0	0	0	0
1451	1448	1447	1444	1430	1430	1424	1419	1431	1438	1438	1449	1455	1451	1431	1417	1417	1404	1408	1425	1440	1440	1441	1441	1438	1447	1447	1454	1449	1446	1446	1455	1460	1450	1444	1457	1477	1492	1492	1501	1506	1501	1497	1486	1477	1481	1480	1480	1479	1488	1487	1488	1498	1478	1463	1464	1474	1478	1494	1494	1516	1525	1523	1515	1518	1515	1513	1507	1497	1477	1467	1468	1481	1504	1522	1526	1526	1532	1526	1523	1508	1490	1485	1504	1528	1523	1516	1496	1488	1469	1450	1445	1422	1412	1406	1393	1369	1358	1365	1381	1405	1427	1409	1400	1398	1408	1410	1404	1398	1389	1380	1374	1370	1371	1379	1392	1402	1415	1412	1415	1425	1424	1415	1403	1390	1385	1395	1421	1422	1416	1406	1412	1420	1422	1424	1418	1410	1415	1417	1416	1415	1414	1431	1436	1423	1407	1407	1397	1393	1412	1431	1441	1475	1460	1448	1459	1499	1514	1523	1523	1521	1529	1531	1531	1519	1511	1515	1523	1539	1562	1586	1588	1572	1563	1575	1591	1589	1585	1573	1587	1605	1605	1600	1583	1589	1591	1591	1591	1591	1589	1583	1577	1577	1583	1598	1610	1605	1605	1585	1582	1582	1583	1600	1596	1601	1592	1583	1579	1575	1565	1561	1560	1578	1584	1573	1570	1580	1579	1574	1569	1559	1568	1565	1567	1565	1560	1560	1570	1584	1599	1611	1611	1594	1586	1590	1600	1622	1629	1628	1570	1537	1517	1441	1451	1456	1445	1436	1467	1475	1471	1465	1462	1453	1449	1451	1445	1439	1450	1468	1476	1480	1477	1478	1479	1470	1462	1464	1468	1462	1440	1419	1432	1433	1430	1439	1446	1464	1478	1481	1478	1480	1491	1505	1507	1496	1486	1453	1438	1460	1490	1498	1494	1476	1481	1472	1437	1450	1464	1463	1457	1464	1469	1467	1451	1457	1461	1477	1482	1493	1493	1493	1500	1485	1475	1469	1469	1484	1486	1482	1500	1512	1531	1582	1629	1675	1699	1692	1694	1701	1705	1710	1717	1713	1719	1711	1686	1674	1687	1704	1744	1777	1769	1758	1761	1765	1769	1760	1758	1773	1776	1768	1770	1783	1800	1815	1742	1738	1757	1780	1794	1793	1799	1778	1753	1767	1771	1767	1756	1758	1755	1793	1797	1775	1805	1826	1837	1841	1821	1796	1786	1781	1788	1798	1817	1829	1824	1814	1824	1833	1830	1820	1821	1857	1792	1773	1717	1687	1685	1696	1700	1685	1668	1637	1623	1599	1581	1573	1600	1534	1531	1537	1531	1535	1531	1526	1527	1568	1570	1560	1554	1550	1547	1545	1555	1549	1536	1524	1525	1531	1530	1548	1563	1569	1565	1558	1554	1546	1530	1517	1517	1524	1537	1560	1575	1589	1581	1550	1543	1538	1533	1537	1520	1525	1543	1629	1707	1799	1897	2007	2018	2022	2018	2011	1999	1982	1973	1973	1989	2005	2016	2019	2007	2012	2024	2019	2005	1998	1983	1978	1976	1999	2006	2009	2009	1976	1985	1992	2008	2025	2056	2053	2043	2039	2039	2035	2046	2043	2045	2059	2077	2063	2047	2025	2024	2019	2030	2022	2028	2018	2010	1980	1985	2031	2056	2066	2064	2052	2029	2017	2010	2016	2040	2044	2055	2041	2016	2020	2002	1996	1993	1991	2004	2017	2027	2037	2028	2033	2032	2025	2005	2011	2020	2000	1980	1971	1972	1987	2004	2012	2009	1998	1981	1965	1949	1928	1912	1916	1921	1922	1918	1900	1891	1883	1874	1871	1897	1873	1849	1847	1857	1863	1865	1887	1922	1942	1956	1970	1975	1992	2005	2019	2035	2045	2051	2043	2022	2009	2019	2050	2062	2068	2065	2055	2066	2083	2135	2126	2116	2072	2072	2107	2074	1992	1845	1651	1629	1616	1610	1614	1614	1593	1574	1566	1561	1566	1580	1584	1577	1571	1572	1570	1566	1565	1566	1556	1540	1545	1534	1534	1535	1539	1539	0	0	0	0	0	0	0	0
1433	1428	1422	1415	1416	1416	1410	1404	1408	1417	1425	1425	1434	1427	1418	1405	1405	1402	1395	1391	1403	1417	1420	1420	1411	1398	1404	1418	1428	1437	1437	1442	1446	1438	1428	1436	1452	1469	1469	1473	1468	1458	1454	1453	1448	1454	1459	1459	1465	1472	1477	1470	1460	1453	1445	1442	1444	1449	1461	1461	1476	1483	1477	1469	1485	1487	1496	1493	1479	1454	1441	1449	1469	1487	1493	1498	1493	1493	1487	1501	1494	1479	1475	1483	1503	1504	1495	1482	1477	1470	1440	1412	1420	1419	1413	1385	1367	1363	1377	1413	1431	1416	1402	1394	1397	1403	1405	1403	1402	1401	1392	1385	1378	1375	1381	1392	1400	1410	1409	1408	1414	1412	1404	1391	1380	1386	1392	1416	1421	1417	1415	1419	1431	1426	1426	1421	1414	1418	1421	1419	1424	1426	1432	1443	1434	1416	1419	1420	1407	1422	1490	1500	1493	1460	1451	1460	1496	1505	1507	1503	1509	1515	1514	1508	1504	1507	1507	1504	1514	1551	1570	1556	1525	1501	1504	1546	1564	1556	1551	1562	1590	1601	1589	1573	1577	1584	1583	1574	1561	1553	1548	1546	1546	1554	1564	1565	1565	1562	1557	1550	1556	1574	1586	1589	1577	1565	1563	1567	1555	1544	1538	1540	1540	1527	1529	1550	1563	1565	1561	1553	1553	1545	1532	1523	1519	1518	1534	1527	1546	1567	1576	1579	1573	1566	1562	1581	1585	1583	1620	1567	1523	1506	1445	1453	1450	1430	1424	1453	1469	1466	1460	1461	1458	1448	1442	1435	1434	1455	1470	1477	1486	1492	1489	1481	1463	1457	1457	1466	1467	1463	1435	1430	1431	1433	1436	1445	1453	1473	1474	1473	1475	1482	1485	1468	1477	1462	1440	1438	1443	1469	1480	1484	1476	1464	1475	1459	1467	1463	1466	1464	1459	1473	1478	1482	1484	1490	1492	1489	1489	1492	1497	1503	1500	1475	1471	1467	1474	1478	1474	1496	1512	1533	1569	1611	1654	1654	1654	1661	1662	1665	1669	1663	1672	1668	1663	1661	1660	1670	1694	1738	1747	1742	1741	1750	1748	1704	1707	1720	1732	1724	1710	1697	1689	1696	1702	1713	1718	1737	1736	1726	1735	1715	1698	1707	1731	1751	1753	1743	1733	1720	1712	1712	1730	1761	1791	1812	1809	1803	1786	1766	1767	1755	1752	1775	1781	1778	1763	1775	1786	1792	1789	1786	1795	1812	1750	1714	1658	1644	1663	1652	1639	1614	1608	1596	1578	1569	1554	1522	1509	1508	1518	1520	1532	1541	1536	1538	1565	1566	1558	1553	1550	1553	1555	1566	1558	1533	1510	1522	1521	1535	1547	1563	1569	1570	1565	1560	1551	1534	1523	1526	1532	1547	1575	1585	1594	1586	1561	1550	1543	1543	1548	1548	1543	1536	1625	1712	1779	1908	1992	1998	1996	1985	1968	1957	1950	1943	1933	1923	1908	1907	1922	1945	1950	1962	1965	1961	1958	1955	1957	1959	1963	1971	1986	1984	1975	1966	1971	1994	2020	2028	2012	2006	2010	2015	2021	2037	2035	2021	2029	2048	2038	1989	1978	1970	1962	1999	1999	1977	1971	1976	1970	1983	1999	2021	2020	2027	2019	2006	1993	1993	1998	2009	2018	2018	2019	2013	2004	1986	1978	1976	1976	1972	1971	1978	1982	1999	2006	2003	1994	1992	1990	2002	1982	1962	1956	1960	1968	1980	2000	2002	1990	1968	1955	1936	1918	1901	1886	1870	1856	1849	1836	1866	1859	1844	1836	1796	1776	1766	1789	1825	1825	1836	1852	1879	1899	1911	1918	1920	1927	1944	1955	1963	1973	1979	1970	1954	1936	1949	1972	1990	2000	2017	2016	2019	2020	2035	2065	2057	2069	2050	2015	1978	1925	1862	1693	1653	1640	1619	1619	1590	1593	1582	1573	1565	1567	1575	1580	1574	1576	1570	1567	1565	1566	1559	1555	1546	1551	1551	1552	1539	1544	1548	0	0	0	0	0	0	0	0
1419	1414	1404	1402	1397	1397	1396	1386	1382	1391	1405	1405	1410	1405	1409	1408	1390	1390	1375	1381	1392	1406	1405	1405	1382	1383	1394	1404	1415	1425	1425	1429	1430	1424	1423	1432	1446	1460	1460	1461	1452	1448	1441	1440	1434	1444	1456	1456	1462	1475	1476	1464	1454	1454	1450	1450	1460	1467	1483	1483	1481	1481	1461	1448	1456	1471	1477	1468	1456	1446	1436	1435	1443	1444	1451	1461	1470	1470	1482	1486	1492	1491	1493	1487	1446	1436	1432	1440	1453	1467	1467	1432	1410	1408	1405	1394	1384	1387	1400	1420	1425	1414	1398	1396	1402	1406	1408	1407	1406	1409	1405	1399	1395	1388	1390	1392	1400	1406	1413	1402	1403	1402	1396	1391	1385	1385	1393	1414	1423	1430	1432	1432	1428	1426	1425	1423	1417	1420	1426	1430	1434	1436	1438	1444	1443	1437	1430	1430	1443	1458	1525	1494	1480	1473	1475	1480	1480	1489	1496	1499	1501	1496	1482	1493	1498	1508	1513	1487	1482	1503	1514	1501	1493	1485	1488	1497	1509	1524	1534	1540	1547	1558	1558	1560	1568	1554	1545	1534	1526	1519	1521	1515	1513	1518	1548	1552	1543	1537	1534	1536	1543	1543	1551	1546	1535	1522	1537	1538	1530	1511	1501	1512	1509	1508	1503	1534	1543	1543	1535	1533	1528	1522	1508	1500	1501	1494	1495	1501	1522	1547	1561	1554	1539	1524	1511	1507	1513	1521	1528	1528	1506	1471	1448	1455	1445	1413	1416	1446	1461	1458	1456	1448	1445	1443	1434	1434	1430	1459	1462	1463	1472	1470	1465	1468	1461	1457	1456	1459	1462	1457	1457	1443	1434	1435	1441	1441	1450	1452	1453	1444	1433	1434	1443	1455	1464	1447	1447	1439	1444	1451	1467	1465	1472	1464	1463	1463	1470	1465	1461	1450	1447	1468	1499	1510	1514	1506	1497	1490	1487	1487	1497	1505	1505	1472	1466	1467	1471	1472	1472	1478	1517	1539	1566	1603	1641	1631	1634	1640	1647	1655	1658	1654	1633	1640	1666	1682	1678	1659	1655	1665	1682	1688	1686	1682	1675	1676	1694	1709	1704	1686	1680	1679	1673	1679	1674	1679	1677	1662	1648	1649	1657	1665	1668	1666	1671	1694	1730	1723	1707	1684	1677	1690	1698	1720	1749	1773	1788	1787	1779	1768	1761	1751	1743	1732	1748	1743	1744	1750	1759	1777	1783	1778	1782	1776	1756	1726	1683	1627	1618	1611	1590	1583	1577	1574	1580	1562	1538	1508	1497	1485	1488	1494	1521	1542	1541	1542	1557	1561	1558	1551	1549	1555	1561	1558	1549	1535	1530	1527	1538	1541	1544	1560	1570	1568	1567	1564	1559	1547	1537	1542	1568	1569	1583	1584	1584	1576	1562	1554	1552	1559	1565	1577	1561	1547	1643	1710	1773	1938	1965	1974	1971	1960	1937	1911	1926	1929	1920	1902	1886	1884	1896	1915	1927	1934	1936	1926	1930	1932	1941	1940	1937	1948	1953	1948	1940	1935	1950	1970	1985	1963	1965	1990	1988	1983	1996	2025	2009	1987	1948	1942	1949	1945	1939	1927	1922	1920	1939	1944	1938	1963	1973	1994	1996	1992	1988	1967	1946	1944	1957	1965	1963	1974	1986	1989	2000	1993	1988	1985	1984	1980	1967	1956	1957	1962	1972	1990	1985	1976	1962	1954	1948	1956	1955	1942	1940	1944	1956	1963	1967	1968	1949	1934	1915	1907	1907	1894	1884	1873	1859	1840	1849	1849	1858	1873	1890	1828	1814	1815	1820	1832	1833	1822	1812	1820	1811	1825	1824	1839	1863	1889	1901	1892	1896	1887	1877	1867	1853	1858	1884	1898	1887	1900	1930	1953	1952	1947	1948	1932	2059	2018	1987	1934	1898	1831	1685	1656	1648	1649	1649	1626	1587	1582	1574	1566	1565	1574	1578	1576	1573	1564	1569	1567	1565	1560	1556	1560	1551	1551	1550	1545	1541	1543	0	0	0	0	0	0	0	0
1405	1396	1386	1386	1361	1361	1358	1351	1361	1370	1386	1386	1392	1393	1394	1397	1362	1362	1357	1366	1380	1385	1381	1381	1374	1370	1375	1382	1390	1394	1394	1404	1418	1424	1424	1428	1441	1445	1445	1436	1426	1432	1435	1426	1424	1430	1445	1460	1460	1465	1462	1453	1449	1458	1469	1469	1462	1469	1478	1478	1490	1480	1448	1422	1426	1433	1442	1433	1422	1429	1423	1411	1393	1390	1402	1420	1441	1441	1459	1466	1463	1467	1470	1444	1424	1432	1439	1448	1463	1473	1470	1447	1404	1392	1407	1415	1423	1415	1407	1409	1419	1403	1399	1401	1405	1410	1413	1419	1404	1413	1414	1414	1414	1408	1405	1402	1402	1407	1409	1410	1400	1399	1397	1399	1394	1392	1393	1426	1441	1450	1445	1457	1448	1433	1424	1417	1413	1414	1421	1434	1438	1440	1440	1440	1438	1437	1438	1436	1434	1438	1449	1452	1454	1458	1464	1460	1451	1445	1455	1469	1474	1460	1456	1458	1479	1489	1498	1474	1475	1484	1488	1483	1475	1474	1483	1495	1500	1507	1510	1506	1488	1511	1496	1511	1515	1520	1516	1513	1498	1489	1476	1465	1457	1473	1517	1529	1535	1534	1531	1500	1498	1507	1500	1494	1505	1515	1514	1510	1502	1486	1474	1480	1487	1486	1493	1505	1502	1493	1489	1509	1503	1495	1489	1492	1495	1486	1483	1481	1487	1498	1496	1489	1475	1469	1489	1497	1501	1502	1499	1496	1485	1472	1462	1455	1441	1413	1422	1451	1463	1458	1456	1449	1445	1443	1441	1441	1466	1451	1454	1455	1456	1453	1456	1463	1466	1463	1456	1458	1454	1456	1461	1463	1462	1462	1464	1479	1484	1486	1478	1467	1455	1429	1425	1431	1430	1441	1446	1459	1454	1449	1459	1471	1483	1484	1459	1457	1473	1475	1497	1509	1497	1490	1493	1514	1520	1510	1499	1492	1488	1485	1487	1497	1499	1468	1463	1467	1473	1477	1479	1475	1487	1527	1563	1595	1599	1573	1567	1579	1590	1601	1605	1603	1591	1572	1591	1595	1594	1577	1565	1583	1606	1623	1633	1633	1643	1644	1654	1658	1650	1611	1625	1645	1657	1660	1662	1666	1663	1648	1640	1637	1641	1667	1666	1647	1646	1648	1674	1684	1673	1657	1654	1664	1670	1693	1723	1749	1762	1759	1730	1725	1739	1741	1723	1706	1705	1721	1729	1731	1744	1757	1762	1749	1726	1707	1724	1696	1669	1646	1631	1582	1552	1567	1581	1594	1596	1569	1534	1544	1504	1471	1470	1471	1498	1538	1533	1531	1539	1547	1550	1546	1548	1554	1545	1536	1529	1543	1558	1558	1555	1560	1559	1566	1569	1567	1565	1567	1564	1557	1561	1567	1581	1594	1593	1585	1571	1554	1541	1545	1553	1563	1580	1592	1599	1565	1656	1707	1757	1921	1941	1946	1954	1943	1922	1889	1905	1920	1917	1895	1871	1863	1872	1895	1907	1913	1914	1918	1925	1922	1914	1883	1885	1889	1907	1903	1904	1911	1930	1924	1921	1919	1934	1942	1936	1940	1974	1939	1944	1939	1927	1911	1901	1894	1893	1896	1892	1895	1919	1926	1894	1918	1950	1959	1969	1968	1943	1907	1907	1892	1908	1915	1911	1931	1955	1961	1939	1944	1930	1899	1904	1914	1916	1923	1928	1941	1972	1980	1973	1965	1957	1947	1931	1906	1910	1914	1928	1932	1942	1955	1956	1944	1936	1932	1913	1899	1898	1898	1897	1883	1865	1856	1852	1856	1861	1880	1891	1868	1835	1794	1777	1772	1800	1798	1792	1783	1779	1749	1746	1771	1800	1833	1854	1842	1831	1814	1799	1792	1783	1780	1808	1834	1840	1844	1858	1873	1870	1856	1826	1805	1882	1896	1850	1848	1845	1702	1653	1658	1660	1645	1645	1631	1604	1590	1582	1576	1573	1571	1572	1567	1570	1568	1560	1564	1565	1561	1555	1551	1544	1544	1545	1545	1543	1537	0	0	0	0	0	0	0	0
1388	1378	1371	1350	1340	1330	1330	1332	1340	1360	1376	1376	1390	1389	1382	1377	1334	1334	1340	1353	1359	1363	1365	1365	1365	1361	1350	1352	1364	1374	1374	1385	1394	1393	1402	1409	1415	1409	1392	1392	1393	1407	1417	1427	1424	1427	1435	1437	1437	1434	1422	1416	1414	1420	1422	1422	1429	1453	1478	1481	1440	1438	1427	1407	1398	1407	1423	1423	1413	1399	1389	1386	1384	1388	1395	1413	1418	1407	1407	1391	1378	1376	1387	1400	1417	1418	1424	1444	1445	1436	1425	1420	1411	1408	1418	1433	1435	1427	1414	1406	1401	1404	1410	1422	1424	1415	1412	1413	1419	1426	1432	1428	1432	1435	1435	1428	1411	1397	1391	1393	1386	1389	1398	1399	1396	1401	1406	1424	1425	1419	1454	1462	1457	1440	1419	1408	1405	1407	1412	1423	1433	1438	1437	1434	1429	1428	1435	1457	1460	1446	1431	1433	1438	1446	1455	1454	1451	1451	1453	1462	1462	1452	1446	1444	1450	1477	1486	1477	1463	1473	1480	1472	1466	1479	1486	1494	1500	1499	1491	1466	1442	1436	1441	1446	1462	1475	1477	1474	1461	1453	1445	1436	1440	1455	1488	1518	1530	1525	1512	1479	1468	1455	1464	1482	1500	1505	1491	1487	1493	1479	1469	1473	1480	1484	1491	1487	1459	1469	1475	1477	1473	1474	1466	1469	1474	1478	1469	1461	1463	1474	1486	1481	1470	1462	1466	1491	1496	1491	1474	1459	1452	1490	1492	1494	1457	1440	1450	1464	1462	1457	1453	1443	1442	1446	1449	1459	1469	1452	1449	1446	1438	1438	1447	1458	1462	1462	1457	1457	1454	1460	1469	1471	1466	1458	1466	1484	1496	1503	1480	1463	1457	1446	1447	1447	1460	1476	1491	1487	1473	1458	1460	1472	1484	1484	1477	1470	1482	1521	1521	1514	1507	1502	1497	1492	1493	1488	1488	1490	1487	1482	1489	1488	1488	1486	1461	1484	1476	1484	1490	1482	1475	1495	1534	1552	1537	1547	1549	1558	1570	1560	1554	1548	1547	1554	1560	1570	1573	1539	1533	1540	1565	1596	1600	1602	1608	1607	1612	1610	1604	1593	1596	1607	1629	1637	1632	1629	1627	1624	1618	1616	1624	1634	1644	1626	1613	1612	1602	1588	1597	1604	1606	1612	1627	1662	1674	1677	1666	1656	1654	1659	1653	1653	1671	1665	1695	1707	1707	1707	1707	1711	1699	1689	1685	1680	1683	1688	1669	1654	1636	1610	1617	1605	1587	1585	1577	1561	1568	1557	1526	1486	1465	1450	1485	1527	1529	1519	1505	1527	1533	1540	1547	1552	1530	1515	1519	1538	1557	1574	1589	1583	1583	1584	1579	1570	1561	1563	1551	1553	1557	1567	1577	1590	1589	1576	1555	1515	1524	1541	1550	1562	1580	1596	1610	1581	1647	1682	1730	1866	1889	1892	1914	1923	1918	1877	1888	1898	1855	1832	1807	1808	1827	1849	1844	1850	1882	1897	1894	1891	1892	1878	1876	1876	1884	1889	1895	1901	1905	1910	1903	1911	1917	1916	1925	1903	1902	1902	1899	1896	1891	1882	1880	1870	1871	1868	1875	1883	1889	1866	1842	1870	1895	1911	1916	1922	1904	1883	1876	1869	1862	1855	1858	1875	1890	1925	1909	1891	1883	1881	1876	1882	1883	1879	1903	1921	1951	1954	1950	1954	1951	1944	1919	1879	1887	1897	1906	1909	1927	1933	1933	1936	1939	1936	1921	1907	1902	1901	1901	1894	1895	1906	1920	1914	1881	1877	1890	1863	1832	1790	1778	1781	1768	1767	1771	1772	1769	1751	1730	1744	1777	1797	1810	1790	1762	1761	1738	1710	1685	1688	1701	1758	1797	1805	1805	1802	1804	1778	1757	1747	1746	1763	1778	1782	1760	1663	1662	1645	1645	1645	1649	1632	1608	1602	1598	1596	1577	1567	1556	1546	1553	1558	1555	1556	1553	1556	1539	1540	1542	1542	1542	1545	1550	1550	0	0	0	0	0	0	0	0
1341	1341	1353	1345	1331	1326	1326	1338	1344	1349	1374	1374	1379	1361	1348	1327	1322	1322	1338	1341	1344	1345	1346	1340	1340	1329	1324	1328	1341	1355	1363	1363	1373	1372	1372	1376	1389	1380	1372	1372	1367	1384	1401	1408	1409	1407	1407	1406	1406	1403	1396	1391	1387	1397	1403	1410	1409	1414	1426	1399	1399	1415	1413	1396	1387	1383	1397	1404	1398	1385	1377	1375	1378	1388	1403	1414	1411	1403	1403	1395	1383	1377	1376	1384	1390	1395	1402	1406	1415	1416	1415	1415	1416	1421	1421	1422	1423	1419	1417	1408	1401	1404	1411	1414	1413	1396	1393	1397	1412	1422	1428	1436	1438	1441	1431	1414	1400	1384	1378	1382	1381	1381	1385	1386	1395	1407	1402	1403	1400	1397	1412	1438	1448	1435	1423	1415	1416	1408	1409	1416	1421	1424	1423	1424	1417	1432	1454	1459	1446	1429	1414	1412	1416	1426	1431	1427	1437	1451	1459	1459	1461	1451	1438	1439	1443	1452	1456	1450	1450	1464	1471	1470	1468	1471	1473	1472	1464	1452	1444	1431	1428	1434	1441	1445	1454	1463	1470	1458	1454	1442	1428	1423	1428	1447	1477	1496	1489	1470	1457	1459	1476	1463	1458	1471	1479	1468	1465	1470	1489	1494	1457	1448	1455	1466	1459	1452	1462	1462	1460	1463	1462	1464	1462	1472	1476	1475	1462	1452	1450	1456	1470	1476	1466	1455	1453	1458	1454	1454	1461	1457	1462	1482	1488	1479	1465	1459	1456	1458	1457	1452	1448	1439	1441	1444	1449	1458	1467	1472	1469	1450	1450	1452	1460	1466	1470	1466	1464	1457	1452	1452	1464	1467	1464	1461	1469	1491	1507	1506	1478	1465	1457	1453	1453	1453	1463	1474	1488	1488	1480	1468	1466	1472	1479	1477	1471	1472	1483	1514	1517	1508	1500	1494	1491	1484	1482	1481	1480	1479	1473	1474	1471	1469	1462	1467	1478	1469	1471	1487	1499	1488	1481	1473	1468	1468	1486	1495	1529	1539	1540	1531	1524	1518	1520	1530	1546	1536	1524	1520	1528	1546	1560	1567	1566	1577	1582	1584	1584	1583	1581	1566	1572	1578	1590	1591	1587	1578	1554	1584	1580	1572	1579	1597	1598	1596	1578	1568	1560	1560	1572	1583	1590	1586	1584	1585	1587	1598	1617	1630	1629	1626	1609	1603	1620	1618	1628	1625	1630	1630	1651	1662	1663	1663	1657	1657	1666	1676	1673	1660	1649	1661	1662	1619	1581	1578	1599	1605	1593	1554	1542	1509	1477	1453	1485	1533	1523	1515	1490	1507	1515	1539	1548	1547	1536	1514	1506	1520	1527	1532	1553	1596	1601	1594	1575	1561	1553	1550	1544	1545	1549	1556	1568	1574	1574	1558	1528	1510	1523	1537	1550	1563	1574	1590	1563	1580	1616	1651	1702	1808	1818	1826	1849	1866	1860	1841	1835	1819	1804	1797	1795	1811	1821	1832	1833	1837	1847	1863	1859	1873	1868	1856	1855	1853	1863	1874	1884	1894	1893	1889	1889	1887	1851	1871	1872	1861	1862	1859	1850	1846	1852	1860	1861	1856	1848	1836	1830	1822	1815	1799	1792	1859	1875	1869	1853	1858	1852	1853	1854	1855	1850	1837	1832	1843	1847	1854	1863	1863	1863	1866	1870	1874	1867	1858	1864	1884	1897	1881	1865	1901	1928	1920	1893	1857	1865	1884	1894	1890	1893	1887	1870	1846	1850	1865	1894	1899	1900	1896	1892	1886	1887	1907	1921	1910	1875	1865	1864	1845	1830	1816	1802	1785	1776	1771	1776	1782	1805	1803	1784	1769	1760	1765	1771	1760	1746	1738	1701	1655	1633	1632	1652	1717	1743	1765	1759	1745	1726	1714	1719	1728	1729	1740	1737	1732	1691	1645	1639	1639	1603	1603	1610	1616	1615	1610	1605	1600	1574	1562	1549	1540	1546	1549	1553	1552	1539	1514	1536	1541	1541	1544	1546	1545	1550	1548	0	0	0	0	0	0	0	0
1336	1336	1345	1330	1321	1328	1328	1329	1320	1318	1322	1322	1334	1340	1338	1324	1326	1326	1328	1337	1337	1336	1338	1333	1333	1323	1317	1315	1321	1334	1339	1339	1345	1340	1337	1340	1341	1337	1338	1338	1348	1362	1378	1387	1361	1349	1354	1363	1363	1373	1365	1362	1363	1364	1371	1386	1385	1359	1368	1377	1377	1388	1394	1374	1370	1367	1380	1388	1389	1380	1366	1363	1370	1384	1398	1395	1398	1393	1393	1391	1383	1374	1371	1373	1374	1375	1382	1379	1380	1383	1380	1373	1369	1379	1392	1388	1373	1362	1359	1370	1385	1388	1392	1395	1388	1375	1379	1392	1400	1402	1396	1404	1410	1409	1404	1403	1393	1390	1388	1386	1386	1388	1389	1394	1404	1402	1393	1388	1390	1392	1393	1395	1401	1409	1404	1402	1398	1405	1427	1435	1418	1400	1389	1383	1394	1406	1419	1420	1419	1416	1416	1413	1396	1385	1388	1395	1414	1430	1447	1454	1449	1446	1434	1432	1437	1434	1429	1427	1435	1446	1450	1457	1457	1454	1459	1440	1433	1428	1415	1401	1410	1420	1425	1426	1437	1455	1465	1455	1426	1398	1400	1394	1402	1412	1428	1447	1454	1443	1434	1438	1470	1473	1450	1440	1440	1430	1434	1439	1452	1460	1454	1443	1436	1433	1436	1435	1437	1437	1431	1420	1429	1437	1459	1470	1474	1467	1454	1441	1440	1438	1429	1424	1426	1422	1424	1415	1428	1443	1455	1453	1448	1459	1465	1466	1461	1461	1446	1435	1443	1440	1438	1431	1432	1438	1447	1456	1462	1457	1464	1462	1462	1464	1473	1474	1478	1478	1475	1460	1450	1441	1445	1461	1461	1454	1430	1443	1450	1462	1465	1456	1449	1446	1449	1456	1456	1451	1452	1461	1463	1465	1465	1467	1469	1460	1456	1467	1482	1499	1492	1484	1475	1468	1469	1464	1467	1465	1472	1480	1490	1495	1489	1473	1447	1440	1450	1462	1474	1486	1501	1487	1473	1479	1489	1496	1499	1499	1482	1478	1488	1491	1501	1510	1510	1516	1523	1515	1510	1513	1521	1531	1527	1526	1520	1552	1556	1551	1528	1527	1535	1536	1548	1559	1560	1566	1529	1530	1532	1535	1557	1555	1550	1551	1556	1561	1561	1558	1559	1550	1549	1561	1562	1557	1557	1564	1570	1575	1584	1583	1577	1559	1554	1559	1560	1570	1575	1578	1576	1569	1587	1613	1624	1635	1628	1625	1614	1601	1594	1587	1580	1593	1625	1628	1658	1631	1633	1645	1584	1566	1539	1534	1495	1467	1486	1532	1520	1514	1489	1496	1504	1529	1534	1544	1539	1526	1508	1513	1515	1521	1526	1547	1563	1569	1572	1571	1561	1550	1542	1540	1539	1540	1548	1556	1556	1551	1532	1523	1526	1540	1553	1573	1575	1558	1547	1556	1579	1608	1670	1726	1741	1759	1787	1811	1818	1810	1810	1811	1797	1792	1796	1814	1828	1827	1823	1827	1831	1831	1827	1839	1840	1830	1812	1814	1824	1842	1856	1863	1864	1805	1804	1802	1805	1795	1782	1774	1798	1811	1804	1802	1804	1815	1829	1834	1829	1798	1786	1771	1766	1768	1777	1811	1823	1810	1800	1817	1825	1837	1847	1848	1838	1811	1798	1804	1815	1817	1816	1819	1838	1853	1859	1859	1856	1843	1832	1834	1835	1833	1831	1830	1842	1836	1834	1798	1824	1865	1883	1865	1859	1839	1830	1823	1826	1837	1847	1843	1851	1835	1807	1792	1788	1792	1795	1802	1824	1845	1840	1829	1821	1815	1809	1799	1790	1782	1770	1783	1814	1815	1788	1770	1763	1761	1768	1769	1747	1736	1696	1650	1617	1592	1588	1617	1707	1741	1728	1707	1629	1648	1694	1714	1715	1702	1680	1661	1646	1644	1630	1601	1597	1597	1597	1607	1609	1607	1604	1593	1576	1554	1539	1541	1544	1548	1547	1541	1526	1516	1538	1541	1541	1542	1540	1550	1549	1542	0	0	0	0	0	0	0	0
1321	1321	1294	1298	1306	1310	1310	1306	1301	1288	1285	1295	1295	1305	1326	1321	1307	1307	1313	1314	1321	1319	1318	1321	1321	1318	1309	1310	1313	1315	1316	1316	1318	1325	1328	1326	1327	1329	1331	1331	1337	1349	1360	1337	1322	1315	1321	1331	1346	1346	1342	1339	1337	1338	1342	1341	1323	1331	1340	1339	1339	1329	1325	1331	1335	1348	1364	1368	1370	1362	1353	1355	1367	1381	1391	1384	1375	1376	1378	1378	1375	1369	1359	1352	1353	1363	1373	1367	1361	1353	1349	1351	1351	1354	1361	1364	1353	1347	1338	1335	1345	1342	1352	1365	1361	1356	1357	1364	1374	1374	1370	1364	1368	1371	1373	1382	1381	1379	1380	1377	1378	1382	1384	1393	1391	1394	1387	1379	1380	1384	1388	1392	1392	1388	1382	1386	1385	1386	1393	1402	1396	1386	1375	1374	1385	1400	1407	1405	1402	1405	1414	1417	1404	1389	1382	1385	1407	1422	1423	1423	1415	1416	1422	1424	1419	1418	1411	1410	1407	1407	1405	1401	1399	1413	1413	1408	1415	1416	1407	1394	1389	1396	1404	1408	1418	1432	1432	1425	1409	1403	1402	1395	1386	1385	1390	1405	1424	1420	1416	1421	1445	1435	1420	1404	1381	1369	1367	1392	1407	1420	1425	1415	1405	1398	1398	1401	1397	1411	1410	1400	1399	1407	1435	1448	1458	1457	1442	1430	1427	1409	1417	1420	1426	1432	1430	1418	1429	1443	1445	1438	1440	1445	1451	1464	1469	1461	1446	1433	1425	1418	1422	1420	1416	1423	1427	1432	1434	1438	1441	1457	1463	1462	1464	1470	1478	1481	1470	1451	1439	1428	1422	1424	1424	1426	1422	1426	1434	1448	1453	1445	1437	1438	1438	1440	1433	1428	1434	1446	1449	1450	1455	1455	1453	1442	1436	1437	1454	1470	1466	1474	1471	1465	1461	1463	1465	1465	1465	1475	1491	1498	1490	1469	1440	1440	1450	1462	1466	1475	1479	1479	1474	1464	1468	1474	1481	1493	1497	1485	1484	1506	1512	1512	1497	1502	1507	1513	1510	1505	1507	1507	1508	1500	1494	1490	1481	1485	1488	1497	1503	1518	1523	1521	1506	1498	1493	1502	1511	1519	1527	1532	1532	1532	1533	1543	1551	1554	1548	1531	1535	1538	1531	1527	1527	1537	1555	1571	1567	1559	1551	1544	1539	1534	1522	1532	1565	1577	1563	1545	1545	1559	1574	1590	1601	1597	1594	1592	1590	1584	1571	1563	1566	1580	1605	1620	1611	1586	1575	1567	1564	1528	1486	1485	1491	1524	1526	1533	1512	1500	1506	1516	1526	1535	1538	1537	1518	1515	1519	1523	1528	1542	1567	1571	1575	1584	1577	1557	1546	1540	1525	1536	1542	1553	1556	1555	1545	1542	1543	1551	1576	1595	1579	1565	1556	1555	1578	1593	1665	1675	1698	1726	1750	1771	1776	1751	1747	1755	1781	1783	1784	1794	1810	1810	1810	1812	1805	1770	1734	1728	1776	1797	1797	1790	1796	1809	1820	1765	1762	1768	1769	1769	1769	1760	1745	1742	1749	1754	1750	1748	1751	1762	1773	1790	1785	1769	1753	1744	1736	1732	1752	1774	1782	1784	1781	1784	1783	1786	1821	1831	1818	1791	1782	1769	1770	1784	1811	1815	1816	1826	1840	1840	1836	1825	1816	1793	1789	1800	1805	1803	1800	1799	1797	1771	1775	1805	1836	1835	1823	1822	1816	1811	1813	1813	1816	1827	1824	1809	1795	1778	1757	1747	1754	1758	1763	1775	1777	1782	1802	1806	1802	1795	1783	1771	1762	1760	1764	1770	1774	1768	1764	1757	1762	1758	1732	1731	1754	1661	1623	1580	1556	1565	1621	1700	1678	1630	1646	1657	1661	1685	1686	1677	1660	1650	1635	1636	1615	1606	1606	1599	1592	1586	1582	1579	1579	1582	1591	1581	1567	1560	1552	1551	1543	1524	1533	1522	1531	1538	1538	1543	1545	1543	1541	1532	0	0	0	0	0	0	0	0
1270	1270	1282	1284	1293	1291	1291	1280	1282	1288	1294	1297	1297	1296	1300	1306	1296	1293	1293	1295	1283	1277	1280	1300	1300	1308	1306	1306	1307	1301	1298	1298	1302	1310	1318	1314	1316	1324	1335	1335	1341	1345	1334	1321	1314	1310	1310	1314	1324	1324	1326	1322	1317	1318	1317	1306	1312	1317	1314	1315	1304	1304	1304	1307	1320	1335	1345	1350	1338	1333	1331	1335	1359	1361	1359	1366	1361	1351	1344	1344	1340	1339	1336	1332	1334	1347	1359	1359	1349	1343	1341	1343	1338	1341	1351	1349	1342	1334	1322	1322	1317	1319	1330	1344	1350	1349	1348	1354	1359	1354	1351	1350	1347	1350	1355	1363	1364	1355	1352	1353	1357	1363	1371	1373	1375	1374	1383	1368	1365	1380	1392	1394	1388	1376	1368	1369	1362	1359	1369	1375	1380	1374	1370	1367	1376	1386	1392	1386	1382	1388	1401	1414	1404	1388	1377	1376	1394	1407	1407	1407	1404	1405	1409	1407	1402	1403	1397	1395	1398	1399	1393	1386	1377	1371	1369	1379	1396	1398	1391	1388	1383	1385	1390	1390	1395	1407	1416	1413	1409	1404	1398	1389	1380	1370	1368	1374	1385	1402	1424	1431	1424	1411	1404	1396	1388	1380	1378	1393	1409	1410	1405	1405	1397	1395	1399	1399	1399	1406	1403	1391	1381	1389	1397	1418	1432	1422	1404	1395	1390	1393	1413	1418	1420	1425	1423	1410	1424	1433	1437	1430	1436	1441	1442	1443	1445	1440	1434	1422	1412	1408	1401	1403	1403	1407	1414	1418	1426	1428	1425	1428	1447	1444	1448	1457	1465	1465	1449	1436	1428	1421	1415	1411	1405	1403	1406	1410	1420	1426	1416	1418	1428	1433	1435	1433	1419	1416	1432	1436	1439	1442	1451	1443	1435	1423	1415	1415	1437	1454	1454	1463	1459	1451	1445	1448	1456	1460	1458	1450	1448	1449	1442	1437	1428	1430	1446	1458	1460	1463	1470	1470	1468	1464	1462	1463	1467	1482	1500	1511	1509	1512	1509	1497	1490	1486	1485	1475	1464	1463	1472	1477	1492	1495	1488	1478	1465	1461	1468	1473	1479	1481	1483	1485	1473	1458	1459	1461	1472	1483	1494	1499	1497	1483	1487	1499	1513	1522	1510	1496	1489	1492	1505	1507	1511	1516	1506	1511	1514	1516	1511	1506	1512	1524	1531	1542	1558	1561	1555	1540	1542	1553	1567	1576	1578	1574	1578	1589	1591	1584	1568	1546	1534	1538	1537	1557	1585	1598	1601	1583	1564	1540	1503	1492	1516	1520	1529	1533	1538	1531	1524	1517	1516	1529	1538	1536	1531	1532	1533	1533	1554	1568	1571	1568	1575	1582	1575	1559	1539	1534	1537	1551	1557	1566	1568	1562	1558	1557	1566	1577	1598	1616	1597	1587	1582	1579	1598	1621	1653	1675	1690	1712	1733	1740	1729	1720	1717	1718	1715	1708	1699	1712	1733	1761	1759	1757	1748	1733	1724	1720	1749	1760	1756	1752	1715	1743	1740	1730	1727	1732	1742	1737	1735	1731	1725	1716	1720	1720	1725	1727	1730	1741	1742	1743	1754	1733	1724	1712	1700	1686	1730	1750	1758	1755	1757	1756	1750	1751	1757	1787	1788	1776	1760	1747	1742	1750	1785	1793	1786	1777	1797	1809	1804	1782	1771	1765	1751	1762	1771	1753	1753	1776	1768	1744	1753	1760	1762	1767	1785	1791	1783	1790	1784	1780	1783	1792	1792	1758	1744	1749	1765	1767	1771	1774	1766	1751	1740	1766	1787	1796	1786	1774	1764	1764	1759	1759	1766	1769	1768	1762	1751	1736	1727	1719	1721	1726	1755	1694	1636	1572	1558	1569	1590	1676	1646	1627	1648	1646	1651	1650	1647	1638	1631	1637	1644	1637	1633	1615	1615	1604	1593	1586	1580	1576	1575	1581	1594	1586	1582	1572	1558	1552	1545	1530	1544	1535	1518	1525	1525	1533	1540	1548	1542	1536	0	0	0	0	0	0	0	0
1255	1255	1282	1289	1285	1277	1277	1278	1284	1290	1296	1297	1297	1292	1293	1290	1276	1266	1266	1253	1243	1249	1264	1283	1283	1286	1291	1298	1297	1291	1286	1286	1292	1302	1306	1305	1312	1324	1338	1347	1347	1339	1323	1318	1311	1308	1310	1309	1311	1311	1313	1314	1312	1304	1295	1291	1294	1296	1294	1294	1293	1293	1294	1304	1315	1319	1325	1323	1306	1297	1299	1304	1309	1333	1339	1337	1327	1318	1311	1311	1313	1319	1316	1321	1323	1332	1349	1350	1344	1337	1336	1339	1337	1337	1337	1338	1327	1318	1320	1317	1307	1298	1311	1327	1337	1339	1341	1341	1341	1339	1335	1335	1334	1337	1340	1340	1338	1330	1330	1339	1343	1351	1354	1354	1353	1347	1345	1348	1350	1364	1371	1378	1373	1364	1355	1349	1337	1334	1341	1351	1357	1365	1358	1353	1355	1364	1369	1370	1370	1370	1377	1385	1383	1375	1366	1357	1363	1372	1386	1388	1381	1379	1373	1362	1360	1364	1380	1384	1393	1373	1365	1368	1366	1362	1359	1361	1362	1367	1374	1376	1374	1372	1377	1376	1374	1393	1394	1395	1396	1394	1384	1364	1362	1360	1365	1369	1375	1384	1411	1409	1398	1388	1387	1384	1385	1376	1372	1385	1406	1409	1406	1397	1394	1393	1394	1395	1399	1407	1393	1380	1372	1371	1377	1385	1396	1392	1386	1384	1376	1374	1383	1388	1403	1412	1413	1399	1395	1424	1431	1433	1435	1438	1432	1425	1420	1416	1404	1386	1374	1384	1393	1397	1396	1397	1403	1409	1416	1424	1420	1415	1417	1425	1431	1438	1443	1443	1432	1424	1418	1413	1409	1401	1394	1388	1391	1403	1409	1403	1401	1413	1420	1426	1430	1424	1409	1398	1398	1412	1425	1434	1435	1428	1418	1407	1406	1412	1422	1431	1439	1438	1434	1431	1432	1440	1450	1452	1438	1426	1415	1418	1422	1419	1416	1427	1435	1448	1453	1456	1458	1459	1459	1452	1447	1440	1444	1449	1464	1480	1495	1489	1481	1464	1453	1458	1453	1451	1441	1439	1440	1447	1456	1474	1479	1473	1464	1461	1458	1457	1461	1466	1471	1471	1462	1447	1446	1451	1454	1469	1478	1480	1479	1459	1447	1442	1448	1456	1454	1458	1462	1463	1466	1479	1479	1466	1460	1460	1473	1483	1482	1472	1468	1528	1551	1554	1549	1540	1535	1538	1541	1548	1541	1539	1533	1533	1540	1540	1535	1534	1534	1543	1537	1530	1519	1519	1544	1567	1571	1558	1543	1519	1512	1514	1521	1513	1520	1530	1537	1547	1551	1535	1520	1528	1538	1542	1542	1546	1569	1565	1558	1552	1549	1538	1529	1531	1564	1561	1546	1545	1560	1562	1569	1573	1573	1573	1571	1574	1581	1592	1613	1629	1629	1623	1611	1594	1604	1621	1643	1656	1682	1701	1716	1716	1711	1707	1708	1709	1708	1707	1709	1709	1720	1720	1709	1712	1713	1717	1716	1716	1724	1731	1695	1679	1687	1697	1704	1706	1695	1688	1694	1700	1698	1691	1700	1698	1688	1697	1702	1708	1712	1720	1719	1714	1713	1702	1695	1683	1672	1672	1694	1710	1731	1731	1732	1734	1724	1715	1729	1755	1770	1759	1737	1710	1697	1719	1740	1747	1739	1728	1735	1755	1756	1755	1751	1738	1729	1719	1695	1689	1704	1722	1737	1725	1722	1707	1702	1719	1724	1753	1755	1741	1748	1745	1737	1715	1723	1725	1710	1717	1745	1759	1766	1737	1746	1740	1730	1732	1753	1770	1776	1765	1755	1748	1736	1730	1734	1751	1758	1751	1740	1725	1714	1710	1709	1697	1653	1726	1681	1610	1574	1586	1655	1617	1611	1628	1642	1644	1643	1633	1624	1622	1611	1609	1624	1650	1645	1645	1619	1610	1609	1612	1603	1598	1595	1594	1592	1594	1591	1573	1555	1548	1542	1533	1545	1545	1523	1523	1516	1521	1533	1544	1546	1541	0	0	0	0	0	0	0	0
