577	574	577	572	567	571	574	574	574	577	574	564	564	565	567	573	570	570	569	570	573	572	570	570	570	572	570	565	572	572	576	577	575	573	576	576	581	582	581	581	579	580	580	580	582	581	584	585	586	586	586	580	577	577	574	572	576	573	573	561	565	581	575	573	572	574	579	585	587	587	583	582	580	580	579	581	584	584	580	574	568	574	574	575	580	584	591	592	591	590	588	584	577	576	585	580	578	578	577	579	584	588	588	588	586	584	583	580	571	571	572	575	579	581	576	576	575	574	571	576	575	575	582	580	581	585	586	578	577	576	579	583	583	585	588	580	581	583	573	571	575	577	577	579	582	584	587	585	581	579	575	572	570	570	574	580	586	591	594	593	591	589	586	590	589	586	583	583	584	586	591	584	574	573	581	581	584	588	592	589	588	585	584	586	591	591	589	589	587	596	604	606	602	599	597	601	591	589	593	598	601	599	593	594	588	584	581	585	595	598	601	597	593	590	586	587	587	589	592	594	589	579	580	593	598	594	595	598	598	594	591	593	584	582	589	586	581	581	585	596	602	605	599	595	599	610	599	601	602	601	592	592	591	594	595	601	598	590	592	597	599	611	614	607	603	599	597	595	595	595	598	604	603	602	603	604	604	599	598	601	599	597	592	590	588	586	594	598	599	601	602	596	596	592	600	608	621	619	614	609	605	600	598	599	605	605	606	608	609	615	620	620	618	611	610	609	608	610	612	610	605	602	602	602	607	601	600	601	597	602	603	604	604	604	602	599	596	599	596	598	599	600	606	607	608	607	610	605	599	600	615	624	624	623	619	621	615	617	621	621	620	617	617	621	622	623	627	628	628	626	631	628	626	619	618	619	618	612	611	611	610	613	612	611	613	616	617	619	626	618	619	617	612	610	612	614	615	616	618	618	620	623	623	622	617	616	612	613	614	614	612	613	620	624	627	627	621	617	616	617	627	630	624	622	627	628	628	626	624	626	628	626	619	619	620	622	622	627	627	625	622	623	628	635	633	631	631	627	629	622	629	631	636	635	633	632	633	634	635	627	627	631	631	630	631	636	641	643	645	639	636	626	621	632	643	642	641	641	639	635	631	625	623	619	615	614	629	627	631	646	651	646	640	636	635	637	635	632	636	640	632	635	642	645	649	654	654	649	641	641	640	627	629	642	645	642	637	633	642	646	641	642	646	648	652	652	648	645	644	643	630	624	622	624	626	644	654	656	664	664	658	647	647	640	636	636	651	658	660	659	659	661	663	659	653	648	649	652	652	658	662	662	656	656	658	655	656	663	652	651	652	654	659	658	656	656	652	650	650	652	652	655	655	654	650	652	654	658	661	663	660	656	657	654	662	671	669	671	671	669	666	659	654	654	648	647	652	655	658	653	651	651	654	655	673	671	667	667	664	665	667	666	663	662	660	664	674	681	681	683	683	684	683	676	670	0	0	0	0	0
573	576	572	572	563	564	572	572	572	571	565	567	565	565	567	564	570	565	565	569	567	564	561	561	571	569	564	565	569	569	567	571	571	573	575	575	579	578	577	576	575	575	575	573	574	581	582	577	578	578	578	577	578	577	573	572	567	565	561	561	566	572	573	571	568	570	576	582	585	585	584	585	581	576	578	579	581	578	575	573	572	562	562	566	577	583	580	578	575	579	580	574	574	575	579	582	578	573	568	574	579	580	582	582	583	584	584	576	572	571	571	574	577	575	571	572	571	570	565	569	569	569	572	575	580	580	579	578	575	576	576	578	582	581	577	575	574	570	566	563	563	567	569	570	568	569	572	576	570	571	570	570	569	573	580	581	575	582	586	589	590	592	590	582	574	574	572	576	583	589	587	580	573	572	567	573	580	585	587	590	585	585	581	585	587	585	586	584	585	594	603	602	600	590	585	578	578	579	585	592	596	600	599	595	584	581	578	584	589	593	595	596	593	586	585	583	583	589	590	592	580	578	578	589	593	593	596	597	597	592	591	583	581	579	581	582	582	584	588	591	597	592	592	593	591	586	588	593	598	598	588	586	586	591	594	594	599	594	594	598	598	596	590	587	586	584	588	589	590	592	594	599	598	591	593	601	595	592	595	597	600	593	599	588	587	585	587	593	595	598	600	599	598	593	593	607	606	604	606	608	609	608	607	605	599	599	601	609	615	618	619	614	613	612	609	608	607	608	607	602	593	596	592	603	608	608	606	603	601	599	600	600	604	605	605	603	617	600	598	595	596	597	597	602	604	603	599	592	593	598	600	618	614	614	616	607	610	608	611	615	616	620	624	622	622	621	623	616	612	604	610	605	603	608	615	615	611	613	612	609	610	608	606	604	608	614	617	620	616	616	613	612	610	607	606	606	614	610	618	618	619	622	623	622	614	614	615	616	615	614	616	619	614	624	626	625	620	616	616	618	624	627	623	620	622	625	626	622	619	619	623	620	616	621	624	626	622	621	625	624	620	621	625	624	629	631	627	621	619	621	630	629	637	634	630	631	633	637	635	625	625	627	628	627	629	632	635	643	642	637	635	626	621	630	639	645	645	636	636	629	627	624	623	625	623	614	619	629	642	645	651	644	634	632	633	632	634	635	635	630	629	635	640	640	641	649	649	647	643	635	631	630	636	632	638	636	631	626	630	640	640	644	641	646	650	649	644	643	642	637	624	620	620	626	634	633	640	654	653	649	650	649	641	635	634	634	636	639	647	651	656	656	657	654	650	647	649	649	653	647	648	649	655	652	654	649	654	648	646	648	649	652	648	647	645	645	643	650	645	645	648	655	653	652	649	643	640	639	637	637	641	646	651	653	658	663	665	664	665	665	665	660	645	645	641	643	647	652	655	650	649	646	644	650	650	661	662	662	661	659	660	662	660	656	653	652	664	664	675	682	683	685	680	672	665	0	0	0	0	0
566	571	570	570	554	553	559	568	568	566	561	565	564	564	563	564	568	574	574	565	565	562	558	566	566	571	559	559	565	567	567	565	564	562	564	565	565	563	563	570	574	572	572	572	575	578	576	572	570	573	573	573	572	570	569	564	561	561	566	566	570	573	571	571	570	567	573	578	583	585	585	580	574	566	566	576	574	571	569	564	562	560	560	560	563	564	565	566	569	569	568	571	572	573	576	577	578	573	567	566	566	570	581	583	583	584	575	576	572	570	571	571	573	575	568	568	569	569	565	567	562	567	564	564	567	572	575	577	576	575	576	579	577	577	574	566	568	572	563	562	559	564	570	571	572	571	571	579	574	570	569	570	569	575	581	582	578	573	565	566	567	573	583	576	572	569	570	574	581	584	577	574	571	570	575	579	579	584	587	587	580	579	578	574	573	578	580	581	586	585	580	585	579	577	577	577	574	568	577	588	592	594	586	578	578	573	574	573	583	588	579	580	576	577	579	577	580	587	590	589	581	579	585	588	588	583	587	588	585	584	582	581	579	579	580	583	582	582	585	589	591	591	590	590	589	590	581	587	580	575	572	569	576	586	590	591	596	597	597	592	587	579	589	589	590	587	587	586	587	582	583	582	586	587	587	591	591	589	590	600	603	598	593	593	588	589	589	589	591	595	599	600	598	595	594	606	604	601	588	593	592	592	592	593	590	591	594	605	608	614	614	604	611	610	606	602	602	601	601	591	587	592	596	592	610	610	609	604	601	601	598	599	600	604	604	604	612	600	598	597	595	598	603	602	594	592	591	591	591	592	601	603	607	609	610	607	610	609	615	610	608	612	612	608	604	608	605	605	602	595	592	596	597	597	604	606	607	607	609	607	607	603	601	602	601	603	606	612	613	613	610	609	609	611	609	605	607	609	616	611	611	610	622	619	616	612	612	612	613	614	612	618	620	612	617	616	615	616	609	622	620	623	623	620	620	620	620	617	616	616	617	617	614	616	622	625	618	617	621	620	620	617	620	619	623	626	624	621	619	618	623	634	635	623	620	619	621	622	625	625	624	626	628	629	629	632	632	636	637	634	633	622	624	618	625	633	632	638	640	635	627	623	621	622	622	622	617	633	634	641	638	625	625	626	628	630	628	635	631	630	627	627	636	635	626	631	640	639	637	635	632	627	630	635	638	627	623	623	623	628	633	639	638	638	638	646	645	642	638	636	625	625	628	627	636	636	636	635	634	634	635	639	633	630	626	627	629	636	640	640	650	654	651	653	650	648	645	646	641	641	642	645	643	646	646	650	647	643	641	637	636	637	640	636	637	637	639	639	648	640	652	651	651	647	647	643	637	635	634	635	638	643	649	654	656	660	660	659	657	659	654	646	646	640	640	643	644	653	656	653	643	648	645	647	649	653	653	654	654	654	658	658	657	654	639	640	650	650	665	677	678	680	674	666	662	0	0	0	0	0
560	562	562	554	554	544	550	557	557	554	556	557	561	561	558	559	563	569	575	575	564	562	559	556	556	564	565	559	562	563	563	555	557	559	566	567	567	565	563	566	569	565	569	569	576	578	571	566	565	565	569	569	567	562	558	557	561	563	572	573	573	573	571	572	572	574	576	579	580	578	578	572	568	565	562	563	566	565	564	556	559	560	561	562	562	564	564	560	565	567	566	568	568	568	571	573	572	562	560	557	563	566	571	581	584	584	578	575	570	554	552	550	566	571	568	572	571	569	572	569	560	566	560	563	566	571	574	577	574	570	571	573	573	570	567	565	569	576	563	562	559	563	576	571	571	569	569	579	575	576	573	568	567	569	571	574	563	560	558	559	562	566	564	561	560	564	567	567	571	573	573	571	571	567	573	575	582	585	586	581	576	576	571	567	573	578	576	576	585	583	583	580	576	572	569	568	567	581	576	578	588	590	586	578	576	571	573	573	572	572	577	578	573	566	572	576	578	587	591	591	586	582	581	584	577	579	582	587	585	572	575	578	581	584	590	585	579	578	579	590	591	592	582	581	585	585	581	588	586	583	577	568	574	585	588	589	594	597	595	591	588	577	587	588	590	584	588	594	590	585	579	581	573	590	591	588	588	589	589	596	594	598	594	594	591	591	590	590	584	592	594	597	596	583	579	590	602	585	588	590	591	591	595	590	591	594	596	602	601	597	593	593	588	587	582	584	588	590	588	587	579	580	587	591	596	608	605	603	600	598	594	590	585	593	595	613	609	603	600	596	594	595	604	603	592	593	591	590	590	591	595	594	593	605	606	607	606	604	609	608	604	607	606	604	604	604	603	603	601	596	591	591	592	593	594	602	600	603	606	606	606	603	601	593	594	597	599	606	609	610	608	608	600	592	604	606	605	608	609	612	612	602	603	605	610	611	614	612	609	599	603	603	602	610	611	614	617	617	622	620	618	618	620	618	620	619	617	615	614	615	617	612	611	611	604	612	618	618	619	619	618	613	614	616	622	624	623	619	614	613	620	631	629	622	620	620	620	622	622	624	623	624	624	622	618	628	624	630	634	612	614	613	612	611	615	619	624	625	626	624	621	619	619	620	620	615	616	619	625	623	625	626	624	621	622	622	623	617	618	620	623	622	621	615	609	612	625	630	632	634	632	627	626	626	624	619	616	622	623	628	628	633	630	631	631	632	638	638	637	634	633	627	629	630	637	636	628	624	628	632	639	639	636	635	622	622	621	622	632	627	624	625	622	630	640	640	641	644	646	640	640	642	642	642	639	638	641	640	638	637	634	633	633	632	623	626	626	630	633	645	645	646	646	645	645	638	634	635	634	635	637	642	646	650	650	648	652	649	655	654	651	651	653	648	643	635	638	645	652	652	644	644	643	643	646	646	651	653	653	654	653	654	654	650	638	639	639	651	665	668	661	646	647	651	660	660	0	0	0	0
549	551	540	543	543	544	546	547	548	548	553	558	559	558	558	559	561	569	569	569	576	564	560	556	561	561	563	558	559	559	559	554	558	560	566	567	567	567	565	557	557	562	567	565	565	569	562	560	559	559	563	559	559	554	556	549	554	563	564	567	569	569	566	562	564	567	572	564	563	561	567	567	563	561	562	563	568	564	565	558	560	561	562	563	563	564	561	557	560	563	566	565	564	562	565	566	558	558	557	553	557	562	561	567	575	564	564	562	555	554	548	548	553	555	557	559	567	571	569	566	566	557	558	560	561	566	575	575	566	566	568	572	570	569	567	566	575	569	564	564	564	572	574	576	566	570	575	574	574	575	576	566	566	567	567	557	552	555	555	555	555	558	560	559	558	558	560	562	561	561	566	567	566	567	571	577	582	583	584	576	569	563	561	566	573	575	575	572	569	571	576	579	577	567	566	572	572	579	580	577	572	562	559	582	579	581	580	576	571	574	576	572	566	573	562	574	576	580	584	578	575	577	571	572	577	576	577	581	577	568	566	574	577	573	574	576	594	582	577	587	591	587	579	575	581	581	581	582	583	581	569	579	573	575	585	588	592	589	586	585	583	582	581	578	585	583	586	591	585	591	576	573	573	576	586	587	584	585	587	590	590	590	588	588	590	590	588	587	585	586	587	583	586	577	580	594	586	587	586	587	586	589	591	591	593	596	599	591	587	583	577	577	579	581	579	579	582	585	588	584	583	585	586	591	594	600	602	600	591	588	587	585	586	591	594	610	603	603	600	597	593	591	590	599	597	597	594	590	587	588	590	588	590	590	593	602	602	598	603	602	602	602	603	603	598	600	603	602	602	596	594	591	590	591	592	599	601	601	601	607	611	612	598	597	592	592	595	605	608	609	604	603	592	603	604	606	600	604	608	608	604	605	598	601	601	602	603	613	603	597	596	597	598	607	608	608	609	610	607	602	596	613	615	614	615	613	608	605	610	614	616	609	603	601	606	609	612	614	615	617	613	609	609	613	617	620	619	614	610	611	615	616	611	615	616	619	620	618	618	617	615	614	613	604	605	599	599	603	607	609	597	595	601	601	600	599	607	614	616	620	619	618	618	619	616	610	614	612	613	618	622	624	619	614	615	616	612	613	616	618	617	616	616	613	606	604	612	616	617	616	616	620	620	618	618	614	615	615	625	623	622	620	622	624	625	625	628	629	629	627	627	630	635	640	638	634	619	622	622	624	621	615	611	610	606	604	607	608	612	623	623	621	621	621	624	634	640	639	642	642	639	637	639	635	618	633	631	641	639	638	632	629	625	625	625	627	624	632	633	633	638	640	641	641	638	634	631	633	634	637	637	640	639	641	638	641	642	643	639	637	637	638	654	653	644	638	638	644	649	647	645	640	640	640	645	645	648	649	647	649	648	647	646	642	637	638	638	643	656	656	642	640	642	645	645	645	0	0	0	0
537	541	535	535	537	537	543	540	544	544	550	554	559	562	562	559	563	569	560	560	561	556	557	551	552	552	556	554	555	555	554	554	557	560	567	571	571	571	566	554	552	557	561	567	567	564	557	554	554	556	556	552	552	553	554	548	549	554	556	558	561	561	555	558	560	554	543	544	554	556	558	559	559	558	560	563	567	570	566	562	560	559	557	551	550	550	558	555	555	560	563	560	558	557	557	557	557	557	556	558	556	558	560	560	562	562	562	562	557	555	545	541	542	543	550	552	559	562	564	561	562	560	557	550	551	553	555	555	556	557	559	560	561	567	567	563	563	564	566	564	563	567	572	574	571	565	568	571	577	574	572	566	563	563	563	553	551	552	553	554	555	552	557	559	557	552	551	555	560	560	557	561	561	563	569	575	577	579	577	570	564	559	560	562	569	569	563	560	560	561	568	573	566	566	565	568	570	572	572	569	570	562	558	559	563	573	582	577	573	574	577	569	570	573	580	569	569	570	582	578	573	567	568	568	558	558	566	580	575	565	565	570	576	576	573	572	571	572	570	574	576	576	570	578	576	575	576	576	571	582	575	576	576	576	579	581	580	577	583	580	580	580	576	577	575	570	570	583	574	582	575	575	577	588	584	575	579	582	587	591	585	583	583	587	587	588	584	584	579	579	581	581	589	584	578	585	586	588	588	589	587	587	591	593	591	596	599	595	587	583	577	575	575	575	574	575	578	582	587	588	584	586	588	592	594	600	599	595	582	580	579	584	584	586	588	594	598	597	597	591	587	585	589	592	594	597	596	585	585	588	588	586	589	589	590	587	587	586	587	594	595	600	602	601	592	590	597	595	594	598	595	592	593	591	593	594	594	593	593	600	600	601	599	598	592	593	598	603	604	594	598	593	590	598	602	593	597	599	603	598	596	594	596	596	593	595	600	608	604	592	597	597	600	602	602	603	605	604	603	598	599	594	606	610	612	608	604	603	606	608	609	602	599	596	600	605	610	605	603	604	613	607	606	610	613	614	611	600	606	607	611	610	606	601	610	606	616	616	611	609	607	608	610	608	608	601	600	607	608	607	605	602	601	600	601	600	606	614	613	616	615	616	616	612	609	608	608	607	607	614	618	616	612	608	602	599	604	610	614	615	616	616	614	613	613	612	612	620	617	617	618	618	615	610	609	609	612	611	614	616	618	616	612	607	609	612	618	619	620	622	623	622	628	638	637	628	618	619	619	621	626	626	616	610	612	614	608	606	612	615	618	617	620	617	612	629	633	638	637	635	638	632	632	619	612	608	611	624	636	632	632	632	632	635	627	625	625	626	626	624	622	629	632	635	630	628	627	624	631	633	633	637	632	635	633	633	632	637	634	633	633	632	633	637	632	633	634	641	641	635	637	634	630	629	629	634	644	639	628	636	643	641	637	626	626	626	630	631	651	649	636	636	634	635	635	638	0	0	0	0
530	539	542	536	542	542	543	536	537	546	546	554	559	562	559	559	564	564	560	556	556	551	548	548	550	550	548	549	551	552	553	553	557	559	565	574	576	566	566	556	552	557	561	565	560	560	557	552	553	553	552	551	550	550	548	547	542	544	546	547	546	555	555	556	557	541	539	540	540	551	554	557	557	556	558	564	569	571	571	563	559	547	544	539	539	547	547	550	553	557	558	556	552	548	549	551	546	549	549	550	551	554	555	557	559	550	562	557	557	556	554	551	543	543	544	548	553	557	558	558	558	557	554	548	548	547	551	551	555	555	557	559	558	566	556	557	559	563	565	564	561	565	571	572	561	562	566	572	570	572	570	566	560	559	558	551	551	549	553	555	554	551	558	561	555	553	553	556	554	555	554	551	555	560	565	571	571	572	570	563	562	560	562	566	557	565	562	560	559	560	565	562	561	561	561	562	566	557	556	563	563	564	566	566	568	571	573	572	571	567	567	567	565	565	575	585	568	567	568	576	572	568	564	560	558	560	556	570	568	566	570	568	573	573	571	568	567	568	565	570	572	573	570	569	574	571	565	562	563	572	571	573	572	571	573	572	569	569	568	572	576	576	574	575	575	570	576	568	572	573	572	574	581	580	575	573	573	573	585	585	571	572	574	582	581	581	580	577	577	577	577	576	582	588	588	584	585	587	588	586	585	575	582	584	586	587	597	595	583	576	575	576	577	576	573	574	577	581	589	589	586	580	579	592	594	591	586	584	581	574	568	573	579	584	586	593	594	592	590	587	586	583	584	585	578	583	585	585	586	588	585	584	583	584	587	585	583	583	581	575	578	582	592	591	590	588	588	590	594	593	591	592	593	592	589	592	592	591	598	598	590	586	589	591	593	593	595	597	598	592	592	588	588	588	583	585	580	581	590	589	589	591	592	595	591	593	599	603	598	594	594	594	596	599	598	602	602	600	591	596	595	593	591	592	592	588	581	589	596	597	602	600	598	594	597	602	606	602	599	598	602	605	606	607	608	607	592	594	599	605	600	606	598	600	605	600	594	602	595	604	608	610	609	607	605	602	601	604	608	607	602	600	599	598	597	594	596	601	600	600	608	608	612	610	608	607	600	601	604	613	614	611	605	600	597	593	590	592	597	607	613	610	609	610	612	610	607	620	617	615	615	613	613	603	601	606	606	607	611	612	614	612	610	605	602	605	612	616	615	616	616	613	608	604	606	608	611	616	619	622	624	627	615	612	613	612	610	609	616	615	618	614	612	602	612	606	626	630	634	634	625	626	620	618	618	612	613	615	617	620	620	629	630	626	625	623	622	622	620	618	619	620	625	621	618	612	618	622	627	631	637	632	633	630	630	630	628	628	627	627	627	628	632	623	619	630	634	635	619	620	630	625	624	624	626	630	627	628	626	626	626	626	622	619	619	623	631	636	643	633	631	627	630	632	632	633	0	0	0	0
543	543	538	538	547	547	542	536	534	543	543	548	553	558	555	555	560	550	555	545	545	546	539	541	546	545	545	541	542	545	552	557	557	551	552	555	556	559	559	561	558	557	559	551	553	553	552	542	548	547	549	551	549	549	548	548	542	540	538	542	553	560	560	549	544	541	540	540	544	550	554	555	556	556	557	564	567	567	553	553	551	542	537	538	543	540	547	547	549	556	554	551	541	537	539	544	542	545	545	550	551	549	554	553	551	550	547	557	555	554	554	552	548	546	543	548	550	554	554	554	554	552	551	549	548	555	557	561	553	550	547	547	549	550	550	550	556	563	565	567	569	569	554	548	549	554	560	564	566	564	563	561	553	556	553	555	551	548	552	556	555	554	552	559	559	558	558	554	552	548	546	551	563	563	565	566	566	565	562	558	558	560	564	563	553	562	562	563	564	555	557	554	555	555	558	559	551	550	549	560	564	562	562	562	565	569	568	558	564	565	552	557	556	561	567	559	560	561	563	569	571	564	562	559	558	560	559	559	569	568	565	564	568	567	567	567	564	566	564	566	564	562	559	570	575	568	568	566	560	566	567	562	564	567	564	570	565	563	563	562	566	564	572	573	574	573	570	566	566	568	567	575	577	578	570	566	564	571	574	574	570	568	568	569	564	568	566	564	564	573	571	569	570	571	571	572	578	578	578	572	566	570	564	568	583	583	591	592	586	576	573	577	576	576	577	576	579	587	586	583	575	574	571	573	579	578	576	580	580	577	573	575	577	581	585	587	585	586	586	587	574	571	572	575	578	582	585	584	585	581	581	581	579	580	578	582	581	579	578	584	585	591	592	592	590	588	585	585	589	587	585	583	582	582	584	588	590	591	598	593	588	582	574	583	590	590	591	592	589	588	586	587	586	582	583	578	575	576	584	586	586	582	586	591	592	591	594	597	596	589	587	576	593	595	594	597	597	593	591	590	592	590	593	592	588	586	583	580	586	590	598	598	597	592	592	597	602	597	595	596	595	597	596	595	594	592	589	589	593	598	597	590	589	588	598	591	588	589	600	601	603	606	606	604	604	602	601	604	607	601	596	596	594	590	595	599	601	602	598	594	593	593	597	602	601	596	595	593	594	597	596	599	600	599	595	589	587	588	592	596	599	606	607	608	609	609	604	601	600	602	606	610	608	598	598	601	602	604	609	609	608	604	602	601	601	600	605	613	613	611	610	602	605	606	602	601	606	608	609	604	598	599	599	604	612	615	611	612	617	616	617	608	604	602	600	603	606	624	620	621	619	619	623	618	616	611	610	615	615	613	612	613	615	617	618	619	620	619	615	615	618	621	622	621	616	607	594	602	627	636	637	633	625	614	612	617	618	613	613	618	622	625	617	618	616	616	617	620	617	615	616	613	616	616	623	621	623	623	626	626	622	616	616	617	617	624	625	630	630	630	631	634	630	630	632	633	0	0	0	0
541	541	539	547	549	545	545	536	540	542	542	543	546	553	551	551	547	544	545	545	536	536	536	538	544	542	542	540	539	544	549	551	551	546	545	551	555	558	557	557	555	553	555	549	548	548	548	543	538	542	545	544	549	545	545	545	549	551	543	544	548	555	549	540	540	540	538	538	540	548	552	553	552	552	552	538	542	545	547	542	545	547	543	540	541	534	539	539	542	543	544	544	536	534	531	536	534	539	541	546	547	548	549	548	551	549	546	544	552	552	550	550	544	543	543	544	545	544	546	549	549	547	548	553	560	557	558	554	547	543	539	541	541	539	539	534	547	551	549	554	542	544	553	548	545	544	544	544	545	545	547	552	551	550	555	553	548	548	550	552	552	552	555	554	541	540	552	551	544	546	547	547	555	564	565	565	565	559	551	551	554	560	563	563	558	551	548	553	567	558	550	551	548	548	550	549	551	556	560	563	561	556	559	560	560	561	560	553	545	552	548	551	553	554	555	557	558	558	554	553	554	566	559	559	557	554	555	558	570	570	565	567	570	567	563	562	563	569	569	564	560	557	558	568	567	564	566	567	568	566	558	556	557	563	562	563	559	557	557	560	552	558	565	568	568	573	573	564	568	565	565	569	562	561	563	562	562	565	568	570	569	564	560	559	556	558	559	562	556	555	559	562	567	571	567	565	557	573	572	568	560	563	561	567	570	576	576	587	579	577	575	573	573	573	578	581	584	582	578	573	572	572	572	572	578	577	576	577	578	574	572	572	572	574	579	580	577	576	580	579	579	577	575	575	576	579	580	579	582	573	571	569	576	577	577	574	579	578	573	573	578	585	597	586	587	586	583	582	584	585	583	582	582	580	572	581	587	591	594	591	579	577	579	584	584	583	586	588	588	583	576	576	578	577	580	581	574	578	578	580	577	577	578	581	588	589	591	590	584	583	574	573	577	588	589	590	589	591	590	590	591	592	598	594	583	581	581	579	580	580	588	596	594	592	588	589	594	596	594	597	596	594	589	589	598	595	593	589	586	589	583	588	587	590	597	599	595	590	591	596	599	602	602	602	599	600	611	603	602	593	587	584	584	593	597	600	601	601	598	585	581	584	586	587	598	596	596	597	598	599	595	602	604	598	599	588	590	589	588	589	600	602	606	608	608	607	603	596	596	601	604	607	602	599	600	600	601	603	601	598	596	598	597	595	595	597	596	602	608	604	604	599	604	599	598	596	596	593	593	595	593	601	603	605	608	613	613	613	615	622	620	609	602	602	600	604	608	614	617	617	620	625	622	616	612	609	609	609	608	607	601	599	607	611	614	615	615	611	611	611	612	616	617	613	612	606	599	598	614	627	629	619	609	609	609	611	612	612	608	598	608	614	613	612	609	611	611	610	613	613	609	608	608	608	610	614	617	621	624	623	615	614	615	615	618	620	620	630	629	627	630	634	638	638	634	635	0	0	0	0
541	547	547	552	552	537	537	534	539	536	534	534	543	547	547	544	544	540	540	532	536	536	538	542	543	541	540	540	540	546	547	546	546	543	543	547	552	557	559	559	557	550	545	546	545	544	544	533	537	540	546	548	545	551	551	543	543	542	542	539	538	538	540	541	539	533	529	532	538	546	548	548	539	539	539	541	540	538	537	540	544	545	544	543	537	538	532	539	539	541	540	540	534	533	532	533	533	535	539	540	542	545	546	548	548	547	543	539	547	547	540	539	539	540	540	541	545	545	547	548	550	550	549	549	549	544	544	542	538	536	537	540	540	539	540	537	540	543	544	541	543	542	543	546	544	542	542	541	543	539	539	541	545	554	554	550	548	543	542	546	546	549	547	541	537	546	551	549	549	541	549	550	549	555	564	560	557	551	541	543	545	552	563	561	563	540	549	551	552	551	548	548	544	546	547	547	548	550	556	558	559	556	554	553	555	555	554	550	550	545	545	548	552	551	551	553	554	552	549	548	550	557	559	559	554	551	549	555	570	571	570	569	563	566	566	557	566	571	569	568	557	555	556	563	566	563	563	568	567	558	554	549	545	557	558	560	561	558	558	555	554	557	563	561	557	560	560	571	559	559	568	564	561	562	560	557	556	562	563	567	565	562	558	554	554	558	558	561	555	555	556	559	565	569	566	566	557	561	563	559	555	555	555	554	563	564	566	577	576	572	570	572	576	572	569	566	564	568	571	570	572	570	568	567	566	579	577	571	572	570	569	571	571	573	576	579	574	570	571	570	574	578	584	571	572	569	570	568	572	578	568	569	576	574	572	563	567	564	564	569	575	577	580	589	580	583	582	578	582	578	582	582	576	573	574	578	581	570	567	568	572	578	582	583	584	583	584	584	584	579	575	577	575	571	568	572	572	577	577	577	575	574	573	585	585	589	583	580	578	575	573	576	578	581	582	582	581	583	585	591	592	597	598	594	585	580	582	581	579	579	583	589	589	590	590	590	591	586	594	599	595	591	586	586	589	587	585	584	582	579	581	584	586	593	596	596	593	585	585	592	593	595	591	587	590	595	594	595	589	590	587	585	589	592	597	599	597	596	587	581	580	583	579	576	576	580	591	596	597	594	595	597	601	603	597	592	588	587	587	587	589	591	592	595	605	598	597	592	592	600	604	604	602	599	601	598	596	599	596	594	592	598	600	595	595	595	592	589	593	595	597	601	602	605	600	591	591	596	597	597	598	602	601	599	597	599	610	612	616	618	614	602	600	600	598	600	605	614	609	616	622	608	608	605	613	607	604	606	606	601	599	594	605	609	610	610	608	607	610	610	609	614	614	611	608	605	604	603	602	605	605	602	607	609	608	610	610	608	600	600	598	608	609	607	610	610	607	607	604	602	611	611	607	605	608	612	616	619	620	613	610	612	615	615	615	617	613	621	621	619	625	630	630	636	633	630	0	0	0	0
532	534	534	534	532	533	536	536	539	527	524	524	525	530	536	539	539	530	528	535	536	542	542	537	537	539	540	540	544	546	547	544	543	543	536	540	544	544	546	546	546	547	547	543	539	539	533	533	536	538	542	544	542	545	541	541	538	536	537	539	539	538	541	539	539	534	530	531	533	535	536	537	540	542	542	542	541	536	538	540	545	543	541	539	535	534	532	524	526	526	538	533	534	534	536	541	537	535	533	534	538	547	543	547	541	540	537	538	541	537	534	535	537	537	537	539	541	542	545	544	549	549	548	545	541	541	541	539	538	537	535	539	536	538	540	546	542	538	532	538	541	541	536	534	537	533	540	542	542	539	539	537	548	555	554	550	544	540	541	543	539	544	542	540	537	543	547	550	549	550	545	548	548	550	555	551	551	549	544	545	546	548	554	558	543	548	548	546	545	546	545	542	543	544	546	543	541	546	551	553	553	553	551	550	551	552	553	552	548	550	547	548	545	542	550	548	548	545	543	535	534	540	548	557	548	547	547	547	556	558	558	557	555	563	557	557	558	568	563	563	562	558	557	563	568	569	570	569	565	553	551	547	546	554	556	559	560	557	556	560	557	559	558	554	551	553	571	562	552	553	551	548	551	557	558	557	557	559	560	563	559	556	556	550	551	557	558	556	555	552	553	555	560	561	566	563	560	560	560	560	559	555	555	554	557	559	563	568	566	564	574	576	572	567	570	566	564	566	569	569	569	565	564	563	562	565	566	566	569	569	569	570	573	576	571	572	571	569	565	562	574	575	576	569	571	570	569	570	565	562	565	572	572	572	560	561	562	564	561	548	563	569	574	565	570	566	566	568	569	577	572	557	562	570	570	577	577	572	569	567	579	581	583	582	581	580	581	583	585	583	579	575	570	569	568	568	575	579	578	577	574	573	571	573	582	583	579	575	572	575	577	580	576	578	578	578	576	573	574	576	587	591	593	591	591	583	578	578	575	579	582	584	586	586	588	585	581	586	591	596	586	585	584	585	586	583	582	580	582	579	578	582	585	595	596	597	591	584	585	585	586	584	579	577	579	590	590	590	586	588	586	582	587	592	595	598	584	585	583	580	584	583	579	573	573	580	582	584	596	593	593	596	594	589	589	587	582	582	584	585	588	590	593	594	592	592	590	587	585	595	597	595	594	592	590	593	588	586	591	591	589	591	591	596	595	588	587	586	590	595	596	597	602	601	597	594	595	600	600	599	595	596	593	590	585	591	595	602	607	612	597	594	591	598	595	597	599	603	610	609	611	604	604	603	603	604	602	601	597	598	593	600	608	608	608	606	604	604	609	609	608	610	609	609	608	607	605	607	606	598	598	605	609	610	609	609	609	604	603	600	597	604	606	607	609	606	603	601	599	602	601	601	601	598	594	590	591	598	606	607	608	609	609	612	614	611	604	611	616	614	617	617	621	625	624	617	0	0	0	0
528	527	527	521	520	526	530	530	535	522	524	525	525	520	516	520	523	523	531	539	542	528	528	528	530	530	533	536	536	539	547	543	538	536	537	542	541	538	538	544	544	546	542	535	532	531	535	535	534	535	539	538	534	539	539	539	536	531	531	531	538	538	540	539	527	527	529	532	534	536	536	536	539	542	542	542	540	538	536	538	542	532	531	529	531	529	518	518	519	523	523	527	531	539	540	540	540	538	539	540	532	536	540	536	538	539	537	535	536	535	532	532	535	534	538	538	538	539	537	539	542	543	541	539	537	538	536	537	537	535	535	536	535	538	538	536	533	537	531	533	535	536	535	533	531	531	538	540	540	540	537	538	550	555	551	542	544	542	541	539	539	540	540	538	535	536	545	548	536	534	534	529	529	532	548	547	553	550	546	546	542	543	546	550	552	551	548	545	544	542	544	543	542	542	539	533	534	539	541	548	549	550	550	547	544	547	539	543	542	542	546	543	542	551	553	550	548	548	535	529	534	537	546	550	546	542	545	547	547	553	544	544	551	552	554	554	553	550	557	561	560	564	568	563	563	565	569	569	563	555	550	548	548	549	554	557	559	556	555	554	558	552	550	550	550	557	567	556	551	553	552	550	546	555	556	558	560	560	561	547	552	551	550	550	549	550	556	555	550	549	548	551	554	559	547	547	557	558	554	556	557	557	558	558	561	568	568	565	562	561	559	565	566	564	561	559	561	560	560	559	557	558	557	555	554	555	558	557	558	560	563	565	566	565	566	570	566	565	562	561	564	571	572	567	570	572	570	570	565	562	560	559	560	560	565	559	567	568	569	574	573	565	561	560	564	566	565	567	568	574	571	556	557	562	566	571	575	571	569	569	571	579	576	576	579	579	580	580	570	572	572	575	572	563	566	568	573	569	569	573	574	573	570	572	581	590	584	574	572	574	581	581	579	576	576	574	571	566	569	570	575	583	582	584	589	581	576	574	573	577	581	581	582	585	585	574	568	575	574	577	582	584	583	584	581	582	579	577	577	580	578	581	580	583	590	596	596	581	573	572	580	581	583	579	574	581	587	581	585	585	582	579	577	572	584	588	584	581	581	585	585	579	574	571	574	579	578	582	593	594	594	581	579	580	574	574	576	571	571	574	584	587	591	592	590	585	587	583	583	588	595	590	590	587	583	581	583	584	588	592	590	588	594	594	589	586	584	588	592	595	598	600	606	607	609	603	604	601	601	599	596	593	588	586	582	583	592	596	602	601	589	588	581	589	592	594	591	596	596	597	604	603	597	596	598	598	600	602	599	596	594	597	600	602	607	605	604	608	608	606	606	602	602	602	603	600	593	612	613	597	597	601	610	613	604	604	596	599	601	603	599	593	590	595	595	591	587	585	593	601	602	602	601	598	594	590	590	594	596	602	604	604	605	607	609	603	599	599	604	612	617	617	612	611	611	607	0	0	0	0
522	521	519	519	525	526	528	528	528	522	523	524	524	523	518	514	517	517	527	530	531	528	523	525	524	532	535	535	535	533	534	535	534	537	537	532	534	534	536	538	540	540	533	529	533	532	533	534	513	518	524	530	532	539	539	535	535	526	525	526	535	537	539	534	527	527	527	530	532	533	534	534	537	539	540	539	539	538	535	538	533	532	527	526	525	517	516	516	518	524	527	527	530	535	535	530	524	522	529	527	528	530	534	530	531	531	535	532	531	531	529	529	529	530	530	531	531	531	535	539	539	536	535	531	529	530	533	537	540	533	530	535	537	538	536	536	535	529	530	529	531	530	527	531	531	533	537	537	538	537	538	543	543	543	542	536	542	544	542	544	546	542	539	535	536	535	534	533	533	526	522	524	530	529	537	547	547	551	549	546	535	533	532	541	544	550	546	542	541	542	544	545	544	538	529	529	536	538	540	542	546	545	541	539	536	532	538	534	539	538	538	541	555	558	557	552	554	549	544	533	533	537	544	543	540	541	542	544	544	542	542	541	546	547	552	552	551	547	543	540	547	556	563	563	555	557	559	561	557	555	549	545	546	548	552	554	554	553	555	554	551	546	545	548	552	553	553	554	551	555	556	551	544	548	555	556	550	549	544	547	541	541	545	544	541	540	543	548	547	545	544	543	545	548	548	543	542	546	554	554	550	551	552	555	561	561	561	559	556	553	552	553	554	556	551	551	555	554	555	555	556	546	546	545	544	557	555	556	553	551	555	559	562	555	554	557	560	556	558	557	559	561	560	563	564	565	567	564	562	558	559	560	561	569	561	559	562	563	563	562	573	566	556	558	562	562	565	567	565	563	556	555	555	562	566	570	572	569	568	571	568	569	563	562	561	578	561	564	566	568	569	570	566	562	562	567	567	566	559	567	574	571	562	571	576	583	576	570	574	577	578	582	580	580	576	572	567	565	568	570	569	571	575	568	567	566	567	559	554	553	561	562	568	574	578	576	568	575	575	574	581	593	592	587	583	576	577	576	573	572	571	574	573	577	583	587	583	568	567	567	568	572	578	574	573	574	579	579	581	576	576	576	575	576	583	588	588	582	578	583	572	566	567	572	574	578	579	581	588	594	575	574	574	578	573	571	576	570	570	571	575	586	591	591	590	588	580	578	582	582	594	589	588	585	582	581	580	584	589	588	584	587	589	591	589	588	588	589	591	595	599	595	590	607	604	601	600	597	596	595	593	590	584	581	577	583	587	581	581	582	584	584	580	588	589	590	588	587	589	600	600	599	596	595	593	597	600	600	599	596	596	594	595	605	604	607	610	609	608	601	603	603	597	585	585	585	589	606	609	610	589	592	596	604	604	596	594	596	600	604	599	586	583	584	584	584	584	587	587	593	601	603	601	597	595	591	590	592	594	594	594	594	600	603	603	601	599	597	599	606	606	606	604	605	607	606	0	0	0	0
518	518	515	515	521	522	526	517	517	517	523	523	517	517	510	511	515	513	513	519	522	523	521	521	525	531	532	527	527	527	527	529	531	530	532	524	530	531	532	535	534	534	527	522	517	512	511	513	513	517	525	527	532	537	537	533	533	524	520	525	536	538	539	532	527	523	523	526	526	532	533	534	537	537	537	539	538	538	539	538	528	528	527	525	527	537	531	517	525	526	527	527	531	532	527	525	522	524	525	525	527	528	529	530	527	528	528	526	527	528	527	527	526	530	529	529	530	530	530	534	536	535	535	531	530	529	530	530	529	526	530	527	528	526	529	529	521	523	525	524	524	528	526	530	534	535	533	532	532	534	541	542	541	539	537	527	538	537	540	541	535	533	532	534	534	536	534	532	528	529	522	524	526	529	534	538	538	533	524	531	529	530	530	530	534	544	544	540	541	543	544	546	546	537	528	531	536	539	539	541	540	539	538	533	538	524	527	529	537	535	534	538	545	560	558	558	555	553	546	535	535	540	543	545	536	537	537	541	541	535	531	538	546	547	548	550	550	549	533	531	533	535	533	545	545	548	548	554	555	554	548	544	546	550	550	545	543	543	552	543	545	544	545	549	548	550	552	550	549	548	544	544	544	540	552	552	548	545	542	538	537	540	540	537	536	537	542	543	548	545	545	542	551	551	545	542	539	546	549	548	550	549	550	551	552	550	556	557	551	547	543	550	553	552	552	546	547	548	547	546	542	547	544	545	547	548	556	547	547	550	547	553	554	552	550	546	546	547	557	549	549	555	556	559	559	559	560	558	558	553	554	556	559	559	555	556	560	561	561	556	555	559	562	562	561	561	562	562	563	560	559	558	557	561	566	566	567	569	566	563	563	568	565	565	571	573	571	571	554	557	559	560	559	559	559	562	563	565	565	565	563	562	568	570	579	582	575	569	568	572	573	577	578	576	572	568	567	564	563	569	569	569	565	565	565	563	553	549	557	560	560	554	560	562	566	571	565	568	571	571	570	576	577	583	577	573	570	569	568	567	568	565	563	569	568	562	564	565	559	560	565	564	567	575	573	570	577	578	580	576	572	574	580	581	582	585	585	583	574	568	564	565	567	572	578	584	587	582	575	568	565	568	572	574	581	578	578	576	574	573	575	586	591	586	576	574	577	580	581	582	584	593	588	583	581	579	581	583	581	578	577	578	583	583	586	588	584	578	583	583	582	580	579	586	593	596	596	591	591	582	583	588	580	576	573	581	570	578	583	583	583	582	579	583	586	583	584	584	587	597	595	593	591	585	580	591	592	597	595	595	594	594	585	588	599	600	605	603	600	596	594	597	591	587	582	584	587	592	594	605	593	582	586	586	585	594	591	593	591	596	593	582	579	580	582	583	583	584	586	587	594	601	599	596	599	593	589	590	591	593	593	591	591	598	602	597	595	597	597	595	595	596	596	597	600	595	0	0	0	0
519	515	513	516	516	523	516	514	514	516	521	518	507	507	507	510	510	512	512	515	518	521	521	523	526	524	525	525	526	526	526	528	526	514	524	524	527	532	533	531	530	527	527	523	521	516	511	511	517	525	527	528	522	520	519	520	518	518	516	519	525	524	524	524	523	519	519	521	526	531	531	534	535	533	532	533	533	534	534	529	527	525	521	525	527	537	531	527	526	524	523	522	522	522	524	520	516	518	521	523	525	526	528	532	529	528	522	520	521	522	523	520	525	529	527	528	526	523	526	527	527	533	529	530	528	524	524	524	526	523	520	527	528	527	525	522	525	518	519	519	523	528	522	527	538	535	532	530	529	531	536	537	536	533	533	521	521	525	534	528	526	524	530	532	535	537	536	529	523	527	531	534	532	530	529	530	527	524	526	530	526	526	525	524	529	535	533	532	536	540	541	543	542	543	537	535	536	536	534	531	532	532	530	528	522	516	517	527	532	533	534	539	543	546	546	552	550	546	530	527	531	538	542	546	534	532	537	538	538	532	528	528	542	544	545	547	544	543	533	530	530	533	530	530	532	538	538	537	538	530	534	536	546	546	550	551	539	533	534	538	536	538	548	547	545	543	541	537	537	538	543	545	546	541	550	549	547	539	537	531	536	538	541	538	539	540	543	544	545	549	547	551	549	547	540	544	545	550	550	550	548	545	545	544	544	545	548	551	545	544	542	542	544	547	552	551	540	537	540	541	546	548	546	545	547	550	550	547	539	540	541	545	553	553	551	546	543	543	549	549	550	544	543	548	544	549	556	555	553	552	553	553	553	552	553	549	550	554	555	555	556	555	556	558	560	558	550	548	549	556	560	558	556	555	563	561	560	559	554	548	550	562	561	563	567	565	568	562	559	552	551	562	561	558	555	556	557	556	557	563	563	560	562	569	566	565	567	565	567	564	569	572	572	567	567	566	565	563	564	564	567	568	577	577	576	559	553	552	561	559	555	549	552	558	559	561	563	568	568	567	568	569	570	566	568	566	563	561	566	566	566	565	560	566	564	560	560	559	554	556	562	561	564	571	570	569	569	576	577	568	568	577	579	578	569	573	582	579	573	569	564	563	565	570	573	569	571	568	566	564	566	564	573	572	580	582	582	580	579	570	579	582	577	570	569	571	574	580	584	587	585	584	578	583	580	574	576	579	576	572	570	571	572	577	578	580	578	579	580	580	579	574	576	578	578	583	584	583	578	584	583	581	583	573	566	577	568	576	583	583	584	580	578	578	581	578	581	582	584	589	590	589	582	580	580	585	591	594	593	594	580	579	574	576	577	580	586	594	595	593	590	590	590	588	583	582	583	586	586	593	585	578	578	576	578	589	584	584	589	598	592	587	580	582	583	583	582	583	583	586	588	592	591	591	599	599	597	591	591	592	592	587	588	588	591	588	591	592	595	595	593	590	588	589	594	595	0	0	0	0
519	511	510	514	514	513	513	512	518	518	518	518	504	504	504	509	511	510	510	512	515	521	523	517	517	516	519	524	526	526	526	523	522	514	524	527	516	527	525	522	523	526	526	523	527	520	524	525	525	525	526	524	517	515	517	517	516	516	516	516	517	518	524	526	523	528	521	521	523	526	531	532	529	527	528	523	526	530	530	528	526	525	522	516	517	526	525	523	522	519	518	516	519	519	520	517	514	514	517	521	519	523	530	533	524	524	522	519	517	515	516	518	528	527	518	519	517	517	518	520	522	524	524	518	523	520	518	516	516	520	521	521	526	526	522	522	520	519	516	524	528	525	530	529	526	522	521	524	526	529	530	526	525	526	520	516	517	518	518	521	523	525	526	531	528	529	531	525	519	525	531	535	532	529	527	527	528	527	525	525	525	523	523	522	523	524	517	516	520	530	532	534	535	541	538	537	535	530	528	529	527	529	531	529	518	513	514	515	521	527	531	537	537	537	539	540	528	530	529	525	527	534	536	541	532	530	529	535	534	534	528	528	537	539	542	542	534	535	534	533	535	532	527	527	528	532	533	535	534	535	535	536	537	538	540	540	540	535	535	535	538	537	544	541	539	537	536	534	537	542	544	549	550	545	540	547	546	540	538	536	531	536	540	544	542	543	545	549	551	550	550	553	552	540	543	544	546	545	552	546	546	544	543	541	541	541	548	551	549	544	542	541	539	538	538	534	532	537	540	541	541	545	545	547	549	552	547	538	533	531	533	544	550	552	550	546	543	544	543	550	545	547	547	549	551	551	550	555	556	550	548	545	546	549	546	546	548	550	553	554	554	556	554	552	551	543	540	546	547	547	547	547	549	557	555	553	548	545	543	543	550	560	560	561	566	566	561	556	556	549	557	568	561	557	550	546	550	551	560	564	562	561	560	561	562	563	562	560	561	561	558	569	574	566	562	563	565	565	560	564	567	572	563	555	554	547	549	556	556	559	556	548	542	549	557	561	564	565	557	563	561	558	563	566	566	563	562	558	567	567	567	568	561	560	558	562	560	555	551	554	560	560	563	567	569	570	568	563	562	563	565	567	566	566	576	572	572	574	570	568	563	564	565	563	564	563	561	558	563	564	567	571	572	575	581	583	583	581	576	575	575	579	580	567	567	571	574	578	581	586	580	576	574	568	575	574	573	569	569	567	566	566	566	565	576	576	571	571	577	577	578	573	574	574	574	573	573	573	578	583	582	577	572	576	576	567	573	577	582	583	583	578	578	576	573	576	577	580	584	584	587	579	577	577	577	585	590	592	590	584	582	579	578	576	568	574	581	588	591	584	584	583	583	583	581	580	580	581	582	584	578	578	574	573	578	588	585	582	592	605	606	590	582	589	589	580	578	578	576	581	581	584	586	590	592	596	596	595	588	588	589	579	580	584	577	583	584	586	591	591	592	589	586	584	586	588	0	0	0	0
512	507	509	515	515	511	512	511	513	513	514	506	503	504	504	510	510	508	509	509	514	517	522	517	513	514	518	522	521	520	520	520	522	520	520	516	516	518	516	516	522	520	521	521	527	521	524	523	522	526	524	521	513	510	512	513	515	515	515	514	514	517	524	525	528	528	526	519	519	520	521	523	522	523	522	520	517	521	525	525	524	523	518	517	516	522	524	523	517	513	510	509	513	514	514	515	514	512	516	513	508	513	529	510	513	514	517	517	517	514	515	515	517	525	519	515	512	509	515	516	518	516	517	512	512	512	515	512	507	508	517	516	522	525	524	521	514	514	517	521	524	524	525	524	521	520	521	523	511	513	516	522	521	521	517	517	518	521	521	522	523	523	522	523	524	524	522	518	515	520	531	533	531	528	524	522	523	526	527	525	524	523	523	521	525	517	516	520	524	524	524	525	525	532	537	526	527	521	524	529	529	528	529	527	516	510	524	524	522	524	526	531	532	532	533	526	530	528	527	524	524	528	527	532	531	526	522	528	533	531	527	523	529	531	534	532	530	527	533	533	535	532	529	526	528	526	529	530	531	535	536	536	535	533	535	536	532	533	535	532	538	538	538	537	525	531	530	532	537	538	541	546	547	539	531	533	542	539	538	537	531	533	535	537	540	541	544	547	550	551	551	555	552	553	539	539	540	547	550	547	546	537	539	542	548	545	539	551	550	546	537	537	538	536	531	528	528	533	537	541	541	536	534	538	539	544	544	538	532	531	530	533	533	534	531	529	543	545	543	544	545	544	540	540	544	544	546	552	556	556	546	540	538	544	544	547	549	549	546	549	548	546	544	551	550	529	530	537	543	545	544	543	543	543	546	546	545	543	543	541	546	554	556	556	556	556	553	552	547	552	561	568	565	554	546	546	548	554	563	563	561	556	556	555	556	559	556	554	553	556	553	560	564	542	548	553	552	552	557	567	567	561	563	556	551	548	554	557	558	556	553	547	542	547	555	562	564	561	557	550	558	560	562	563	566	564	552	562	564	556	553	552	546	551	560	558	556	555	551	554	558	559	564	564	566	566	565	558	559	561	563	553	549	561	563	567	567	568	567	566	565	569	569	562	561	560	558	558	560	563	569	568	568	569	565	575	579	579	576	571	574	577	569	563	565	567	570	571	572	571	571	575	570	566	567	572	570	568	565	563	563	563	559	566	566	561	561	559	564	556	557	558	567	570	567	563	559	560	566	570	572	569	566	568	569	567	571	575	579	580	578	575	570	570	570	575	579	585	586	582	579	578	574	570	576	580	585	588	584	582	581	581	577	574	564	568	574	580	579	579	578	578	578	578	577	577	578	578	579	580	580	576	575	577	580	584	584	580	593	594	589	579	590	582	582	581	581	578	576	575	579	580	585	585	586	588	572	572	572	573	581	585	584	578	577	583	581	585	585	587	590	587	586	585	585	588	588	0	0	0
507	507	511	515	513	513	508	506	508	508	509	503	503	501	501	512	511	506	508	508	512	519	517	513	515	515	517	510	511	514	514	514	517	520	516	516	518	517	514	509	507	512	514	514	513	512	514	517	523	524	515	515	506	506	504	508	510	513	514	514	513	515	520	526	529	526	520	519	519	517	518	519	518	518	518	517	517	517	518	521	521	519	513	513	516	516	516	520	515	508	506	503	500	506	510	510	510	510	510	509	510	511	506	514	511	512	515	510	514	518	514	514	513	513	515	513	503	507	512	514	512	512	514	513	509	509	508	508	507	510	512	504	507	510	515	516	504	506	514	517	520	521	515	514	509	513	517	516	508	511	514	520	520	515	516	516	520	523	519	521	521	521	520	522	522	519	516	513	514	521	528	529	528	523	520	519	520	522	522	521	524	523	522	524	518	515	517	520	524	522	521	519	516	513	515	517	517	518	523	527	527	525	525	524	514	518	524	523	524	521	525	527	523	523	531	525	524	527	523	528	527	525	528	527	527	516	520	525	535	530	522	522	523	526	526	529	523	525	529	534	536	534	530	527	517	516	524	528	536	534	537	536	540	536	530	529	529	530	534	534	538	537	532	530	530	528	526	529	533	536	534	538	537	534	527	531	535	536	534	527	524	527	530	533	534	539	541	543	543	539	535	534	537	532	534	536	539	542	543	546	542	536	536	543	546	543	534	524	530	534	535	536	534	529	523	523	525	528	533	537	535	534	551	553	550	548	539	531	529	529	530	525	530	534	530	531	533	532	536	540	543	543	541	540	541	544	548	545	553	548	545	541	538	542	540	541	547	550	544	544	533	537	534	532	528	531	530	539	543	545	545	543	542	540	538	534	539	543	545	546	546	550	553	553	550	544	544	548	556	559	564	564	561	556	551	555	554	562	565	562	558	553	551	550	547	550	548	546	540	543	547	546	541	540	543	547	552	553	555	555	551	554	560	562	562	562	561	557	558	552	555	553	547	544	551	562	563	558	556	552	545	556	560	560	561	551	556	552	551	550	544	546	548	549	553	556	554	556	554	556	560	561	562	561	560	560	562	553	555	557	556	553	550	549	548	557	561	561	559	558	564	567	566	560	559	558	557	557	555	559	569	566	562	560	561	562	572	572	572	568	568	567	563	559	563	566	567	568	568	568	562	561	567	567	565	569	568	567	566	563	561	561	563	560	554	558	559	556	563	559	557	559	558	568	565	558	557	555	553	559	558	554	552	557	563	567	571	575	579	577	571	565	562	562	566	578	578	581	571	568	568	569	572	566	570	567	569	580	579	583	576	570	567	563	564	568	577	578	578	577	574	573	573	571	567	565	565	570	574	579	579	578	580	583	584	583	583	588	590	589	573	570	574	579	579	577	577	576	577	576	576	576	572	580	581	571	569	569	569	573	579	582	584	586	578	567	565	565	571	580	584	586	585	585	586	587	587	0	0	0
506	506	511	508	511	511	506	497	498	505	505	506	500	501	504	504	510	507	508	515	515	520	518	516	515	516	509	507	506	507	510	510	512	516	519	518	517	518	515	506	506	505	505	506	506	508	513	519	520	520	515	506	501	499	499	503	508	509	508	508	511	514	516	525	528	523	518	520	518	518	517	514	511	510	511	512	516	516	514	513	513	517	512	507	506	505	512	512	512	507	501	497	497	503	506	506	506	507	509	508	509	503	513	511	509	508	507	504	504	510	509	510	508	510	506	499	495	507	511	510	512	508	509	510	511	511	512	511	506	505	502	502	507	507	504	506	506	508	512	515	520	516	512	505	504	506	508	509	505	505	504	499	502	513	513	518	523	525	525	520	520	517	518	519	516	511	505	512	515	519	526	520	519	520	519	517	518	520	521	521	522	521	522	515	510	515	519	521	523	521	518	516	515	509	510	514	516	516	517	521	522	522	521	518	515	514	519	512	513	522	518	518	518	520	521	526	524	526	519	518	522	526	527	524	519	519	523	528	528	517	519	519	523	522	521	520	523	526	530	533	533	533	534	522	518	520	524	529	531	529	526	523	531	532	531	527	526	528	531	534	535	535	531	528	523	525	525	526	527	526	525	525	525	527	527	531	532	531	529	524	523	524	530	533	537	532	535	538	538	539	540	529	530	531	536	537	539	539	537	528	539	535	529	531	539	536	516	524	526	530	531	527	527	527	527	522	527	532	535	538	534	540	555	554	552	550	540	535	534	538	533	535	521	528	533	532	531	529	534	541	542	535	532	532	536	539	535	547	543	546	546	544	541	530	531	531	534	538	528	540	530	532	531	531	529	533	536	537	543	543	544	544	544	543	540	530	533	538	543	544	546	547	550	551	549	542	544	548	553	556	561	561	555	554	550	548	547	562	556	555	553	549	541	541	541	540	541	536	536	544	550	545	541	539	539	536	539	549	547	546	545	539	548	550	556	557	554	549	546	544	543	541	539	544	547	552	559	552	548	547	546	540	550	554	551	551	556	552	550	550	542	549	548	548	548	551	555	558	557	560	564	560	558	557	557	555	555	546	549	550	552	551	552	551	550	562	557	551	557	562	559	556	560	558	558	557	554	549	547	552	555	552	551	553	552	552	556	555	554	551	562	562	562	552	553	554	553	553	557	557	553	553	563	566	558	557	565	564	566	563	564	568	564	552	549	551	556	557	554	555	554	552	554	555	559	557	555	550	551	550	551	550	551	554	563	570	579	580	573	572	568	563	561	561	563	570	568	563	566	564	565	563	566	566	566	569	570	569	572	571	567	566	564	563	565	569	573	577	572	567	563	566	567	571	568	568	572	573	573	574	581	582	583	574	573	578	579	586	581	581	564	565	575	575	571	571	570	573	575	575	574	571	570	570	572	571	569	569	569	568	574	578	568	565	570	576	571	571	569	577	579	580	582	581	580	580	578	0	0	0
502	502	507	503	498	493	493	493	498	504	504	507	505	501	501	501	505	508	512	517	517	520	520	520	516	507	507	503	502	503	505	505	509	513	514	519	518	515	514	507	505	505	506	507	507	511	514	518	518	511	506	495	495	491	494	495	503	505	508	512	512	513	517	523	523	523	517	518	518	513	513	511	507	506	507	509	514	513	509	512	508	508	505	506	503	504	502	507	506	501	495	499	501	502	503	506	506	506	505	504	506	504	508	510	507	507	502	498	502	503	503	504	505	505	501	497	496	496	506	508	498	504	507	509	512	514	515	511	499	496	499	498	500	500	501	505	506	508	511	511	511	510	510	504	506	505	500	497	499	500	500	501	501	507	509	513	513	517	518	517	514	514	508	494	489	497	496	509	516	519	515	512	512	514	513	513	508	510	513	517	519	517	512	513	515	518	519	521	519	518	515	515	517	508	511	514	516	514	515	516	521	520	522	518	518	519	517	513	504	514	517	510	509	515	519	523	521	519	517	519	517	519	515	517	520	525	530	517	513	516	518	518	520	520	516	515	520	527	528	533	531	532	524	517	517	518	522	527	529	528	521	516	516	521	528	525	522	522	526	532	534	533	528	522	515	523	517	516	524	527	526	526	526	529	528	507	504	511	518	524	522	521	535	535	535	533	531	529	536	538	540	527	524	530	534	534	535	533	531	522	522	520	522	526	530	530	528	526	524	524	527	523	526	525	521	513	519	529	534	538	533	535	536	546	550	551	539	536	535	535	539	535	537	542	542	544	542	529	529	529	530	528	531	532	535	533	532	533	544	546	546	539	531	527	530	530	523	525	528	530	541	529	533	533	536	540	538	541	542	543	541	542	533	540	542	534	522	534	539	543	545	544	549	550	547	541	543	544	550	548	547	546	548	549	548	547	546	545	546	545	546	546	538	537	536	537	536	538	540	545	549	550	536	536	534	534	535	534	539	540	540	540	536	533	530	532	539	540	542	543	541	540	543	550	551	547	545	542	539	537	540	544	538	545	547	549	552	544	551	552	553	553	545	542	548	546	548	549	554	558	555	557	556	555	555	550	549	548	552	552	551	549	552	549	558	558	554	549	549	553	557	556	545	546	554	554	549	549	547	548	548	547	548	549	551	552	551	549	544	543	538	556	555	547	541	538	534	533	540	547	548	550	552	551	551	553	552	565	565	565	567	570	555	551	553	560	558	556	548	546	546	559	561	558	551	556	556	550	545	545	545	550	560	563	566	572	574	573	575	567	566	566	564	563	565	568	567	562	557	563	560	562	564	565	567	568	567	570	569	568	564	563	562	561	562	568	570	568	565	562	567	567	566	562	560	562	566	566	573	574	573	570	571	568	564	563	564	572	572	564	560	565	572	577	577	573	569	572	575	574	569	563	563	564	566	568	568	570	571	573	570	568	564	562	570	571	571	572	571	577	578	577	576	574	574	574	572	0	0	0
494	503	503	503	494	496	496	495	500	504	506	506	505	500	501	498	498	507	514	519	521	521	520	516	511	507	503	500	499	500	500	502	502	509	511	513	517	514	512	511	507	506	506	509	512	512	512	513	510	505	504	493	493	488	486	488	492	499	501	503	506	506	511	518	517	514	510	512	507	507	507	508	506	506	505	510	510	510	507	506	507	505	505	505	505	511	505	503	501	498	496	499	497	503	501	502	505	506	506	503	500	506	499	495	494	495	501	498	499	500	501	503	506	506	507	502	496	496	508	507	507	502	504	508	511	515	516	500	496	495	491	496	500	501	503	504	505	506	502	505	505	506	505	504	504	502	499	499	497	499	500	501	505	507	512	511	510	507	502	504	506	505	498	496	495	495	490	500	505	507	506	498	507	508	509	517	511	510	510	513	512	504	505	510	511	515	517	516	515	512	510	514	516	510	510	516	516	513	511	512	518	520	520	519	520	518	517	506	506	519	515	510	506	511	518	522	520	517	514	514	517	517	516	516	519	526	526	512	507	515	519	523	524	520	514	514	515	524	528	526	526	521	522	514	515	517	519	521	520	517	515	519	509	518	519	521	521	519	518	517	518	519	519	519	510	514	514	516	519	524	527	526	526	524	522	504	503	516	515	508	509	510	524	528	527	524	517	522	523	514	516	517	517	526	529	530	527	526	526	524	521	522	526	529	529	529	530	521	520	522	524	533	528	523	521	519	510	519	527	527	527	520	522	533	533	528	525	530	534	532	526	531	534	538	537	529	527	524	527	525	527	526	529	532	536	536	532	531	530	530	529	527	524	525	530	526	526	529	525	526	527	539	531	534	538	540	543	542	542	542	541	529	529	540	540	534	531	532	534	536	538	544	547	548	538	538	541	540	534	532	532	535	538	543	541	545	545	544	538	535	540	542	538	536	539	539	538	537	540	541	543	530	531	534	533	534	533	533	533	539	538	538	533	531	529	531	536	535	539	541	542	542	548	548	547	546	541	540	537	537	536	538	546	541	543	545	548	539	539	541	540	541	542	541	544	543	547	546	549	549	553	553	553	549	549	545	549	556	554	551	545	544	540	541	550	554	550	549	547	549	554	545	542	545	542	542	547	548	546	543	546	543	540	538	541	544	548	544	543	540	538	539	543	532	539	539	540	539	537	534	539	548	551	552	551	550	551	556	562	555	549	549	546	550	552	559	556	549	549	551	553	558	559	554	547	553	554	552	545	546	547	547	558	562	568	567	570	569	563	563	563	565	565	564	564	565	564	561	557	557	560	560	559	564	577	566	566	568	565	563	558	560	560	557	557	561	565	565	565	568	565	563	562	560	557	558	558	564	571	573	568	569	570	569	563	563	564	565	565	559	556	563	569	569	569	572	570	569	571	570	566	560	558	559	559	566	566	563	562	566	568	567	565	561	558	558	558	568	571	574	575	574	572	569	569	569	569	0	0	0
488	495	495	491	496	496	496	496	498	499	494	494	493	495	496	491	491	500	510	513	513	513	511	512	507	503	495	495	495	496	496	495	495	505	506	507	514	512	511	509	507	502	505	509	504	504	503	503	503	504	503	493	487	487	483	485	489	494	499	501	501	501	508	511	506	508	498	503	502	503	500	500	504	506	507	508	509	507	505	505	504	503	505	503	506	510	509	507	500	497	494	496	500	500	500	499	501	500	500	500	492	496	492	491	491	491	490	500	496	499	500	502	505	508	504	505	512	509	507	511	510	506	503	502	500	501	501	500	499	493	492	495	495	501	503	503	502	500	501	502	504	504	503	501	498	500	499	496	497	498	498	502	501	501	509	507	505	502	501	497	501	500	496	499	499	497	497	499	502	503	499	494	494	504	502	515	508	507	506	508	508	508	508	504	507	507	516	515	508	502	501	504	514	516	512	516	514	510	506	508	514	516	518	519	522	523	517	511	511	517	514	507	505	512	515	521	512	509	507	505	511	513	510	513	515	520	525	512	505	506	519	524	525	524	516	512	516	520	519	522	513	511	511	513	514	516	520	520	521	521	519	515	520	519	518	519	519	519	517	516	518	517	521	512	512	512	513	514	517	519	525	526	525	524	522	518	520	514	509	509	506	515	513	521	524	521	508	515	515	519	522	521	516	518	522	521	519	520	520	526	527	523	522	527	525	525	517	518	519	521	528	536	533	529	522	520	518	516	514	513	512	512	518	525	529	524	519	513	514	519	519	522	531	521	523	520	519	512	513	514	519	518	521	528	530	534	533	527	522	526	524	525	530	529	529	529	529	522	525	519	521	521	535	539	540	539	538	543	537	534	529	525	525	535	530	528	527	527	521	522	535	543	544	541	535	529	527	528	527	527	527	527	528	527	530	537	535	534	535	536	542	543	542	543	542	541	540	533	528	521	522	524	523	527	526	526	529	530	535	544	543	541	539	536	531	530	531	531	534	537	537	540	540	546	538	536	537	536	535	541	542	547	539	536	532	534	548	539	539	543	540	539	542	541	541	540	545	544	541	543	544	547	547	533	534	540	543	546	545	546	544	541	535	539	543	548	547	543	533	540	544	542	541	542	542	540	540	543	541	540	535	536	537	538	540	541	540	538	540	539	535	539	536	529	540	546	544	542	541	541	540	543	550	554	553	548	544	543	549	548	541	539	541	548	549	551	554	549	548	550	553	552	548	545	543	547	550	548	541	545	545	542	547	560	563	566	565	562	555	554	554	559	559	558	556	556	558	557	556	557	558	557	564	567	566	570	564	565	568	566	557	551	555	557	558	559	560	561	564	566	568	562	560	564	566	566	566	563	558	568	568	568	568	559	558	560	560	560	558	556	559	562	563	563	562	561	567	567	569	566	562	555	554	554	553	553	552	561	561	562	565	567	569	567	559	559	558	566	566	569	571	571	567	566	566	565	565	0	0	0
487	489	494	494	496	495	497	497	499	492	492	491	491	492	496	491	487	492	505	509	506	502	502	504	501	498	495	490	490	492	493	495	501	501	502	511	515	512	509	500	499	501	507	503	498	493	493	495	498	502	496	487	491	491	488	490	489	492	497	498	502	503	503	502	497	496	498	488	490	490	498	498	496	499	502	502	502	504	503	503	499	499	503	500	505	510	507	497	495	492	490	490	490	497	498	498	498	489	490	490	491	496	492	490	489	490	492	487	496	499	500	501	501	508	505	508	511	508	507	511	510	506	503	505	507	501	502	502	500	500	494	493	493	497	502	503	499	498	500	501	501	504	502	499	495	498	495	495	496	498	499	502	501	499	496	497	497	495	495	498	501	504	497	497	498	498	497	499	499	502	497	496	493	498	501	499	499	501	503	506	505	507	509	502	501	502	513	512	510	504	500	503	500	514	517	516	513	509	508	509	511	514	511	515	518	511	513	510	506	495	498	500	502	505	509	510	512	510	507	500	502	505	510	513	511	511	513	511	513	514	514	526	516	516	519	513	518	519	520	508	508	511	510	508	509	511	515	514	521	522	521	515	518	514	517	518	519	518	518	517	518	519	522	524	519	515	513	513	512	521	517	524	520	519	520	516	519	511	511	507	512	505	508	513	520	518	509	510	515	519	520	518	517	516	518	520	521	524	521	525	527	529	525	521	519	518	515	519	520	525	525	532	527	525	525	521	520	516	512	508	514	518	521	521	529	523	519	513	503	504	515	514	520	521	521	514	513	510	509	515	519	518	516	516	519	531	528	522	525	523	524	527	527	525	527	525	516	520	521	518	522	516	519	518	536	541	539	532	540	531	528	523	520	520	529	525	525	516	516	526	529	532	541	537	531	523	524	525	523	524	527	527	526	527	528	525	525	524	524	530	530	533	533	537	539	537	530	530	525	520	519	521	531	531	527	527	526	531	536	543	541	540	538	534	531	528	529	528	530	534	537	539	541	537	536	533	536	536	539	538	543	537	536	534	524	534	538	541	546	543	542	546	547	546	546	539	543	531	539	538	538	536	532	530	533	538	543	539	531	541	542	544	537	537	541	542	541	531	532	540	541	544	550	547	544	543	542	535	534	534	528	527	534	538	541	541	540	537	537	536	533	529	532	527	535	542	540	543	540	538	537	534	538	547	546	542	541	539	541	539	539	538	538	540	545	543	542	543	543	552	551	546	541	546	546	543	544	541	541	542	539	539	541	543	548	560	558	557	553	553	553	553	554	553	550	547	548	550	552	553	555	559	560	561	561	557	560	562	567	567	557	541	540	555	555	557	554	557	559	559	562	556	554	561	561	564	556	548	550	557	560	563	565	555	549	549	553	555	562	557	558	558	558	558	560	560	554	554	566	564	561	551	549	550	550	551	550	550	561	565	564	560	557	555	567	563	559	555	562	563	563	563	565	565	562	561	562	0	0	0
489	490	494	494	494	495	494	494	499	492	491	491	491	493	494	487	493	493	504	504	500	497	497	499	499	491	490	490	495	493	492	495	496	496	504	500	499	499	500	499	485	487	500	500	490	487	487	488	490	495	495	491	491	492	492	491	492	494	495	500	502	499	499	495	491	489	488	479	482	487	490	492	492	496	497	498	499	502	502	499	497	497	500	487	487	492	493	491	492	491	488	487	490	493	493	489	490	489	487	490	490	490	490	488	489	496	492	494	493	494	494	497	494	505	502	500	499	504	506	505	502	502	505	506	505	506	501	494	497	496	489	490	489	493	497	497	500	497	497	500	500	501	501	500	498	494	494	494	496	498	499	501	503	498	496	494	495	492	493	499	504	506	496	497	497	496	493	491	492	495	496	496	494	493	496	499	497	497	498	497	503	505	509	501	497	499	502	503	506	508	509	507	506	506	507	508	507	509	513	511	510	506	499	496	499	501	512	506	504	494	495	497	499	499	501	499	510	508	505	503	503	504	507	511	511	510	512	510	514	514	510	523	522	522	517	517	519	518	516	504	506	510	508	508	508	509	511	510	511	518	522	518	513	514	517	516	516	517	508	509	501	518	522	514	519	519	514	512	511	510	516	514	511	509	508	508	511	511	511	508	503	508	504	518	509	513	512	509	515	518	519	516	515	515	516	521	522	522	523	522	521	517	516	513	507	504	523	528	528	526	523	521	519	519	521	525	520	516	511	510	517	516	513	519	521	519	526	511	504	503	503	515	516	520	522	524	519	510	513	518	519	519	517	517	524	525	527	526	526	525	522	524	527	520	517	512	511	510	517	520	519	506	506	509	507	515	524	526	524	521	519	510	512	518	536	530	520	518	526	530	531	530	536	532	529	523	523	525	528	520	527	528	526	525	525	520	519	519	519	521	521	527	524	527	531	526	526	528	525	525	521	528	529	532	531	527	527	526	533	539	532	531	528	528	533	534	531	530	532	531	537	539	543	538	537	534	540	537	531	533	534	534	534	532	521	532	537	539	544	543	542	537	536	535	531	527	531	528	533	534	541	541	533	531	530	533	539	533	528	524	537	539	539	537	537	538	538	529	529	536	542	546	551	548	541	539	537	535	536	527	529	525	536	542	541	540	540	537	536	534	533	532	525	525	528	534	534	541	534	529	531	529	528	537	539	538	541	534	538	537	528	534	536	535	539	542	544	547	549	552	548	544	538	535	540	541	541	542	539	538	536	534	537	544	545	552	551	553	554	551	554	554	552	551	545	545	543	550	552	553	555	554	557	556	552	551	556	558	562	561	551	550	536	534	537	540	544	545	548	554	558	561	555	555	555	560	551	545	543	551	555	558	561	555	550	550	546	541	547	561	554	554	556	558	554	550	540	551	561	560	552	549	539	545	545	544	546	545	547	551	547	545	551	555	555	552	551	552	559	559	557	559	559	561	559	557	557	0	0	0
489	494	490	490	491	493	493	497	497	493	491	492	492	493	494	484	493	480	482	484	484	489	495	495	497	488	493	495	491	489	488	491	496	496	496	494	490	489	486	485	488	487	485	486	485	482	487	487	491	492	496	492	490	490	486	486	488	493	496	496	500	493	487	487	486	482	480	482	485	484	486	488	490	490	492	493	494	493	492	489	483	483	485	483	484	484	486	487	489	490	491	492	492	491	492	492	489	488	485	488	490	490	485	487	488	494	492	492	493	492	492	493	503	497	488	486	478	479	491	498	501	497	505	505	506	502	498	489	491	485	484	473	482	487	492	494	492	492	495	496	495	499	500	499	496	492	493	493	496	498	498	494	492	494	492	491	492	491	493	500	506	494	496	496	494	495	492	491	491	495	496	495	493	491	493	497	496	493	494	488	493	496	495	494	497	499	501	497	498	503	505	506	505	503	506	507	506	504	501	498	499	498	494	491	492	492	500	506	508	507	494	494	495	495	497	499	501	505	504	503	502	504	505	506	506	504	510	511	504	502	501	499	509	515	510	509	516	515	502	501	500	505	505	507	508	504	506	507	510	516	520	509	510	502	503	505	507	508	506	506	505	494	502	507	510	506	508	511	509	508	510	510	510	508	506	506	506	511	510	508	504	505	504	503	507	512	508	506	513	515	516	516	516	514	514	510	510	517	516	516	513	512	516	515	503	502	501	515	525	522	519	517	516	516	518	511	508	507	513	513	511	506	507	505	508	509	504	501	501	501	502	508	509	509	505	514	519	520	519	522	523	523	522	513	513	518	520	522	525	521	520	519	507	511	513	507	507	527	526	515	513	510	503	503	503	504	506	517	522	522	517	517	519	519	521	524	529	527	527	528	527	527	524	528	524	523	524	522	519	528	526	525	525	521	521	517	516	514	514	515	515	515	517	518	520	520	524	524	523	524	526	526	526	526	528	526	525	522	520	521	521	523	526	528	533	535	534	531	532	536	536	538	541	542	537	541	528	528	527	529	530	528	532	526	521	529	528	528	530	531	533	536	533	526	521	522	526	526	527	536	519	518	531	529	527	529	537	533	529	533	540	538	538	534	523	529	534	529	524	529	534	539	543	540	536	534	535	524	524	534	528	530	529	535	539	539	536	530	530	527	531	529	525	525	526	528	530	525	529	529	529	525	523	531	534	536	539	533	532	526	529	529	531	532	535	542	546	549	548	551	551	550	536	532	535	537	541	543	543	541	532	532	536	541	541	543	544	551	550	550	551	552	552	544	540	540	545	549	548	546	549	553	553	551	547	546	542	551	545	546	549	549	549	546	547	537	537	537	539	544	556	551	551	549	550	552	548	539	538	547	553	556	558	553	543	551	544	539	540	540	540	542	546	551	545	537	539	551	553	553	555	541	549	549	548	539	541	541	543	545	541	538	536	551	549	548	548	549	548	552	552	554	554	556	554	555	549	0	0	0
485	487	490	490	490	489	493	490	490	489	489	488	491	491	491	480	480	485	485	484	485	490	494	494	489	494	502	491	491	488	485	486	490	492	492	491	487	490	490	488	487	485	485	486	484	483	487	488	488	497	497	495	491	484	485	485	488	493	496	496	489	486	485	485	485	483	483	482	488	487	479	484	486	486	486	488	489	490	488	487	483	484	482	483	483	479	479	483	484	487	492	491	489	489	491	493	491	491	493	488	487	485	485	487	487	488	487	486	487	487	486	486	484	484	484	479	474	476	489	495	478	474	484	497	498	495	489	480	484	483	484	476	473	476	478	479	481	480	480	489	491	492	493	494	492	482	482	485	489	490	493	493	491	488	487	485	480	476	476	489	493	496	497	497	498	491	491	495	496	496	493	493	493	493	491	493	491	493	488	486	489	492	492	494	497	498	494	489	492	497	499	501	503	504	511	496	494	500	497	498	493	490	491	489	488	489	495	501	506	503	504	495	493	495	497	495	498	497	497	499	499	501	502	500	501	505	507	506	500	496	493	496	497	506	504	504	498	497	498	498	493	492	499	500	506	506	499	503	505	503	509	505	503	500	502	506	505	506	505	505	505	492	491	505	507	506	502	501	500	499	505	507	505	505	506	506	508	509	509	507	496	501	501	503	501	498	499	502	503	508	508	507	501	497	502	508	503	507	507	509	514	509	516	508	508	507	500	502	508	519	509	504	508	510	511	510	508	509	509	509	509	505	508	509	508	508	497	497	499	497	499	500	505	500	503	504	511	518	519	519	520	506	499	502	502	503	509	513	514	514	515	513	504	502	508	515	512	509	511	510	501	499	496	506	510	509	500	505	509	513	512	520	521	519	517	518	517	517	516	519	524	523	522	521	523	522	520	518	519	515	526	524	519	521	512	507	507	507	508	513	511	513	511	513	515	517	519	513	520	529	528	525	520	527	514	520	516	515	513	515	523	516	518	512	527	531	531	526	530	532	533	534	534	532	528	526	525	527	528	524	526	524	526	523	517	521	520	525	527	527	529	521	523	517	516	516	517	525	525	520	523	524	512	523	520	516	529	520	517	528	533	536	530	516	526	526	529	529	520	522	523	524	529	532	530	527	528	526	525	527	525	524	521	525	529	532	533	529	524	526	529	528	528	526	526	524	523	527	529	531	531	523	522	528	527	527	537	537	537	531	532	530	527	528	536	543	544	547	546	551	545	548	542	531	533	537	544	547	555	544	541	531	535	540	539	532	531	531	532	545	546	546	547	543	540	543	543	545	547	543	546	551	549	548	544	538	535	537	536	534	543	545	543	544	542	545	533	531	531	538	544	544	546	543	544	546	547	542	533	543	549	554	556	553	551	539	536	536	537	537	537	538	542	537	537	538	539	546	550	554	557	552	552	552	547	544	536	540	541	541	538	535	535	536	537	539	544	544	542	540	547	547	550	552	552	551	549	0	0	0
483	484	483	481	481	483	488	490	485	485	486	480	472	472	476	480	484	485	486	487	483	488	486	486	477	482	489	488	488	488	487	487	487	487	485	485	484	487	485	484	485	482	483	486	487	487	487	492	492	495	495	493	489	484	482	484	484	484	485	480	481	484	486	486	486	486	483	484	486	486	486	480	480	481	481	481	485	489	489	489	485	485	484	484	476	477	477	476	478	485	489	488	485	484	490	491	490	488	485	490	485	485	486	486	485	484	481	482	481	482	483	486	484	484	482	485	482	483	479	479	477	473	474	481	484	483	482	484	483	480	478	475	476	479	479	474	475	473	473	475	481	488	492	492	487	478	482	481	481	485	488	492	492	486	482	481	478	476	485	489	494	495	496	498	494	487	489	490	492	484	482	486	492	490	490	494	490	490	490	494	494	494	491	490	495	486	482	483	487	489	492	494	494	500	502	497	494	494	495	497	495	491	489	488	488	489	493	499	502	507	503	502	495	495	495	491	489	491	496	498	498	498	499	500	501	501	499	500	500	493	492	495	495	495	498	489	493	494	494	493	492	492	496	505	497	497	495	498	498	499	501	496	498	500	506	504	501	503	503	500	496	492	496	500	502	498	498	498	495	499	504	505	501	499	496	506	506	507	506	500	495	487	495	501	498	497	497	497	500	505	505	507	492	497	504	498	493	503	506	502	508	509	504	501	499	502	508	502	503	504	502	500	498	505	507	504	506	508	509	509	508	508	509	509	505	506	501	494	495	497	500	500	503	500	501	501	506	515	518	513	503	495	493	496	500	500	501	502	506	510	509	511	498	498	505	511	503	502	490	494	500	500	498	497	501	506	507	502	499	499	502	509	519	521	517	512	509	509	514	518	521	519	521	522	524	524	522	513	512	510	509	519	518	513	509	514	514	514	513	516	512	509	511	510	511	512	518	509	522	527	526	523	518	515	512	518	512	510	510	514	521	517	517	513	513	525	520	522	527	531	532	532	531	531	535	525	528	522	523	522	516	514	512	513	513	517	517	521	520	521	521	523	520	513	513	513	515	512	514	516	521	522	520	509	515	506	505	518	522	525	528	530	528	515	520	524	527	524	518	521	519	520	526	526	527	523	522	520	520	522	521	521	521	525	527	527	527	527	527	528	531	529	526	523	522	524	528	529	530	530	531	532	530	526	527	532	533	534	533	531	530	528	526	527	529	542	543	543	544	538	538	532	531	532	532	531	531	530	539	536	534	535	533	531	529	525	524	525	526	527	529	541	543	548	539	537	541	540	541	541	545	549	543	542	540	538	531	534	532	533	537	541	544	543	537	537	536	528	531	531	533	536	539	541	538	538	539	530	525	529	527	542	543	542	541	538	536	536	536	534	533	538	537	537	533	536	538	538	545	551	544	544	549	550	548	539	535	535	539	539	535	536	535	534	535	533	535	540	539	537	540	540	545	545	548	549	549	0	0	0
479	477	480	482	481	481	482	484	478	478	476	474	476	481	481	486	485	486	487	479	480	478	474	474	474	482	488	489	488	488	488	488	487	483	484	484	484	484	482	482	482	483	481	484	486	487	492	492	491	491	490	483	482	480	479	481	481	478	476	482	481	485	485	484	482	482	482	482	483	484	483	479	479	481	484	484	483	486	488	488	486	484	485	482	478	477	472	472	476	479	479	479	476	478	484	489	488	482	479	482	491	483	482	479	481	481	479	478	478	481	479	480	485	485	488	486	480	481	477	475	475	473	473	476	480	480	479	481	482	480	478	478	480	475	475	475	473	475	475	478	485	486	488	487	479	480	479	486	486	488	489	490	487	485	481	481	479	486	488	493	495	498	497	499	494	491	487	485	477	478	485	486	487	489	489	492	491	489	492	494	493	494	494	494	484	481	483	488	489	490	489	480	492	489	498	498	497	495	496	497	497	494	493	480	482	486	490	493	492	495	502	502	492	495	491	487	488	488	489	495	496	496	496	496	499	494	495	495	498	496	491	490	490	489	490	494	497	500	499	495	494	494	495	504	497	497	495	493	492	493	493	493	495	501	506	499	498	500	500	499	496	501	498	498	495	496	497	499	499	501	501	503	500	495	492	490	489	502	494	492	490	486	488	491	497	495	497	497	490	494	490	492	498	496	496	495	507	498	497	493	494	503	505	504	502	503	495	498	499	499	497	493	494	497	500	504	506	508	505	504	506	502	508	503	498	500	502	492	490	495	497	499	500	501	500	500	503	507	512	506	501	493	496	491	493	497	499	502	503	505	507	504	497	498	497	499	499	492	490	493	499	500	494	493	496	503	506	500	504	502	501	500	500	510	512	511	505	507	503	516	516	517	519	524	525	524	522	512	507	507	511	513	512	511	508	508	521	523	518	513	512	512	510	509	507	510	508	508	508	509	516	515	514	513	516	516	514	516	512	515	519	514	509	505	518	520	518	517	520	518	521	521	522	528	527	524	521	520	518	517	516	515	513	513	515	514	516	519	520	519	520	522	510	510	512	513	512	509	512	515	517	519	517	505	504	502	505	513	520	523	521	520	526	516	517	521	523	516	518	518	516	516	518	522	523	521	521	520	520	521	521	520	521	523	525	521	525	527	529	529	529	527	523	521	522	528	532	531	532	528	525	525	522	519	529	530	534	534	533	530	530	525	527	525	531	532	541	541	537	537	537	533	533	526	525	527	529	526	529	528	535	534	530	528	525	521	515	518	521	520	522	523	526	527	528	524	529	532	533	533	541	535	536	536	536	534	530	528	530	530	533	526	533	536	538	535	531	529	529	530	536	540	541	535	535	535	533	530	524	522	517	519	532	535	536	536	535	535	535	530	532	533	533	530	528	528	524	534	533	533	538	538	537	545	544	536	538	539	543	537	536	536	536	533	531	534	535	534	538	540	540	541	540	541	545	549	549	0	0	0
476	476	479	482	478	478	478	478	478	474	474	476	477	481	481	484	480	479	479	476	476	477	472	474	474	479	485	488	489	488	487	484	483	482	481	482	482	477	478	479	478	481	479	480	482	483	491	492	489	489	480	475	476	478	479	472	473	473	478	480	484	486	487	483	480	477	477	480	483	480	481	476	476	481	484	484	484	484	485	485	481	480	479	478	477	471	476	474	474	476	476	477	479	477	478	479	477	474	473	476	486	479	482	478	477	471	471	471	477	478	478	475	474	480	480	473	471	473	478	474	474	473	474	476	472	479	485	485	484	482	480	476	479	476	474	477	476	475	476	477	477	478	479	482	480	479	480	486	486	487	486	484	482	479	481	482	486	488	490	494	497	497	498	500	501	495	484	479	471	474	483	485	485	485	486	491	488	484	491	489	486	488	493	485	482	479	477	482	481	482	481	479	480	487	493	495	502	503	501	494	495	496	487	484	481	485	486	489	489	488	491	500	488	490	489	487	486	486	485	486	489	488	488	493	495	489	491	490	490	491	489	491	492	490	490	497	499	500	497	492	490	490	496	494	494	495	496	494	493	497	498	496	494	501	498	496	495	493	494	494	493	499	496	496	494	495	495	499	499	499	493	491	493	494	493	490	489	488	485	486	485	485	487	495	501	504	503	497	494	486	486	489	490	496	493	493	495	495	497	494	494	492	508	504	504	492	492	497	501	500	498	490	490	491	494	498	504	501	500	497	494	503	505	494	494	492	491	494	490	486	497	499	498	499	497	492	489	492	501	501	500	497	493	485	493	507	503	504	503	498	495	493	493	501	501	499	497	495	492	497	500	500	488	488	496	495	497	498	497	493	492	498	503	505	505	504	504	505	501	502	501	503	506	508	514	525	519	510	501	506	510	511	511	509	507	521	529	523	514	506	504	505	506	506	505	506	508	506	505	503	510	512	512	512	510	510	509	509	509	513	514	514	508	502	497	495	496	513	516	513	512	512	513	513	523	522	521	520	517	512	510	512	512	512	513	514	515	519	522	518	516	513	509	509	511	512	512	507	510	513	517	517	516	506	505	501	509	513	520	521	520	517	511	518	519	521	516	516	515	517	517	516	517	518	519	522	522	517	519	521	516	518	517	516	518	518	524	527	527	528	528	524	519	517	523	533	531	535	526	524	520	520	522	521	524	532	534	533	529	528	527	524	520	516	514	528	529	528	534	536	529	530	527	526	523	524	523	527	527	526	526	530	530	524	523	518	522	522	519	519	521	517	525	525	527	528	521	515	518	525	522	526	530	529	530	531	527	527	526	525	525	531	531	531	529	532	530	530	529	530	533	533	537	534	530	528	525	523	524	521	517	518	522	523	520	518	518	518	523	532	533	530	530	527	524	525	524	524	525	528	528	533	536	538	534	530	534	538	542	533	533	536	536	533	530	531	537	536	538	538	538	541	539	536	537	546	545	545	0	0
472	472	473	474	473	471	471	473	471	472	472	473	475	477	479	479	474	474	476	476	476	472	470	469	477	477	477	483	485	487	487	481	476	477	478	477	477	473	475	476	478	479	480	477	477	478	477	484	476	475	475	478	475	474	472	470	471	474	474	478	482	484	472	479	475	479	479	481	481	478	479	475	475	481	484	486	486	481	480	480	478	477	478	479	477	471	468	474	474	474	475	475	477	476	473	472	473	468	471	471	475	479	479	457	460	463	473	473	477	479	480	479	478	479	476	472	472	473	474	476	481	480	477	479	482	480	484	485	486	483	478	473	476	479	479	475	481	479	482	478	477	476	477	478	479	481	482	484	485	485	480	472	471	472	474	478	487	489	490	492	485	480	480	478	483	484	482	478	475	476	484	484	484	482	474	478	481	483	489	481	482	483	482	482	478	477	476	478	478	481	483	481	482	488	488	489	501	481	493	481	481	487	485	485	481	477	483	488	489	488	489	484	490	482	484	491	486	485	481	483	484	483	482	482	483	486	487	488	486	478	490	489	488	490	491	490	487	485	490	490	489	493	494	494	496	498	499	499	493	495	491	491	498	498	498	494	491	491	492	494	495	493	491	489	492	492	495	494	495	495	490	488	492	495	495	491	493	487	485	493	492	488	488	492	501	501	503	499	491	487	488	489	491	496	491	492	496	492	497	494	491	491	507	484	493	492	495	496	499	496	501	492	491	492	492	498	497	498	497	496	495	486	488	491	486	486	489	495	494	488	495	497	498	498	490	487	485	491	492	495	498	498	495	491	490	496	506	503	498	497	494	492	495	498	498	497	493	492	490	491	494	503	499	497	491	496	497	496	498	496	497	496	501	503	499	498	501	501	503	503	506	508	503	502	503	502	497	495	496	500	507	508	505	507	506	519	510	508	502	505	507	505	505	505	505	505	508	503	503	504	503	507	510	507	508	508	510	506	500	504	506	507	508	502	497	497	498	501	504	506	502	503	503	509	513	511	514	516	514	508	503	501	503	505	512	511	512	518	509	514	510	507	506	508	509	509	509	505	510	511	513	514	511	508	504	504	509	515	516	520	518	514	518	518	519	518	514	515	515	518	518	516	516	515	514	516	520	515	515	511	513	512	515	514	513	515	523	525	525	517	515	520	514	515	520	522	521	528	524	521	518	518	519	520	526	529	532	527	525	524	522	511	509	510	509	521	524	524	521	521	523	523	518	513	513	520	519	520	525	523	524	530	526	522	523	525	525	524	522	518	516	515	520	523	526	527	520	515	510	507	511	516	521	525	526	520	513	523	523	523	524	526	528	527	526	525	525	528	527	527	530	526	530	533	531	528	528	525	521	522	517	518	519	519	520	516	516	518	524	529	532	529	528	524	521	515	521	521	523	523	528	533	534	532	528	526	529	531	531	529	529	534	534	531	530	530	534	535	540	540	540	539	536	530	525	539	541	541	0	0
466	467	467	470	470	470	470	470	470	472	468	468	468	472	473	473	467	470	473	476	472	472	469	470	473	473	473	475	479	480	481	474	471	472	473	473	474	474	470	475	476	477	477	474	473	472	471	472	473	479	479	477	479	469	469	470	471	472	472	470	466	469	468	474	475	476	481	481	477	476	478	480	479	479	477	478	476	476	471	472	477	477	478	477	476	467	468	466	465	465	465	473	477	482	477	472	471	468	469	470	470	468	465	459	459	464	468	478	478	478	481	475	478	478	478	477	475	475	474	476	481	479	476	478	479	482	480	483	485	483	474	474	476	480	480	478	480	478	483	482	480	480	473	481	479	480	479	479	474	469	472	476	475	475	474	473	476	479	488	484	482	478	474	475	477	478	480	477	474	474	478	478	483	476	479	476	483	481	481	472	473	472	472	477	475	470	471	474	478	479	481	481	480	483	483	492	474	486	486	481	479	483	485	481	478	476	474	476	480	485	483	479	479	485	487	486	480	479	480	481	484	485	483	484	481	476	477	479	481	481	481	498	484	486	488	490	485	485	487	486	487	491	492	494	491	487	485	487	499	490	481	477	484	497	493	482	481	481	487	491	492	493	489	489	488	486	489	491	482	481	481	482	487	488	489	486	491	489	488	491	491	490	491	495	498	499	499	497	491	486	489	492	494	493	491	495	494	498	495	494	489	480	482	492	496	496	496	497	498	500	501	496	489	492	492	496	495	497	496	497	488	487	488	489	490	490	486	492	490	491	490	497	499	496	486	484	488	491	490	491	491	499	498	489	486	500	503	501	497	495	492	491	494	498	497	497	495	490	492	496	502	502	493	492	490	496	497	498	492	491	496	497	497	497	497	496	497	500	503	501	501	503	503	500	500	500	496	493	495	497	503	504	502	505	510	500	495	497	507	506	508	504	505	504	505	505	508	503	500	500	501	504	507	504	501	501	501	503	495	500	502	505	508	507	504	503	502	501	500	499	500	502	501	500	502	493	506	508	505	505	498	499	501	502	505	506	506	506	507	513	511	509	510	508	507	507	507	504	507	511	512	513	512	508	504	504	506	509	511	518	514	513	512	517	512	518	513	514	514	517	516	515	512	509	507	505	513	507	502	503	504	507	508	512	511	514	521	526	526	518	512	513	511	515	517	516	518	519	519	513	512	513	513	516	521	522	522	523	523	521	518	506	492	494	498	519	521	518	514	511	510	517	517	512	513	520	522	522	519	524	518	523	524	525	525	524	523	523	521	519	512	512	517	522	517	525	518	514	510	508	513	513	518	521	519	511	507	496	517	520	520	524	524	525	525	526	525	528	526	524	525	512	522	527	528	527	528	523	522	519	517	513	513	516	516	516	513	512	524	529	533	531	528	524	522	515	513	511	511	513	511	512	530	528	526	524	525	527	530	530	529	532	531	527	526	530	533	535	535	538	540	538	536	528	525	525	525	526	0	0
466	465	465	466	464	469	469	470	469	470	468	465	464	467	468	464	464	468	470	472	472	469	471	468	470	470	470	465	467	474	474	471	468	469	468	469	469	469	467	468	472	474	474	473	470	466	468	470	468	472	470	470	475	469	469	470	469	471	470	470	464	462	466	472	473	478	477	473	473	476	472	478	479	473	474	471	473	468	468	470	472	474	476	475	474	470	463	460	459	459	459	459	470	470	471	472	471	461	460	468	466	463	461	459	457	460	466	463	476	476	476	476	480	479	475	475	476	474	472	468	467	467	475	477	481	475	479	484	484	476	472	473	476	479	481	483	482	467	470	479	477	469	470	472	474	477	475	473	472	470	472	475	475	475	472	472	474	477	481	483	480	474	473	472	470	476	477	478	470	469	471	476	475	481	476	475	481	479	474	468	468	468	466	475	476	468	467	471	474	477	478	479	478	475	472	472	472	472	473	474	476	480	481	479	471	472	471	471	474	478	481	477	475	469	478	480	481	482	480	481	482	482	481	480	476	475	475	474	477	482	484	489	498	485	486	481	477	478	484	483	485	488	490	490	488	475	474	481	478	478	479	480	486	495	490	480	479	477	484	475	483	482	482	482	481	480	485	483	482	481	481	482	484	489	489	488	488	488	488	493	490	488	494	495	494	496	484	492	492	484	482	494	495	493	492	495	497	489	490	487	486	484	487	491	493	495	500	501	498	492	499	496	482	487	489	496	487	489	484	482	486	488	487	486	486	484	491	480	486	487	492	493	492	490	484	485	486	486	481	481	493	499	485	484	490	494	503	500	491	489	489	490	490	492	492	489	490	490	489	497	499	494	492	491	491	494	498	495	492	490	491	491	492	492	491	492	489	500	498	496	494	494	494	499	498	495	494	493	494	497	498	503	500	498	497	493	493	499	502	499	499	503	504	504	505	506	508	506	498	496	498	501	507	508	502	500	497	495	488	491	491	496	507	506	503	502	501	504	497	499	504	503	504	504	501	492	503	505	501	499	501	494	500	498	501	501	498	503	506	513	510	508	509	509	506	503	503	505	503	506	507	508	506	503	503	505	506	508	509	508	504	511	509	508	515	513	507	509	510	510	512	511	506	503	504	500	509	506	501	500	501	511	510	509	504	508	514	516	517	515	511	504	513	515	515	511	499	497	502	504	504	503	501	501	508	514	518	521	519	518	512	506	491	489	502	518	519	518	513	508	509	513	519	516	511	514	530	524	520	516	509	510	516	517	522	520	516	514	515	506	508	512	513	518	517	517	509	514	510	507	511	512	515	521	518	511	506	507	517	521	524	519	519	519	520	523	525	528	526	522	509	506	506	511	514	516	519	520	522	521	521	520	514	515	515	515	514	512	513	519	520	526	525	525	525	515	510	512	512	513	508	509	515	524	524	524	520	522	522	525	529	528	525	523	525	530	533	535	535	536	536	535	532	530	525	525	521	524	0	0
464	465	458	458	464	466	467	467	466	469	465	464	463	460	458	460	460	466	467	468	469	469	471	467	468	461	461	464	471	467	468	468	468	466	464	464	466	465	465	464	470	470	472	470	463	465	467	467	467	466	466	467	467	466	467	468	469	469	468	468	465	462	462	465	467	470	470	467	467	467	468	472	463	470	472	474	472	471	469	469	465	469	468	469	472	465	468	459	457	460	460	460	466	469	468	467	464	461	458	466	465	463	459	455	456	458	459	462	464	473	473	469	473	473	473	474	470	472	470	465	463	465	467	472	475	471	478	480	478	471	469	469	467	471	471	470	468	466	465	464	465	470	470	471	472	473	469	466	466	468	469	470	473	472	470	471	473	476	480	480	480	479	478	470	474	472	470	470	467	467	467	471	471	470	476	476	474	474	470	472	469	467	473	475	474	468	466	464	466	467	473	475	476	473	471	471	472	477	476	470	473	470	472	470	469	467	467	468	473	478	469	468	465	473	476	472	482	479	481	481	478	478	469	472	474	480	477	479	478	486	489	484	482	480	474	473	473	477	482	477	482	483	485	481	475	473	473	479	476	485	484	473	461	466	480	477	479	477	483	475	474	484	474	479	484	483	482	479	479	482	479	480	483	489	490	488	484	487	487	487	483	486	487	489	491	486	487	486	483	485	484	485	493	492	487	492	488	486	485	482	480	483	486	491	494	494	494	494	495	483	490	488	490	486	486	484	486	485	482	481	485	488	486	486	484	484	484	482	481	480	486	491	486	482	482	485	486	488	490	489	489	489	489	489	492	493	492	483	484	484	488	487	478	484	481	481	488	484	486	494	497	495	490	489	486	496	498	489	476	483	483	481	476	478	479	476	485	486	491	493	490	491	493	494	493	496	493	493	495	498	493	496	499	494	490	491	489	497	495	481	486	499	503	499	503	503	504	503	499	491	490	490	494	496	501	499	494	490	489	487	488	491	510	507	503	501	501	500	502	504	502	505	505	504	500	506	503	503	499	497	494	507	507	502	498	495	493	502	508	506	508	507	504	504	501	499	499	500	503	502	503	505	504	503	497	499	505	511	509	504	502	503	509	508	511	507	508	506	507	506	503	502	505	501	501	497	500	499	502	501	502	500	505	508	502	505	508	511	511	502	503	508	508	515	504	497	494	500	501	502	502	501	496	492	502	503	515	517	519	507	493	494	489	490	511	517	516	518	509	509	510	511	517	514	510	507	514	516	514	512	508	505	504	500	507	515	511	510	497	502	507	510	514	515	517	512	508	510	512	506	503	504	511	515	514	507	507	508	518	514	514	516	516	516	517	521	524	525	524	514	505	504	503	505	511	511	515	518	518	521	527	524	524	524	515	514	514	514	516	518	518	521	521	521	522	521	519	519	518	518	519	521	522	524	518	516	516	518	518	521	529	526	524	522	519	528	533	533	530	531	527	529	528	530	526	526	521	524	0	0
462	461	458	458	461	462	464	464	465	463	464	463	456	455	456	456	461	461	464	469	471	471	468	467	456	458	462	462	465	464	465	466	466	466	465	463	464	460	466	466	468	470	470	463	465	462	466	468	468	461	462	463	463	463	464	465	466	462	461	461	461	457	459	462	464	471	468	465	465	465	468	459	463	467	470	468	468	465	463	463	460	462	464	463	462	465	465	463	460	459	460	464	464	467	467	468	464	461	467	467	466	463	461	453	455	458	460	462	463	460	462	462	463	462	466	469	471	470	469	465	464	464	465	464	467	464	467	468	471	467	466	465	464	464	464	464	464	465	466	465	467	467	469	468	471	471	467	464	464	464	463	467	467	467	465	464	467	474	474	475	470	471	468	464	466	467	468	471	466	462	468	468	468	464	463	462	463	464	473	473	470	467	468	469	474	470	465	465	465	465	468	470	472	476	476	473	483	482	480	475	474	467	468	467	467	469	470	476	472	480	468	465	461	472	469	468	483	480	480	480	475	475	465	477	472	477	475	477	478	485	484	478	478	476	469	470	472	474	473	476	479	479	480	481	476	473	474	473	467	466	463	467	467	470	475	476	477	483	489	484	473	473	474	481	484	486	484	483	477	480	476	478	480	482	487	491	485	482	478	479	483	485	484	486	486	487	482	483	486	486	481	481	481	484	485	486	487	485	480	477	479	481	488	492	496	492	490	492	483	478	482	491	489	486	482	484	484	484	485	484	483	483	485	486	484	484	483	483	482	481	479	475	475	474	481	486	492	495	495	491	485	485	477	486	492	492	486	481	486	485	487	480	473	481	484	481	479	480	482	489	496	485	482	480	479	480	486	482	479	479	478	477	476	478	476	475	482	480	489	489	490	490	490	491	487	485	488	499	502	502	501	491	490	488	486	482	488	486	483	479	488	490	497	499	500	501	491	488	490	490	489	490	493	496	499	496	490	489	490	494	493	489	510	507	502	493	491	495	497	498	500	503	506	508	507	505	503	503	497	494	496	501	507	496	491	492	492	493	496	499	500	497	504	504	501	499	502	505	504	505	501	501	503	499	501	504	505	506	506	502	499	500	502	507	507	505	507	509	507	505	500	498	496	498	502	503	499	500	502	503	501	503	503	505	501	503	506	507	504	501	499	497	502	504	504	497	498	491	491	500	501	498	495	490	497	496	500	512	503	497	492	490	490	489	511	513	508	516	508	506	509	512	516	513	509	504	502	503	504	508	507	506	506	498	496	497	498	497	496	497	500	507	511	512	510	510	511	508	511	507	505	505	510	510	503	510	507	503	508	510	510	516	514	516	517	517	515	513	505	499	500	503	507	507	510	512	512	512	514	520	530	522	522	519	511	509	513	514	514	511	507	503	506	510	517	522	522	519	517	516	517	517	517	510	512	509	505	505	507	510	523	520	521	521	520	519	519	520	524	526	525	521	522	524	524	522	522	522	0	0
459	458	458	458	458	461	462	467	467	468	466	456	456	448	450	455	464	464	466	470	471	468	468	453	448	454	455	455	458	461	464	466	466	466	465	462	457	460	462	462	466	464	467	461	462	461	461	459	460	458	462	460	461	461	459	457	465	457	452	455	456	456	457	458	461	469	466	464	462	461	461	458	460	464	462	459	464	462	454	458	458	459	460	459	458	462	462	460	462	456	458	459	466	466	470	469	467	464	466	465	463	462	458	451	453	458	460	461	457	456	460	457	460	460	458	463	468	467	465	463	462	462	459	459	462	462	462	464	465	461	462	461	461	458	458	459	460	461	466	463	465	461	463	466	474	474	473	470	462	463	464	466	464	465	464	463	464	0	0	0	0	0	0	0	0	0	0	0	0	0	0	0	0	0	0	0	0	0	0	0	0	0	0	0	0	0	0	0	0	0	0	0	0	0	0	0	0	0	0	0	0	0	0	0	0	0	0	0	0	0	0	0	0	0	0	0	0	0	0	0	0	0	0	0	0	0	0	0	0	0	0	0	0	0	0	0	0	0	0	0	0	0	0	0	0	0	0	0	0	0	0	0	0	0	0	0	0	0	0	0	0	0	0	0	0	0	0	0	0	0	0	0	0	0	0	0	0	0	0	0	0	0	0	0	0	0	0	0	0	0	483	481	480	482	483	485	483	478	477	478	479	479	487	491	496	492	488	475	469	470	473	488	484	485	482	485	483	485	484	483	482	482	486	487	488	480	475	480	480	476	474	473	473	473	479	486	489	492	493	494	489	485	476	484	488	488	481	480	484	484	479	479	475	470	484	482	481	483	484	482	478	478	476	471	472	474	480	480	479	479	479	479	478	478	466	467	477	481	490	485	488	488	483	0	0	0	0	0	0	0	0	0	0	0	0	0	0	0	0	0	0	0	0	0	0	0	0	0	0	0	0	0	0	0	0	0	0	0	0	0	0	0	0	0	0	0	0	0	0	0	0	0	0	0	0	0	0	0	0	0	0	0	0	0	0	0	0	0	0	0	0	0	0	0	0	0	0	0	0	0	0	0	0	0	0	0	0	0	0	0	0	0	0	0	0	0	0	0	0	0	0	0	0	0	0	0	0	0	0	0	0	0	0	0	0	0	0	0	0	0	0	0	0	0	0	0	0	0	0	0	0	0	0	0	0	0	0	0	0	0	0	0	0	0	0	0	0	0	0	0	0	0	0	0	0	0	0	0	0	0	509	508	509	498	497	501	505	506	499	502	504	505	509	508	508	509	511	511	511	510	507	508	506	504	503	506	504	506	508	508	507	513	516	512	513	510	511	511	504	496	499	503	505	508	509	508	508	507	514	513	512	512	514	515	507	504	510	514	511	507	500	501	503	506	510	517	519	518	518	517	515	511	509	510	511	509	509	505	506	510	519	519	518	511	508	507	507	509	510	507	502	512	522	519	519	518	516	516	0	0
456	457	457	458	456	458	457	450	450	448	450	454	448	446	449	455	465	465	465	465	455	462	453	453	452	453	456	454	454	455	461	465	465	465	463	451	450	454	464	464	464	462	460	460	460	461	457	457	456	454	459	461	461	461	461	462	457	457	451	453	454	454	455	459	459	458	461	457	456	457	457	455	459	460	459	458	458	453	454	455	458	458	457	457	458	459	463	463	457	456	460	464	466	460	460	461	459	455	460	456	458	455	452	451	451	453	459	456	457	453	459	458	455	458	458	458	466	465	463	459	455	453	456	459	460	0	0	0	0	0	0	0	0	0	0	0	0	0	0	0	0	0	0	0	0	0	0	0	0	0	0	0	0	0	0	0	0	0	0	0	0	0	0	0	0	0	0	0	0	0	0	0	0	0	0	0	0	0	0	0	0	0	0	0	0	0	0	0	0	0	0	0	0	0	0	0	0	0	0	0	0	0	0	0	0	0	0	0	0	0	0	0	0	0	0	0	0	0	0	0	0	0	0	0	0	0	0	0	0	0	0	0	0	0	0	0	0	0	0	0	0	0	0	0	0	0	0	0	0	0	0	0	0	0	0	0	0	0	0	0	0	0	0	0	0	0	0	0	0	0	0	0	0	0	0	0	0	0	0	0	0	0	0	0	0	0	0	0	0	0	0	0	0	0	0	0	0	0	0	0	0	0	0	0	0	0	0	0	0	0	0	0	0	0	0	0	0	0	0	0	0	0	0	0	0	0	0	0	0	0	0	0	0	0	0	0	0	0	0	0	0	0	0	0	0	0	0	0	0	0	0	0	0	0	0	0	0	0	0	0	0	0	0	0	0	0	0	0	0	0	0	0	0	0	0	0	0	0	0	0	0	0	0	0	0	0	0	0	0	0	0	0	0	0	0	0	0	0	0	0	0	0	0	0	0	0	0	0	0	0	0	0	0	0	0	0	0	0	0	0	0	0	0	0	0	0	0	0	0	0	0	0	0	0	0	0	0	0	0	0	0	0	0	0	0	0	0	0	0	0	0	0	0	0	0	0	0	0	0	0	0	0	0	0	0	0	0	0	0	0	0	0	0	0	0	0	0	0	0	0	0	0	0	0	0	0	0	0	0	0	0	0	0	0	0	0	0	0	0	0	0	0	0	0	0	0	0	0	0	0	0	0	0	0	0	0	0	0	0	0	0	0	0	0	0	0	0	0	0	0	0	0	0	0	0	0	0	0	0	0	0	0	0	0	0	0	0	0	0	0	0	0	0	0	0	0	0	0	0	0	0	0	0	0	0	0	0	0	506	498	508	509	509	507	508	504	503	502	501	501	500	500	502	507	507	505	501	497	508	505	505	503	503	510	501	501	512	511	509	505	502	500	501	502	510	510	512	514	516	518	513	507	507	507	506	505	505	504	505	509	515	513	513	508	506	506	505	506	505	508	506	506	515	515	513	514	508	506	0	0
455	455	454	456	456	451	445	444	445	445	451	450	446	446	448	454	454	455	455	447	466	447	450	450	452	454	455	455	455	456	459	464	464	463	463	446	447	451	454	461	461	459	458	456	456	457	454	454	453	453	458	461	461	460	460	459	456	452	459	455	456	457	457	460	461	462	457	453	453	456	455	455	457	458	458	459	456	453	453	454	456	453	453	457	458	460	463	451	446	447	444	444	445	448	454	454	454	449	450	454	455	453	449	452	0	0	0	0	0	0	0	0	0	0	0	0	0	0	0	0	0	0	0	0	0	0	0	0	0	0	0	0	0	0	0	0	0	0	0	0	0	0	0	0	0	0	0	0	0	0	0	0	0	0	0	0	0	0	0	0	0	0	0	0	0	0	0	0	0	0	0	0	0	0	0	0	0	0	0	0	0	0	0	0	0	0	0	0	0	0	0	0	0	0	0	0	0	0	0	0	0	0	0	0	0	0	0	0	0	0	0	0	0	0	0	0	0	0	0	0	0	0	0	0	0	0	0	0	0	0	0	0	0	0	0	0	0	0	0	0	0	0	0	0	0	0	0	0	0	0	0	0	0	0	0	0	0	0	0	0	0	0	0	0	0	0	0	0	0	0	0	0	0	0	0	0	0	0	0	0	0	0	0	0	0	0	0	0	0	0	0	0	0	0	0	0	0	0	0	0	0	0	0	0	0	0	0	0	0	0	0	0	0	0	0	0	0	0	0	0	0	0	0	0	0	0	0	0	0	0	0	0	0	0	0	0	0	0	0	0	0	0	0	0	0	0	0	0	0	0	0	0	0	0	0	0	0	0	0	0	0	0	0	0	0	0	0	0	0	0	0	0	0	0	0	0	0	0	0	0	0	0	0	0	0	0	0	0	0	0	0	0	0	0	0	0	0	0	0	0	0	0	0	0	0	0	0	0	0	0	0	0	0	0	0	0	0	0	0	0	0	0	0	0	0	0	0	0	0	0	0	0	0	0	0	0	0	0	0	0	0	0	0	0	0	0	0	0	0	0	0	0	0	0	0	0	0	0	0	0	0	0	0	0	0	0	0	0	0	0	0	0	0	0	0	0	0	0	0	0	0	0	0	0	0	0	0	0	0	0	0	0	0	0	0	0	0	0	0	0	0	0	0	0	0	0	0	0	0	0	0	0	0	0	0	0	0	0	0	0	0	0	0	0	0	0	0	0	0	0	0	0	0	0	0	0	0	0	0	0	0	0	0	0	0	0	0	0	0	0	0	0	0	0	0	0	0	0	0	0	0	0	0	0	0	0	0	0	0	0	0	0	0	0	0	0	0	0	0	0	0	0	0	0	0	0	0	497	495	495	489	490	499	500	505	503	504	506	508	507	506	501	500	496	502	499	505	509	515	513	507	508	503	501	503	503	498	496	505	504	507	507	504	507	507	506	503	505	505	506	507	506	506	513	511	505	506	501	0	0
452	452	453	455	451	457	452	449	449	449	447	445	444	448	448	452	451	446	445	445	438	443	447	452	452	449	451	451	456	456	463	461	462	447	446	444	445	446	452	450	452	452	454	454	456	456	454	452	450	452	453	455	455	456	456	456	456	457	459	453	462	461	466	466	464	462	456	456	453	455	456	457	452	456	458	458	454	453	453	454	454	452	452	452	457	458	458	0	0	0	0	0	0	0	0	0	0	0	0	0	0	0	0	0	0	0	0	0	0	0	0	0	0	0	0	0	0	0	0	0	0	0	0	0	0	0	0	0	0	0	0	0	0	0	0	0	0	0	0	0	0	0	0	0	0	0	0	0	0	0	0	0	0	0	0	0	0	0	0	0	0	0	0	0	0	0	0	0	0	0	0	0	0	0	0	0	0	0	0	0	0	0	0	0	0	0	0	0	0	0	0	0	0	0	0	0	0	0	0	0	0	0	0	0	0	0	0	0	0	0	0	0	0	0	0	0	0	0	0	0	0	0	0	0	0	0	0	0	0	0	0	0	0	0	0	0	0	0	0	0	0	0	0	0	0	0	0	0	0	0	0	0	0	0	0	0	0	0	0	0	0	0	0	0	0	0	0	0	0	0	0	0	0	0	0	0	0	0	0	0	0	0	0	0	0	0	0	0	0	0	0	0	0	0	0	0	0	0	0	0	0	0	0	0	0	0	0	0	0	0	0	0	0	0	0	0	0	0	0	0	0	0	0	0	0	0	0	0	0	0	0	0	0	0	0	0	0	0	0	0	0	0	0	0	0	0	0	0	0	0	0	0	0	0	0	0	0	0	0	0	0	0	0	0	0	0	0	0	0	0	0	0	0	0	0	0	0	0	0	0	0	0	0	0	0	0	0	0	0	0	0	0	0	0	0	0	0	0	0	0	0	0	0	0	0	0	0	0	0	0	0	0	0	0	0	0	0	0	0	0	0	0	0	0	0	0	0	0	0	0	0	0	0	0	0	0	0	0	0	0	0	0	0	0	0	0	0	0	0	0	0	0	0	0	0	0	0	0	0	0	0	0	0	0	0	0	0	0	0	0	0	0	0	0	0	0	0	0	0	0	0	0	0	0	0	0	0	0	0	0	0	0	0	0	0	0	0	0	0	0	0	0	0	0	0	0	0	0	0	0	0	0	0	0	0	0	0	0	0	0	0	0	0	0	0	0	0	0	0	0	0	0	0	0	0	0	0	0	0	0	0	0	0	0	0	0	0	0	0	0	0	0	0	0	0	0	0	0	0	0	0	0	0	0	0	0	0	0	0	0	0	0	0	0	0	0	0	0	0	0	0	0	0	0	0	0	0	0	0	0	0	0	0	0	0	0	0	0	0	0	0	0	0	0	496	496	499	507	511	507	505	503	501	492	492	493	494	491	495	495	497	501	502	504	504	502	501	494	493	497	498	502	502	507	505	505	502	502	0	0
446	446	449	451	457	457	441	441	442	443	443	445	448	450	450	449	447	443	440	440	435	437	442	446	446	448	449	449	450	450	457	459	454	444	444	444	438	444	445	445	443	443	442	444	445	448	452	449	449	450	452	453	454	452	451	451	449	450	450	453	454	456	462	462	460	458	456	456	456	457	453	452	452	0	0	0	0	0	0	0	0	0	0	0	0	0	0	0	0	0	0	0	0	0	0	0	0	0	0	0	0	0	0	0	0	0	0	0	0	0	0	0	0	0	0	0	0	0	0	0	0	0	0	0	0	0	0	0	0	0	0	0	0	0	0	0	0	0	0	0	0	0	0	0	0	0	0	0	0	0	0	0	0	0	0	0	0	0	0	0	0	0	0	0	0	0	0	0	0	0	0	0	0	0	0	0	0	0	0	0	0	0	0	0	0	0	0	0	0	0	0	0	0	0	0	0	0	0	0	0	0	0	0	0	0	0	0	0	0	0	0	0	0	0	0	0	0	0	0	0	0	0	0	0	0	0	0	0	0	0	0	0	0	0	0	0	0	0	0	0	0	0	0	0	0	0	0	0	0	0	0	0	0	0	0	0	0	0	0	0	0	0	0	0	0	0	0	0	0	0	0	0	0	0	0	0	0	0	0	0	0	0	0	0	0	0	0	0	0	0	0	0	0	0	0	0	0	0	0	0	0	0	0	0	0	0	0	0	0	0	0	0	0	0	0	0	0	0	0	0	0	0	0	0	0	0	0	0	0	0	0	0	0	0	0	0	0	0	0	0	0	0	0	0	0	0	0	0	0	0	0	0	0	0	0	0	0	0	0	0	0	0	0	0	0	0	0	0	0	0	0	0	0	0	0	0	0	0	0	0	0	0	0	0	0	0	0	0	0	0	0	0	0	0	0	0	0	0	0	0	0	0	0	0	0	0	0	0	0	0	0	0	0	0	0	0	0	0	0	0	0	0	0	0	0	0	0	0	0	0	0	0	0	0	0	0	0	0	0	0	0	0	0	0	0	0	0	0	0	0	0	0	0	0	0	0	0	0	0	0	0	0	0	0	0	0	0	0	0	0	0	0	0	0	0	0	0	0	0	0	0	0	0	0	0	0	0	0	0	0	0	0	0	0	0	0	0	0	0	0	0	0	0	0	0	0	0	0	0	0	0	0	0	0	0	0	0	0	0	0	0	0	0	0	0	0	0	0	0	0	0	0	0	0	0	0	0	0	0	0	0	0	0	0	0	0	0	0	0	0	0	0	0	0	0	0	0	0	0	0	0	0	0	0	0	0	0	0	0	0	0	0	0	0	0	0	0	0	0	0	0	0	0	0	0	0	0	0	0	0	0	0	0	0	0	0	0	0	0	0	0	0	0	0	0	0	0	0	0	0	0	0	0	0	0	0	0	491	488	487	496	500	502	502	504	503	496	493	493	495	498	498	500	502	504	499	502	504	0	0
