1688	1690	1694	1696	1696	1699	1710	1718	1728	1728	1738	1744	1735	1728	1730	1730	1714	1713	1709	1719	1697	1697	1710	1730	1740	1737	1732	1720	1720	1744	1764	1789	1791	1798	1777	1765	1765	1768	1765	1770	1769	1767	1765	1765	1758	1749	1749	1731	1743	1759	1779	1791	1788	1772	1746	1738	1752	1752	1778	1780	1769	1745	1745	1750	1750	1757	1770	1768	1763	1760	1771	1782	1783	1789	1789	1795	1805	1795	1775	1764	1768	1778	1792	1795	1790	1778	1706	1583	1550	1493	1426	1389	1388	1394	1401	1413	1418	1414	1400	1382	1390	1385	1399	1414	1431	1429	1422	1412	1409	1402	1393	1391	1391	1403	1416	1423	1426	1421	1415	1423	1427	1426	1413	1399	1396	1391	1409	1413	1404	1388	1380	1393	1413	1424	1427	1411	1431	1430	1421	1410	1427	1439	1434	1439	1433	1422	1416	1418	1485	1484	1483	1498	1512	1529	1532	1521	1514	1530	1555	1566	1586	1607	1733	1830	1866	1859	1819	1811	1818	1837	1849	1859	1869	1877	1872	1862	1847	1839	1811	1804	1807	1865	1883	1881	1870	1855	1849	1854	1866	1870	1839	1834	1849	1862	1878	1877	1867	1884	1891	1896	1890	1885	1900	1910	1914	1911	1918	1935	1939	1924	1898	1882	1855	1839	1853	1886	1913	1971	1969	1957	1949	1952	1972	1985	1999	2010	2023	2032	2021	2011	2004	1984	1973	1965	1959	1874	1654	1604	1477	1473	1444	1422	1421	1435	1447	1473	1482	1453	1453	1450	1452	1460	1456	1469	1476	1481	1481	1476	1474	1471	1475	1472	1464	1468	1474	1485	1493	1489	1499	1495	1498	1492	1509	1515	1522	1511	1498	1467	1468	1471	1474	1475	1480	1472	1498	1496	1483	1481	1484	1497	1471	1460	1455	1476	1478	1474	1478	1488	1497	1497	1494	1486	1492	1481	1482	1487	1494	1503	1498	1480	1478	1475	1482	1506	1496	1469	1474	1510	1539	1660	1832	1914	1968	2015	2033	2049	2066	2089	2115	2130	2144	2150	2158	2139	2110	2104	2113	2133	2145	2145	2140	2150	2154	2155	2145	2134	2122	2139	2158	2174	2176	2165	2169	2187	2221	2215	2187	2163	2164	2164	2173	2167	2155	2131	2119	2145	2161	2151	2145	2175	2129	2094	2068	2031	2007	1960	1909	1895	1883	1891	1948	1980	1989	2016	2031	2027	2001	1984	1967	1968	2014	1822	1753	1735	1741	1742	1715	1685	1663	1655	1657	1646	1617	1576	1507	1496	1485	1487	1516	1544	1535	1535	1532	1549	1540	1537	1540	1547	1556	1552	1550	1547	1545	1540	1534	1542	1558	1568	1566	1565	1552	1543	1539	1544	1554	1568	1573	1571	1563	1556	1555	1550	1555	1558	1556	1568	1589	1596	1592	1584	1598	1651	1797	2085	2292	2354	2402	2420	2439	2452	2465	2455	2420	2398	2401	2406	2401	2436	2384	2382	2402	2433	2461	2446	2427	2423	2441	2467	2479	2474	2458	2448	2454	2478	2487	2538	2516	2506	2504	2477	2467	2467	2468	2488	2488	2479	2453	2437	2396	2346	2341	2350	2370	2414	2493	2515	2604	2540	2485	2453	2417	2359	2308	2225	2212	2212	2197	2190	2171	2143	2123	2133	2188	2206	2196	2185	2187	2168	2159	2142	2148	2154	2153	2159	2177	2197	2221	2229	2230	2228	2224	2205	2210	2205	2194	2194	2210	2212	2214	2216	2251	2319	2454	2481	2494	2484	2453	2370	2256	2116	2029	1972	1998	2091	2198	2487	2625	2618	2573	2527	2529	2501	2474	2449	2438	2477	2527	2583	2613	2607	2602	2586	2579	2578	2576	2574	2568	2564	2576	2576	2574	2581	2548	2516	2514	2483	2418	2288	2144	1746	1652	1650	1633	1634	1633	1628	1625	1619	1607	1594	1575	1575	1548	1542	1557	1557	1553	1558	1549	1538	1527	1529	1539	1546	1546	1547	1553	1559	1560	1560	1548	1535	0	0	0	0	0	0	0	0
1662	1667	1671	1675	1675	1692	1711	1720	1720	1720	1727	1714	1679	1657	1659	1659	1672	1685	1691	1678	1686	1694	1694	1711	1710	1711	1705	1685	1694	1694	1719	1721	1705	1677	1673	1683	1683	1701	1718	1736	1752	1756	1748	1716	1685	1679	1679	1691	1709	1740	1754	1754	1739	1725	1721	1722	1744	1744	1757	1756	1739	1732	1731	1729	1731	1733	1720	1722	1722	1741	1754	1758	1744	1738	1738	1745	1762	1768	1753	1746	1752	1762	1754	1757	1762	1759	1689	1565	1531	1486	1424	1391	1389	1392	1393	1397	1388	1398	1397	1399	1391	1394	1407	1420	1428	1417	1397	1389	1387	1388	1387	1400	1413	1415	1409	1401	1400	1401	1407	1413	1412	1405	1401	1401	1396	1397	1418	1418	1422	1422	1408	1400	1403	1406	1401	1389	1416	1421	1416	1413	1433	1447	1446	1440	1423	1412	1411	1416	1479	1484	1483	1493	1510	1522	1518	1510	1501	1541	1574	1594	1603	1666	1739	1782	1809	1801	1792	1770	1793	1811	1826	1832	1830	1855	1821	1810	1808	1803	1801	1791	1802	1810	1811	1826	1831	1838	1835	1826	1815	1807	1800	1805	1826	1843	1847	1840	1822	1835	1856	1858	1848	1845	1837	1830	1820	1823	1830	1844	1856	1860	1856	1851	1843	1827	1829	1859	1881	1889	1893	1923	1912	1919	1929	1933	1947	1966	1992	1992	1993	1990	1974	1928	1920	1919	1931	1876	1629	1591	1474	1452	1443	1415	1405	1414	1436	1458	1489	1465	1464	1455	1456	1450	1453	1475	1484	1487	1488	1487	1479	1472	1468	1460	1460	1468	1476	1490	1494	1493	1486	1478	1487	1484	1486	1505	1518	1502	1457	1462	1464	1463	1458	1471	1452	1467	1474	1496	1494	1493	1492	1486	1497	1469	1462	1457	1476	1487	1491	1486	1500	1501	1499	1483	1476	1473	1472	1484	1491	1496	1494	1487	1477	1482	1511	1519	1484	1454	1465	1513	1551	1679	1826	1881	1940	1979	2003	2012	2004	2004	2010	2027	2046	2055	2063	2067	2085	2084	2093	2100	2091	2075	2074	2090	2100	2104	2076	2068	2061	2064	2073	2086	2088	2090	2104	2117	2126	2130	2114	2073	2066	2085	2113	2115	2085	2088	2105	2127	2140	2127	2123	2120	2119	2088	2037	2003	1999	1927	1893	1885	1883	1884	1936	1973	1991	2004	2008	2006	1985	1955	1944	1943	1974	1800	1744	1734	1741	1738	1713	1674	1640	1640	1642	1641	1623	1589	1529	1502	1500	1501	1514	1539	1525	1533	1532	1538	1523	1524	1531	1547	1557	1557	1553	1547	1546	1535	1531	1535	1547	1564	1567	1563	1552	1543	1539	1542	1549	1561	1571	1574	1563	1558	1551	1552	1556	1559	1543	1564	1578	1567	1578	1591	1611	1654	1822	2102	2194	2264	2318	2375	2399	2414	2343	2325	2307	2331	2355	2368	2349	2326	2317	2330	2336	2364	2377	2376	2373	2379	2390	2412	2426	2438	2426	2387	2354	2345	2325	2308	2333	2380	2401	2411	2417	2422	2403	2368	2329	2318	2330	2329	2306	2278	2270	2307	2320	2323	2319	2378	2411	2414	2386	2351	2317	2287	2298	2241	2226	2221	2212	2197	2174	2148	2120	2132	2188	2208	2190	2177	2163	2162	2159	2154	2145	2154	2161	2176	2197	2224	2219	2212	2210	2212	2212	2212	2209	2215	2213	2210	2211	2204	2204	2206	2230	2258	2234	2356	2389	2408	2408	2356	2264	2147	2050	1986	1954	2016	2117	2324	2444	2460	2457	2451	2445	2440	2420	2400	2390	2400	2463	2503	2560	2573	2566	2542	2542	2540	2527	2509	2489	2485	2507	2541	2547	2518	2503	2501	2476	2428	2337	2258	2093	1745	1652	1627	1626	1625	1624	1619	1613	1618	1610	1599	1581	1581	1554	1545	1559	1557	1558	1559	1559	1546	1542	1541	1541	1550	1554	1556	1561	1564	1567	1567	1563	1542	0	0	0	0	0	0	0	0
1645	1658	1662	1661	1661	1678	1693	1704	1687	1687	1682	1675	1647	1628	1622	1622	1639	1659	1676	1668	1673	1685	1685	1690	1692	1686	1670	1645	1661	1661	1684	1681	1669	1657	1646	1658	1673	1673	1696	1713	1724	1709	1679	1659	1659	1661	1661	1672	1689	1714	1725	1720	1706	1700	1700	1707	1725	1725	1736	1733	1718	1716	1715	1716	1711	1704	1697	1701	1709	1713	1721	1723	1713	1704	1711	1711	1727	1734	1727	1715	1697	1693	1707	1725	1746	1746	1699	1551	1522	1446	1411	1394	1401	1402	1382	1379	1388	1400	1410	1410	1408	1409	1419	1429	1425	1411	1393	1384	1383	1376	1386	1407	1420	1417	1410	1392	1387	1391	1398	1399	1395	1393	1397	1406	1408	1407	1416	1425	1433	1434	1408	1399	1389	1388	1394	1403	1412	1411	1415	1420	1435	1448	1445	1435	1415	1398	1404	1413	1454	1463	1461	1473	1509	1528	1520	1503	1493	1535	1578	1596	1605	1661	1717	1741	1762	1772	1763	1753	1765	1775	1785	1778	1761	1740	1753	1761	1772	1776	1781	1798	1808	1772	1765	1785	1810	1821	1826	1819	1808	1800	1793	1791	1803	1799	1787	1769	1764	1795	1822	1828	1817	1808	1812	1815	1813	1801	1792	1794	1810	1828	1837	1843	1843	1836	1824	1806	1803	1801	1825	1826	1820	1846	1866	1876	1879	1895	1891	1882	1875	1909	1903	1869	1863	1869	1889	1850	1638	1587	1478	1444	1438	1417	1398	1416	1437	1451	1478	1477	1473	1475	1489	1453	1444	1455	1485	1492	1488	1479	1479	1469	1465	1460	1463	1470	1481	1492	1491	1491	1484	1478	1471	1468	1484	1483	1482	1492	1488	1466	1463	1457	1443	1463	1446	1469	1491	1486	1506	1506	1514	1513	1505	1484	1466	1461	1457	1484	1499	1502	1505	1505	1500	1492	1469	1467	1476	1468	1477	1484	1490	1492	1491	1499	1505	1501	1483	1469	1495	1520	1541	1676	1772	1867	1924	1978	1990	1974	1966	1958	1972	1972	1995	2010	2003	2001	2010	2025	2047	2055	2048	2050	2058	2063	2068	2037	2016	2020	2031	2035	2035	2039	2035	2063	2079	2095	2097	2085	2057	2031	2020	2018	2025	2034	2042	2061	2079	2100	2085	2076	2040	2022	2039	2068	2043	2012	1959	1913	1922	1936	1913	1910	1961	1982	1981	1989	1994	1995	1987	1961	1947	1943	1940	1797	1753	1735	1738	1741	1721	1682	1657	1640	1639	1633	1625	1608	1574	1529	1517	1515	1519	1526	1528	1532	1538	1540	1510	1519	1534	1550	1556	1558	1546	1556	1549	1535	1533	1533	1541	1547	1559	1554	1544	1542	1542	1540	1538	1556	1583	1585	1574	1561	1558	1556	1562	1563	1548	1547	1558	1559	1576	1582	1596	1652	1886	2072	2173	2230	2275	2295	2240	2243	2259	2276	2291	2309	2312	2301	2250	2232	2242	2278	2292	2310	2319	2330	2336	2341	2350	2354	2346	2332	2341	2332	2298	2303	2300	2287	2290	2309	2337	2358	2351	2346	2315	2287	2284	2289	2303	2305	2310	2296	2284	2277	2291	2299	2312	2325	2307	2293	2279	2264	2260	2290	2271	2237	2230	2216	2209	2203	2180	2148	2132	2149	2179	2195	2193	2175	2157	2156	2154	2161	2193	2201	2213	2206	2201	2208	2203	2201	2198	2203	2209	2211	2211	2212	2198	2193	2196	2191	2181	2193	2211	2199	2192	2205	2276	2292	2319	2304	2277	2218	2075	1991	1941	1955	2035	2199	2286	2372	2409	2396	2376	2387	2379	2373	2353	2354	2368	2456	2482	2483	2476	2460	2474	2472	2468	2434	2405	2407	2425	2458	2464	2456	2443	2428	2391	2341	2279	2196	2031	1748	1651	1618	1617	1621	1623	1619	1600	1595	1598	1587	1581	1580	1566	1565	1567	1575	1577	1575	1577	1555	1549	1545	1539	1540	1558	1565	1565	1564	1567	1567	1566	1558	0	0	0	0	0	0	0	0
1641	1648	1656	1644	1644	1648	1664	1643	1638	1634	1634	1635	1624	1608	1604	1604	1617	1645	1647	1655	1663	1665	1665	1668	1670	1653	1610	1623	1648	1648	1661	1659	1645	1641	1638	1646	1655	1655	1669	1674	1681	1645	1629	1636	1638	1642	1642	1655	1669	1689	1688	1685	1674	1669	1667	1694	1713	1718	1718	1709	1700	1692	1696	1696	1692	1682	1683	1684	1690	1690	1683	1680	1671	1675	1686	1686	1702	1714	1715	1708	1691	1687	1698	1718	1720	1742	1699	1519	1467	1432	1412	1399	1401	1405	1394	1387	1395	1408	1415	1410	1396	1400	1409	1414	1414	1401	1389	1381	1381	1375	1392	1411	1420	1417	1406	1396	1388	1389	1394	1389	1383	1384	1394	1413	1424	1421	1418	1423	1430	1415	1409	1398	1390	1394	1403	1419	1418	1417	1419	1416	1428	1427	1411	1400	1386	1368	1395	1406	1427	1446	1435	1448	1492	1522	1514	1502	1503	1530	1568	1594	1607	1651	1706	1722	1735	1737	1732	1734	1731	1735	1731	1717	1708	1700	1715	1731	1751	1760	1757	1768	1777	1751	1746	1755	1772	1795	1786	1788	1776	1770	1756	1758	1761	1756	1744	1728	1725	1737	1746	1753	1765	1771	1784	1811	1803	1791	1774	1760	1766	1772	1800	1822	1833	1823	1787	1782	1793	1796	1812	1813	1804	1790	1766	1748	1816	1816	1829	1842	1839	1840	1824	1809	1808	1812	1834	1792	1652	1601	1494	1449	1449	1431	1409	1425	1447	1446	1475	1494	1493	1513	1483	1455	1443	1445	1485	1489	1483	1473	1475	1467	1466	1466	1474	1479	1493	1494	1486	1482	1472	1468	1462	1436	1442	1458	1474	1484	1489	1490	1483	1464	1451	1438	1461	1466	1475	1503	1515	1529	1522	1517	1517	1495	1473	1462	1461	1480	1492	1491	1489	1489	1489	1488	1479	1473	1469	1460	1452	1467	1485	1502	1506	1504	1497	1493	1487	1491	1526	1527	1518	1641	1734	1832	1916	1967	1974	1956	1943	1938	1934	1933	1917	1946	1958	1946	1960	1977	1997	2012	2025	2021	2029	2032	2005	1995	1992	2003	2011	2005	1998	1989	1989	2007	2021	2055	2058	2050	2025	1996	1976	2003	2001	2013	2018	2027	2053	2066	2046	2014	2003	1996	2018	2043	2056	2049	2017	2001	2000	1991	2054	2024	1998	1984	1974	1978	1988	1994	1995	1980	1964	1961	1932	1801	1782	1749	1734	1735	1734	1704	1668	1651	1627	1614	1598	1587	1588	1540	1515	1519	1528	1533	1529	1545	1543	1548	1524	1527	1538	1543	1547	1559	1559	1557	1543	1543	1546	1537	1535	1539	1545	1544	1538	1542	1547	1543	1535	1556	1568	1574	1570	1566	1564	1569	1569	1573	1576	1569	1561	1563	1571	1565	1577	1666	1921	2033	2123	2186	2191	2203	2206	2204	2214	2250	2279	2288	2269	2256	2221	2208	2200	2226	2247	2256	2256	2261	2254	2248	2276	2253	2253	2240	2241	2254	2260	2268	2272	2274	2264	2276	2289	2293	2282	2264	2265	2256	2259	2276	2301	2314	2317	2298	2279	2266	2277	2296	2314	2312	2296	2288	2290	2296	2297	2275	2254	2238	2231	2216	2211	2216	2200	2178	2142	2143	2171	2186	2192	2179	2182	2181	2173	2172	2190	2198	2197	2187	2194	2193	2195	2188	2185	2198	2200	2199	2195	2184	2174	2174	2165	2165	2157	2175	2189	2192	2164	2190	2199	2198	2193	2180	2174	2169	2124	2033	1956	1920	1946	2076	2124	2185	2223	2221	2214	2222	2226	2223	2209	2203	2190	2204	2214	2229	2260	2290	2302	2303	2265	2252	2246	2259	2273	2310	2364	2386	2374	2315	2290	2273	2217	2098	1964	1764	1651	1630	1623	1625	1625	1624	1609	1596	1592	1590	1590	1584	1588	1586	1581	1595	1595	1588	1593	1558	1540	1536	1533	1540	1554	1566	1583	1568	1563	1563	1564	1563	0	0	0	0	0	0	0	0
1626	1611	1600	1600	1600	1602	1582	1578	1581	1593	1593	1605	1609	1599	1593	1608	1608	1630	1589	1608	1633	1646	1646	1652	1637	1598	1602	1622	1640	1640	1644	1642	1638	1628	1629	1631	1633	1633	1643	1646	1601	1594	1599	1607	1615	1620	1620	1627	1643	1654	1651	1649	1639	1629	1636	1664	1684	1703	1703	1693	1679	1668	1668	1672	1672	1676	1673	1679	1679	1664	1650	1641	1642	1654	1668	1668	1682	1693	1703	1702	1689	1679	1677	1676	1695	1710	1668	1528	1474	1443	1425	1418	1400	1401	1399	1397	1401	1407	1407	1395	1390	1393	1400	1407	1402	1391	1381	1382	1384	1386	1400	1415	1416	1423	1412	1394	1383	1377	1378	1375	1376	1384	1404	1425	1434	1441	1441	1427	1414	1407	1411	1404	1401	1405	1426	1423	1418	1433	1434	1426	1427	1419	1401	1391	1374	1370	1389	1428	1439	1442	1444	1427	1451	1479	1500	1509	1516	1541	1573	1596	1616	1648	1699	1700	1700	1710	1710	1711	1710	1697	1688	1670	1672	1683	1695	1711	1733	1733	1720	1721	1719	1722	1725	1735	1744	1749	1749	1733	1714	1706	1693	1688	1687	1701	1701	1697	1691	1701	1703	1699	1714	1735	1758	1788	1795	1782	1749	1722	1714	1718	1733	1747	1752	1768	1752	1751	1758	1760	1758	1762	1772	1767	1743	1738	1718	1733	1793	1814	1802	1786	1757	1758	1723	1731	1786	1773	1639	1583	1524	1465	1466	1446	1420	1439	1450	1456	1455	1482	1495	1486	1482	1467	1452	1445	1452	1476	1472	1474	1481	1483	1478	1473	1481	1488	1497	1489	1479	1476	1462	1448	1447	1430	1426	1431	1447	1478	1475	1490	1490	1489	1466	1463	1477	1486	1494	1501	1516	1523	1504	1511	1502	1503	1480	1468	1469	1475	1482	1482	1469	1471	1480	1488	1486	1475	1459	1444	1451	1473	1493	1502	1506	1504	1498	1492	1493	1510	1528	1518	1500	1632	1720	1809	1887	1931	1943	1937	1926	1926	1914	1897	1898	1905	1923	1929	1932	1949	1966	1993	1991	1980	1972	1971	1963	1968	1972	1982	1979	1976	1962	1955	1960	1974	1983	1986	1993	1998	1976	1959	1965	1982	1983	1987	1980	1975	1971	1979	1979	1984	1989	1982	1993	2007	2020	2040	2029	1999	2010	2018	2018	2003	1984	1981	1980	1987	1989	2000	2015	2023	2010	1973	1929	1825	1782	1759	1756	1752	1749	1723	1686	1653	1617	1595	1577	1568	1578	1549	1512	1510	1526	1550	1547	1555	1564	1576	1544	1543	1543	1549	1552	1557	1556	1551	1544	1551	1553	1533	1541	1547	1538	1539	1537	1545	1554	1557	1540	1543	1551	1562	1560	1562	1569	1564	1566	1572	1574	1569	1566	1568	1569	1564	1575	1668	1901	1992	2062	2128	2141	2150	2147	2138	2137	2153	2179	2184	2195	2198	2193	2177	2171	2172	2199	2212	2211	2207	2185	2168	2143	2141	2173	2198	2217	2244	2234	2221	2201	2183	2193	2198	2212	2207	2208	2211	2226	2230	2238	2253	2243	2238	2238	2232	2226	2220	2235	2253	2272	2279	2268	2274	2264	2225	2207	2217	2210	2198	2200	2188	2200	2206	2216	2208	2179	2175	2161	2165	2183	2203	2166	2131	2108	2100	2107	2104	2099	2107	2127	2169	2177	2182	2182	2189	2185	2182	2156	2155	2156	2172	2175	2166	2172	2184	2193	2187	2168	2141	2138	2128	2135	2160	2178	2182	2172	2144	2053	1957	1945	2003	2070	2120	2152	2167	2191	2223	2231	2215	2182	2131	2112	2147	2175	2189	2184	2183	2185	2190	2184	2169	2157	2165	2179	2206	2232	2258	2250	2224	2203	2184	2139	2079	1978	1746	1662	1633	1629	1622	1618	1614	1607	1600	1595	1599	1599	1602	1601	1602	1604	1598	1584	1585	1573	1557	1537	1527	1526	1531	1553	1568	1570	1575	1569	1569	1563	1563	0	0	0	0	0	0	0	0
1587	1579	1547	1533	1533	1530	1516	1516	1528	1560	1560	1580	1601	1595	1595	1593	1593	1583	1565	1591	1611	1620	1620	1608	1592	1586	1600	1624	1636	1636	1639	1634	1630	1619	1611	1605	1614	1614	1615	1597	1580	1579	1582	1586	1594	1597	1597	1602	1610	1619	1620	1615	1608	1603	1614	1634	1658	1668	1668	1678	1664	1651	1648	1657	1660	1654	1640	1636	1650	1642	1630	1619	1623	1639	1647	1647	1660	1637	1649	1652	1656	1652	1648	1645	1645	1658	1619	1517	1498	1475	1449	1428	1394	1400	1398	1395	1405	1411	1404	1392	1383	1394	1397	1407	1401	1393	1384	1385	1392	1400	1405	1411	1418	1417	1408	1396	1387	1379	1370	1369	1393	1409	1422	1428	1443	1456	1453	1438	1423	1401	1398	1399	1408	1429	1434	1416	1429	1438	1455	1449	1437	1422	1398	1400	1387	1400	1425	1445	1436	1440	1456	1463	1449	1452	1475	1496	1523	1553	1581	1604	1620	1639	1688	1672	1678	1693	1692	1684	1678	1672	1662	1653	1657	1667	1679	1690	1699	1691	1685	1683	1683	1695	1714	1716	1717	1725	1714	1699	1688	1673	1661	1653	1653	1659	1668	1674	1678	1680	1678	1667	1671	1705	1735	1744	1730	1721	1719	1717	1717	1714	1717	1716	1717	1711	1709	1715	1715	1723	1723	1734	1733	1730	1713	1703	1700	1715	1732	1729	1760	1743	1718	1707	1701	1705	1724	1759	1633	1587	1539	1481	1488	1465	1436	1445	1457	1464	1450	1462	1470	1474	1474	1464	1465	1460	1467	1477	1473	1472	1476	1488	1493	1496	1497	1495	1497	1489	1471	1463	1452	1443	1446	1441	1431	1437	1446	1460	1467	1492	1494	1486	1482	1483	1481	1482	1485	1496	1508	1514	1490	1492	1482	1487	1483	1473	1475	1479	1476	1473	1465	1465	1476	1482	1481	1471	1460	1446	1455	1471	1499	1508	1506	1504	1497	1495	1497	1520	1523	1511	1501	1638	1704	1783	1845	1864	1899	1909	1904	1902	1909	1888	1879	1874	1889	1894	1884	1870	1922	1954	1954	1938	1926	1926	1919	1925	1944	1944	1940	1941	1941	1945	1952	1961	1964	1969	1976	1977	1942	1937	1947	1965	1963	1956	1949	1944	1947	1955	1971	1966	1974	1976	1978	1992	1965	1956	1962	1964	1960	1953	1955	1948	1946	1966	1997	2008	2009	2021	2026	2022	2014	1969	1930	1843	1774	1747	1738	1747	1748	1725	1686	1651	1620	1598	1593	1581	1576	1572	1529	1506	1528	1559	1556	1569	1580	1598	1566	1552	1544	1540	1542	1548	1555	1552	1552	1556	1552	1548	1556	1558	1560	1552	1544	1549	1567	1571	1557	1540	1533	1543	1549	1559	1567	1566	1563	1575	1581	1567	1564	1566	1574	1565	1579	1691	1773	1893	2012	2061	2090	2102	2108	2121	2121	2114	2121	2119	2117	2156	2157	2147	2145	2140	2135	2150	2159	2152	2140	2130	2110	2114	2136	2166	2189	2211	2199	2177	2163	2151	2162	2177	2177	2171	2178	2185	2199	2191	2188	2197	2200	2206	2210	2206	2200	2186	2173	2180	2209	2236	2240	2226	2202	2169	2158	2184	2189	2174	2167	2164	2174	2191	2176	2176	2176	2166	2157	2137	2131	2122	2107	2095	2090	2088	2091	2086	2073	2057	2041	2032	2031	2037	2045	2063	2075	2087	2073	2074	2091	2119	2134	2138	2141	2157	2174	2164	2156	2132	2126	2120	2129	2153	2158	2174	2169	2145	2081	2036	1965	1971	2039	2109	2143	2158	2188	2216	2228	2209	2178	2141	2130	2148	2177	2192	2192	2191	2193	2202	2201	2188	2177	2167	2165	2174	2194	2209	2218	2219	2205	2189	2156	2099	2046	1767	1650	1632	1623	1612	1603	1607	1608	1605	1605	1606	1606	1608	1605	1606	1601	1584	1573	1561	1560	1550	1538	1535	1534	1529	1539	1546	1560	1572	1572	1568	1562	1553	0	0	0	0	0	0	0	0
1549	1526	1506	1494	1486	1486	1484	1497	1509	1537	1537	1566	1592	1601	1594	1570	1570	1558	1545	1572	1591	1594	1594	1581	1573	1576	1593	1608	1626	1626	1630	1630	1618	1600	1587	1584	1590	1590	1585	1574	1573	1571	1566	1569	1564	1571	1575	1575	1588	1590	1596	1593	1588	1590	1597	1610	1625	1642	1642	1648	1653	1654	1648	1644	1635	1618	1608	1613	1604	1601	1601	1602	1610	1621	1601	1602	1602	1610	1613	1611	1613	1630	1630	1623	1618	1609	1578	1508	1485	1460	1442	1403	1393	1406	1397	1394	1413	1421	1409	1388	1381	1393	1404	1412	1411	1406	1397	1398	1401	1403	1400	1403	1406	1407	1404	1400	1396	1380	1377	1386	1406	1424	1428	1425	1429	1443	1469	1448	1428	1402	1384	1389	1410	1421	1424	1406	1423	1437	1454	1470	1467	1433	1408	1420	1422	1429	1456	1465	1424	1437	1459	1474	1482	1484	1492	1496	1502	1522	1548	1579	1596	1623	1671	1658	1667	1684	1661	1653	1653	1655	1634	1628	1637	1644	1630	1626	1649	1656	1657	1662	1664	1676	1695	1699	1701	1700	1686	1684	1682	1666	1646	1633	1631	1637	1648	1663	1658	1663	1655	1641	1643	1649	1663	1673	1675	1683	1696	1710	1713	1704	1694	1689	1682	1676	1687	1683	1684	1690	1701	1713	1707	1700	1680	1656	1644	1642	1657	1673	1681	1672	1678	1664	1661	1669	1687	1733	1614	1586	1509	1486	1482	1468	1453	1456	1465	1473	1455	1457	1463	1466	1471	1463	1460	1463	1466	1480	1472	1468	1464	1466	1473	1475	1479	1489	1487	1486	1460	1455	1450	1441	1449	1446	1435	1439	1444	1456	1458	1483	1481	1483	1473	1471	1470	1471	1478	1487	1501	1495	1481	1473	1466	1475	1491	1467	1477	1481	1477	1477	1470	1467	1474	1480	1481	1477	1468	1450	1452	1462	1477	1487	1499	1497	1493	1493	1502	1518	1518	1498	1520	1635	1688	1758	1817	1834	1856	1868	1875	1882	1884	1871	1857	1848	1842	1827	1822	1816	1843	1870	1913	1906	1891	1878	1873	1880	1874	1881	1892	1904	1919	1932	1931	1939	1949	1956	1963	1924	1912	1921	1923	1922	1929	1933	1933	1936	1938	1948	1958	1970	1963	1903	1876	1871	1884	1918	1935	1935	1930	1921	1917	1922	1928	1937	1944	1974	1991	2011	2021	2030	1990	1965	1913	1822	1738	1721	1721	1739	1736	1713	1676	1647	1629	1628	1621	1614	1588	1591	1536	1508	1532	1567	1561	1570	1576	1576	1567	1558	1539	1534	1543	1551	1558	1565	1570	1573	1562	1558	1568	1573	1569	1566	1558	1562	1574	1578	1558	1543	1534	1532	1539	1550	1562	1567	1572	1574	1577	1573	1566	1575	1578	1568	1576	1657	1754	1857	1979	2037	2050	2069	2087	2108	2113	2113	2104	2096	2084	2071	2110	2119	2116	2096	2085	2089	2094	2096	2093	2084	2081	2088	2099	2112	2134	2137	2167	2141	2123	2122	2140	2164	2168	2149	2147	2154	2159	2166	2169	2167	2185	2188	2188	2186	2175	2156	2151	2152	2172	2184	2191	2180	2160	2146	2132	2146	2154	2153	2116	2108	2107	2119	2125	2131	2136	2132	2129	2132	2122	2090	2079	2072	2074	2088	2104	2084	2067	2045	2028	2010	2004	1999	2013	2046	2057	2059	2050	2039	2062	2036	2013	2006	2017	2032	2038	2027	2021	2034	2049	2059	2063	2062	2050	2057	2070	2081	2068	2014	1976	1955	1969	2037	2106	2144	2183	2207	2219	2203	2151	2131	2124	2143	2175	2192	2193	2197	2197	2207	2204	2192	2176	2164	2157	2166	2188	2199	2210	2212	2206	2183	2155	2107	2059	1787	1651	1629	1616	1608	1602	1604	1609	1613	1605	1606	1606	1607	1600	1594	1585	1573	1567	1561	1559	1552	1554	1552	1541	1534	1534	1541	1552	1570	1570	1572	1570	1559	0	0	0	0	0	0	0	0
1508	1486	1483	1469	1467	1467	1470	1488	1506	1525	1525	1556	1586	1596	1587	1551	1551	1498	1520	1553	1571	1566	1566	1556	1550	1527	1546	1539	1555	1555	1560	1558	1551	1536	1530	1531	1534	1534	1533	1549	1559	1560	1552	1534	1532	1545	1555	1555	1570	1572	1584	1583	1574	1565	1555	1562	1569	1573	1573	1585	1607	1608	1624	1615	1593	1578	1558	1565	1571	1584	1587	1564	1560	1558	1570	1579	1579	1573	1571	1562	1561	1564	1578	1586	1594	1587	1564	1484	1438	1430	1395	1393	1388	1400	1393	1393	1403	1423	1412	1393	1388	1395	1411	1425	1427	1425	1412	1409	1409	1406	1399	1394	1392	1391	1389	1389	1395	1395	1383	1393	1417	1434	1428	1418	1418	1436	1461	1449	1423	1397	1386	1377	1394	1404	1411	1411	1414	1431	1457	1472	1466	1434	1413	1433	1436	1443	1450	1454	1427	1447	1464	1475	1479	1492	1507	1518	1528	1518	1548	1581	1612	1614	1612	1613	1609	1624	1614	1614	1619	1627	1617	1617	1619	1616	1601	1587	1601	1617	1645	1646	1651	1653	1670	1667	1662	1663	1670	1679	1674	1659	1637	1624	1623	1629	1632	1637	1643	1641	1623	1618	1629	1631	1631	1633	1628	1643	1658	1691	1701	1688	1670	1656	1648	1658	1666	1657	1656	1665	1682	1678	1672	1662	1637	1630	1626	1627	1632	1648	1666	1666	1651	1622	1630	1642	1643	1665	1584	1566	1505	1479	1463	1459	1454	1456	1466	1471	1463	1462	1469	1471	1461	1451	1449	1457	1459	1464	1467	1461	1467	1478	1472	1466	1473	1482	1485	1483	1455	1451	1451	1445	1440	1448	1435	1445	1453	1467	1464	1469	1474	1460	1455	1466	1469	1472	1501	1509	1511	1495	1485	1472	1467	1467	1468	1475	1482	1484	1484	1483	1480	1474	1478	1486	1492	1489	1476	1451	1453	1456	1467	1477	1484	1494	1477	1492	1518	1526	1523	1506	1545	1603	1677	1729	1763	1788	1796	1796	1796	1805	1831	1834	1813	1804	1799	1798	1789	1779	1794	1821	1861	1860	1843	1825	1810	1795	1809	1830	1852	1863	1882	1890	1892	1895	1904	1938	1883	1876	1884	1880	1886	1889	1896	1906	1915	1913	1918	1829	1839	1852	1829	1812	1822	1836	1844	1853	1861	1859	1884	1892	1895	1904	1912	1911	1919	1931	1969	1992	1996	1960	1976	1953	1892	1796	1705	1693	1700	1712	1708	1683	1655	1634	1627	1631	1634	1629	1585	1590	1528	1493	1525	1564	1547	1554	1557	1551	1549	1552	1551	1541	1548	1557	1565	1568	1571	1571	1568	1568	1577	1579	1573	1569	1566	1572	1574	1564	1542	1540	1540	1537	1544	1554	1570	1574	1579	1581	1582	1583	1576	1571	1578	1582	1580	1665	1729	1816	2003	2031	2037	2063	2078	2091	2099	2099	2096	2082	2074	2030	2017	2028	2044	2054	2052	2043	2043	2051	2058	2049	2049	2059	2073	2079	2070	2064	2084	2080	2084	2088	2099	2078	2084	2098	2114	2116	2118	2115	2127	2153	2154	2164	2148	2121	2120	2113	2109	2107	2111	2118	2108	2120	2124	2115	2083	2072	2070	2086	2069	2047	2034	2037	2055	2078	2105	2095	2092	2089	2083	2063	2049	2043	2063	2086	2104	2078	2047	2038	2018	1983	1973	1985	1999	2025	2048	2047	2022	2008	2000	2001	1984	1998	2006	2022	2029	2015	2005	2006	2025	2013	2007	2002	2016	2029	2041	2045	2032	2006	1979	1945	1938	1948	1985	2044	2071	2111	2111	2048	2039	2028	2046	2082	2107	2139	2158	2183	2178	2134	2116	2114	2123	2130	2133	2143	2161	2180	2186	2189	2190	2172	2144	2106	2056	1793	1649	1635	1620	1608	1605	1611	1616	1610	1605	1605	1598	1595	1591	1585	1579	1573	1568	1564	1558	1557	1561	1553	1548	1547	1543	1549	1560	1569	1569	1577	1579	1575	0	0	0	0	0	0	0	0
1478	1473	1461	1447	1444	1444	1454	1476	1501	1509	1509	1523	1569	1579	1541	1502	1502	1473	1479	1508	1526	1515	1495	1495	1465	1475	1487	1496	1492	1508	1508	1525	1526	1519	1513	1513	1513	1521	1521	1535	1539	1536	1520	1495	1498	1517	1536	1536	1546	1547	1532	1538	1533	1526	1509	1500	1507	1529	1560	1560	1573	1573	1550	1546	1524	1526	1532	1533	1537	1522	1535	1534	1529	1520	1527	1556	1556	1554	1546	1550	1553	1555	1557	1562	1568	1559	1551	1477	1425	1408	1390	1386	1383	1389	1394	1391	1397	1410	1410	1401	1397	1403	1415	1427	1434	1435	1423	1418	1415	1405	1394	1385	1383	1380	1380	1384	1387	1393	1392	1399	1417	1430	1420	1406	1413	1433	1444	1442	1417	1397	1382	1379	1379	1384	1397	1420	1419	1423	1445	1450	1427	1418	1433	1436	1415	1416	1444	1450	1456	1461	1466	1461	1467	1497	1579	1608	1575	1568	1566	1581	1605	1623	1632	1616	1592	1573	1558	1550	1590	1597	1604	1610	1608	1599	1586	1569	1568	1596	1622	1629	1626	1629	1652	1646	1637	1632	1634	1648	1649	1643	1625	1609	1608	1613	1611	1617	1619	1617	1597	1605	1619	1620	1619	1614	1612	1611	1627	1646	1678	1671	1652	1627	1630	1650	1656	1633	1630	1630	1633	1637	1620	1619	1608	1616	1622	1618	1621	1634	1654	1661	1649	1617	1591	1587	1616	1628	1555	1533	1508	1468	1436	1447	1447	1453	1467	1469	1470	1469	1470	1454	1443	1432	1439	1450	1456	1458	1462	1467	1475	1484	1489	1475	1471	1475	1481	1479	1466	1454	1451	1449	1445	1457	1447	1452	1464	1465	1463	1463	1464	1452	1457	1464	1472	1501	1513	1506	1497	1482	1462	1468	1456	1468	1466	1463	1478	1482	1482	1486	1474	1469	1474	1476	1492	1494	1489	1462	1454	1457	1458	1455	1460	1481	1481	1486	1509	1547	1549	1523	1535	1574	1644	1690	1732	1752	1757	1758	1749	1738	1747	1749	1729	1739	1753	1770	1762	1741	1729	1788	1811	1827	1833	1815	1804	1783	1777	1794	1801	1811	1825	1851	1856	1833	1812	1809	1824	1827	1845	1857	1856	1858	1867	1842	1846	1804	1785	1779	1781	1792	1794	1798	1807	1825	1824	1817	1794	1789	1799	1823	1827	1831	1851	1874	1879	1888	1891	1893	1889	1882	1899	1918	1868	1762	1692	1662	1659	1659	1656	1644	1625	1600	1597	1615	1620	1620	1566	1521	1496	1481	1506	1551	1537	1533	1531	1529	1531	1538	1540	1533	1539	1557	1564	1556	1566	1567	1554	1552	1542	1549	1561	1566	1566	1568	1565	1543	1537	1535	1538	1546	1551	1561	1574	1578	1584	1589	1602	1602	1586	1574	1583	1591	1591	1659	1716	1790	1990	2001	2003	2036	2070	2061	2050	2049	2049	2052	2047	2005	1999	2010	2022	2039	2037	2032	2035	2030	2028	2026	2013	2019	2044	2052	2029	2021	2018	2018	2034	2051	2043	2035	2051	2035	2034	2041	2033	2040	2049	2093	2096	2082	2048	2058	2094	2091	2075	2057	2039	2045	2063	2075	2064	2063	2057	2051	2040	2023	2027	2007	1990	1990	1994	2007	2026	2015	2033	2043	2033	2033	2026	2029	2042	2074	2079	2057	2037	2031	2021	1989	1987	1985	1993	2019	2034	2033	2004	1997	1989	1988	1984	1970	1968	1982	1988	1970	1950	1946	1969	1969	1949	1949	1959	1988	2003	2002	1991	1978	1966	1920	1917	1910	1911	1952	1992	2007	1996	1975	1961	1968	1997	2029	2060	2079	2098	2101	2097	2085	2072	2064	2081	2086	2090	2098	2119	2142	2162	2168	2130	2123	2128	2089	2005	1939	1680	1644	1636	1620	1607	1615	1617	1612	1600	1600	1594	1586	1582	1575	1577	1577	1573	1565	1559	1560	1564	1560	1549	1549	1550	1560	1562	1561	1561	1564	1576	1582	0	0	0	0	0	0	0	0
1470	1448	1430	1423	1430	1430	1441	1452	1457	1455	1455	1458	1482	1499	1488	1475	1475	1455	1457	1474	1478	1470	1454	1454	1435	1434	1436	1443	1453	1481	1481	1495	1496	1493	1490	1484	1487	1505	1505	1520	1530	1528	1512	1489	1487	1500	1508	1508	1512	1511	1500	1495	1495	1493	1495	1498	1498	1495	1510	1510	1536	1537	1529	1507	1498	1495	1507	1497	1497	1493	1498	1500	1495	1484	1495	1514	1514	1530	1534	1543	1552	1550	1546	1545	1547	1533	1514	1466	1435	1411	1395	1386	1382	1392	1404	1396	1394	1401	1410	1410	1409	1414	1418	1427	1435	1435	1429	1420	1415	1404	1389	1386	1387	1392	1386	1386	1389	1394	1393	1401	1426	1429	1407	1397	1402	1417	1430	1426	1411	1397	1388	1388	1379	1375	1392	1417	1420	1425	1424	1417	1422	1430	1450	1446	1409	1407	1422	1451	1466	1461	1439	1437	1475	1517	1576	1586	1566	1543	1524	1527	1550	1599	1612	1605	1573	1552	1538	1530	1533	1551	1568	1569	1587	1581	1570	1562	1563	1574	1577	1585	1591	1597	1608	1619	1607	1597	1600	1615	1615	1613	1604	1598	1595	1592	1590	1581	1575	1544	1561	1575	1598	1608	1612	1599	1596	1591	1590	1590	1608	1611	1607	1603	1620	1643	1647	1618	1600	1591	1592	1600	1587	1572	1586	1604	1605	1603	1596	1605	1635	1635	1620	1597	1581	1581	1586	1584	1534	1525	1509	1462	1428	1423	1438	1446	1462	1467	1462	1466	1457	1444	1432	1437	1438	1439	1451	1461	1470	1468	1477	1475	1472	1466	1470	1473	1473	1473	1470	1454	1449	1453	1452	1474	1465	1459	1458	1461	1461	1455	1453	1451	1454	1466	1469	1481	1486	1489	1477	1471	1463	1446	1456	1455	1453	1459	1470	1480	1479	1476	1473	1474	1476	1481	1491	1490	1488	1476	1461	1456	1457	1456	1464	1467	1481	1454	1479	1541	1548	1522	1541	1567	1602	1645	1690	1721	1735	1738	1726	1711	1702	1707	1712	1729	1739	1755	1733	1721	1723	1734	1750	1765	1779	1781	1774	1755	1741	1741	1738	1749	1788	1800	1805	1792	1782	1776	1785	1785	1798	1802	1802	1791	1782	1776	1780	1774	1761	1761	1763	1767	1782	1793	1800	1797	1788	1785	1774	1772	1779	1783	1783	1788	1785	1783	1787	1796	1814	1821	1836	1840	1848	1858	1837	1780	1718	1641	1618	1615	1613	1601	1588	1579	1580	1586	1595	1593	1518	1490	1486	1488	1495	1535	1524	1511	1505	1517	1528	1538	1542	1536	1526	1524	1530	1545	1559	1562	1559	1545	1547	1541	1543	1545	1564	1567	1562	1549	1538	1533	1534	1544	1555	1561	1566	1569	1575	1585	1576	1580	1570	1573	1578	1595	1602	1652	1698	1775	1960	1947	1937	1960	1962	1962	1964	1959	1951	1953	1964	1977	1983	1999	2013	2015	2023	2012	2008	2016	2011	2001	1992	1997	2006	2021	2000	1991	1993	1984	1999	2024	2020	1998	1984	1995	1995	1985	1981	1994	2008	1996	2005	2007	2018	2034	2056	2063	2054	2031	2019	2044	2043	2035	2013	2013	2022	2024	2021	2006	1991	1984	1980	1975	1975	1975	1980	1992	1986	2007	2006	2018	2021	2009	2017	2038	2038	2026	2011	2020	2018	2003	1994	1988	1991	2002	2018	2026	2001	1986	1983	1978	1968	1969	1961	1972	1972	1964	1942	1914	1883	1864	1870	1876	1886	1895	1894	1898	1911	1923	1918	1903	1887	1872	1874	1912	1944	1959	1955	1932	1923	1926	1944	1974	2007	2031	2035	2016	2021	2010	2019	2002	2019	2036	2041	2048	2061	2084	2097	2070	2068	2054	2027	2003	1968	1932	1747	1653	1621	1623	1622	1618	1616	1611	1601	1601	1589	1570	1563	1561	1569	1578	1579	1572	1560	1564	1562	1552	1552	1554	1562	1563	1568	1561	1561	1556	1560	1573	0	0	0	0	0	0	0	0
1447	1434	1425	1421	1429	1429	1433	1441	1446	1446	1446	1446	1448	1457	1460	1456	1456	1435	1430	1430	1437	1434	1430	1430	1421	1419	1426	1442	1458	1467	1467	1479	1477	1464	1452	1447	1457	1473	1473	1496	1519	1524	1512	1493	1481	1487	1490	1490	1489	1482	1471	1458	1455	1463	1481	1490	1487	1471	1473	1473	1491	1510	1510	1493	1487	1481	1483	1485	1482	1471	1467	1468	1464	1458	1463	1476	1507	1507	1505	1521	1537	1528	1518	1508	1510	1513	1504	1481	1445	1420	1400	1391	1408	1419	1417	1402	1395	1402	1411	1418	1421	1415	1415	1416	1406	1414	1422	1423	1420	1416	1399	1388	1388	1390	1395	1397	1394	1393	1391	1400	1437	1448	1432	1401	1393	1411	1418	1418	1409	1402	1397	1392	1391	1385	1386	1406	1408	1420	1425	1416	1431	1457	1475	1477	1450	1408	1413	1428	1444	1456	1466	1463	1517	1538	1548	1533	1515	1500	1503	1514	1543	1558	1571	1563	1541	1534	1524	1513	1518	1539	1556	1562	1557	1547	1526	1542	1538	1531	1536	1554	1565	1573	1578	1583	1567	1566	1552	1542	1549	1566	1573	1573	1568	1564	1555	1527	1512	1511	1526	1564	1581	1593	1591	1586	1581	1577	1567	1563	1570	1563	1547	1546	1552	1564	1574	1580	1577	1570	1561	1547	1534	1544	1560	1570	1576	1571	1541	1532	1532	1554	1566	1570	1574	1575	1585	1593	1579	1536	1514	1458	1431	1425	1433	1445	1444	1463	1462	1459	1453	1444	1440	1449	1457	1457	1465	1469	1476	1463	1450	1446	1455	1455	1443	1434	1447	1457	1457	1451	1443	1450	1466	1477	1475	1470	1458	1457	1453	1452	1449	1451	1456	1465	1471	1473	1469	1466	1487	1479	1476	1463	1449	1454	1469	1475	1474	1466	1471	1478	1476	1475	1492	1491	1484	1484	1481	1485	1480	1468	1460	1461	1468	1470	1455	1451	1470	1520	1529	1517	1545	1565	1588	1626	1667	1673	1690	1714	1702	1684	1671	1669	1664	1658	1683	1694	1691	1670	1706	1708	1706	1717	1723	1739	1743	1736	1718	1706	1707	1707	1705	1696	1696	1693	1698	1708	1707	1714	1723	1773	1773	1765	1716	1700	1699	1729	1742	1736	1736	1740	1761	1772	1779	1768	1752	1745	1740	1743	1749	1753	1759	1757	1766	1762	1757	1755	1759	1763	1788	1781	1782	1783	1811	1797	1732	1693	1627	1599	1594	1588	1579	1570	1570	1578	1587	1578	1511	1497	1503	1502	1508	1523	1506	1494	1493	1515	1522	1533	1542	1533	1530	1525	1519	1534	1549	1561	1559	1548	1540	1547	1539	1558	1566	1571	1566	1554	1538	1530	1533	1538	1548	1552	1553	1559	1552	1555	1552	1557	1571	1577	1584	1598	1602	1669	1720	1776	1909	1912	1917	1920	1922	1929	1935	1941	1944	1933	1935	1941	1941	1952	1958	1963	1969	1966	1947	1942	1944	1952	1955	1964	1962	1969	1964	1952	1943	1959	1976	1985	1978	1963	1954	1943	1944	1958	1974	1987	1980	1965	1965	1966	1988	2013	2032	1963	1984	1995	2005	2002	1983	1977	1965	1989	1986	1998	2000	1996	1980	1969	1964	1966	1958	1961	1965	1973	1981	1989	1990	2007	2010	1999	1988	1979	1970	1963	1967	1967	1957	1961	1964	1974	1969	1972	1983	2007	1991	1974	1960	1931	1916	1924	1928	1945	1960	1953	1928	1899	1877	1870	1868	1863	1861	1855	1843	1857	1868	1866	1855	1853	1838	1782	1750	1766	1802	1857	1908	1890	1870	1845	1845	1849	1858	1858	1879	1893	1908	1905	1896	1903	1926	1956	1984	1999	2012	1986	1983	2018	2040	2057	1973	1953	1911	1899	1751	1654	1611	1606	1618	1626	1620	1612	1612	1600	1587	1572	1561	1559	1567	1577	1587	1577	1561	1557	1556	1548	1549	1556	1565	1564	1566	1566	1561	1550	1548	1557	0	0	0	0	0	0	0	0
1421	1413	1410	1413	1413	1413	1426	1429	1434	1432	1428	1428	1424	1432	1441	1438	1404	1404	1404	1409	1414	1416	1412	1412	1412	1412	1423	1437	1454	1468	1468	1471	1470	1454	1433	1422	1426	1450	1450	1477	1499	1510	1503	1488	1475	1477	1485	1485	1477	1468	1462	1451	1435	1445	1468	1480	1474	1453	1455	1455	1455	1481	1490	1475	1478	1482	1478	1477	1471	1460	1453	1443	1438	1440	1445	1458	1468	1468	1478	1486	1501	1489	1477	1475	1477	1490	1481	1467	1434	1408	1402	1410	1425	1435	1430	1414	1404	1403	1408	1414	1414	1412	1407	1388	1394	1400	1405	1419	1416	1413	1395	1383	1365	1376	1391	1398	1393	1391	1397	1403	1448	1448	1440	1421	1403	1411	1425	1424	1417	1412	1407	1402	1400	1397	1381	1396	1402	1414	1419	1421	1437	1471	1498	1494	1469	1439	1415	1411	1416	1436	1474	1491	1511	1506	1502	1501	1498	1498	1501	1516	1529	1537	1540	1540	1522	1509	1504	1511	1509	1514	1537	1547	1539	1499	1480	1474	1477	1479	1502	1525	1531	1539	1554	1559	1543	1524	1518	1528	1538	1543	1541	1524	1510	1505	1504	1496	1488	1490	1502	1559	1568	1571	1569	1562	1556	1537	1521	1520	1524	1522	1525	1530	1537	1548	1553	1563	1554	1549	1541	1538	1530	1527	1529	1547	1548	1533	1514	1504	1501	1511	1526	1540	1556	1565	1557	1574	1548	1528	1500	1455	1441	1445	1448	1447	1444	1460	1463	1463	1455	1451	1453	1462	1467	1475	1474	1475	1472	1450	1435	1435	1447	1453	1446	1434	1432	1449	1463	1472	1462	1457	1469	1480	1481	1478	1483	1450	1446	1445	1448	1450	1461	1480	1465	1461	1455	1463	1487	1509	1502	1483	1464	1467	1478	1479	1477	1465	1464	1473	1484	1491	1499	1496	1482	1479	1481	1485	1486	1472	1466	1461	1465	1465	1452	1453	1471	1498	1509	1512	1539	1564	1586	1618	1636	1649	1647	1663	1670	1668	1655	1636	1624	1625	1627	1630	1634	1644	1660	1669	1683	1687	1683	1674	1659	1639	1652	1675	1691	1699	1693	1684	1679	1666	1663	1662	1656	1660	1666	1683	1687	1692	1678	1673	1677	1676	1699	1704	1703	1713	1733	1708	1741	1730	1720	1704	1702	1707	1715	1725	1732	1738	1742	1746	1747	1728	1725	1748	1756	1757	1747	1750	1750	1773	1773	1748	1713	1689	1675	1618	1582	1570	1563	1568	1572	1554	1521	1525	1532	1525	1530	1531	1493	1487	1485	1506	1515	1525	1536	1533	1531	1523	1519	1521	1529	1552	1562	1557	1554	1546	1547	1557	1565	1570	1564	1554	1540	1530	1530	1535	1543	1550	1561	1541	1543	1543	1552	1553	1565	1570	1578	1586	1597	1677	1719	1769	1884	1891	1897	1897	1898	1901	1913	1930	1930	1905	1919	1923	1925	1925	1930	1925	1923	1936	1924	1920	1943	1947	1934	1914	1914	1933	1942	1933	1931	1935	1949	1944	1932	1917	1907	1905	1921	1950	1979	1979	1977	1955	1948	1946	1939	1932	1924	1906	1890	1892	1911	1921	1931	1926	1912	1928	1934	1949	1950	1959	1951	1944	1943	1935	1936	1950	1956	1965	1969	1971	1971	1970	1966	1964	1959	1947	1939	1941	1949	1940	1929	1923	1921	1930	1951	1953	1948	1966	1961	1947	1933	1911	1899	1902	1923	1944	1947	1926	1901	1880	1868	1868	1866	1862	1855	1837	1843	1831	1818	1810	1798	1771	1763	1766	1764	1763	1750	1727	1782	1806	1807	1807	1806	1801	1801	1811	1808	1812	1833	1817	1790	1794	1820	1854	1832	1853	1879	1892	1872	1890	1962	1953	1928	1853	1863	1795	1697	1641	1608	1618	1617	1627	1619	1617	1617	1612	1604	1590	1566	1563	1565	1576	1581	1574	1557	1550	1558	1547	1546	1556	1568	1577	1565	1565	1559	1548	1542	1551	0	0	0	0	0	0	0	0
1392	1390	1393	1400	1402	1402	1409	1415	1421	1417	1410	1410	1409	1410	1407	1409	1385	1385	1390	1397	1394	1381	1382	1382	1379	1383	1398	1415	1429	1435	1435	1445	1444	1434	1421	1408	1413	1430	1430	1449	1473	1480	1477	1451	1439	1439	1459	1458	1458	1460	1464	1456	1444	1443	1461	1467	1455	1442	1433	1433	1445	1452	1444	1453	1468	1468	1464	1456	1456	1449	1437	1427	1427	1430	1437	1448	1453	1453	1451	1458	1458	1456	1453	1452	1450	1453	1451	1456	1447	1430	1416	1421	1439	1445	1444	1421	1413	1407	1400	1397	1406	1404	1399	1400	1384	1394	1409	1410	1402	1399	1389	1357	1367	1399	1409	1412	1398	1393	1404	1417	1434	1434	1433	1428	1422	1427	1435	1461	1456	1439	1424	1418	1413	1407	1390	1387	1396	1405	1408	1418	1429	1453	1496	1521	1505	1473	1455	1442	1450	1468	1475	1474	1480	1486	1493	1490	1485	1480	1482	1480	1494	1512	1518	1516	1508	1502	1507	1502	1498	1499	1504	1508	1502	1473	1461	1457	1460	1458	1456	1471	1492	1514	1513	1500	1501	1506	1508	1521	1529	1533	1524	1506	1478	1455	1445	1449	1459	1471	1477	1501	1533	1541	1539	1531	1512	1501	1500	1506	1510	1509	1510	1513	1521	1529	1537	1545	1536	1530	1523	1532	1532	1527	1522	1517	1514	1510	1497	1486	1483	1493	1509	1515	1518	1509	1484	1505	1516	1502	1473	1465	1458	1459	1455	1445	1443	1455	1462	1474	1476	1467	1470	1477	1485	1488	1485	1487	1480	1459	1434	1435	1442	1448	1445	1433	1435	1451	1470	1482	1484	1485	1486	1488	1472	1478	1473	1462	1421	1438	1451	1496	1492	1483	1456	1461	1452	1460	1480	1490	1488	1477	1468	1467	1480	1485	1483	1474	1476	1487	1485	1477	1476	1499	1492	1481	1483	1484	1482	1473	1469	1464	1462	1464	1460	1461	1478	1491	1496	1503	1520	1554	1563	1559	1565	1589	1616	1609	1607	1617	1625	1627	1618	1603	1590	1579	1597	1608	1628	1643	1654	1648	1635	1617	1610	1607	1626	1642	1663	1669	1660	1656	1641	1630	1625	1639	1646	1651	1662	1662	1664	1649	1637	1652	1652	1660	1665	1682	1679	1675	1677	1676	1667	1689	1667	1659	1661	1666	1677	1685	1695	1705	1712	1722	1708	1690	1688	1698	1723	1725	1721	1716	1723	1741	1750	1738	1720	1705	1692	1635	1581	1555	1555	1557	1559	1535	1517	1518	1529	1517	1536	1539	1494	1486	1477	1504	1513	1523	1530	1532	1533	1523	1513	1510	1525	1528	1542	1557	1555	1549	1541	1548	1558	1559	1555	1547	1536	1529	1530	1546	1577	1585	1570	1556	1538	1545	1553	1547	1556	1562	1573	1584	1594	1681	1713	1754	1869	1879	1881	1882	1876	1869	1886	1903	1909	1901	1907	1905	1900	1899	1900	1901	1898	1894	1893	1919	1938	1947	1930	1906	1886	1921	1933	1927	1925	1917	1914	1901	1906	1882	1877	1885	1905	1935	1947	1956	1957	1935	1928	1922	1907	1904	1899	1882	1875	1873	1882	1887	1910	1906	1883	1878	1890	1899	1898	1896	1896	1893	1910	1900	1908	1922	1934	1939	1912	1891	1898	1912	1924	1911	1918	1917	1921	1924	1930	1915	1899	1887	1888	1904	1934	1934	1926	1892	1895	1895	1908	1899	1890	1903	1926	1935	1931	1911	1881	1862	1861	1870	1873	1858	1841	1836	1834	1824	1813	1810	1807	1780	1778	1793	1803	1796	1756	1719	1751	1784	1816	1829	1794	1778	1749	1749	1756	1767	1730	1716	1687	1690	1740	1736	1709	1764	1807	1817	1802	1788	1777	1780	1790	1799	1775	1721	1672	1651	1635	1624	1616	1615	1609	1605	1605	1603	1600	1599	1599	1589	1581	1580	1574	1558	1550	1549	1544	1535	1528	1549	1567	1579	1567	1567	1556	1550	1542	1554	0	0	0	0	0	0	0	0
1366	1369	1377	1383	1394	1403	1403	1405	1399	1397	1396	1396	1397	1400	1393	1389	1362	1362	1362	1358	1358	1356	1349	1349	1355	1357	1369	1389	1404	1402	1402	1403	1399	1398	1390	1387	1392	1405	1427	1427	1445	1453	1447	1442	1437	1434	1436	1452	1452	1453	1445	1432	1436	1433	1417	1429	1428	1429	1424	1426	1436	1438	1434	1437	1442	1444	1442	1443	1446	1440	1429	1426	1421	1417	1415	1423	1428	1426	1426	1427	1438	1443	1446	1440	1445	1436	1433	1435	1428	1413	1403	1402	1422	1438	1441	1428	1412	1398	1392	1390	1397	1400	1396	1404	1417	1422	1417	1410	1404	1397	1379	1385	1407	1409	1410	1406	1401	1397	1408	1418	1412	1410	1416	1419	1423	1438	1450	1480	1469	1446	1435	1427	1420	1411	1403	1399	1402	1407	1407	1410	1430	1456	1498	1510	1492	1457	1436	1436	1454	1476	1463	1457	1462	1477	1485	1478	1469	1458	1451	1461	1471	1485	1499	1499	1497	1490	1489	1497	1482	1479	1464	1463	1466	1460	1455	1450	1459	1476	1483	1478	1478	1475	1475	1466	1472	1471	1479	1498	1511	1509	1477	1452	1443	1436	1432	1439	1455	1471	1474	1468	1482	1497	1513	1505	1495	1490	1494	1497	1502	1500	1504	1512	1511	1515	1520	1528	1519	1514	1513	1517	1518	1501	1485	1479	1481	1493	1489	1481	1481	1491	1507	1509	1501	1491	1478	1472	1471	1468	1465	1458	1460	1462	1454	1450	1445	1453	1465	1478	1484	1478	1477	1477	1488	1490	1493	1493	1489	1460	1439	1436	1437	1442	1438	1432	1437	1458	1475	1480	1481	1479	1478	1474	1469	1456	1446	1447	1449	1455	1459	1462	1459	1451	1458	1462	1463	1459	1469	1470	1476	1474	1468	1467	1474	1483	1481	1473	1460	1460	1458	1464	1470	1481	1497	1497	1482	1484	1473	1468	1467	1467	1472	1473	1472	1471	1493	1496	1503	1509	1511	1529	1534	1539	1565	1589	1599	1585	1581	1593	1611	1612	1601	1577	1557	1544	1542	1553	1573	1590	1597	1598	1600	1615	1606	1600	1610	1627	1625	1618	1611	1617	1614	1582	1593	1606	1629	1633	1638	1622	1608	1589	1584	1609	1626	1629	1629	1629	1628	1636	1650	1654	1646	1635	1630	1618	1625	1633	1619	1622	1633	1652	1674	1674	1666	1659	1660	1666	1674	1678	1658	1665	1698	1707	1724	1702	1674	1654	1652	1631	1599	1549	1499	1503	1509	1505	1504	1508	1508	1506	1526	1549	1521	1489	1485	1501	1512	1517	1519	1531	1534	1531	1522	1505	1517	1515	1517	1542	1557	1553	1551	1546	1551	1539	1535	1537	1532	1530	1558	1573	1590	1592	1577	1557	1539	1559	1560	1545	1550	1563	1576	1588	1611	1668	1697	1750	1856	1868	1869	1852	1833	1830	1838	1857	1884	1874	1877	1871	1858	1855	1854	1872	1868	1874	1880	1902	1925	1933	1907	1884	1872	1881	1896	1899	1889	1874	1863	1862	1873	1875	1871	1876	1894	1919	1928	1870	1867	1892	1907	1891	1865	1861	1864	1869	1870	1853	1852	1853	1865	1869	1853	1843	1853	1857	1860	1869	1876	1883	1892	1893	1888	1876	1859	1853	1850	1847	1843	1843	1855	1870	1867	1867	1877	1891	1894	1887	1873	1853	1850	1869	1899	1912	1896	1875	1863	1859	1864	1887	1896	1907	1920	1923	1921	1900	1865	1853	1856	1867	1866	1847	1828	1828	1832	1840	1846	1840	1822	1787	1782	1794	1803	1803	1778	1781	1786	1778	1789	1802	1795	1769	1714	1680	1697	1692	1635	1584	1565	1593	1640	1682	1685	1689	1717	1765	1761	1748	1748	1756	1762	1755	1729	1704	1678	1647	1621	1616	1609	1604	1601	1601	1604	1601	1598	1598	1595	1586	1582	1576	1573	1558	1543	1539	1532	1523	1528	1540	1562	1567	1559	1559	1552	1545	1540	1549	0	0	0	0	0	0	0	0
1349	1349	1365	1377	1389	1388	1388	1378	1376	1378	1383	1383	1382	1383	1380	1360	1339	1339	1339	1338	1349	1354	1352	1348	1348	1345	1348	1362	1375	1382	1376	1376	1373	1371	1370	1366	1391	1414	1431	1431	1434	1434	1434	1429	1433	1430	1421	1416	1416	1408	1401	1396	1400	1397	1401	1399	1403	1412	1432	1425	1425	1421	1420	1425	1435	1440	1442	1429	1418	1418	1414	1416	1414	1408	1402	1411	1417	1420	1420	1429	1428	1424	1417	1402	1395	1395	1409	1423	1424	1410	1398	1395	1401	1414	1420	1410	1394	1389	1397	1403	1401	1397	1396	1397	1400	1388	1387	1400	1395	1386	1399	1409	1411	1409	1404	1396	1391	1383	1394	1408	1406	1395	1397	1397	1413	1427	1433	1438	1417	1408	1412	1426	1433	1428	1419	1412	1413	1414	1417	1423	1436	1450	1470	1479	1465	1438	1415	1418	1436	1446	1433	1436	1444	1450	1457	1458	1438	1433	1433	1442	1453	1462	1462	1475	1476	1468	1469	1469	1449	1444	1429	1435	1431	1443	1443	1443	1452	1455	1470	1480	1480	1477	1454	1433	1437	1448	1439	1458	1451	1449	1449	1449	1443	1431	1425	1430	1448	1466	1475	1476	1482	1482	1496	1501	1483	1460	1454	1442	1440	1444	1463	1486	1502	1507	1499	1500	1510	1509	1497	1490	1472	1462	1460	1458	1465	1487	1500	1490	1479	1479	1485	1492	1493	1484	1474	1452	1446	1449	1452	1448	1456	1471	1458	1449	1449	1452	1460	1468	1469	1467	1467	1467	1481	1486	1490	1493	1489	1478	1460	1440	1435	1426	1430	1441	1462	1472	1473	1470	1471	1469	1473	1471	1466	1456	1447	1449	1453	1455	1461	1462	1459	1455	1459	1463	1460	1455	1459	1460	1468	1468	1474	1476	1479	1479	1473	1472	1468	1454	1455	1461	1470	1476	1480	1477	1475	1479	1473	1460	1462	1470	1483	1489	1466	1475	1489	1485	1498	1514	1521	1525	1531	1544	1566	1575	1563	1547	1553	1566	1581	1586	1574	1553	1536	1530	1540	1545	1555	1560	1550	1553	1570	1565	1569	1573	1576	1586	1547	1547	1544	1541	1539	1545	1562	1571	1571	1564	1569	1561	1547	1551	1554	1561	1555	1543	1551	1571	1583	1588	1595	1608	1615	1618	1618	1599	1585	1591	1601	1605	1610	1609	1600	1586	1591	1594	1631	1630	1624	1608	1616	1622	1644	1656	1671	1627	1617	1634	1641	1625	1594	1558	1528	1498	1500	1498	1507	1500	1516	1519	1523	1550	1523	1498	1499	1512	1514	1511	1516	1525	1534	1538	1536	1511	1509	1510	1510	1526	1547	1560	1569	1558	1530	1527	1531	1542	1548	1552	1567	1583	1593	1589	1573	1556	1549	1574	1570	1560	1552	1566	1579	1598	1635	1685	1713	1767	1828	1800	1798	1809	1812	1792	1784	1782	1799	1822	1818	1826	1813	1798	1811	1827	1848	1854	1862	1879	1880	1866	1862	1866	1859	1834	1822	1830	1851	1860	1845	1836	1838	1852	1862	1867	1852	1854	1817	1792	1821	1844	1862	1862	1841	1819	1817	1817	1815	1812	1815	1812	1805	1802	1783	1805	1818	1815	1819	1850	1858	1861	1866	1861	1858	1842	1812	1807	1825	1838	1840	1833	1833	1845	1857	1865	1871	1869	1864	1861	1842	1833	1808	1817	1848	1880	1879	1860	1848	1841	1844	1853	1861	1855	1849	1842	1874	1870	1851	1841	1841	1852	1847	1836	1825	1824	1829	1835	1840	1838	1818	1787	1776	1775	1775	1773	1773	1786	1788	1778	1776	1761	1749	1746	1736	1696	1649	1659	1612	1594	1583	1568	1583	1651	1668	1683	1681	1683	1703	1714	1726	1739	1745	1718	1651	1646	1645	1623	1604	1605	1597	1608	1609	1609	1608	1597	1594	1589	1578	1578	1575	1576	1572	1557	1546	1531	1530	1537	1534	1539	1550	1554	1554	1552	1547	1538	1541	1556	0	0	0	0	0	0	0	0
1349	1349	1354	1351	1351	1348	1348	1352	1362	1365	1372	1372	1382	1387	1379	1353	1328	1328	1313	1322	1337	1346	1348	1344	1344	1341	1344	1348	1357	1373	1368	1368	1360	1355	1353	1362	1381	1395	1410	1410	1419	1413	1399	1400	1400	1404	1408	1401	1401	1397	1396	1393	1386	1380	1379	1383	1393	1402	1406	1407	1407	1395	1389	1392	1418	1432	1430	1419	1401	1386	1385	1385	1387	1374	1368	1372	1403	1413	1413	1422	1419	1404	1390	1381	1379	1381	1386	1389	1396	1392	1392	1390	1395	1395	1382	1367	1360	1358	1373	1394	1403	1399	1393	1392	1384	1371	1368	1370	1370	1378	1393	1401	1390	1383	1388	1387	1389	1399	1403	1395	1389	1382	1380	1378	1385	1396	1409	1405	1392	1394	1404	1426	1435	1437	1431	1427	1424	1424	1425	1429	1436	1442	1444	1445	1454	1435	1422	1429	1433	1438	1430	1432	1430	1428	1418	1423	1416	1414	1415	1422	1430	1438	1432	1435	1442	1437	1445	1448	1437	1427	1420	1416	1416	1418	1418	1412	1413	1424	1439	1446	1448	1439	1442	1441	1425	1418	1419	1410	1406	1405	1455	1447	1443	1438	1433	1428	1442	1453	1466	1469	1474	1483	1488	1482	1446	1416	1408	1418	1420	1425	1436	1456	1471	1470	1467	1462	1454	1456	1448	1434	1437	1431	1427	1430	1427	1439	1462	1468	1466	1467	1476	1470	1464	1461	1468	1457	1444	1440	1446	1455	1469	1470	1457	1452	1452	1451	1446	1439	1451	1447	1448	1451	1466	1480	1483	1488	1484	1450	1445	1436	1428	1422	1434	1445	1460	1468	1470	1459	1453	1453	1462	1470	1472	1468	1448	1443	1442	1456	1462	1458	1455	1455	1462	1468	1463	1451	1448	1457	1466	1471	1476	1477	1480	1474	1468	1470	1465	1448	1449	1453	1460	1466	1469	1458	1462	1466	1468	1463	1464	1463	1459	1459	1463	1484	1492	1486	1484	1485	1488	1477	1482	1496	1513	1521	1517	1511	1513	1521	1530	1532	1528	1528	1529	1536	1538	1527	1528	1531	1526	1527	1532	1533	1539	1528	1527	1526	1519	1513	1512	1502	1513	1525	1536	1557	1560	1549	1541	1537	1538	1539	1536	1534	1534	1534	1528	1537	1556	1563	1546	1549	1555	1577	1587	1560	1543	1546	1558	1564	1556	1535	1531	1542	1554	1599	1609	1607	1599	1592	1588	1593	1593	1594	1595	1591	1590	1593	1599	1614	1615	1593	1571	1548	1540	1540	1530	1520	1537	1538	1552	1561	1535	1511	1510	1521	1516	1514	1511	1518	1532	1537	1536	1521	1521	1525	1531	1529	1538	1551	1551	1535	1532	1532	1555	1554	1549	1547	1564	1586	1592	1584	1573	1565	1570	1596	1589	1578	1565	1576	1579	1592	1610	1675	1708	1750	1762	1768	1776	1785	1787	1776	1756	1753	1781	1791	1793	1791	1777	1772	1777	1791	1824	1836	1830	1816	1786	1779	1789	1803	1811	1803	1801	1810	1819	1829	1825	1810	1797	1767	1752	1745	1761	1811	1798	1773	1773	1800	1807	1806	1800	1798	1798	1791	1790	1781	1789	1780	1758	1752	1769	1784	1790	1795	1800	1809	1798	1789	1788	1799	1815	1817	1811	1808	1815	1831	1826	1820	1817	1825	1831	1844	1851	1837	1851	1842	1821	1801	1782	1783	1807	1816	1825	1800	1818	1827	1835	1833	1836	1829	1822	1807	1795	1792	1791	1785	1791	1796	1799	1791	1788	1789	1795	1806	1811	1814	1790	1765	1762	1760	1750	1740	1739	1772	1789	1790	1775	1761	1746	1739	1730	1708	1671	1671	1600	1584	1565	1558	1552	1580	1657	1677	1672	1671	1675	1671	1662	1658	1657	1650	1618	1620	1626	1620	1618	1633	1615	1605	1595	1595	1589	1591	1589	1578	1571	1575	1575	1567	1569	1558	1542	1533	1546	1546	1541	1539	1546	1547	1547	1542	1530	1533	1539	1554	0	0	0	0	0	0	0	0
1364	1364	1347	1327	1316	1325	1325	1340	1356	1362	1365	1374	1374	1372	1364	1340	1285	1285	1284	1289	1309	1326	1334	1337	1337	1335	1337	1342	1355	1362	1362	1362	1356	1353	1350	1349	1355	1364	1374	1374	1380	1380	1365	1367	1368	1384	1392	1389	1401	1401	1400	1389	1375	1363	1361	1368	1375	1381	1378	1358	1358	1346	1339	1348	1360	1372	1379	1376	1372	1371	1371	1373	1357	1355	1354	1360	1378	1391	1400	1400	1392	1375	1359	1355	1361	1366	1364	1370	1372	1371	1373	1381	1388	1392	1382	1366	1350	1342	1344	1350	1382	1386	1383	1376	1363	1355	1362	1369	1373	1375	1382	1374	1365	1360	1362	1369	1378	1387	1391	1379	1379	1380	1383	1385	1385	1390	1387	1379	1373	1368	1375	1400	1414	1408	1397	1396	1407	1409	1406	1398	1399	1413	1415	1412	1409	1408	1398	1396	1410	1422	1426	1429	1423	1418	1398	1381	1377	1384	1398	1411	1411	1409	1410	1414	1411	1414	1416	1421	1436	1435	1423	1413	1410	1411	1412	1406	1397	1400	1413	1417	1418	1419	1422	1423	1410	1404	1402	1403	1402	1389	1395	1399	1408	1433	1433	1429	1433	1437	1446	1448	1450	1455	1441	1426	1411	1409	1420	1436	1437	1424	1422	1429	1429	1427	1421	1419	1414	1429	1424	1414	1406	1405	1404	1402	1403	1409	1418	1429	1431	1431	1430	1434	1432	1434	1446	1457	1420	1404	1402	1414	1442	1447	1447	1453	1456	1451	1439	1420	1408	1401	1432	1437	1443	1453	1458	1455	1440	1433	1435	1436	1438	1438	1441	1448	1459	1465	1459	1450	1443	1446	1455	1463	1465	1461	1447	1434	1427	1439	1458	1475	1473	1467	1460	1455	1446	1442	1448	1457	1465	1464	1469	1469	1471	1468	1460	1454	1452	1447	1424	1427	1433	1443	1442	1443	1446	1452	1452	1456	1458	1459	1454	1451	1463	1482	1492	1481	1454	1434	1429	1431	1435	1444	1460	1479	1486	1493	1495	1491	1487	1484	1481	1491	1498	1519	1520	1516	1511	1511	1510	1509	1512	1505	1499	1501	1505	1505	1496	1484	1477	1477	1471	1478	1501	1513	1517	1523	1523	1525	1531	1521	1515	1515	1510	1518	1520	1529	1545	1539	1526	1534	1541	1540	1532	1525	1532	1542	1541	1528	1510	1505	1510	1533	1542	1549	1562	1571	1560	1550	1543	1535	1528	1538	1552	1557	1568	1571	1575	1577	1574	1574	1579	1584	1595	1606	1590	1568	1555	1558	1543	1564	1542	1516	1540	1533	1526	1520	1513	1506	1520	1528	1543	1541	1544	1551	1546	1538	1536	1542	1540	1539	1548	1549	1557	1562	1553	1549	1550	1548	1565	1578	1575	1581	1595	1613	1609	1595	1590	1579	1583	1594	1602	1630	1675	1693	1709	1717	1739	1747	1750	1756	1748	1739	1761	1770	1768	1749	1752	1754	1759	1770	1792	1792	1771	1761	1764	1764	1774	1788	1791	1781	1778	1781	1787	1795	1789	1748	1736	1735	1727	1722	1724	1735	1758	1746	1747	1747	1751	1759	1770	1780	1780	1776	1772	1761	1754	1749	1733	1730	1733	1736	1751	1768	1789	1785	1773	1766	1770	1783	1798	1811	1816	1814	1805	1799	1769	1790	1769	1773	1772	1787	1798	1780	1773	1779	1766	1758	1756	1746	1741	1732	1735	1761	1775	1799	1811	1806	1802	1801	1796	1792	1778	1775	1773	1775	1781	1787	1784	1785	1766	1762	1766	1786	1799	1786	1759	1736	1741	1752	1747	1744	1750	1779	1792	1791	1777	1757	1737	1731	1727	1718	1701	1680	1595	1560	1537	1512	1501	1529	1634	1666	1674	1685	1675	1664	1651	1607	1592	1596	1603	1637	1632	1631	1633	1640	1621	1601	1601	1589	1587	1586	1585	1579	1573	1579	1586	1576	1564	1564	1551	1541	1558	1555	1547	1539	1539	1542	1542	1537	1531	1524	1532	1542	0	0	0	0	0	0	0	0
1327	1327	1320	1297	1301	1317	1317	1338	1337	1332	1329	1326	1326	1330	1318	1304	1277	1264	1264	1270	1282	1301	1313	1326	1326	1330	1328	1329	1338	1347	1347	1347	1346	1341	1342	1343	1347	1356	1357	1357	1352	1342	1338	1340	1350	1365	1377	1389	1397	1397	1396	1382	1365	1352	1346	1336	1347	1354	1345	1340	1330	1330	1332	1341	1350	1352	1354	1353	1352	1363	1365	1344	1323	1322	1329	1347	1356	1370	1377	1377	1377	1361	1344	1332	1328	1334	1337	1349	1352	1354	1356	1351	1358	1369	1372	1362	1345	1337	1332	1343	1351	1359	1352	1352	1349	1349	1354	1365	1375	1377	1375	1368	1356	1351	1351	1361	1369	1369	1371	1375	1379	1378	1382	1383	1384	1376	1371	1370	1366	1371	1379	1388	1387	1377	1371	1370	1370	1360	1364	1367	1371	1383	1391	1390	1384	1380	1371	1373	1383	1397	1405	1420	1419	1410	1395	1377	1373	1375	1376	1391	1393	1396	1397	1395	1392	1392	1395	1400	1421	1436	1431	1416	1409	1409	1405	1401	1394	1387	1382	1383	1389	1399	1407	1409	1402	1402	1407	1407	1403	1393	1391	1389	1396	1395	1388	1421	1417	1424	1417	1392	1399	1406	1411	1403	1395	1377	1376	1386	1402	1402	1402	1407	1407	1401	1394	1388	1388	1411	1417	1413	1400	1394	1392	1389	1387	1390	1389	1411	1419	1420	1414	1410	1405	1399	1402	1404	1392	1384	1383	1392	1415	1434	1441	1449	1453	1448	1429	1415	1396	1392	1387	1392	1416	1428	1435	1432	1428	1426	1422	1428	1442	1444	1439	1441	1441	1446	1444	1442	1437	1441	1448	1458	1460	1454	1442	1434	1432	1441	1451	1448	1431	1420	1414	1428	1433	1435	1442	1446	1454	1456	1458	1455	1456	1454	1448	1438	1440	1438	1425	1423	1426	1426	1424	1425	1424	1426	1432	1443	1450	1452	1448	1446	1447	1454	1462	1449	1429	1423	1422	1427	1438	1454	1460	1457	1451	1449	1466	1476	1467	1458	1452	1458	1469	1476	1494	1494	1498	1494	1490	1490	1488	1485	1471	1469	1473	1476	1471	1458	1456	1455	1448	1456	1458	1457	1464	1483	1495	1503	1505	1492	1471	1475	1492	1504	1510	1513	1510	1499	1504	1516	1531	1530	1527	1527	1520	1519	1518	1517	1510	1506	1512	1513	1510	1503	1515	1515	1520	1522	1519	1517	1519	1525	1538	1544	1540	1531	1527	1531	1543	1539	1553	1581	1599	1603	1576	1539	1515	1516	1539	1561	1543	1541	1543	1545	1547	1533	1526	1524	1521	1521	1540	1554	1561	1566	1564	1548	1542	1544	1554	1553	1556	1555	1561	1559	1548	1540	1524	1509	1510	1562	1571	1588	1615	1635	1625	1624	1614	1635	1647	1654	1634	1636	1642	1654	1671	1689	1707	1709	1709	1716	1716	1710	1726	1730	1727	1724	1731	1737	1741	1749	1741	1743	1743	1749	1749	1749	1760	1763	1759	1756	1752	1750	1721	1723	1724	1718	1712	1710	1712	1705	1705	1711	1732	1731	1721	1716	1717	1719	1723	1732	1748	1741	1735	1724	1724	1722	1719	1713	1703	1707	1727	1744	1748	1751	1743	1740	1746	1757	1768	1785	1796	1798	1789	1757	1738	1718	1709	1713	1720	1730	1737	1738	1740	1741	1739	1733	1728	1716	1717	1714	1718	1731	1736	1765	1782	1769	1771	1776	1771	1778	1780	1771	1763	1765	1760	1752	1760	1755	1740	1731	1731	1742	1755	1756	1739	1704	1715	1726	1739	1758	1774	1791	1791	1785	1766	1746	1732	1731	1730	1723	1711	1653	1619	1566	1519	1488	1528	1521	1598	1661	1687	1683	1673	1655	1638	1618	1631	1635	1635	1628	1628	1616	1638	1627	1614	1604	1604	1591	1582	1582	1582	1578	1577	1581	1585	1569	1560	1565	1568	1558	1550	1558	1552	1530	1526	1531	1531	1532	1532	1531	1532	1536	0	0	0	0	0	0	0	0
1304	1304	1301	1287	1288	1290	1290	1298	1304	1312	1310	1300	1300	1299	1294	1281	1262	1257	1257	1259	1266	1280	1297	1312	1312	1310	1309	1313	1316	1324	1326	1326	1329	1327	1327	1339	1348	1355	1357	1352	1352	1343	1332	1334	1340	1352	1362	1360	1369	1369	1376	1370	1354	1339	1319	1314	1321	1328	1326	1320	1313	1313	1317	1328	1339	1346	1348	1336	1330	1326	1314	1300	1301	1300	1314	1327	1336	1344	1341	1341	1340	1337	1319	1316	1309	1312	1321	1332	1340	1340	1336	1335	1338	1337	1339	1341	1333	1328	1330	1338	1339	1333	1330	1334	1341	1346	1352	1358	1360	1359	1354	1349	1341	1333	1339	1351	1360	1364	1367	1372	1368	1370	1371	1375	1376	1360	1352	1363	1365	1371	1366	1364	1362	1355	1351	1346	1332	1345	1358	1364	1368	1366	1365	1364	1364	1361	1356	1355	1363	1374	1382	1402	1408	1409	1395	1376	1367	1363	1369	1377	1375	1385	1392	1394	1390	1385	1380	1377	1384	1396	1393	1383	1377	1381	1384	1381	1378	1380	1375	1376	1375	1380	1383	1381	1385	1404	1413	1417	1413	1404	1397	1388	1386	1376	1366	1354	1356	1365	1379	1379	1380	1384	1386	1379	1373	1363	1365	1382	1396	1398	1397	1397	1399	1391	1378	1370	1370	1380	1400	1404	1401	1393	1390	1386	1386	1385	1381	1404	1416	1415	1405	1401	1398	1397	1396	1388	1383	1373	1379	1395	1411	1425	1433	1442	1447	1438	1427	1410	1396	1387	1387	1389	1396	1409	1425	1426	1418	1414	1411	1418	1439	1439	1430	1427	1428	1433	1432	1434	1429	1429	1438	1445	1450	1446	1438	1434	1434	1436	1441	1442	1430	1414	1407	1412	1421	1429	1427	1431	1435	1441	1443	1440	1439	1441	1438	1433	1434	1427	1425	1425	1423	1417	1411	1405	1403	1401	1404	1414	1428	1441	1443	1435	1428	1417	1413	1426	1430	1430	1432	1441	1454	1461	1460	1452	1443	1443	1454	1458	1451	1443	1439	1441	1443	1449	1456	1462	1457	1451	1450	1460	1466	1468	1465	1458	1458	1465	1468	1454	1454	1451	1447	1444	1441	1440	1448	1456	1454	1461	1459	1451	1451	1464	1478	1494	1499	1488	1471	1457	1467	1493	1507	1517	1508	1504	1505	1507	1509	1516	1518	1509	1499	1493	1494	1488	1496	1505	1517	1530	1533	1530	1525	1532	1543	1539	1521	1507	1501	1505	1515	1534	1549	1561	1573	1572	1542	1507	1490	1491	1503	1531	1542	1546	1553	1555	1573	1576	1563	1540	1527	1524	1531	1544	1546	1541	1540	1540	1538	1557	1557	1552	1548	1540	1533	1529	1528	1520	1502	1499	1521	1538	1562	1594	1624	1643	1637	1628	1623	1630	1651	1662	1661	1653	1650	1633	1645	1659	1669	1665	1672	1681	1680	1676	1691	1691	1701	1704	1709	1719	1730	1723	1716	1706	1716	1729	1726	1721	1724	1731	1696	1691	1665	1661	1672	1671	1683	1681	1683	1682	1690	1694	1687	1681	1712	1715	1699	1695	1693	1695	1697	1698	1691	1697	1703	1701	1706	1702	1707	1707	1683	1690	1710	1722	1728	1726	1720	1715	1719	1714	1727	1745	1764	1765	1757	1726	1707	1693	1681	1680	1688	1704	1710	1714	1724	1731	1729	1722	1708	1703	1700	1700	1702	1704	1706	1724	1736	1739	1712	1710	1724	1727	1716	1714	1729	1750	1745	1725	1708	1695	1693	1696	1707	1721	1726	1727	1714	1708	1721	1729	1735	1736	1736	1728	1709	1694	1686	1693	1704	1715	1726	1719	1688	1648	1620	1580	1574	1566	1551	1603	1628	1653	1659	1662	1652	1652	1640	1634	1628	1618	1609	1618	1621	1611	1620	1619	1613	1613	1602	1594	1585	1576	1559	1558	1562	1575	1574	1560	1553	1545	1549	1563	1557	1541	1524	1506	1516	1516	1526	1542	1553	1555	1551	1545	0	0	0	0	0	0	0	0
1297	1297	1282	1274	1271	1270	1272	1272	1282	1292	1287	1283	1283	1274	1274	1271	1246	1248	1248	1251	1262	1272	1291	1302	1298	1298	1298	1293	1296	1300	1306	1311	1311	1312	1313	1323	1334	1339	1343	1337	1337	1334	1331	1331	1334	1344	1342	1342	1344	1344	1350	1351	1341	1321	1310	1302	1303	1309	1313	1307	1302	1302	1304	1312	1323	1332	1330	1321	1310	1298	1289	1287	1282	1292	1300	1306	1311	1317	1324	1330	1330	1328	1318	1308	1302	1304	1314	1329	1340	1336	1330	1319	1313	1310	1309	1307	1313	1319	1324	1329	1327	1325	1325	1324	1334	1348	1353	1349	1344	1331	1333	1327	1321	1326	1329	1335	1338	1347	1363	1367	1363	1352	1353	1357	1349	1344	1346	1349	1354	1353	1354	1347	1341	1340	1336	1323	1322	1339	1359	1372	1373	1362	1354	1351	1344	1344	1340	1341	1349	1356	1356	1371	1384	1388	1372	1356	1349	1357	1365	1369	1367	1367	1380	1389	1387	1373	1364	1358	1359	1373	1364	1351	1351	1357	1361	1362	1363	1368	1368	1365	1369	1364	1375	1373	1380	1397	1410	1416	1412	1404	1395	1382	1372	1363	1356	1351	1352	1361	1361	1360	1371	1370	1368	1367	1362	1347	1360	1374	1381	1383	1386	1385	1386	1382	1370	1355	1353	1362	1380	1391	1392	1394	1389	1384	1384	1383	1384	1380	1377	1381	1387	1393	1398	1399	1393	1386	1378	1365	1371	1390	1407	1416	1411	1416	1424	1427	1415	1388	1392	1397	1393	1392	1398	1405	1408	1401	1413	1409	1405	1409	1420	1424	1410	1404	1407	1416	1417	1417	1413	1411	1420	1423	1429	1432	1429	1426	1425	1424	1422	1431	1423	1412	1407	1408	1416	1417	1409	1407	1402	1408	1409	1405	1405	1409	1422	1425	1423	1418	1418	1419	1419	1409	1399	1387	1383	1378	1385	1399	1411	1425	1423	1407	1401	1399	1401	1408	1422	1430	1430	1441	1449	1457	1448	1438	1436	1438	1446	1442	1440	1438	1435	1425	1420	1428	1437	1443	1440	1438	1438	1443	1447	1444	1444	1443	1446	1442	1443	1462	1457	1450	1440	1434	1437	1443	1446	1445	1437	1424	1418	1421	1434	1456	1476	1485	1488	1484	1470	1458	1452	1454	1459	1468	1474	1477	1481	1491	1499	1512	1516	1504	1484	1480	1475	1472	1477	1485	1501	1508	1506	1517	1521	1516	1516	1522	1518	1502	1492	1484	1478	1480	1511	1528	1547	1550	1543	1530	1526	1531	1543	1548	1550	1556	1559	1562	1558	1556	1559	1566	1562	1525	1522	1528	1521	1503	1517	1522	1538	1540	1534	1532	1538	1541	1544	1548	1554	1554	1556	1549	1550	1553	1563	1582	1611	1635	1625	1584	1597	1625	1634	1645	1650	1652	1648	1640	1634	1641	1640	1633	1633	1637	1635	1638	1659	1673	1678	1678	1681	1693	1703	1702	1688	1678	1680	1690	1679	1664	1636	1652	1641	1645	1653	1648	1648	1640	1642	1644	1648	1660	1663	1659	1657	1659	1657	1690	1682	1677	1672	1677	1683	1668	1655	1664	1669	1662	1668	1685	1695	1697	1677	1683	1692	1703	1711	1710	1707	1707	1700	1688	1689	1699	1721	1726	1727	1709	1691	1676	1668	1669	1680	1688	1693	1702	1711	1720	1710	1705	1697	1695	1692	1694	1690	1687	1677	1653	1660	1669	1684	1688	1691	1690	1689	1693	1704	1703	1695	1664	1651	1656	1664	1669	1680	1693	1699	1699	1694	1703	1709	1701	1704	1696	1694	1682	1663	1646	1648	1657	1660	1675	1681	1679	1685	1654	1590	1586	1590	1599	1622	1634	1653	1656	1626	1643	1628	1616	1629	1625	1619	1609	1607	1608	1613	1614	1611	1614	1617	1617	1602	1590	1581	1568	1552	1538	1547	1562	1563	1552	1536	1524	1518	1515	1510	1509	1502	1509	1515	1515	1520	1528	1531	1529	1519	1508	0	0	0	0	0	0	0	0
1288	1276	1276	1263	1259	1249	1251	1251	1261	1270	1270	1264	1264	1261	1260	1254	1232	1232	1232	1247	1258	1267	1282	1288	1284	1284	1277	1276	1279	1282	1287	1287	1287	1286	1294	1304	1309	1309	1313	1314	1314	1323	1324	1324	1320	1320	1325	1324	1328	1328	1331	1334	1314	1312	1301	1295	1294	1304	1301	1297	1295	1295	1294	1296	1302	1306	1308	1303	1296	1288	1282	1281	1278	1283	1295	1296	1296	1300	1310	1321	1321	1320	1314	1304	1297	1298	1310	1322	1329	1329	1321	1305	1294	1289	1287	1285	1289	1297	1313	1314	1312	1309	1308	1314	1333	1346	1343	1330	1318	1303	1304	1306	1317	1320	1317	1317	1318	1331	1351	1360	1356	1344	1340	1332	1337	1349	1352	1347	1334	1333	1332	1334	1332	1330	1328	1318	1320	1326	1338	1365	1355	1337	1327	1327	1325	1324	1325	1328	1324	1332	1340	1349	1359	1353	1343	1331	1322	1323	1327	1331	1339	1352	1352	1351	1357	1352	1337	1321	1338	1355	1341	1331	1331	1336	1339	1344	1350	1349	1344	1342	1346	1358	1361	1368	1373	1384	1387	1393	1391	1387	1378	1363	1355	1352	1351	1352	1354	1356	1346	1349	1342	1350	1349	1353	1351	1352	1352	1352	1362	1368	1368	1365	1368	1368	1357	1347	1344	1347	1368	1370	1367	1372	1368	1371	1369	1376	1380	1378	1375	1375	1383	1394	1403	1400	1393	1384	1379	1362	1370	1388	1401	1382	1379	1374	1372	1361	1374	1379	1384	1384	1386	1390	1393	1397	1394	1377	1371	1371	1390	1395	1404	1396	1390	1384	1393	1399	1400	1397	1391	1383	1390	1404	1405	1411	1412	1412	1405	1397	1392	1397	1395	1394	1391	1389	1400	1402	1398	1386	1378	1372	1370	1376	1385	1393	1403	1409	1407	1402	1393	1395	1408	1398	1388	1374	1371	1371	1375	1382	1394	1402	1395	1395	1390	1388	1389	1396	1410	1429	1434	1432	1428	1424	1416	1408	1405	1422	1420	1419	1422	1423	1417	1411	1413	1411	1413	1420	1421	1426	1427	1424	1420	1407	1405	1406	1413	1420	1425	1427	1430	1431	1431	1427	1434	1438	1437	1427	1419	1410	1407	1417	1428	1439	1451	1455	1471	1473	1462	1457	1453	1450	1445	1447	1442	1445	1458	1470	1483	1486	1487	1484	1466	1462	1449	1453	1462	1472	1477	1480	1475	1487	1488	1495	1497	1506	1510	1499	1483	1474	1471	1473	1482	1488	1494	1505	1516	1527	1533	1539	1528	1511	1517	1540	1558	1554	1543	1526	1515	1524	1523	1522	1530	1534	1526	1515	1515	1543	1543	1531	1513	1512	1520	1521	1519	1520	1523	1528	1525	1528	1546	1551	1547	1542	1564	1571	1575	1563	1566	1566	1585	1610	1624	1638	1637	1629	1615	1617	1619	1618	1614	1616	1618	1624	1638	1646	1646	1650	1660	1663	1678	1668	1656	1639	1615	1622	1633	1575	1577	1588	1613	1629	1634	1640	1632	1620	1626	1622	1620	1625	1632	1632	1633	1628	1598	1604	1621	1634	1654	1662	1652	1644	1636	1642	1643	1635	1649	1657	1676	1673	1663	1665	1669	1684	1688	1695	1693	1689	1682	1671	1666	1667	1680	1693	1694	1687	1673	1663	1653	1660	1656	1653	1660	1671	1692	1696	1681	1680	1676	1679	1659	1653	1616	1602	1594	1602	1611	1629	1665	1670	1666	1673	1665	1661	1661	1660	1657	1643	1637	1629	1621	1629	1645	1663	1664	1662	1659	1654	1649	1649	1667	1659	1656	1646	1637	1629	1628	1626	1626	1622	1622	1625	1630	1619	1611	1613	1617	1611	1597	1579	1584	1601	1619	1616	1610	1616	1616	1611	1602	1594	1586	1591	1596	1607	1611	1611	1602	1602	1598	1589	1579	1563	1549	1535	1540	1552	1558	1542	1529	1518	1512	1506	1494	1485	1491	1507	1520	1520	1527	1529	1527	1517	1506	1494	0	0	0	0	0	0	0	0
1268	1253	1253	1248	1243	1239	1232	1232	1242	1256	1246	1248	1248	1249	1250	1225	1216	1216	1216	1232	1248	1263	1273	1250	1234	1234	1246	1259	1262	1258	1251	1249	1249	1250	1256	1265	1280	1281	1282	1288	1288	1305	1316	1317	1295	1276	1274	1299	1308	1303	1303	1277	1290	1292	1278	1268	1273	1277	1279	1278	1282	1279	1279	1274	1269	1277	1289	1288	1286	1279	1272	1273	1282	1293	1295	1290	1284	1285	1295	1304	1304	1305	1301	1297	1288	1287	1292	1297	1300	1310	1311	1298	1285	1279	1275	1270	1275	1279	1293	1297	1293	1288	1289	1302	1313	1315	1311	1302	1292	1290	1292	1303	1316	1321	1310	1301	1304	1316	1335	1348	1347	1335	1328	1328	1339	1350	1357	1350	1322	1324	1330	1330	1325	1330	1326	1325	1321	1319	1306	1290	1302	1308	1304	1300	1300	1305	1314	1320	1316	1315	1319	1328	1310	1307	1304	1302	1299	1301	1305	1310	1320	1327	1307	1306	1300	1303	1297	1303	1315	1332	1323	1316	1318	1317	1319	1328	1333	1331	1324	1320	1335	1341	1351	1356	1368	1363	1355	1351	1353	1355	1349	1343	1339	1333	1344	1357	1359	1346	1347	1331	1331	1331	1335	1338	1339	1346	1338	1330	1337	1339	1330	1345	1352	1353	1351	1343	1335	1332	1337	1331	1328	1333	1332	1325	1321	1344	1371	1370	1360	1363	1378	1394	1400	1395	1372	1349	1328	1315	1312	1325	1334	1340	1348	1356	1335	1329	1337	1350	1364	1359	1374	1376	1365	1352	1348	1352	1353	1361	1366	1369	1362	1384	1367	1365	1375	1374	1381	1380	1374	1371	1372	1381	1393	1399	1401	1398	1388	1372	1359	1360	1367	1367	1363	1368	1378	1380	1391	1382	1366	1353	1348	1353	1362	1379	1388	1384	1385	1381	1373	1372	1380	1385	1379	1369	1365	1369	1373	1374	1371	1375	1379	1381	1377	1373	1369	1375	1390	1408	1414	1410	1397	1385	1383	1381	1374	1388	1394	1389	1399	1406	1398	1400	1401	1398	1393	1398	1405	1413	1419	1416	1407	1400	1389	1391	1398	1406	1411	1417	1414	1399	1414	1415	1419	1426	1422	1408	1398	1400	1403	1411	1415	1407	1418	1428	1440	1435	1430	1429	1443	1440	1430	1422	1421	1429	1434	1444	1456	1453	1453	1444	1439	1434	1431	1434	1442	1447	1452	1443	1446	1458	1470	1473	1475	1479	1479	1468	1455	1451	1456	1467	1477	1483	1474	1465	1475	1478	1492	1500	1490	1484	1500	1514	1519	1516	1521	1506	1487	1489	1515	1521	1529	1527	1515	1508	1520	1529	1532	1531	1521	1507	1494	1493	1488	1474	1462	1461	1463	1469	1476	1494	1497	1498	1513	1542	1555	1552	1553	1550	1562	1567	1572	1591	1588	1584	1573	1573	1580	1588	1586	1584	1577	1566	1582	1589	1609	1600	1592	1605	1623	1622	1605	1592	1583	1567	1560	1560	1564	1575	1580	1607	1615	1618	1603	1602	1607	1604	1604	1600	1604	1598	1607	1599	1570	1565	1575	1604	1618	1636	1643	1627	1616	1584	1576	1608	1610	1617	1609	1601	1602	1613	1624	1645	1646	1644	1635	1619	1620	1641	1641	1643	1646	1660	1672	1653	1652	1641	1630	1617	1616	1612	1631	1646	1649	1622	1614	1617	1631	1634	1621	1603	1587	1582	1582	1593	1604	1611	1623	1638	1646	1652	1645	1622	1612	1563	1569	1574	1578	1589	1589	1580	1563	1553	1568	1582	1588	1598	1600	1596	1591	1593	1616	1616	1613	1618	1607	1610	1616	1615	1612	1600	1594	1582	1580	1585	1581	1582	1583	1580	1586	1603	1621	1630	1625	1616	1606	1598	1593	1585	1580	1578	1578	1582	1587	1597	1597	1588	1594	1589	1582	1570	1555	1538	1529	1527	1540	1538	1524	1512	1501	1499	1491	1490	1495	1508	1508	1517	1525	1525	1520	1506	1497	1488	0	0	0	0	0	0	0	0
1234	1225	1225	1226	1223	1215	1210	1210	1214	1221	1228	1233	1239	1239	1236	1203	1202	1207	1215	1215	1231	1240	1219	1217	1222	1222	1228	1239	1242	1241	1239	1235	1235	1232	1236	1242	1250	1252	1255	1274	1274	1296	1309	1307	1281	1256	1247	1256	1257	1266	1245	1258	1269	1257	1245	1238	1234	1234	1234	1244	1248	1249	1249	1252	1254	1257	1271	1271	1273	1263	1257	1262	1270	1282	1290	1287	1283	1278	1287	1290	1285	1285	1283	1274	1257	1235	1231	1235	1244	1257	1278	1281	1275	1262	1253	1257	1259	1265	1274	1281	1281	1278	1278	1287	1297	1297	1291	1283	1285	1288	1292	1303	1312	1315	1299	1280	1281	1293	1297	1306	1315	1308	1310	1318	1328	1334	1337	1332	1323	1325	1332	1329	1335	1329	1311	1308	1306	1302	1290	1275	1275	1285	1290	1297	1296	1304	1313	1313	1308	1307	1309	1291	1289	1285	1279	1279	1282	1285	1294	1303	1310	1295	1279	1277	1274	1272	1285	1285	1289	1297	1295	1294	1292	1294	1302	1310	1313	1306	1307	1307	1304	1323	1333	1343	1348	1337	1311	1305	1304	1289	1287	1288	1283	1290	1319	1339	1338	1322	1323	1312	1298	1281	1302	1315	1322	1323	1320	1321	1321	1312	1315	1328	1334	1340	1341	1332	1315	1313	1314	1308	1316	1321	1320	1318	1313	1329	1338	1335	1328	1319	1319	1322	1322	1325	1322	1312	1303	1298	1302	1314	1322	1322	1313	1296	1297	1298	1310	1320	1325	1318	1310	1306	1311	1324	1335	1337	1347	1359	1363	1363	1357	1342	1329	1348	1354	1358	1345	1345	1361	1367	1368	1363	1357	1366	1367	1349	1330	1319	1316	1320	1331	1334	1341	1344	1352	1361	1373	1371	1367	1351	1342	1341	1350	1364	1367	1367	1364	1357	1351	1342	1340	1354	1353	1344	1348	1351	1341	1353	1353	1353	1353	1365	1369	1356	1355	1354	1369	1394	1401	1396	1379	1373	1368	1356	1347	1337	1336	1350	1369	1373	1376	1384	1390	1381	1369	1371	1377	1396	1407	1403	1393	1388	1375	1369	1380	1391	1390	1395	1383	1381	1378	1391	1404	1403	1392	1383	1375	1386	1393	1400	1388	1387	1389	1402	1412	1414	1405	1396	1402	1420	1420	1414	1411	1412	1418	1414	1419	1417	1411	1408	1414	1410	1411	1414	1418	1424	1426	1417	1421	1434	1439	1439	1434	1443	1450	1438	1434	1438	1448	1466	1480	1480	1460	1440	1430	1426	1430	1429	1434	1435	1449	1450	1452	1473	1475	1466	1471	1468	1498	1512	1502	1490	1480	1486	1494	1508	1513	1512	1503	1490	1485	1485	1477	1463	1454	1458	1462	1463	1461	1463	1467	1478	1478	1476	1487	1494	1520	1537	1542	1545	1551	1556	1560	1567	1562	1554	1547	1561	1561	1564	1554	1550	1548	1535	1535	1532	1544	1548	1555	1568	1575	1560	1551	1541	1532	1527	1523	1542	1555	1556	1560	1568	1551	1544	1555	1562	1580	1584	1581	1574	1573	1559	1540	1534	1525	1550	1586	1596	1590	1587	1563	1561	1558	1563	1566	1567	1558	1562	1570	1581	1587	1594	1595	1578	1565	1554	1554	1571	1588	1604	1616	1615	1604	1592	1584	1578	1582	1591	1607	1600	1621	1620	1603	1584	1576	1577	1587	1590	1584	1578	1571	1570	1557	1563	1573	1574	1562	1543	1533	1538	1543	1552	1556	1551	1550	1551	1566	1572	1560	1559	1544	1533	1530	1536	1542	1554	1561	1575	1575	1578	1576	1567	1559	1542	1536	1533	1531	1542	1549	1572	1557	1553	1545	1544	1556	1567	1578	1581	1573	1580	1603	1618	1599	1579	1556	1545	1549	1566	1569	1568	1563	1563	1566	1569	1569	1571	1575	1573	1565	1557	1546	1532	1526	1515	1520	1524	1521	1512	1506	1505	1501	1498	1500	1499	1499	1505	1515	1512	1505	1492	1481	1476	0	0	0	0	0	0	0	0
1203	1199	1199	1199	1198	1197	1190	1190	1193	1194	1197	1207	1220	1220	1219	1187	1193	1200	1211	1211	1217	1206	1202	1207	1211	1211	1215	1214	1217	1229	1228	1226	1222	1222	1221	1232	1236	1237	1230	1248	1277	1277	1301	1297	1272	1249	1230	1237	1237	1245	1226	1237	1238	1230	1227	1226	1222	1219	1222	1229	1231	1236	1236	1241	1244	1248	1246	1242	1246	1244	1236	1230	1226	1227	1222	1224	1236	1251	1262	1265	1260	1260	1253	1241	1225	1220	1221	1224	1231	1231	1231	1233	1237	1241	1240	1246	1249	1254	1258	1266	1270	1268	1270	1278	1280	1278	1272	1276	1280	1289	1288	1305	1308	1296	1274	1253	1245	1248	1251	1269	1286	1293	1301	1306	1310	1307	1315	1296	1281	1291	1307	1313	1317	1291	1290	1290	1288	1281	1274	1273	1273	1280	1286	1291	1289	1296	1302	1301	1262	1267	1276	1277	1270	1271	1267	1267	1269	1269	1270	1276	1271	1267	1265	1269	1271	1270	1254	1259	1255	1257	1271	1270	1268	1276	1281	1295	1292	1284	1280	1281	1294	1314	1323	1300	1273	1261	1239	1245	1257	1272	1282	1285	1284	1285	1302	1308	1300	1286	1292	1303	1288	1268	1290	1294	1294	1293	1294	1299	1295	1279	1300	1306	1312	1315	1311	1309	1303	1302	1297	1296	1299	1308	1308	1308	1314	1317	1323	1321	1306	1296	1301	1307	1312	1313	1307	1297	1290	1289	1292	1303	1308	1299	1296	1293	1288	1287	1294	1301	1305	1301	1289	1290	1294	1305	1312	1317	1324	1331	1333	1319	1304	1305	1316	1320	1314	1323	1319	1314	1316	1321	1330	1338	1347	1348	1352	1342	1322	1304	1295	1297	1312	1319	1315	1326	1311	1305	1339	1363	1359	1349	1334	1335	1343	1354	1350	1355	1350	1340	1322	1306	1303	1305	1322	1322	1311	1295	1304	1319	1324	1332	1335	1342	1342	1329	1334	1333	1333	1331	1324	1307	1306	1315	1325	1335	1335	1335	1334	1342	1346	1354	1362	1368	1378	1368	1355	1350	1356	1368	1386	1388	1376	1362	1351	1349	1356	1368	1371	1370	1363	1367	1376	1380	1379	1369	1369	1352	1346	1348	1361	1373	1369	1363	1362	1376	1385	1391	1386	1366	1367	1377	1388	1398	1393	1393	1394	1393	1399	1396	1396	1398	1389	1384	1383	1380	1384	1392	1395	1401	1407	1414	1418	1416	1412	1406	1419	1420	1423	1412	1402	1420	1437	1447	1445	1416	1406	1403	1408	1403	1408	1403	1413	1426	1436	1445	1449	1428	1414	1431	1457	1473	1468	1460	1442	1441	1432	1424	1418	1419	1423	1420	1432	1452	1455	1450	1444	1448	1455	1455	1452	1453	1460	1462	1463	1470	1470	1481	1493	1512	1524	1516	1517	1514	1538	1516	1522	1526	1522	1515	1536	1536	1540	1541	1540	1537	1524	1527	1524	1526	1512	1524	1529	1528	1522	1510	1506	1497	1505	1514	1522	1529	1530	1533	1518	1511	1522	1537	1552	1558	1564	1560	1547	1528	1518	1518	1507	1512	1528	1531	1516	1512	1508	1514	1526	1528	1528	1531	1526	1514	1528	1541	1528	1535	1547	1544	1535	1519	1514	1521	1535	1545	1557	1554	1548	1547	1554	1564	1560	1558	1558	1561	1582	1586	1575	1547	1537	1547	1508	1508	1511	1522	1525	1527	1518	1513	1523	1535	1531	1517	1501	1505	1520	1533	1540	1541	1539	1537	1546	1546	1529	1527	1504	1498	1496	1507	1515	1515	1519	1541	1545	1549	1540	1535	1529	1523	1514	1514	1511	1509	1518	1525	1500	1488	1485	1479	1495	1557	1569	1560	1551	1554	1563	1564	1572	1558	1542	1529	1521	1527	1537	1540	1537	1543	1544	1544	1549	1551	1550	1547	1543	1540	1534	1537	1524	1514	1507	1518	1522	1516	1512	1508	1501	1497	1496	1492	1492	1484	1483	1489	1485	1469	1464	1468	0	0	0	0	0	0	0	0
1175	1173	1173	1175	1178	1177	1177	1176	1176	1167	1172	1180	1187	1187	1187	1179	1186	1191	1202	1202	1193	1189	1193	1196	1202	1201	1201	1205	1206	1217	1220	1218	1210	1210	1214	1221	1227	1225	1222	1222	1238	1238	1263	1274	1249	1233	1223	1222	1218	1197	1199	1199	1200	1197	1209	1219	1220	1207	1211	1214	1212	1213	1220	1220	1227	1227	1224	1223	1229	1222	1205	1199	1196	1202	1210	1217	1230	1238	1241	1239	1228	1221	1221	1215	1213	1205	1210	1218	1221	1221	1220	1213	1221	1223	1228	1233	1233	1237	1246	1244	1251	1255	1258	1262	1268	1267	1265	1268	1276	1279	1277	1286	1287	1277	1270	1256	1241	1229	1235	1258	1274	1282	1286	1287	1284	1278	1265	1249	1262	1266	1264	1283	1277	1274	1275	1276	1271	1269	1266	1272	1271	1266	1270	1277	1271	1262	1251	1251	1250	1242	1249	1258	1257	1252	1249	1254	1257	1256	1253	1254	1261	1266	1271	1272	1274	1270	1249	1235	1230	1236	1250	1245	1248	1248	1254	1265	1273	1265	1246	1236	1236	1248	1255	1244	1232	1231	1232	1236	1254	1268	1276	1282	1283	1279	1280	1270	1254	1249	1250	1253	1265	1266	1278	1282	1288	1288	1290	1292	1285	1266	1257	1248	1248	1243	1262	1285	1290	1286	1284	1284	1287	1293	1300	1299	1298	1290	1303	1306	1292	1295	1297	1300	1303	1300	1289	1286	1281	1278	1281	1294	1289	1284	1279	1281	1283	1284	1288	1293	1300	1299	1293	1289	1291	1291	1287	1286	1283	1279	1270	1261	1255	1256	1262	1280	1302	1298	1291	1301	1294	1297	1291	1299	1308	1332	1339	1328	1312	1296	1289	1295	1309	1313	1305	1284	1283	1281	1290	1307	1330	1321	1298	1293	1296	1305	1318	1334	1331	1320	1294	1279	1274	1273	1302	1289	1270	1276	1285	1294	1304	1304	1302	1304	1305	1316	1321	1319	1317	1313	1302	1295	1293	1300	1312	1322	1324	1328	1330	1338	1341	1339	1339	1330	1325	1323	1329	1335	1343	1350	1359	1371	1363	1344	1325	1326	1337	1347	1349	1352	1356	1364	1370	1375	1368	1362	1351	1340	1333	1324	1325	1346	1349	1348	1342	1356	1366	1366	1364	1357	1352	1361	1370	1385	1380	1374	1359	1350	1359	1372	1390	1385	1380	1370	1368	1370	1375	1382	1380	1377	1383	1393	1406	1399	1393	1396	1394	1391	1384	1377	1390	1407	1420	1428	1417	1402	1395	1394	1405	1404	1397	1394	1398	1408	1416	1402	1399	1401	1397	1397	1401	1407	1413	1419	1422	1415	1417	1414	1410	1400	1392	1393	1393	1396	1407	1422	1421	1421	1434	1440	1440	1443	1451	1449	1449	1456	1466	1474	1482	1492	1495	1489	1483	1484	1454	1452	1459	1467	1470	1482	1495	1501	1505	1513	1534	1525	1519	1517	1484	1480	1489	1498	1500	1494	1488	1483	1472	1480	1476	1481	1490	1495	1496	1501	1493	1502	1511	1516	1514	1498	1482	1472	1479	1496	1493	1495	1499	1495	1499	1497	1490	1490	1491	1496	1496	1489	1487	1483	1477	1484	1503	1477	1481	1491	1503	1510	1499	1469	1479	1493	1511	1505	1501	1502	1501	1497	1513	1542	1539	1536	1529	1524	1478	1482	1490	1493	1500	1479	1479	1482	1496	1503	1495	1488	1482	1485	1494	1505	1504	1492	1478	1479	1487	1506	1511	1518	1522	1528	1525	1523	1513	1503	1487	1479	1481	1485	1488	1486	1482	1488	1508	1517	1514	1515	1508	1495	1489	1489	1486	1482	1481	1490	1481	1460	1436	1434	1450	1470	1496	1496	1491	1532	1543	1550	1558	1553	1536	1519	1511	1511	1523	1520	1524	1524	1521	1521	1518	1508	1505	1517	1512	1504	1520	1525	1520	1506	1501	1511	1517	1508	1506	1497	1494	1491	1488	1488	1481	1469	1456	1444	1443	1439	1443	1447	0	0	0	0	0	0	0	0
1147	1149	1154	1154	1160	1169	1171	1167	1167	1160	1156	1155	1164	1164	1173	1172	1179	1172	1170	1170	1174	1174	1179	1180	1181	1184	1184	1191	1201	1210	1212	1210	1202	1202	1205	1210	1215	1208	1206	1202	1201	1201	1207	1216	1204	1200	1197	1194	1177	1180	1177	1177	1176	1182	1193	1209	1209	1198	1198	1191	1185	1186	1194	1194	1202	1207	1214	1222	1213	1206	1199	1192	1193	1198	1205	1211	1217	1224	1219	1219	1210	1205	1205	1201	1192	1196	1197	1207	1215	1216	1210	1201	1207	1214	1220	1217	1220	1226	1231	1229	1233	1241	1250	1250	1247	1239	1241	1246	1250	1252	1249	1250	1253	1255	1244	1229	1222	1224	1225	1227	1227	1227	1232	1231	1224	1203	1188	1204	1227	1238	1241	1241	1244	1229	1229	1236	1236	1226	1253	1254	1253	1247	1234	1230	1235	1241	1243	1245	1240	1235	1240	1257	1258	1250	1241	1244	1245	1242	1243	1245	1250	1252	1261	1260	1263	1263	1244	1229	1216	1216	1227	1234	1236	1236	1237	1246	1253	1240	1228	1219	1222	1233	1239	1230	1224	1225	1230	1223	1245	1258	1265	1259	1251	1250	1247	1241	1222	1218	1223	1231	1240	1249	1256	1251	1259	1267	1267	1276	1272	1261	1247	1236	1234	1241	1245	1268	1278	1283	1281	1276	1277	1282	1290	1292	1290	1282	1277	1280	1287	1292	1296	1299	1297	1289	1282	1275	1259	1233	1230	1262	1265	1262	1259	1267	1272	1282	1286	1291	1295	1283	1278	1278	1279	1275	1266	1257	1258	1264	1265	1258	1249	1246	1245	1242	1265	1280	1287	1288	1278	1266	1270	1280	1282	1284	1286	1290	1285	1282	1280	1277	1280	1281	1275	1267	1266	1266	1270	1277	1286	1290	1285	1277	1270	1276	1286	1288	1294	1294	1281	1271	1260	1264	1272	1267	1266	1272	1277	1283	1286	1287	1284	1284	1292	1300	1298	1298	1300	1301	1294	1287	1285	1288	1294	1303	1313	1318	1323	1315	1327	1321	1306	1302	1313	1307	1305	1313	1330	1341	1348	1335	1321	1307	1294	1300	1314	1333	1338	1340	1344	1356	1363	1369	1366	1355	1344	1335	1329	1318	1318	1322	1338	1338	1341	1344	1356	1362	1355	1353	1353	1356	1359	1360	1357	1352	1343	1335	1333	1347	1377	1376	1368	1361	1360	1363	1369	1371	1369	1360	1362	1373	1384	1388	1378	1388	1387	1383	1367	1365	1370	1382	1404	1403	1388	1383	1382	1386	1401	1400	1390	1385	1372	1372	1374	1375	1378	1381	1377	1375	1379	1365	1364	1367	1378	1396	1404	1407	1390	1392	1384	1377	1373	1383	1388	1398	1406	1391	1396	1415	1427	1428	1434	1431	1432	1441	1452	1464	1471	1479	1478	1467	1462	1444	1418	1409	1407	1413	1424	1451	1454	1466	1468	1478	1494	1501	1430	1451	1443	1426	1431	1444	1453	1461	1448	1433	1430	1442	1447	1424	1437	1460	1467	1467	1461	1458	1462	1449	1444	1442	1441	1445	1465	1471	1473	1480	1482	1487	1476	1472	1471	1470	1479	1481	1477	1470	1466	1461	1451	1447	1444	1450	1464	1474	1473	1465	1453	1452	1464	1479	1489	1488	1483	1475	1475	1474	1477	1456	1473	1473	1470	1460	1455	1455	1463	1473	1465	1455	1449	1448	1459	1479	1487	1479	1463	1454	1465	1478	1492	1485	1470	1459	1464	1457	1472	1490	1502	1501	1502	1501	1488	1474	1464	1465	1463	1458	1451	1464	1470	1466	1453	1480	1486	1487	1483	1472	1464	1459	1452	1444	1445	1437	1429	1419	1408	1416	1437	1455	1470	1479	1474	1464	1478	1482	1466	1515	1512	1499	1486	1492	1500	1504	1514	1510	1510	1493	1485	1478	1474	1478	1482	1491	1489	1482	1476	1474	1475	1479	1470	1473	1472	1473	1479	1478	1474	1474	1471	1460	1447	1434	1435	1437	1444	1447	0	0	0	0	0	0	0	0
1126	1131	1139	1139	1148	1157	1156	1153	1153	1151	1150	1145	1152	1152	1161	1159	1156	1157	1149	1149	1152	1162	1166	1171	1173	1170	1170	1175	1187	1190	1185	1172	1170	1170	1170	1178	1190	1196	1189	1182	1171	1171	1174	1171	1166	1173	1178	1178	1173	1171	1166	1166	1164	1163	1168	1173	1170	1176	1170	1164	1158	1155	1159	1159	1165	1182	1203	1214	1208	1200	1195	1193	1192	1197	1204	1207	1199	1195	1195	1196	1195	1201	1201	1195	1186	1185	1181	1184	1179	1172	1188	1196	1204	1210	1207	1201	1204	1215	1220	1220	1208	1217	1221	1215	1210	1204	1204	1196	1191	1189	1195	1227	1225	1221	1209	1206	1212	1216	1219	1218	1214	1216	1220	1216	1205	1193	1191	1201	1212	1227	1235	1234	1225	1211	1199	1196	1196	1204	1213	1212	1197	1188	1193	1200	1212	1219	1239	1238	1231	1226	1229	1242	1243	1235	1228	1231	1235	1231	1232	1225	1225	1224	1228	1230	1232	1236	1234	1217	1210	1211	1218	1220	1221	1222	1223	1230	1236	1227	1213	1206	1213	1219	1222	1218	1221	1231	1233	1227	1226	1227	1223	1214	1201	1198	1202	1206	1200	1211	1211	1215	1219	1220	1220	1202	1200	1202	1206	1220	1228	1231	1230	1226	1234	1247	1255	1248	1243	1274	1273	1265	1253	1260	1272	1291	1286	1270	1266	1273	1267	1254	1244	1252	1269	1278	1279	1272	1253	1241	1229	1219	1235	1241	1242	1235	1240	1252	1271	1274	1268	1263	1260	1262	1266	1261	1238	1227	1234	1246	1252	1249	1242	1232	1222	1217	1240	1253	1263	1260	1244	1251	1263	1262	1273	1265	1275	1278	1281	1276	1258	1239	1248	1255	1252	1252	1257	1254	1255	1264	1276	1282	1277	1267	1250	1256	1267	1277	1274	1269	1257	1251	1244	1254	1253	1258	1260	1264	1262	1266	1273	1275	1275	1275	1281	1268	1269	1274	1284	1289	1291	1287	1283	1282	1282	1286	1292	1300	1284	1269	1270	1280	1290	1293	1289	1292	1289	1291	1308	1314	1311	1305	1298	1277	1269	1260	1268	1292	1300	1310	1323	1345	1360	1363	1356	1346	1332	1323	1299	1300	1306	1312	1326	1323	1332	1335	1342	1349	1355	1355	1350	1341	1342	1338	1326	1328	1329	1327	1321	1352	1363	1368	1362	1357	1354	1359	1363	1347	1345	1342	1345	1356	1367	1371	1372	1372	1379	1356	1346	1345	1351	1360	1361	1363	1363	1362	1368	1381	1395	1391	1373	1362	1361	1360	1344	1332	1331	1335	1345	1353	1361	1362	1358	1360	1361	1359	1363	1358	1363	1375	1371	1365	1367	1369	1374	1369	1371	1384	1367	1378	1409	1411	1415	1413	1416	1422	1423	1419	1423	1419	1412	1418	1425	1416	1399	1387	1380	1385	1394	1407	1419	1427	1406	1405	1381	1377	1386	1385	1384	1392	1402	1406	1411	1407	1398	1400	1413	1421	1413	1405	1422	1418	1421	1405	1401	1404	1412	1419	1421	1428	1429	1423	1425	1444	1462	1466	1460	1454	1450	1451	1453	1456	1457	1467	1461	1456	1450	1440	1437	1433	1432	1438	1443	1449	1446	1439	1435	1441	1451	1462	1471	1470	1469	1434	1423	1421	1425	1431	1440	1438	1434	1427	1418	1417	1420	1431	1436	1435	1431	1422	1434	1462	1466	1460	1453	1443	1449	1461	1471	1471	1463	1444	1423	1410	1413	1446	1478	1484	1485	1479	1464	1457	1456	1449	1442	1421	1415	1447	1454	1452	1447	1449	1453	1457	1446	1436	1422	1421	1426	1430	1430	1436	1435	1427	1414	1415	1431	1443	1455	1461	1450	1446	1439	1436	1433	1446	1458	1473	1476	1481	1486	1493	1488	1478	1478	1469	1461	1457	1458	1447	1463	1469	1473	1475	1475	1469	1462	1446	1433	1436	1439	1440	1444	1452	1459	1459	1453	1447	1440	1434	1431	1433	1439	1444	0	0	0	0	0	0	0	0
1120	1129	1135	1135	1140	1145	1140	1135	1135	1135	1134	1139	1140	1150	1150	1152	1147	1139	1137	1137	1137	1147	1152	1152	1156	1160	1160	1162	1163	1160	1157	1143	1142	1142	1150	1160	1171	1175	1175	1165	1151	1145	1145	1147	1146	1143	1155	1154	1167	1166	1158	1158	1151	1151	1154	1158	1165	1174	1176	1170	1167	1157	1154	1157	1157	1167	1186	1188	1191	1187	1187	1187	1187	1188	1190	1185	1175	1149	1152	1176	1178	1178	1175	1175	1175	1173	1173	1174	1170	1161	1157	1171	1185	1193	1193	1188	1191	1192	1184	1180	1185	1188	1171	1178	1185	1190	1192	1186	1180	1178	1178	1179	1176	1168	1164	1166	1177	1192	1196	1197	1205	1209	1203	1181	1167	1162	1176	1188	1185	1179	1200	1202	1205	1195	1179	1171	1174	1190	1193	1198	1190	1180	1184	1190	1196	1202	1207	1213	1213	1203	1187	1190	1193	1220	1216	1222	1224	1221	1205	1190	1182	1189	1194	1197	1202	1201	1203	1204	1214	1209	1210	1204	1206	1205	1211	1216	1221	1211	1198	1189	1200	1209	1215	1218	1220	1220	1216	1216	1215	1216	1208	1199	1192	1194	1200	1205	1204	1200	1200	1192	1187	1185	1184	1194	1195	1192	1193	1207	1220	1217	1214	1219	1223	1231	1236	1232	1215	1202	1184	1222	1206	1218	1226	1235	1240	1245	1249	1255	1247	1229	1223	1226	1232	1233	1232	1240	1238	1238	1233	1227	1207	1206	1204	1219	1230	1235	1240	1237	1235	1235	1251	1239	1238	1205	1199	1206	1213	1226	1235	1235	1232	1222	1215	1204	1207	1231	1226	1215	1209	1217	1240	1242	1240	1241	1260	1259	1251	1247	1221	1226	1237	1242	1246	1241	1239	1241	1242	1251	1264	1271	1264	1255	1248	1253	1256	1254	1238	1230	1226	1231	1245	1243	1241	1244	1246	1250	1240	1244	1254	1259	1261	1254	1240	1240	1245	1249	1260	1264	1272	1271	1279	1276	1268	1268	1273	1280	1276	1263	1265	1267	1277	1290	1291	1275	1273	1288	1292	1291	1280	1271	1264	1263	1267	1265	1265	1271	1275	1270	1271	1283	1292	1298	1296	1278	1261	1265	1275	1282	1298	1314	1313	1303	1297	1296	1304	1310	1317	1330	1326	1319	1297	1290	1301	1307	1314	1315	1308	1296	1295	1304	1315	1335	1334	1334	1314	1328	1336	1332	1328	1320	1328	1325	1324	1327	1326	1327	1329	1335	1337	1335	1323	1332	1347	1353	1355	1369	1360	1370	1367	1358	1353	1341	1334	1326	1326	1330	1335	1344	1351	1354	1363	1362	1353	1348	1343	1348	1347	1354	1362	1370	1366	1348	1347	1351	1350	1351	1350	1358	1372	1392	1395	1397	1398	1392	1379	1375	1379	1377	1379	1379	1393	1391	1388	1380	1368	1369	1374	1379	1400	1396	1378	1383	1379	1376	1372	1369	1373	1373	1368	1363	1362	1362	1363	1376	1389	1406	1390	1369	1371	1391	1389	1382	1386	1388	1393	1405	1416	1419	1414	1405	1403	1418	1419	1422	1415	1409	1412	1433	1433	1437	1441	1449	1452	1445	1435	1426	1422	1422	1423	1425	1426	1422	1420	1415	1409	1421	1433	1418	1417	1414	1408	1413	1397	1400	1416	1424	1429	1424	1411	1399	1393	1397	1401	1409	1406	1398	1390	1397	1412	1434	1437	1425	1422	1428	1438	1454	1457	1449	1439	1420	1408	1399	1395	1400	1429	1457	1449	1423	1421	1422	1430	1430	1409	1385	1388	1423	1437	1437	1435	1433	1434	1427	1403	1393	1387	1394	1410	1415	1422	1432	1436	1431	1424	1417	1422	1431	1436	1435	1424	1412	1401	1403	1405	1422	1434	1438	1438	1445	1476	1467	1461	1461	1453	1447	1439	1430	1424	1412	1418	1436	1450	1457	1462	1454	1443	1430	1422	1408	1397	1407	1422	1424	1424	1422	1416	1411	1414	1417	1426	1425	1418	1404	0	0	0	0	0	0	0	0
1121	1130	1135	1135	1137	1133	1125	1118	1118	1113	1124	1128	1143	1150	1150	1139	1140	1133	1129	1130	1130	1136	1137	1144	1144	1150	1150	1151	1145	1139	1137	1134	1131	1131	1131	1142	1153	1161	1160	1148	1137	1136	1136	1140	1142	1138	1145	1148	1149	1146	1141	1137	1137	1122	1126	1138	1156	1162	1171	1170	1169	1163	1158	1153	1153	1156	1154	1147	1155	1159	1167	1170	1173	1174	1170	1150	1117	1106	1119	1155	1165	1171	1173	1173	1172	1170	1171	1172	1166	1158	1148	1148	1153	1160	1154	1155	1155	1154	1140	1151	1158	1159	1161	1166	1177	1180	1179	1177	1172	1163	1158	1161	1158	1157	1157	1161	1165	1166	1162	1160	1181	1174	1156	1146	1140	1148	1160	1166	1165	1163	1158	1168	1168	1155	1152	1157	1158	1161	1165	1177	1178	1176	1175	1181	1183	1187	1182	1180	1176	1173	1168	1171	1172	1166	1167	1160	1165	1180	1188	1175	1166	1166	1170	1179	1183	1188	1189	1204	1209	1212	1211	1195	1191	1194	1193	1196	1196	1200	1184	1174	1173	1183	1195	1209	1202	1203	1207	1192	1187	1187	1196	1193	1192	1194	1202	1204	1209	1209	1212	1208	1196	1180	1176	1197	1183	1174	1178	1190	1197	1198	1193	1185	1181	1168	1170	1175	1176	1175	1156	1150	1153	1184	1191	1204	1216	1229	1233	1232	1213	1204	1198	1203	1213	1212	1217	1220	1226	1232	1233	1230	1227	1224	1212	1211	1213	1223	1230	1233	1231	1227	1210	1200	1199	1194	1190	1190	1191	1202	1209	1212	1181	1180	1187	1198	1207	1212	1199	1194	1191	1202	1210	1219	1219	1219	1218	1206	1205	1201	1208	1219	1228	1235	1239	1233	1232	1226	1230	1237	1250	1233	1216	1223	1236	1245	1242	1231	1223	1218	1221	1231	1236	1231	1230	1236	1243	1236	1233	1236	1241	1245	1250	1246	1237	1222	1223	1223	1234	1247	1261	1260	1255	1253	1241	1240	1256	1266	1268	1264	1259	1264	1275	1279	1278	1266	1256	1249	1257	1273	1270	1255	1257	1262	1265	1267	1263	1258	1247	1240	1254	1264	1265	1258	1243	1239	1242	1237	1255	1272	1287	1304	1302	1288	1278	1275	1278	1290	1298	1298	1294	1280	1265	1263	1273	1292	1303	1305	1285	1288	1288	1292	1293	1293	1308	1302	1313	1328	1333	1317	1307	1302	1298	1303	1306	1304	1316	1329	1341	1336	1324	1311	1306	1315	1332	1310	1305	1299	1297	1299	1318	1344	1338	1333	1323	1321	1316	1318	1325	1332	1337	1344	1345	1346	1343	1337	1333	1335	1339	1340	1348	1349	1348	1342	1337	1325	1320	1321	1318	1345	1344	1352	1359	1370	1358	1358	1351	1355	1359	1358	1357	1353	1359	1364	1377	1390	1384	1356	1342	1321	1347	1364	1374	1375	1376	1373	1365	1365	1363	1360	1342	1337	1342	1350	1355	1354	1354	1367	1362	1348	1344	1346	1358	1359	1352	1344	1355	1372	1380	1379	1382	1371	1371	1374	1370	1370	1372	1377	1384	1383	1382	1386	1399	1409	1419	1437	1420	1409	1401	1389	1382	1385	1385	1387	1381	1332	1342	1357	1364	1371	1378	1378	1382	1383	1383	1383	1401	1421	1420	1413	1394	1385	1382	1380	1384	1388	1381	1374	1369	1378	1388	1395	1386	1385	1389	1398	1404	1416	1413	1404	1400	1397	1392	1384	1382	1384	1396	1398	1396	1397	1400	1406	1410	1404	1385	1374	1377	1406	1420	1424	1423	1422	1415	1394	1390	1383	1376	1372	1382	1394	1402	1414	1423	1425	1409	1403	1402	1406	1411	1404	1396	1392	1383	1380	1385	1403	1413	1410	1415	1418	1416	1412	1441	1441	1436	1426	1416	1405	1395	1390	1390	1398	1407	1418	1428	1434	1417	1408	1398	1386	1376	1380	1402	1405	1405	1396	1392	1389	1394	1402	1401	1383	1356	1346	0	0	0	0	0	0	0	0
1115	1132	1140	1140	1138	1135	1130	1122	1110	1110	1102	1109	1128	1137	1137	1124	1122	1108	1103	1104	1104	1112	1121	1127	1131	1128	1126	1126	1124	1116	1115	1116	1119	1115	1115	1111	1112	1116	1121	1126	1128	1130	1130	1134	1137	1140	1143	1149	1148	1134	1115	1111	1111	1111	1116	1126	1140	1151	1159	1163	1157	1154	1155	1149	1149	1132	1130	1132	1133	1135	1138	1140	1149	1141	1132	1113	1109	1109	1115	1129	1151	1160	1160	1159	1159	1159	1154	1157	1157	1150	1139	1126	1116	1120	1132	1128	1133	1131	1132	1141	1155	1163	1164	1160	1160	1161	1160	1148	1134	1133	1144	1153	1148	1145	1148	1154	1157	1158	1149	1140	1141	1150	1151	1147	1137	1127	1134	1147	1153	1144	1133	1124	1124	1134	1145	1155	1154	1148	1154	1159	1148	1150	1158	1161	1164	1168	1162	1156	1152	1153	1156	1160	1158	1155	1148	1147	1145	1154	1169	1165	1169	1168	1161	1164	1168	1172	1184	1186	1191	1197	1206	1189	1182	1175	1179	1185	1180	1178	1171	1165	1161	1159	1164	1180	1185	1188	1183	1178	1165	1165	1175	1184	1188	1192	1192	1195	1201	1205	1202	1194	1188	1184	1180	1195	1173	1163	1159	1160	1154	1157	1168	1172	1171	1163	1154	1147	1163	1162	1166	1166	1181	1216	1210	1186	1196	1212	1212	1208	1196	1194	1191	1191	1192	1198	1201	1207	1206	1198	1205	1227	1235	1204	1196	1197	1188	1201	1213	1224	1206	1193	1175	1171	1184	1184	1183	1181	1180	1174	1167	1168	1169	1168	1179	1192	1203	1204	1192	1189	1182	1191	1196	1197	1193	1192	1185	1194	1198	1204	1200	1199	1215	1225	1225	1229	1224	1220	1216	1222	1226	1214	1208	1208	1201	1202	1214	1219	1209	1205	1210	1217	1224	1219	1219	1222	1228	1226	1223	1230	1229	1233	1235	1236	1227	1211	1193	1199	1217	1234	1243	1248	1247	1238	1226	1222	1224	1221	1224	1228	1221	1219	1241	1253	1250	1239	1232	1227	1223	1219	1250	1245	1252	1263	1265	1255	1234	1216	1216	1233	1245	1256	1260	1245	1222	1236	1243	1257	1251	1266	1287	1294	1292	1274	1264	1264	1269	1281	1283	1278	1270	1261	1253	1242	1253	1284	1296	1281	1267	1272	1272	1278	1281	1279	1277	1296	1310	1317	1322	1316	1309	1299	1294	1295	1298	1293	1304	1309	1326	1337	1322	1310	1285	1299	1301	1298	1295	1291	1290	1296	1301	1311	1321	1324	1320	1308	1301	1300	1308	1321	1323	1325	1328	1319	1325	1323	1316	1302	1305	1315	1324	1323	1305	1303	1294	1294	1294	1292	1301	1315	1311	1311	1313	1310	1326	1326	1335	1339	1339	1337	1335	1341	1339	1341	1354	1370	1382	1348	1345	1328	1339	1337	1344	1354	1362	1356	1358	1355	1351	1338	1335	1332	1331	1336	1340	1342	1331	1333	1333	1332	1335	1337	1335	1322	1318	1323	1334	1343	1340	1341	1351	1352	1350	1354	1356	1360	1354	1349	1349	1342	1337	1356	1372	1382	1377	1374	1384	1395	1390	1381	1371	1373	1363	1341	1330	1333	1337	1341	1338	1337	1344	1351	1362	1364	1352	1354	1366	1383	1396	1390	1382	1374	1371	1363	1365	1370	1367	1363	1359	1357	1350	1344	1335	1339	1349	1358	1375	1389	1384	1363	1352	1350	1361	1372	1376	1379	1386	1386	1377	1377	1382	1391	1393	1376	1367	1370	1377	1377	1384	1394	1408	1398	1386	1381	1379	1376	1368	1364	1369	1375	1383	1390	1403	1402	1394	1377	1370	1377	1379	1374	1379	1375	1367	1361	1365	1375	1387	1393	1391	1383	1376	1394	1394	1400	1424	1426	1414	1395	1376	1372	1377	1386	1396	1399	1391	1393	1392	1384	1370	1374	1366	1368	1382	1383	1383	1379	1368	1368	1369	1380	1385	1369	1357	1336	0	0	0	0	0	0	0	0
