582	592	589	596	594	592	592	593	598	599	585	585	584	593	597	583	583	583	589	589	590	588	588	590	593	595	604	604	599	588	586	589	595	590	590	589	599	598	596	596	594	594	593	591	589	596	604	605	605	604	601	597	591	596	599	601	599	599	594	594	595	597	605	607	613	612	612	612	609	604	599	596	596	596	599	601	603	604	602	597	597	598	594	593	590	592	592	594	602	603	607	606	604	606	607	607	607	605	604	604	601	601	602	600	595	590	599	611	614	613	606	607	611	591	599	594	594	592	590	589	588	586	591	595	600	598	600	612	611	609	604	604	604	602	603	603	607	603	599	593	591	590	593	598	598	602	600	594	590	594	599	603	603	604	605	607	605	600	601	601	600	616	606	604	605	603	603	602	602	603	604	608	613	614	612	610	610	611	613	616	615	613	621	621	606	604	599	609	610	606	605	610	614	616	613	615	615	614	604	605	609	605	600	605	606	616	616	615	613	615	610	607	610	615	619	623	619	615	616	600	604	608	604	600	597	599	599	595	605	608	609	612	609	608	608	610	608	603	606	605	604	606	613	612	608	611	610	609	608	608	608	608	615	618	616	609	605	611	607	612	613	615	619	617	609	599	604	614	620	620	620	620	619	617	617	620	616	626	625	617	612	605	613	618	620	618	616	617	619	616	623	624	613	610	609	610	616	618	614	611	615	613	611	623	608	610	612	622	625	627	626	627	617	622	625	623	622	620	623	626	627	623	616	617	609	613	612	617	615	616	616	628	627	626	622	622	623	626	629	636	635	634	632	632	634	631	628	626	629	628	624	625	622	622	623	625	640	643	639	637	634	630	635	640	641	641	643	651	646	639	633	627	625	628	630	628	624	624	625	633	635	631	626	620	622	624	628	626	616	617	629	626	615	617	615	623	620	619	629	634	628	632	633	627	623	623	622	631	638	640	641	640	631	630	627	626	627	632	644	643	642	649	647	644	646	648	639	639	648	653	651	652	656	638	636	632	626	620	617	624	631	637	636	634	633	630	635	636	635	634	638	636	638	638	638	639	632	634	634	633	627	623	625	630	636	641	642	647	653	646	640	644	644	645	647	646	644	644	645	648	646	644	642	639	637	635	639	638	640	647	660	661	652	649	657	666	657	656	658	650	642	644	647	647	647	643	647	645	654	652	650	655	661	660	645	644	642	642	648	653	655	654	655	652	649	652	655	652	648	653	657	660	658	661	663	666	672	672	667	662	657	660	666	666	663	662	662	667	673	673	680	674	673	674	668	663	660	664	665	668	664	664	669	668	670	668	665	666	668	673	669	662	651	654	655	654	666	666	667	672	673	670	662	663	663	671	683	674	665	661	666	667	675	672	675	668	662	657	657	662	670	675	678	684	687	687	687	683	686	682	683	684	686	685	678	674	673	670	667	667	666	668	674	665	676	678	679	682	691	685	685	685	683	680	681	0	0	0	0	0
577	589	582	589	590	585	588	588	591	584	584	584	592	583	584	580	578	578	577	577	579	580	580	594	597	597	592	590	590	584	583	587	586	586	586	586	584	585	590	597	598	598	593	589	592	592	596	595	594	594	592	591	594	597	601	600	600	600	597	590	594	595	602	606	605	608	609	609	602	599	595	594	592	593	596	598	602	603	602	597	597	589	586	588	587	590	592	592	591	596	599	606	604	605	603	602	601	599	596	594	594	596	596	597	593	592	589	595	592	596	602	596	588	594	594	589	586	593	586	584	585	585	591	592	596	595	596	611	615	610	599	600	599	598	598	604	597	598	596	592	588	593	591	592	592	593	587	590	593	590	595	598	597	596	597	598	591	583	587	591	592	594	594	594	593	594	594	599	602	603	605	604	604	605	605	602	606	608	611	615	615	614	614	614	590	587	591	598	597	602	602	604	604	607	609	612	612	605	603	603	598	592	588	587	594	612	608	612	612	613	612	606	609	616	624	625	620	614	596	589	592	592	593	591	591	597	598	595	605	606	607	608	604	602	604	604	606	600	603	603	603	605	612	617	614	601	602	606	605	602	605	607	612	618	621	614	607	606	606	610	610	611	611	611	598	598	602	608	616	618	618	617	615	615	612	613	612	610	609	607	605	606	611	614	615	618	611	612	614	611	617	604	604	602	608	614	613	613	624	621	619	616	613	628	606	610	616	618	621	623	623	625	608	609	611	620	622	619	622	625	624	623	615	608	597	599	608	615	614	617	624	622	620	615	621	622	622	620	621	627	623	628	627	625	622	620	615	614	619	620	620	618	621	624	631	629	621	621	624	629	630	631	632	638	639	639	646	649	646	640	632	625	622	625	627	626	622	621	616	618	629	635	628	618	619	620	623	618	621	622	616	617	613	616	620	626	617	615	616	622	628	623	626	624	621	620	621	628	637	637	635	633	631	631	625	623	620	621	635	635	636	636	637	636	636	637	638	636	637	632	624	639	631	629	626	622	620	617	613	621	625	626	631	631	633	633	634	631	633	639	637	635	633	628	635	633	630	629	626	625	622	624	627	632	636	640	643	642	651	641	637	636	638	642	642	641	638	639	643	642	640	640	640	637	637	638	640	638	638	650	657	657	653	649	648	650	647	650	648	646	640	645	647	647	646	643	642	640	642	642	644	652	647	644	639	640	640	641	647	650	653	653	651	649	647	645	642	652	653	657	663	642	638	653	658	668	670	660	655	649	645	653	659	662	659	657	659	662	661	659	656	656	669	665	662	663	662	655	655	658	661	668	663	663	663	663	666	665	666	669	667	657	654	653	653	651	661	665	668	675	677	671	671	661	664	662	662	659	662	666	666	665	667	668	670	669	664	656	655	660	666	672	672	672	667	667	672	673	672	668	676	678	674	676	677	674	670	669	669	666	668	670	668	674	678	683	687	690	690	691	688	687	685	685	684	0	0	0	0	0
568	582	582	582	582	579	581	581	583	582	580	579	579	576	580	580	576	576	573	575	576	581	581	590	594	594	591	587	587	580	583	582	582	582	582	582	582	583	588	590	594	594	591	589	592	592	586	585	586	586	587	591	594	597	598	598	597	595	595	590	591	595	594	593	597	603	598	590	590	590	589	588	591	592	594	597	601	602	600	598	589	589	588	589	591	593	588	586	586	591	596	599	591	593	595	595	595	594	592	590	592	592	594	595	594	592	594	592	591	587	588	585	581	581	582	585	586	592	580	576	583	586	589	589	585	576	577	582	592	593	593	593	594	594	592	595	592	591	577	580	586	590	598	595	591	588	585	586	594	589	590	594	595	595	597	598	591	584	585	590	590	590	591	592	592	592	591	592	598	601	601	598	600	602	602	600	603	608	610	614	612	609	605	609	584	587	589	598	598	598	602	602	601	603	602	608	606	605	603	596	588	586	582	581	583	599	604	605	606	603	598	594	598	594	594	588	591	592	589	588	592	593	593	591	590	596	597	598	596	605	605	595	594	596	596	598	597	604	599	598	601	606	613	612	591	594	598	598	600	599	599	603	603	622	620	612	607	603	602	604	607	608	606	601	593	595	598	603	610	610	608	608	611	610	608	607	604	608	605	604	605	602	608	610	611	609	602	603	603	604	607	600	598	598	603	610	608	610	622	622	621	617	628	617	614	611	606	611	609	616	616	604	605	606	604	609	611	608	609	610	621	616	610	605	596	596	606	617	616	619	617	613	610	610	610	618	616	616	620	618	616	622	622	620	619	611	615	610	610	611	615	616	618	625	632	631	620	616	620	624	627	629	632	633	634	636	638	641	644	639	632	625	624	624	625	625	620	613	612	619	620	630	630	616	613	615	618	619	620	624	622	618	613	615	617	625	624	610	612	612	617	616	621	623	622	621	619	625	638	637	631	627	628	631	626	623	620	616	629	623	628	632	634	635	637	634	630	626	624	624	628	623	623	623	622	622	620	620	620	622	624	626	629	630	632	633	630	629	636	644	647	645	626	624	620	622	626	627	624	623	618	625	629	634	638	641	642	641	636	634	641	634	635	640	644	640	638	639	644	647	644	639	640	640	640	639	639	638	646	643	649	650	650	645	645	646	640	640	639	636	637	641	644	643	643	640	640	640	638	638	642	644	645	648	640	641	638	639	643	647	648	651	652	647	647	644	642	630	643	646	644	639	641	636	642	670	668	665	660	654	641	651	655	659	651	649	649	654	657	653	649	643	647	655	656	657	660	657	653	653	664	668	665	659	659	660	665	669	667	662	657	653	652	649	648	656	657	660	662	668	672	672	666	660	653	651	661	658	661	665	665	661	662	663	666	675	669	661	656	659	664	668	665	666	666	668	668	667	662	658	664	667	672	673	673	667	659	654	654	654	662	677	677	668	673	679	684	687	687	690	687	686	683	682	679	0	0	0	0	0
572	575	582	576	572	576	577	577	578	581	574	576	576	577	576	578	568	568	568	570	575	584	594	594	598	598	585	581	580	580	578	578	578	578	579	579	581	581	582	582	586	588	588	592	588	581	575	572	578	579	579	580	582	583	587	591	591	591	591	588	591	595	583	580	583	584	588	591	588	588	579	579	583	582	578	575	579	600	600	598	592	588	588	589	590	589	584	582	581	590	594	592	586	584	584	585	579	582	589	583	585	588	588	590	590	588	594	585	586	585	581	578	575	578	580	584	587	598	581	582	583	585	589	588	584	573	572	576	579	585	587	588	588	583	578	573	574	571	570	574	580	589	596	596	594	591	589	587	594	589	590	594	595	596	597	599	589	589	590	587	585	585	588	590	591	589	587	584	588	590	593	594	597	597	596	596	597	601	602	600	596	592	589	587	586	594	595	602	596	599	600	602	603	599	605	606	603	600	598	593	590	584	577	581	588	598	596	596	597	595	593	589	592	589	582	581	588	589	590	591	590	591	585	582	582	586	591	593	594	596	597	590	587	586	587	589	586	592	596	595	598	605	610	606	602	586	588	589	597	596	596	595	599	593	599	604	600	600	597	598	602	603	594	592	591	592	595	601	604	603	602	603	603	605	605	603	603	593	595	599	593	597	599	607	606	600	604	598	603	605	601	594	596	597	603	609	605	599	604	609	616	622	623	620	614	605	600	596	597	601	598	598	596	599	604	608	611	615	614	612	609	614	613	603	591	601	613	618	617	621	620	615	612	611	609	610	605	607	593	598	602	597	596	602	612	597	610	607	606	605	609	613	614	617	621	626	619	615	614	619	620	627	630	632	633	629	624	626	630	627	625	624	623	623	625	620	614	607	608	615	615	623	622	610	608	609	612	616	619	621	621	618	609	611	615	625	622	613	611	620	624	618	618	623	622	618	616	619	633	637	630	621	621	626	626	626	621	617	625	627	627	625	624	626	628	629	628	623	622	622	619	619	613	621	622	623	622	622	625	624	620	625	627	630	628	626	626	624	633	637	642	642	623	621	619	618	623	625	628	624	616	623	627	633	638	640	639	638	636	634	643	634	633	638	638	638	638	638	640	640	639	633	631	631	637	637	639	637	644	643	643	642	638	639	638	632	627	632	632	634	634	639	641	641	640	642	642	632	624	631	631	643	646	649	650	643	636	635	637	641	642	644	646	647	649	647	647	644	644	645	646	644	637	639	635	637	638	644	641	639	642	645	655	657	656	651	648	650	649	651	640	636	638	643	640	641	656	655	652	648	654	667	656	655	650	655	661	663	656	645	643	646	648	653	655	655	650	648	647	654	654	661	664	658	653	653	655	656	658	659	659	657	657	654	661	676	669	659	656	657	654	652	654	654	654	655	656	652	651	649	653	656	664	655	659	660	659	659	655	653	656	657	654	656	664	673	680	681	681	686	686	684	680	676	664	0	0	0	0	0
574	578	576	576	573	573	574	576	576	576	574	571	572	572	571	570	568	566	566	570	580	569	569	569	576	581	582	581	577	577	563	560	559	570	574	574	576	578	580	580	584	584	584	584	580	575	569	570	573	574	574	574	572	579	581	581	579	588	589	589	589	585	576	578	582	585	585	584	582	582	585	587	586	585	583	581	573	577	587	594	588	577	577	578	586	584	582	579	581	571	580	586	579	579	577	574	574	576	579	583	586	586	585	585	584	585	585	579	584	581	577	570	566	566	574	579	582	587	592	583	579	579	579	576	565	565	569	573	575	579	584	586	583	569	563	563	562	558	558	563	575	586	592	597	596	592	588	584	579	578	582	587	595	598	598	598	590	589	589	586	581	585	587	575	578	579	580	576	578	580	582	584	583	582	582	584	585	586	587	588	586	590	587	588	599	604	608	593	592	590	598	602	602	595	594	594	592	591	590	592	593	591	588	589	594	593	594	593	591	589	585	587	589	588	583	576	582	583	589	589	591	590	590	583	582	582	588	590	585	587	586	587	579	579	581	584	583	585	594	590	586	598	601	601	582	581	576	580	588	595	587	577	580	588	593	595	583	582	588	594	598	599	595	592	590	587	593	612	604	602	596	597	597	591	592	589	585	584	584	589	595	593	592	598	600	600	598	600	605	603	599	590	594	600	603	610	595	591	597	605	613	618	604	600	598	590	595	593	593	594	594	593	591	597	600	598	613	615	613	608	606	603	601	597	597	602	615	617	616	621	613	610	612	611	614	613	610	594	591	591	589	589	592	592	593	604	608	607	606	595	600	603	605	610	612	613	614	614	611	613	614	618	619	619	616	615	616	617	619	620	619	619	618	615	614	610	610	609	609	608	606	605	615	611	608	610	610	613	616	617	616	615	611	609	623	627	626	622	620	617	618	618	617	621	619	618	611	614	611	620	630	623	622	623	627	626	622	628	623	618	612	614	615	617	621	623	623	619	618	618	617	615	609	610	618	621	622	626	627	625	622	623	625	624	621	623	627	626	627	631	626	623	623	624	624	615	613	626	628	626	625	624	629	633	635	634	631	631	640	641	642	632	630	634	635	631	632	625	628	624	624	626	630	632	636	635	633	635	633	635	633	628	629	632	632	626	626	627	630	630	630	632	634	636	637	636	632	630	630	631	632	635	644	644	641	637	636	631	632	632	632	638	641	642	645	646	644	643	636	633	639	639	636	635	634	630	627	625	627	628	637	644	651	653	654	651	642	640	634	644	638	629	622	622	622	634	643	649	649	649	649	648	646	643	648	650	654	657	648	640	641	644	649	653	655	651	645	638	634	634	642	656	660	658	649	653	652	651	646	645	654	653	640	641	659	664	663	662	660	656	650	647	646	646	648	648	651	651	649	645	650	654	658	659	659	658	658	658	655	655	653	651	648	649	655	653	651	651	646	681	682	681	675	663	656	0	0	0	0	0
574	576	575	575	570	572	571	570	570	570	563	562	561	561	564	565	563	567	567	575	574	565	564	569	569	570	570	573	573	563	563	555	555	557	567	572	572	575	576	578	574	578	579	579	577	567	567	566	570	575	574	574	571	570	574	572	571	566	581	581	579	577	571	575	579	577	578	580	580	583	583	584	586	586	586	585	583	577	578	584	577	573	573	573	581	579	578	578	568	567	578	582	583	578	578	576	575	571	574	583	587	581	581	581	581	570	576	576	575	582	575	566	562	566	566	569	572	585	578	577	571	567	567	566	566	569	576	573	576	580	583	580	567	563	562	559	557	554	556	563	562	564	563	565	574	574	584	581	574	574	576	578	582	583	577	575	569	562	567	569	570	571	571	572	574	575	575	574	575	580	582	583	581	581	578	582	581	584	584	584	579	579	581	587	584	587	589	590	580	574	575	578	578	579	583	585	584	586	588	595	597	595	592	592	594	589	589	590	588	586	582	581	583	582	580	577	580	584	585	588	591	592	587	587	579	579	590	588	582	581	581	583	572	576	579	579	578	580	584	576	580	580	581	589	587	586	576	579	591	578	577	572	571	581	583	582	581	583	586	589	595	596	596	584	588	587	597	610	613	595	596	594	590	586	586	586	584	583	588	593	595	591	590	592	593	598	598	600	603	602	599	595	593	599	602	604	590	584	586	599	601	602	602	606	600	600	591	593	588	591	588	591	597	599	600	599	613	615	612	606	603	601	600	596	599	604	606	610	612	608	601	605	607	608	610	608	605	594	592	595	600	599	599	591	592	591	602	607	602	601	597	600	602	607	611	610	610	613	613	611	611	612	613	611	609	610	612	615	615	618	618	614	612	610	606	606	609	611	613	610	605	600	612	607	606	606	610	609	609	611	601	603	602	600	598	602	605	609	611	612	614	615	615	613	612	610	614	609	606	605	610	612	611	614	620	614	617	617	612	608	607	608	607	607	617	623	620	611	609	611	612	609	611	607	614	618	617	618	616	621	622	620	617	616	617	620	622	623	624	621	618	625	629	629	624	617	611	612	624	622	625	626	628	630	629	627	623	620	635	634	636	630	626	619	619	619	624	625	628	624	620	621	625	626	634	629	626	626	622	620	625	625	626	625	623	627	628	629	625	626	628	624	618	628	625	625	631	632	633	633	632	640	641	624	633	627	626	624	624	627	626	626	632	635	637	637	632	637	637	632	636	632	633	634	634	635	635	633	631	634	639	640	646	635	633	634	636	641	643	642	634	633	620	618	617	620	638	642	645	651	639	633	634	642	646	649	650	639	642	638	638	643	648	645	644	644	635	635	631	633	639	650	652	646	652	648	645	646	642	639	639	638	644	649	649	652	662	668	666	660	651	643	643	640	640	643	642	645	647	646	645	658	659	659	656	647	647	649	653	652	651	649	647	645	645	646	640	640	644	649	656	672	662	651	649	0	0	0	0	0
572	571	571	570	570	565	561	557	557	554	553	555	565	565	564	565	565	557	553	553	567	561	560	563	563	565	565	563	555	554	554	550	550	554	562	561	561	568	570	568	570	574	571	571	567	567	566	563	567	572	570	570	564	564	566	566	565	562	561	573	573	572	567	572	570	569	573	578	581	579	579	578	578	581	576	571	574	573	570	570	573	571	571	575	575	581	576	567	562	562	568	577	579	580	577	576	572	572	574	569	579	579	578	572	575	575	576	575	571	563	566	567	561	564	565	568	568	568	566	568	568	566	564	566	566	566	571	573	577	576	572	566	567	565	563	557	555	554	553	565	563	565	570	571	573	573	574	575	573	568	570	574	569	571	570	570	563	564	560	564	567	569	571	571	576	580	579	575	574	572	575	579	579	575	572	574	579	583	583	584	576	576	579	576	567	576	574	574	572	572	573	572	571	568	569	572	574	577	582	587	590	586	594	593	595	595	589	587	584	582	575	578	580	581	578	577	579	579	581	585	580	580	580	579	580	581	587	584	582	583	585	582	578	569	570	574	573	570	565	571	575	579	578	583	586	585	581	581	576	576	572	568	570	576	578	580	585	582	583	587	586	585	583	578	578	579	584	596	608	608	592	592	590	586	582	581	580	583	591	591	589	590	587	584	586	587	596	600	594	593	592	589	598	596	596	590	579	580	585	589	593	595	600	601	599	592	600	589	588	590	590	596	599	601	601	597	598	591	596	596	598	599	599	598	594	604	605	603	590	586	602	604	599	603	606	607	598	596	595	598	603	602	603	595	589	592	595	597	601	601	598	598	600	605	607	605	604	606	612	610	604	607	610	608	609	609	608	609	610	613	613	602	607	602	601	604	607	613	613	607	602	603	606	605	605	605	600	603	605	599	594	592	589	593	592	591	594	596	609	610	614	614	612	611	606	606	607	606	601	604	609	608	608	608	614	614	616	613	607	603	604	610	612	611	616	618	616	609	604	605	606	608	613	608	607	612	611	609	608	613	619	619	616	613	614	612	609	616	614	612	613	624	625	623	620	616	609	608	610	616	613	612	616	618	616	611	609	612	614	599	605	610	618	619	620	612	614	613	616	618	617	614	619	619	627	617	617	616	615	613	621	625	624	618	616	621	628	630	632	629	627	615	613	613	608	612	624	629	634	633	632	636	636	624	616	624	620	618	617	620	621	622	624	631	627	619	625	629	632	634	628	627	625	626	629	629	617	616	618	620	633	632	626	611	606	624	632	635	639	639	631	626	625	621	619	620	623	635	644	633	621	616	622	639	648	648	643	640	632	637	638	641	636	627	631	631	631	629	628	633	638	642	647	642	644	636	635	643	628	628	629	637	637	637	642	649	657	663	666	664	651	651	642	636	635	633	633	635	638	642	644	651	657	649	641	641	640	640	646	647	647	645	645	644	642	643	643	635	644	646	645	645	647	646	648	648	0	0	0	0
564	564	565	566	566	565	551	551	549	549	553	557	563	564	564	562	559	557	546	546	548	557	556	560	564	564	565	561	550	550	550	557	555	552	556	563	561	561	561	560	565	566	569	569	569	567	564	560	558	558	554	553	553	558	560	562	561	558	553	556	564	564	556	562	564	565	563	562	563	561	566	566	563	563	562	562	568	571	567	565	571	571	570	568	568	569	563	563	558	555	557	565	573	571	567	565	566	569	571	565	569	576	566	570	575	569	569	568	565	560	560	560	560	560	560	564	562	567	566	564	566	574	574	574	572	566	570	573	572	571	572	571	569	569	567	562	559	557	558	561	559	562	569	572	572	570	567	568	561	563	563	560	561	563	563	562	560	562	563	563	560	566	571	571	575	576	578	578	574	572	574	573	571	569	567	573	578	580	577	580	581	579	569	570	572	572	572	572	570	571	572	563	565	561	567	569	579	586	588	584	582	582	582	591	591	592	582	578	578	576	567	574	578	578	575	574	574	577	577	572	577	585	586	583	580	584	585	576	576	578	581	587	588	570	566	567	555	557	566	569	576	579	578	578	581	581	583	581	570	569	572	570	571	573	577	579	578	580	584	586	588	582	576	578	577	584	588	586	586	589	581	580	581	587	583	577	581	586	582	580	588	584	576	573	571	572	576	581	591	593	587	584	589	593	592	586	580	580	584	586	588	589	594	598	592	590	586	595	591	593	594	585	587	586	581	584	585	585	586	592	593	592	593	596	595	605	602	586	580	588	601	602	598	592	592	591	596	595	596	598	602	604	600	593	585	586	587	596	593	585	582	588	596	597	595	599	599	605	605	604	602	601	607	604	607	608	605	602	603	602	603	601	599	599	596	601	606	608	607	602	600	596	598	601	596	593	594	599	597	592	593	592	593	594	592	590	594	597	597	603	606	612	607	607	595	596	597	603	601	612	612	611	610	608	606	603	607	599	603	603	612	612	616	612	614	617	611	604	599	598	604	607	612	612	613	608	607	603	600	608	612	619	618	612	606	608	610	607	607	609	613	620	619	615	609	597	601	612	612	615	613	612	619	617	617	609	605	604	604	608	614	613	614	613	614	605	606	611	611	613	613	613	611	613	615	606	608	608	606	611	615	624	614	613	611	616	625	626	628	622	614	609	610	608	604	605	612	615	628	627	624	628	631	614	613	610	611	612	613	609	611	618	621	618	610	607	613	621	626	630	627	620	620	625	622	606	599	602	604	609	611	607	603	599	609	612	627	628	631	637	631	622	615	622	619	619	617	621	626	622	616	614	620	625	646	641	636	631	629	630	624	619	616	622	622	623	615	609	613	614	624	637	643	642	640	634	626	626	626	627	631	638	630	626	638	645	651	654	653	650	650	647	631	630	629	630	627	627	633	635	645	640	640	642	641	641	642	637	638	639	639	632	632	638	638	634	634	633	641	640	642	639	645	640	647	647	0	0	0	0
556	557	560	557	555	555	547	544	547	547	551	554	555	559	559	558	554	550	544	544	543	550	553	554	558	558	566	559	559	559	557	557	557	555	557	554	557	557	554	549	558	565	565	568	568	568	562	559	553	551	548	549	549	554	559	561	561	552	553	555	551	551	558	563	556	555	555	555	553	554	556	558	558	557	557	560	564	569	567	570	571	568	565	564	564	564	563	560	554	552	551	553	560	562	563	562	562	567	566	566	563	558	565	566	568	548	548	548	549	554	555	556	558	557	557	552	553	559	564	558	560	566	572	572	571	569	568	567	566	567	571	573	576	571	567	563	560	559	559	562	563	559	557	559	560	563	563	562	562	560	552	548	554	552	555	558	557	557	559	558	560	559	563	560	563	567	569	572	579	581	577	571	567	565	562	562	562	565	568	574	578	575	574	566	562	567	570	567	567	567	562	566	566	563	562	562	566	572	573	572	570	573	578	572	572	571	571	572	563	563	566	570	574	573	568	570	568	569	570	582	584	583	578	574	568	566	567	570	573	572	570	568	574	573	558	554	559	557	563	577	576	585	580	583	581	576	571	563	571	571	572	576	572	574	574	577	577	577	578	579	580	580	585	581	581	580	580	583	580	579	573	572	573	573	576	573	568	568	574	572	571	570	571	571	575	573	576	576	582	591	587	581	582	588	581	588	587	587	584	585	576	578	591	593	590	586	584	584	584	589	584	582	580	575	579	582	587	584	582	581	589	585	581	582	593	592	583	586	585	590	595	601	594	588	588	586	587	592	595	597	597	598	603	593	580	587	588	590	589	584	582	579	582	583	586	580	585	597	602	601	595	600	596	599	602	595	595	602	594	594	598	593	590	591	593	593	591	592	595	595	598	596	594	597	588	588	591	592	589	589	590	591	597	598	592	587	589	593	594	593	596	596	595	589	583	588	598	599	602	610	610	607	605	605	604	603	607	599	601	601	610	607	607	606	613	609	599	599	599	597	592	602	600	595	590	600	608	597	593	599	603	606	609	604	604	602	605	597	605	606	612	614	608	604	600	599	612	606	607	615	614	616	622	621	622	614	610	605	602	604	610	612	610	606	601	599	603	606	607	606	604	610	605	606	607	604	600	598	603	612	614	614	613	614	614	613	616	622	618	611	602	600	603	604	608	609	610	612	612	617	618	621	623	612	608	605	606	597	606	602	599	600	607	601	600	600	604	610	604	605	609	613	618	620	612	608	599	603	605	607	610	609	606	598	608	609	607	619	622	618	611	619	615	609	600	599	604	612	614	616	609	612	616	623	619	611	613	618	616	617	616	616	616	618	621	612	607	602	605	609	613	619	635	641	637	629	618	618	624	628	640	634	630	626	621	639	644	645	635	632	632	637	642	639	635	634	623	626	626	630	635	635	640	641	641	643	640	638	637	639	629	628	628	626	629	629	630	630	638	639	642	639	636	638	638	635	0	0	0	0
548	548	551	553	548	548	547	544	542	547	547	553	553	555	553	553	550	545	544	546	546	552	551	552	549	549	551	551	555	557	558	558	557	557	554	554	549	546	546	544	554	565	568	569	566	566	562	557	552	549	549	548	550	550	552	558	560	555	556	557	555	558	558	561	557	555	552	550	548	551	555	556	556	553	556	559	563	566	564	567	569	556	557	557	557	560	560	555	551	548	547	548	552	555	558	560	556	562	562	561	561	555	550	557	558	550	548	543	543	546	546	545	550	553	550	548	547	552	556	554	557	559	562	566	563	564	559	556	560	563	568	576	576	574	566	562	553	551	559	561	562	559	557	558	558	559	561	560	556	552	551	553	553	553	555	555	554	555	555	555	557	555	551	551	551	553	558	566	574	572	569	566	562	559	559	558	561	566	569	572	575	573	570	566	568	571	574	566	566	561	560	565	565	563	561	560	562	568	569	570	567	566	570	571	573	566	556	566	564	566	568	561	558	558	563	567	569	570	568	566	568	559	560	560	562	566	563	567	569	569	570	566	572	573	571	568	569	573	575	575	571	577	580	577	570	571	568	562	571	571	572	571	571	569	574	567	573	574	577	575	575	579	579	576	578	575	579	580	578	575	575	563	564	567	565	570	566	564	560	564	565	571	573	572	573	574	577	578	583	581	584	593	592	579	583	588	588	590	585	576	584	573	578	587	586	585	583	578	570	568	587	578	577	573	576	584	594	591	588	580	577	574	577	588	592	591	584	585	590	595	595	601	595	588	583	580	580	583	589	594	595	590	591	579	592	589	588	587	583	579	577	577	582	585	588	579	581	583	586	587	591	591	592	590	591	596	593	594	594	590	585	583	583	584	586	589	587	592	583	582	585	593	592	593	588	588	586	587	586	587	587	588	588	584	581	579	581	589	589	588	588	592	589	587	582	588	597	598	598	605	606	605	601	600	603	606	603	603	601	604	606	594	584	598	597	593	593	596	597	596	597	598	594	590	578	580	581	581	583	583	584	588	596	600	602	598	599	597	602	607	613	613	603	596	595	599	604	603	605	604	609	615	615	622	622	618	613	603	599	603	601	603	604	599	594	596	599	602	602	603	598	597	599	604	605	602	595	600	604	608	607	607	605	603	607	613	614	613	613	606	599	600	601	602	608	608	610	612	612	613	609	616	618	618	605	600	594	594	592	590	594	596	604	601	598	599	595	595	597	597	607	608	614	616	614	607	602	611	615	614	610	609	609	606	608	608	605	608	609	606	608	609	616	609	605	601	600	603	610	611	610	615	616	617	616	607	601	601	603	608	608	610	617	622	617	613	604	604	605	608	611	612	619	631	626	621	616	614	623	635	618	619	623	626	623	621	625	625	628	628	632	631	628	624	620	622	624	621	625	628	629	634	640	640	637	639	637	634	629	623	624	624	624	625	625	623	624	630	637	643	642	638	637	633	633	627	0	0	0	0
542	542	552	554	551	551	545	544	539	547	547	548	551	548	544	544	546	546	544	547	547	551	549	551	547	548	548	546	549	550	556	557	557	557	554	548	544	543	543	543	543	555	563	567	567	567	563	551	553	554	550	548	547	547	549	554	550	557	558	553	555	560	560	555	554	553	553	549	549	549	555	556	553	553	554	558	558	553	558	558	558	550	548	552	555	553	548	548	545	543	544	546	542	544	549	550	551	552	555	557	559	556	552	551	554	551	549	545	545	546	546	545	543	545	546	546	545	551	552	554	552	554	556	549	552	556	556	554	555	559	566	571	571	570	562	559	552	551	558	559	560	556	553	553	555	556	554	550	547	547	549	553	551	550	553	552	551	551	551	553	553	550	548	547	548	547	537	538	554	559	563	567	565	555	556	550	563	567	571	572	571	563	564	563	568	570	574	564	559	558	562	563	563	562	559	556	555	562	562	558	562	567	569	570	573	562	554	559	565	564	567	558	552	555	563	567	566	563	555	560	560	559	559	560	559	560	565	568	568	569	569	571	573	572	571	568	571	577	573	571	570	565	564	556	554	556	558	564	566	563	565	566	566	567	564	562	560	570	566	567	571	573	579	579	578	573	577	574	576	573	559	560	563	567	567	570	564	562	559	564	571	574	576	565	562	567	561	566	568	570	577	580	581	580	587	585	575	570	570	566	564	579	567	568	584	585	580	573	567	569	571	579	577	573	574	582	595	593	590	577	570	572	570	573	579	589	582	578	578	583	580	578	576	576	589	585	580	583	587	589	578	575	575	574	572	572	578	571	581	577	577	578	581	585	587	586	586	587	589	590	588	588	590	590	587	589	589	590	593	588	584	581	575	583	584	587	584	574	580	577	572	581	585	589	582	580	582	581	583	586	586	582	576	577	576	573	576	581	580	578	583	588	584	584	585	586	592	596	594	600	601	603	598	594	590	597	600	603	599	599	592	585	583	581	590	589	588	593	595	596	596	594	593	592	580	585	589	590	591	593	590	592	598	599	599	600	597	596	597	595	594	597	589	591	595	599	603	600	602	605	603	612	611	606	616	608	600	596	593	596	601	607	607	600	594	595	595	597	594	594	592	593	597	594	598	596	595	596	606	602	600	600	600	603	604	610	615	615	612	600	598	600	602	604	608	602	600	597	595	601	603	612	613	609	603	597	596	593	587	588	592	597	600	603	598	596	593	594	594	595	605	605	610	612	608	600	606	608	612	612	608	604	605	605	608	612	610	613	610	608	610	613	616	610	603	605	604	605	608	610	611	613	613	616	616	608	610	608	608	609	612	615	618	621	624	618	610	606	606	606	608	612	617	621	620	614	606	604	612	609	614	615	617	623	625	621	622	622	622	624	626	625	619	617	617	619	625	627	625	622	637	636	634	634	634	630	622	618	618	618	617	620	620	622	622	621	618	621	633	642	643	635	635	635	632	629	0	0	0	0
541	541	551	554	552	545	545	544	540	542	542	548	549	541	543	543	544	543	547	547	548	548	552	546	545	546	546	547	547	549	554	557	557	561	553	543	541	542	540	540	542	550	560	563	560	558	558	550	552	557	558	549	545	545	545	545	542	544	549	548	544	546	555	545	549	556	553	549	546	547	548	549	546	545	545	549	550	544	540	542	550	548	548	550	553	550	544	544	539	537	529	533	543	542	545	544	545	550	552	555	556	553	551	551	554	556	551	546	541	546	546	546	544	542	542	548	551	551	551	554	556	554	545	541	555	557	559	558	557	556	556	558	568	568	561	557	558	555	555	560	550	542	539	542	546	551	551	549	547	546	547	549	549	548	550	550	549	547	545	550	547	545	546	546	542	544	545	544	545	554	558	567	569	565	556	550	559	564	567	569	570	562	562	563	556	558	559	555	556	557	556	554	547	548	551	552	553	557	555	557	560	565	560	557	559	560	552	557	563	558	564	556	553	548	555	559	561	556	558	553	559	554	557	557	559	560	563	554	560	565	570	569	572	574	573	568	563	563	560	557	560	564	567	563	565	566	564	559	556	562	563	563	563	558	555	558	559	559	561	564	567	569	578	578	576	573	573	575	558	557	558	562	563	563	563	562	560	560	564	569	565	569	569	573	556	561	559	567	567	567	568	567	563	570	568	571	570	567	566	565	562	566	564	565	570	573	573	570	568	567	571	579	579	575	577	587	594	595	586	573	567	570	567	575	579	585	578	574	569	567	564	561	571	580	579	579	576	565	582	578	577	574	574	577	580	576	573	570	569	573	578	577	578	580	585	584	585	587	590	590	591	589	587	588	587	587	588	588	588	585	584	581	580	580	583	584	580	577	574	577	575	577	576	584	579	576	577	582	587	584	585	578	576	574	573	574	576	578	576	577	582	574	582	581	583	588	589	588	592	591	593	601	593	581	585	590	593	592	591	588	587	587	582	587	586	585	588	591	594	591	593	593	594	597	594	586	590	590	591	591	589	590	591	594	595	590	598	598	580	578	584	588	584	585	587	593	599	599	584	584	586	588	589	593	592	593	590	586	585	588	606	602	605	599	589	584	586	593	593	588	590	590	591	591	590	588	592	605	604	597	593	595	595	599	606	609	615	611	607	600	599	599	601	605	607	600	599	595	594	592	594	604	604	601	597	595	596	593	595	594	593	597	599	600	599	597	595	595	595	595	600	603	604	602	602	600	606	605	606	608	602	601	602	603	608	610	610	609	612	610	613	612	612	614	608	608	606	609	608	607	609	610	611	613	613	609	609	610	609	609	608	613	615	618	627	621	613	611	606	605	604	610	616	618	615	610	599	597	603	600	608	613	615	611	609	618	613	613	617	618	618	614	612	609	611	615	620	621	619	609	622	625	625	628	625	616	610	611	613	613	611	614	615	615	618	617	613	621	630	638	629	630	628	628	626	616	0	0	0	0
541	549	549	553	546	548	548	543	537	535	533	533	533	535	538	538	538	543	543	548	549	549	556	558	545	545	544	544	544	551	556	560	561	550	545	544	543	543	543	543	544	550	556	556	554	549	549	531	535	543	551	553	545	543	543	544	544	545	545	541	539	540	545	538	539	549	553	546	546	544	546	547	549	550	550	548	544	534	532	538	545	535	544	554	555	549	542	539	539	530	535	535	536	540	542	544	544	548	550	554	548	535	538	551	550	548	548	542	537	537	542	547	547	542	540	541	548	548	549	549	553	544	543	551	554	556	554	549	538	541	545	549	546	541	542	547	553	554	553	536	536	536	534	536	538	543	545	546	546	549	550	545	543	549	549	548	545	548	544	541	540	544	542	541	539	543	545	544	545	550	554	563	561	555	550	556	559	562	563	566	565	557	552	550	551	555	556	557	557	548	546	546	548	547	552	554	553	555	553	553	555	558	555	557	558	555	554	567	561	563	552	551	554	554	547	546	546	552	555	548	546	547	552	553	553	553	563	564	561	562	565	566	567	569	572	561	557	556	555	557	561	563	568	568	566	564	562	558	555	561	561	561	553	557	557	560	562	560	560	558	559	558	567	570	572	570	570	569	562	559	558	559	560	558	556	555	556	559	557	561	558	560	564	550	551	559	563	563	563	562	563	561	563	557	562	561	560	561	561	566	567	568	559	558	556	561	562	560	554	560	561	567	570	573	576	583	589	591	573	568	568	570	567	574	580	576	567	568	567	564	561	561	569	573	571	572	568	563	567	579	570	573	566	565	570	572	576	569	569	570	578	577	578	577	573	584	582	586	587	588	587	591	589	587	587	586	584	577	579	582	579	576	575	572	569	570	572	574	575	575	577	574	571	566	573	576	578	583	585	583	579	581	574	571	572	575	578	579	579	578	579	572	577	578	575	580	582	593	594	592	586	582	589	581	584	586	581	587	589	588	586	582	584	585	579	579	586	592	593	585	588	592	594	595	598	591	590	585	584	584	584	587	588	586	585	579	582	571	576	578	582	587	584	583	584	576	575	575	579	581	585	585	586	592	585	577	582	584	584	585	591	601	589	589	583	583	587	587	587	586	585	585	583	584	583	581	585	590	593	588	589	591	594	596	601	608	611	608	602	593	593	595	597	603	605	599	596	594	592	590	590	596	594	587	586	592	595	592	595	596	593	599	603	599	598	597	594	593	594	594	601	604	601	601	600	597	597	605	601	596	591	597	600	603	605	605	605	606	604	609	604	605	608	612	611	610	609	605	606	604	605	605	605	605	606	601	602	600	609	609	607	605	613	615	624	621	614	612	605	602	598	603	606	608	603	597	594	591	591	598	606	610	610	609	607	609	609	609	609	608	604	608	605	601	608	611	615	618	614	608	606	606	603	616	615	605	602	603	605	607	606	607	606	606	607	613	610	611	612	616	621	621	621	622	610	614	0	0	0	0
538	537	537	539	543	544	543	543	537	531	528	528	528	530	529	530	530	536	547	552	549	560	560	554	544	543	543	543	546	549	550	551	550	550	544	543	543	544	538	542	542	547	547	548	543	537	531	531	533	539	534	537	538	533	531	531	533	535	537	536	537	537	538	533	533	531	544	538	541	543	546	548	552	548	546	546	546	540	541	540	532	536	537	539	547	547	543	539	536	536	540	539	538	540	543	546	547	546	547	541	535	535	536	541	536	539	539	539	531	533	536	536	536	533	533	538	543	545	545	543	539	535	539	542	552	552	553	546	537	539	543	545	546	546	548	551	549	547	538	539	541	537	536	537	536	538	543	543	545	550	551	542	540	547	544	545	543	544	541	538	538	539	540	548	546	542	544	545	544	548	551	552	552	544	544	543	551	555	558	555	551	550	547	545	543	546	547	548	541	541	537	541	543	540	548	547	549	551	551	551	553	556	554	555	554	552	557	559	553	544	546	552	553	549	544	542	539	542	546	545	542	541	543	548	543	546	553	563	559	555	558	549	551	562	567	557	552	551	556	557	560	566	571	571	569	563	558	555	553	559	560	555	556	562	563	563	562	561	556	553	550	549	553	564	567	562	561	556	558	553	555	558	558	556	552	551	555	554	552	552	553	556	554	551	549	561	561	560	556	562	557	560	554	552	552	553	554	558	562	564	566	562	556	554	553	558	559	558	558	553	561	560	559	560	564	563	560	566	568	568	567	565	573	575	575	566	566	566	567	568	566	567	568	570	565	566	562	565	566	567	566	565	563	563	564	565	557	560	562	573	578	582	577	573	571	562	562	577	582	585	586	586	584	558	558	560	564	556	563	564	570	572	570	567	566	573	573	570	571	573	576	572	562	558	561	570	576	582	583	583	576	571	570	564	578	579	580	581	579	579	580	580	579	576	575	577	577	593	593	592	587	583	579	576	581	588	590	589	585	589	584	566	568	576	577	576	578	581	582	578	582	587	592	594	588	590	583	580	579	575	573	579	583	584	578	581	575	574	576	580	584	585	584	583	579	573	572	572	579	581	582	584	587	590	578	575	574	574	575	577	579	580	582	582	585	588	590	586	580	579	578	582	580	580	578	580	580	584	589	587	582	583	588	589	587	587	588	592	596	584	582	582	591	592	578	587	589	591	590	588	586	586	587	582	582	585	595	599	598	593	590	594	597	599	600	598	597	594	600	602	604	595	591	585	595	597	595	600	599	596	586	586	598	601	599	598	595	595	597	599	601	599	600	603	602	609	609	609	609	609	605	603	602	603	602	598	597	601	599	604	604	604	605	611	614	615	613	608	603	596	595	595	598	595	597	603	598	585	585	596	608	610	604	599	599	606	606	607	604	600	599	595	592	593	603	608	610	610	605	604	603	603	603	603	607	604	600	598	600	604	605	603	603	600	603	604	600	602	604	614	614	614	614	608	607	608	0	0	0	0
525	525	525	533	538	541	536	536	535	531	531	525	525	523	519	528	540	540	549	548	553	555	555	546	539	539	542	544	544	546	548	550	549	544	530	542	543	550	539	539	539	539	542	540	535	526	530	530	530	530	532	532	533	529	531	531	532	534	531	533	534	536	535	533	526	526	530	533	538	540	544	548	553	545	546	546	544	543	540	537	537	533	535	535	534	538	540	537	539	539	539	537	536	539	539	544	546	544	535	531	532	534	536	535	532	533	532	532	528	529	532	532	532	529	533	533	538	541	542	542	532	530	533	541	546	544	540	536	536	532	537	545	547	548	549	552	543	543	542	540	539	536	536	536	536	537	543	542	538	544	542	537	533	541	539	545	539	534	534	533	533	538	554	554	558	559	544	546	545	541	543	547	542	543	543	539	539	541	542	546	543	543	542	539	537	536	533	535	538	535	537	540	535	536	540	541	549	550	553	553	552	552	557	550	540	545	544	544	544	543	542	545	547	547	545	542	535	536	540	540	541	547	549	542	541	554	557	559	557	553	545	546	550	552	553	548	550	548	556	557	560	562	563	566	563	562	557	553	550	546	549	552	557	559	562	561	558	556	555	552	548	547	554	561	558	557	555	544	546	550	550	556	557	552	549	548	556	554	550	547	551	553	555	552	552	553	554	555	550	551	554	555	556	550	548	549	551	557	557	558	563	560	552	550	552	555	557	557	554	545	546	549	552	555	557	560	560	561	565	564	564	565	565	564	561	564	561	562	559	562	563	567	566	559	560	561	559	559	565	565	564	563	563	559	559	557	558	562	559	555	554	555	562	562	561	572	574	579	582	583	579	576	567	557	559	558	562	557	565	565	566	565	559	556	560	568	572	566	565	567	570	565	554	557	559	565	575	576	576	578	574	567	565	566	567	568	573	573	578	579	579	580	577	575	574	576	575	572	588	587	585	584	584	583	586	587	589	584	587	586	583	561	562	569	572	566	564	572	570	571	577	582	586	580	575	576	577	575	572	571	574	579	580	580	574	577	577	577	576	583	586	587	581	578	577	565	566	571	573	577	581	582	583	573	573	573	574	573	575	575	579	581	583	584	588	593	590	583	578	574	576	581	581	574	573	574	575	579	585	584	584	578	580	580	582	581	585	595	594	583	580	579	581	581	580	575	579	585	585	586	584	586	588	584	582	588	593	597	594	589	586	590	595	597	596	598	600	599	602	602	602	592	590	586	583	591	595	595	594	593	584	586	590	586	584	583	588	589	590	594	600	598	598	596	596	594	599	603	605	606	605	605	598	596	596	592	591	600	598	600	592	602	604	607	613	606	605	605	598	595	593	592	590	589	594	602	598	586	584	597	612	605	599	593	594	594	603	605	603	600	598	597	590	591	595	605	606	604	602	603	604	603	603	608	608	606	603	602	603	603	603	603	603	595	599	599	598	599	602	604	607	607	606	605	605	601	0	0	0	0
521	524	523	523	528	531	532	532	532	531	519	521	521	522	523	532	543	543	541	547	553	555	532	534	532	533	532	542	542	544	540	533	532	530	530	532	539	526	537	540	536	536	536	533	529	527	528	530	531	529	528	527	529	529	530	531	531	531	531	527	531	533	533	530	527	527	529	532	534	536	539	543	550	540	540	540	540	540	540	537	535	533	532	534	532	532	537	540	541	536	533	533	533	536	533	519	518	518	519	521	527	531	534	532	531	533	530	531	524	528	530	529	528	529	531	539	539	539	538	533	529	527	531	537	545	540	537	535	535	527	530	541	546	546	545	536	538	539	543	541	537	532	535	537	537	538	537	537	540	546	547	532	527	532	545	544	540	530	528	532	533	535	543	551	555	547	548	550	538	538	543	542	542	542	544	544	538	534	535	536	537	536	535	536	530	530	532	532	538	537	537	534	539	541	540	538	545	546	553	553	552	552	552	549	545	544	537	534	543	543	543	544	545	547	547	543	537	534	538	542	546	545	547	544	547	547	547	548	548	541	537	544	549	551	552	548	546	545	545	546	549	548	562	562	558	557	554	552	549	546	545	547	551	555	553	554	555	554	553	552	551	550	551	556	554	553	551	543	541	535	538	550	554	556	550	555	554	550	547	547	550	552	553	552	549	548	550	548	547	543	550	549	552	555	549	544	536	540	555	555	550	550	550	550	551	552	552	552	550	541	539	542	547	548	551	555	556	556	562	549	549	549	551	549	547	557	563	561	558	560	563	561	561	555	556	558	560	557	554	553	553	556	556	555	555	553	556	559	559	550	549	549	544	555	559	561	562	563	568	578	574	566	558	557	551	555	554	556	562	565	566	561	555	555	554	569	570	569	563	568	571	570	547	551	556	560	569	573	566	569	571	566	563	567	565	563	562	561	555	561	564	566	568	571	570	572	565	557	562	581	583	582	581	581	580	577	587	586	582	574	567	562	562	578	567	563	559	555	562	561	566	567	572	581	571	576	563	569	574	573	571	573	578	577	576	572	571	570	573	573	571	574	574	573	566	563	565	569	572	573	576	578	571	570	570	575	576	573	573	569	571	581	582	584	581	584	586	580	574	572	573	576	581	579	570	577	584	584	580	579	571	568	572	577	577	577	580	595	593	578	575	571	580	582	579	575	573	577	582	582	584	582	586	587	580	576	578	579	583	586	583	583	586	591	589	585	588	591	592	586	585	588	580	573	583	588	592	595	588	582	579	581	582	584	582	577	577	582	584	590	599	595	593	587	587	583	589	597	596	597	592	591	589	586	584	591	593	589	581	580	585	603	597	593	593	595	597	600	599	593	592	592	586	584	588	591	588	581	583	591	602	602	596	590	590	593	592	596	601	600	597	595	583	585	589	594	597	595	594	602	603	604	606	608	606	604	601	600	601	601	600	600	606	604	594	594	598	597	602	602	602	602	599	598	592	589	0	0	0	0
513	514	513	513	516	520	519	516	516	517	519	527	531	531	535	537	534	527	527	530	530	532	525	525	526	528	526	525	527	527	530	531	528	527	532	528	526	530	535	537	534	534	526	526	525	524	528	531	531	529	526	526	525	529	529	530	530	528	526	526	529	532	532	530	527	529	529	530	532	533	534	538	540	539	534	527	527	527	532	533	533	533	535	532	532	530	529	536	538	534	529	529	528	526	517	519	516	520	521	523	527	529	530	529	529	528	529	531	534	535	529	524	523	526	528	533	537	535	535	533	528	525	524	522	526	525	526	535	534	524	530	537	544	545	534	532	534	534	533	534	534	532	530	534	535	531	533	532	534	543	540	537	536	536	533	530	524	532	535	535	532	537	542	543	544	543	541	537	537	536	530	535	540	543	542	529	526	527	530	531	533	532	530	530	526	528	529	531	534	542	544	543	544	549	547	537	534	537	541	551	556	551	546	546	547	543	544	539	536	539	542	543	545	545	543	542	537	537	544	544	539	543	540	543	542	542	544	543	539	538	536	537	547	549	551	544	542	543	541	539	542	541	538	537	540	546	551	553	552	548	541	541	544	545	545	545	542	542	548	551	551	551	555	553	550	548	547	544	537	532	533	538	544	551	558	561	559	545	540	541	546	549	548	538	542	544	548	544	540	549	549	549	549	544	541	540	538	540	546	548	549	549	550	551	552	551	552	547	540	536	535	539	544	545	550	549	553	553	543	540	541	545	549	547	543	540	556	557	555	561	556	556	556	552	553	544	542	543	542	543	552	555	556	554	552	549	552	553	555	553	543	541	541	548	556	556	558	562	558	562	564	559	556	551	552	553	550	550	556	557	559	562	554	551	551	563	567	564	564	568	571	569	556	553	552	554	558	565	564	566	564	566	566	567	563	557	557	557	555	552	563	565	566	563	569	569	563	560	556	561	567	571	573	575	569	566	566	572	569	567	563	563	568	567	565	560	557	557	556	565	566	560	572	568	573	563	566	569	568	572	566	569	576	574	573	571	565	564	566	571	570	572	572	570	562	559	561	570	570	572	573	575	574	568	571	575	575	575	570	567	570	582	584	579	575	573	574	576	573	571	574	570	576	575	579	585	577	575	573	559	562	564	573	574	574	575	587	593	593	570	569	568	578	581	579	570	572	578	577	582	582	579	578	582	574	574	576	578	575	574	571	570	573	576	579	585	589	590	590	588	580	570	561	563	563	571	576	582	590	579	578	579	582	582	579	576	572	573	585	592	593	589	585	581	576	577	582	585	585	591	596	584	587	585	585	586	587	584	583	593	590	588	587	588	588	593	596	596	593	596	592	587	576	578	578	582	581	582	583	586	598	596	595	595	588	587	589	596	597	598	593	584	577	580	586	589	590	592	591	594	594	592	591	591	605	597	596	596	597	598	598	600	604	603	599	591	592	589	596	601	601	601	599	595	590	584	0	0	0	0
513	511	506	515	515	520	521	520	520	525	526	516	514	514	513	515	518	523	523	528	527	527	525	525	524	521	519	517	524	524	524	526	527	527	528	525	525	521	520	517	523	523	523	523	521	523	527	530	529	526	522	520	529	531	532	532	530	530	528	525	527	527	527	527	527	529	529	531	534	534	533	534	532	531	528	526	528	530	530	528	530	530	522	524	528	529	527	529	529	533	526	525	525	521	522	520	518	519	522	526	529	529	529	524	525	524	527	529	532	539	535	532	518	522	525	520	530	530	527	526	526	524	519	518	510	514	518	527	527	526	526	532	533	530	529	528	531	531	532	531	534	532	529	521	533	528	524	526	532	537	536	534	533	532	532	521	522	528	535	537	537	536	540	539	531	535	534	534	534	533	534	534	537	538	536	542	530	527	529	528	526	526	530	528	526	525	526	529	532	532	536	541	548	549	545	537	533	534	539	545	546	541	538	536	538	543	544	538	534	538	538	539	540	541	541	541	536	534	536	530	539	540	542	541	540	537	537	537	537	537	532	530	535	534	536	537	541	544	544	537	537	537	536	531	533	536	541	545	551	547	543	540	541	542	541	541	542	544	547	549	546	544	552	552	547	545	543	545	544	544	534	535	541	550	556	559	557	544	539	540	541	542	539	535	537	539	541	544	546	542	535	537	538	538	537	538	540	543	546	548	547	549	550	551	551	551	552	551	545	537	532	540	541	540	546	546	546	543	543	540	539	542	544	546	543	539	538	554	555	558	546	547	550	548	546	538	534	541	538	542	545	553	549	548	543	546	547	550	551	552	552	550	544	547	553	549	555	554	558	554	557	549	548	551	554	549	548	548	555	554	559	560	553	551	549	552	560	562	561	562	564	562	555	544	551	550	551	558	566	567	565	565	565	561	562	554	552	555	552	550	554	564	565	562	556	567	554	554	551	562	567	570	568	567	565	562	559	562	562	564	567	564	557	556	555	556	555	555	554	556	566	564	563	564	566	568	565	566	567	561	563	568	573	575	573	568	562	561	568	572	567	572	574	571	563	562	565	567	568	570	572	565	564	564	576	573	571	571	553	557	568	575	577	571	568	566	564	570	568	568	567	572	570	567	565	564	567	566	562	562	555	563	570	572	573	582	584	590	587	574	568	569	569	569	568	568	572	578	577	577	573	578	578	573	569	570	574	574	573	571	570	571	567	573	579	593	588	589	587	582	578	564	566	570	572	570	570	570	580	589	586	586	581	568	568	567	568	573	579	584	584	587	578	572	572	573	577	582	584	593	585	581	577	581	583	579	581	585	588	594	584	584	586	584	585	589	592	594	591	587	582	573	571	573	576	578	578	581	582	585	594	593	593	590	585	586	588	589	597	589	580	573	574	577	579	582	587	586	586	591	588	587	582	580	586	587	586	587	593	594	594	591	600	591	588	591	589	585	585	585	587	589	597	595	584	582	0	0	0	0
513	510	512	515	515	520	523	525	522	522	521	516	507	507	507	512	516	525	525	523	523	524	525	522	522	520	513	522	516	516	514	516	520	522	525	525	517	519	513	511	513	518	518	521	521	519	524	526	526	526	523	513	513	527	528	530	530	535	535	525	526	523	525	525	527	524	526	526	530	535	533	529	528	528	527	528	531	527	527	527	527	526	522	522	522	526	526	526	529	529	528	524	524	524	522	519	519	520	522	528	529	524	524	524	524	525	527	528	534	534	529	526	525	516	515	516	517	515	521	525	525	522	522	514	510	514	514	514	516	520	522	522	519	524	523	527	530	527	528	532	534	532	532	522	516	515	518	520	526	526	532	532	532	528	522	519	513	521	526	535	535	532	530	533	525	526	526	524	524	532	532	532	529	529	536	538	525	522	522	525	522	518	518	522	526	525	524	527	526	527	528	532	542	546	545	535	523	527	531	532	532	529	531	531	535	538	535	536	534	533	534	535	532	533	537	536	536	535	531	533	534	537	541	541	539	537	535	532	530	531	527	528	531	532	531	537	533	541	545	537	538	535	532	529	528	535	541	549	552	554	552	542	537	534	533	533	533	540	541	547	547	543	541	537	543	540	540	546	546	533	534	533	535	543	549	547	538	541	540	540	542	544	541	541	540	541	544	550	544	539	536	540	540	539	541	539	544	544	542	545	544	546	550	551	550	547	552	551	547	544	544	536	535	544	539	538	538	542	543	537	536	539	542	542	543	542	533	540	544	545	542	541	545	544	537	529	536	537	539	534	538	542	553	553	542	543	546	545	545	545	546	545	547	556	540	544	551	550	549	556	549	545	542	544	546	543	543	546	552	554	560	558	553	557	550	548	549	556	556	556	560	555	551	543	551	552	546	546	566	568	568	563	560	556	546	542	546	550	550	549	551	560	563	558	555	551	556	547	547	562	568	567	567	564	562	558	556	551	552	564	560	562	558	554	556	556	553	546	551	555	559	555	552	552	558	564	568	561	558	556	558	561	570	574	570	562	562	561	563	568	562	562	563	572	561	561	560	560	564	565	568	566	571	575	566	572	565	551	562	554	565	568	567	565	562	561	560	562	565	563	563	557	568	562	558	558	559	557	559	561	561	562	571	574	575	582	582	589	587	575	568	568	569	567	566	568	571	572	571	569	570	564	575	566	565	566	567	570	568	568	569	569	575	579	586	582	580	572	570	568	565	562	559	558	566	568	568	568	570	581	583	580	577	576	564	563	563	566	574	573	573	573	574	574	567	562	557	562	567	572	572	570	569	575	573	579	581	581	589	589	579	581	584	581	579	583	588	582	580	575	571	560	560	561	570	575	576	576	579	583	588	588	586	584	582	583	584	587	582	578	573	573	572	575	582	584	588	588	590	586	584	582	579	574	570	572	573	578	579	579	579	585	579	580	590	586	587	581	577	577	581	588	591	589	588	585	0	0	0	0
511	509	512	518	518	518	525	518	513	513	513	509	502	505	505	509	515	523	521	521	522	521	523	522	521	518	511	520	517	514	514	517	521	522	521	517	521	513	511	521	523	520	517	517	514	516	515	516	523	523	515	512	511	511	512	515	521	526	526	523	519	522	524	525	526	518	515	513	513	514	516	519	524	525	524	530	530	528	527	527	525	521	521	521	520	518	519	525	526	526	523	521	520	518	518	512	512	516	525	522	524	524	522	519	521	521	522	521	521	512	516	519	519	512	514	511	508	509	511	518	526	522	515	508	512	512	515	516	520	520	520	513	516	517	523	522	527	527	530	531	535	533	525	521	515	514	512	516	519	518	529	528	514	513	511	513	520	521	522	524	521	520	522	522	517	515	517	519	520	530	532	527	523	525	530	528	528	519	519	519	517	510	508	515	525	523	523	528	529	526	528	529	533	540	538	518	519	521	519	524	527	528	530	529	529	521	538	537	535	530	530	528	528	529	531	534	535	534	533	530	533	534	537	536	538	540	538	529	528	529	524	524	530	531	528	528	530	530	536	533	538	532	525	519	519	529	544	549	551	550	550	543	536	534	534	532	530	528	530	536	536	532	538	536	532	542	543	542	536	531	531	531	534	534	545	544	536	530	533	538	542	543	544	542	539	539	542	552	552	542	536	541	545	543	533	532	536	543	542	531	537	540	540	545	547	550	552	551	550	548	547	543	541	540	538	538	538	541	544	544	534	533	544	549	541	530	532	532	533	536	533	529	530	529	528	522	519	525	531	533	535	542	540	536	538	538	538	541	539	542	542	538	541	552	538	546	549	547	539	536	540	537	536	539	537	536	537	547	548	543	543	549	552	547	546	545	543	542	543	544	552	550	545	540	534	533	537	544	563	564	565	558	553	547	542	538	547	548	548	547	549	555	554	553	551	553	548	544	542	547	557	558	563	551	553	550	547	546	550	560	557	560	557	554	552	551	551	546	550	555	555	551	548	549	552	559	565	561	554	552	550	560	561	559	557	557	558	563	557	556	546	556	561	565	558	556	554	555	557	560	558	558	568	572	569	564	560	553	553	556	556	556	559	560	559	558	558	555	556	555	561	558	558	559	555	554	554	551	555	557	559	563	572	574	575	580	578	577	572	569	567	566	565	566	566	566	569	570	571	570	567	569	560	561	560	563	563	565	563	561	561	566	572	579	581	576	577	575	574	565	561	558	558	557	563	569	569	565	566	569	573	572	571	567	567	563	561	563	566	570	567	569	572	568	562	569	563	565	563	563	567	569	571	571	576	579	580	580	574	571	571	576	581	574	573	574	573	570	568	566	567	564	562	555	552	553	573	574	564	581	581	568	572	577	579	576	575	574	574	575	570	573	572	575	580	583	583	587	584	584	580	576	567	573	572	572	575	578	578	581	571	565	562	566	582	586	578	577	577	579	579	579	586	587	584	583	583	0	0	0
509	509	510	518	518	518	517	513	508	508	504	503	502	503	503	511	516	518	516	516	517	519	519	521	517	517	511	517	520	521	521	520	521	521	514	521	513	510	511	520	520	520	514	514	510	511	514	517	522	515	513	513	508	510	509	513	515	516	516	516	516	517	519	520	519	516	511	509	509	508	510	515	517	520	525	528	529	527	527	525	525	524	520	517	516	515	511	515	515	517	518	518	516	510	505	505	505	509	515	521	522	522	504	499	514	514	516	511	508	509	515	520	517	516	508	511	508	508	509	509	512	519	513	510	515	517	520	520	521	519	517	511	510	509	510	512	512	516	522	523	525	525	519	511	513	510	508	507	512	517	525	516	511	510	513	522	525	521	518	511	514	515	516	515	509	507	513	516	514	521	529	525	523	522	525	527	526	523	516	522	519	522	518	520	524	522	522	521	528	518	526	519	523	526	514	515	515	518	520	523	522	520	525	533	536	534	528	528	531	527	526	527	524	524	530	525	533	533	532	529	529	531	535	530	537	541	527	536	527	524	529	528	525	529	534	535	532	531	531	531	538	531	522	518	518	528	537	545	547	545	545	542	535	534	534	534	530	528	533	531	534	528	525	528	541	544	546	536	542	537	534	533	532	537	533	527	527	529	532	536	540	544	542	541	537	536	536	537	538	538	544	545	543	537	531	531	536	540	538	527	533	534	535	541	544	542	534	534	534	534	531	545	542	538	537	539	539	537	543	537	541	539	546	543	541	537	530	531	534	532	533	529	529	534	534	531	529	528	530	532	531	535	530	533	532	537	535	537	536	537	539	536	538	543	540	537	546	537	529	530	527	536	536	539	539	541	542	546	542	540	540	542	545	544	545	540	540	538	538	540	547	550	545	540	538	535	536	555	557	561	562	551	547	546	539	536	544	546	546	546	547	548	545	547	545	546	546	542	541	542	548	545	543	545	546	547	546	546	545	551	557	557	551	553	556	568	570	553	550	544	547	547	544	544	546	551	552	559	547	548	551	550	556	559	553	552	557	562	557	555	550	552	557	551	551	552	552	554	556	559	556	553	559	568	561	555	556	552	556	554	554	557	557	556	555	553	551	555	554	554	555	556	555	557	557	553	553	550	549	550	554	560	566	572	573	576	576	575	570	563	565	566	564	564	564	565	562	562	564	565	564	555	555	561	560	562	560	559	557	555	544	556	559	557	560	570	572	569	565	562	559	561	558	559	561	563	563	564	560	566	567	566	564	567	567	567	560	563	568	569	566	563	566	565	563	564	562	564	566	568	569	573	574	574	575	575	579	574	564	564	568	565	576	570	563	559	567	563	563	563	567	571	571	562	559	563	566	563	555	564	563	564	568	573	577	576	575	572	571	568	568	566	569	574	575	580	580	581	577	578	574	568	565	563	567	576	581	582	582	583	580	575	570	570	572	576	577	577	577	579	578	577	575	580	579	576	576	0	0	0
507	507	510	508	515	515	517	511	506	501	501	502	500	503	510	510	515	513	513	512	512	514	518	519	517	515	512	514	517	519	519	519	518	512	508	506	510	504	506	512	512	506	506	507	507	516	517	516	520	515	513	510	509	506	506	507	509	509	513	513	513	514	515	516	515	514	509	505	506	506	508	511	512	515	524	526	530	528	526	523	523	520	513	511	513	511	508	507	510	511	510	507	504	503	503	504	504	507	513	510	505	504	504	501	500	511	509	505	505	508	511	514	515	515	513	509	508	508	510	506	508	512	510	510	515	519	521	521	518	516	514	514	510	509	506	509	511	511	512	508	508	510	511	506	508	509	503	501	505	521	518	515	511	511	511	517	521	521	514	512	513	512	513	509	505	506	507	509	512	518	523	524	524	524	525	523	521	521	524	527	522	518	514	515	519	521	518	520	514	519	514	514	513	511	511	510	514	515	514	515	506	519	523	533	535	532	523	527	512	522	523	525	525	524	521	521	524	529	529	525	532	533	524	525	529	521	527	527	525	525	528	524	528	535	537	536	535	530	530	528	532	531	530	523	525	531	535	536	533	534	539	536	528	530	534	536	539	539	535	530	527	525	526	525	536	539	526	530	531	535	534	532	532	533	542	534	529	528	526	523	534	535	533	538	533	532	524	531	532	532	534	536	533	530	529	532	533	537	534	522	521	523	524	526	534	538	538	523	520	519	529	527	539	532	527	528	532	545	544	536	536	541	543	543	541	537	533	530	532	534	530	530	529	534	535	533	529	529	535	536	532	529	522	530	533	533	535	536	538	539	534	533	529	535	535	541	539	533	527	527	527	535	537	536	535	541	542	539	540	537	536	537	544	544	545	537	538	537	535	540	545	547	544	539	538	536	542	551	556	556	548	551	550	546	542	536	538	541	543	545	546	545	541	540	538	539	542	540	540	538	537	537	539	542	544	545	543	539	537	543	547	548	545	546	552	547	544	545	544	541	539	545	541	540	543	548	545	546	543	541	545	545	545	546	550	551	550	547	547	557	556	557	549	543	539	543	553	555	556	557	558	548	550	554	551	550	550	548	556	558	553	553	554	556	552	548	547	548	553	553	554	554	554	553	548	554	554	553	553	549	547	545	545	549	552	557	562	566	563	560	553	551	552	550	547	543	544	548	548	549	553	556	555	559	559	559	554	554	552	545	545	548	549	553	557	562	561	559	559	559	557	552	554	556	556	557	559	559	561	564	563	563	566	569	571	572	563	564	566	565	563	560	561	562	562	564	564	563	563	567	568	573	578	574	556	571	573	574	558	558	558	562	568	566	560	557	561	566	563	562	564	569	568	566	563	561	567	564	564	555	553	554	568	570	568	576	571	569	568	566	564	563	564	568	567	567	567	571	568	571	567	566	565	567	569	572	572	572	569	570	570	574	576	569	570	577	579	579	577	577	575	574	573	573	569	569	573	0	0	0
503	503	504	503	502	508	508	509	505	502	502	501	500	503	511	511	511	512	511	510	510	510	512	516	515	510	510	513	513	514	514	514	513	505	502	500	504	506	498	499	505	506	507	510	510	514	515	516	516	511	510	508	508	505	507	499	504	507	511	512	512	513	512	513	516	514	504	502	502	503	503	508	510	512	516	519	521	519	522	522	517	517	505	511	511	512	508	503	504	505	506	505	502	499	499	503	497	497	499	502	504	505	504	503	503	504	506	504	505	504	504	514	517	517	515	510	510	510	504	502	503	504	507	510	514	520	521	520	519	505	504	503	505	504	505	507	509	507	507	505	505	506	507	502	499	499	499	502	509	512	512	512	508	508	510	514	521	522	517	513	514	512	508	509	502	503	503	507	511	516	518	526	525	524	523	524	516	516	522	521	516	512	510	510	514	518	517	516	520	513	513	513	509	509	510	510	507	500	505	503	506	517	524	528	526	524	513	511	514	513	515	523	525	522	518	515	513	517	526	530	532	534	521	520	522	525	521	518	518	521	522	521	524	531	532	535	533	527	525	523	521	525	524	518	526	529	531	522	520	514	516	525	522	525	531	535	536	536	533	531	523	520	524	522	528	531	522	522	525	527	528	527	527	529	528	526	523	520	518	520	526	527	530	528	530	522	526	529	530	528	531	532	530	528	527	528	530	532	532	525	525	526	527	531	540	539	536	525	520	517	526	526	528	522	523	522	528	538	544	544	540	541	540	540	536	538	532	530	530	529	530	531	534	541	544	544	539	524	520	520	519	520	526	529	535	535	536	539	542	536	524	524	529	529	536	535	536	531	527	527	533	538	537	534	532	537	543	541	537	536	535	537	533	543	541	543	538	537	532	537	542	545	540	541	540	539	544	547	553	548	547	551	550	546	540	536	537	540	546	547	540	541	537	541	542	544	538	538	537	536	536	535	535	541	541	539	536	536	539	540	537	539	540	542	548	541	538	540	539	537	540	542	543	542	542	543	546	547	547	540	536	538	541	543	547	551	552	549	548	546	543	544	541	537	533	534	540	552	555	555	549	547	548	549	550	548	545	545	557	559	555	546	548	555	552	547	545	538	536	538	545	545	546	546	548	552	549	549	545	547	546	543	543	546	551	554	559	561	559	558	549	539	536	536	539	538	534	534	544	545	549	551	553	553	554	552	552	549	544	541	542	548	553	552	553	555	558	561	558	556	551	550	547	553	553	552	556	559	559	565	564	568	571	571	574	573	564	563	561	559	557	561	563	562	563	564	563	562	561	566	563	563	568	565	560	565	566	561	556	556	557	560	563	566	565	563	558	560	563	564	564	568	568	566	564	562	566	566	559	557	554	554	549	567	568	559	563	564	565	565	564	564	563	563	563	561	562	564	568	565	561	561	568	568	570	570	570	568	565	567	568	574	575	567	570	575	575	576	575	574	573	572	571	567	565	565	572	0	0	0
496	497	497	503	503	504	504	501	500	501	500	500	501	505	511	509	509	511	508	507	506	506	505	510	507	510	505	507	510	505	500	504	504	496	499	499	501	498	495	497	500	503	506	507	508	508	509	510	513	508	508	509	509	507	497	497	500	504	507	511	507	507	508	509	514	511	500	501	502	502	502	508	510	511	515	516	518	517	516	515	507	505	505	506	507	509	508	494	496	499	503	501	497	496	495	492	493	496	496	500	500	504	506	500	503	506	506	503	503	500	504	515	519	521	520	514	510	503	502	502	498	500	502	507	509	515	517	513	509	501	500	502	503	504	505	506	508	507	506	503	503	505	505	507	506	507	509	509	499	497	500	506	509	510	510	515	514	514	516	517	517	517	510	501	501	492	494	507	510	514	516	526	524	524	521	519	512	510	512	514	511	504	503	511	517	514	516	516	521	514	513	513	511	508	508	509	504	500	503	502	507	510	523	517	525	524	523	521	512	508	509	513	518	518	518	513	508	509	511	523	527	526	517	512	518	519	523	505	501	516	518	520	520	524	520	519	522	526	517	519	520	521	521	520	520	520	521	520	521	517	516	510	517	516	519	517	521	525	529	528	516	514	514	519	518	521	519	521	522	525	521	519	519	521	525	521	520	518	515	514	524	524	522	516	511	515	520	525	524	526	530	528	523	522	522	524	526	529	527	526	524	526	527	532	534	531	530	521	520	520	525	525	519	520	515	519	522	526	536	537	543	533	537	537	539	537	526	525	529	529	530	532	534	535	538	536	531	521	518	516	518	520	524	531	532	526	527	526	525	524	528	524	525	525	531	531	533	531	526	528	529	533	535	532	531	529	543	540	537	536	540	536	541	543	544	544	532	527	527	531	538	537	541	545	544	538	532	537	542	534	533	532	533	533	528	530	539	539	542	547	540	540	538	540	546	544	541	534	534	533	532	530	527	529	529	533	536	537	537	539	538	539	539	535	533	535	533	532	532	536	535	537	538	537	538	539	540	545	542	540	533	533	533	539	543	545	553	554	550	548	541	537	536	535	537	527	540	539	543	549	545	546	548	545	545	544	543	548	558	551	548	544	547	545	545	545	540	535	532	533	537	541	541	539	542	546	546	544	543	539	538	537	540	547	551	549	556	555	548	540	539	539	537	537	539	541	541	543	539	545	546	546	545	547	546	545	543	541	533	550	551	552	551	550	553	555	557	553	552	550	549	545	546	551	549	550	555	558	559	559	564	569	572	575	573	569	564	559	555	555	549	550	561	563	560	566	564	563	562	562	561	560	563	561	554	555	553	558	554	554	555	558	563	565	565	563	557	553	557	564	567	568	566	558	558	558	558	562	555	556	551	545	562	564	567	555	558	560	563	563	560	563	562	562	561	560	559	558	560	558	556	557	563	572	571	570	570	560	556	557	557	557	557	563	566	566	566	568	573	573	570	570	565	563	563	558	563	0	0	0
495	495	495	495	502	499	494	494	490	489	495	495	500	506	509	507	507	509	505	502	501	501	501	502	500	505	499	499	497	494	490	487	487	491	496	495	496	495	497	496	501	502	504	505	504	504	504	501	503	506	508	509	499	499	496	496	499	503	505	503	503	503	502	502	501	499	501	501	500	502	505	505	508	511	512	513	514	517	517	517	514	507	506	508	501	499	493	494	496	499	501	501	501	501	491	492	492	491	496	496	502	507	506	504	505	506	500	499	496	497	497	510	516	520	516	503	506	504	506	501	497	496	497	491	504	510	513	512	495	498	498	500	500	502	501	509	509	507	506	504	505	505	507	507	506	507	510	507	498	497	498	502	505	503	504	505	501	502	503	505	507	506	505	496	495	501	502	503	510	511	508	513	499	507	513	515	508	501	496	498	504	504	503	505	511	514	512	511	521	509	513	513	511	510	507	508	506	503	500	504	510	516	509	509	523	524	521	514	513	506	507	511	514	517	509	508	506	505	508	521	521	529	514	513	517	514	522	506	500	510	512	520	513	516	513	516	520	519	516	515	515	520	521	517	519	520	522	523	523	521	518	508	515	514	517	516	519	524	526	522	517	517	512	511	517	517	516	514	517	519	516	515	515	519	516	519	519	518	512	521	517	517	517	514	507	507	508	512	516	518	515	520	520	519	520	521	520	522	523	529	519	521	524	531	532	528	520	519	518	521	521	520	516	508	510	512	515	516	527	530	533	537	528	531	538	522	524	526	531	534	532	531	533	532	532	527	527	522	520	522	525	533	535	535	532	528	529	517	522	521	520	524	522	524	529	526	522	523	524	522	519	528	534	533	528	526	526	536	535	538	541	537	535	535	540	537	533	530	527	528	531	536	529	530	523	521	521	526	527	526	523	519	515	520	523	529	534	540	541	543	543	537	532	533	534	530	518	517	517	515	513	513	515	521	526	531	533	534	536	537	538	537	534	533	531	530	531	531	528	532	533	537	540	536	537	537	536	536	534	535	531	531	531	531	536	544	553	555	556	553	548	539	536	538	538	538	539	537	538	541	543	543	542	536	537	538	542	548	548	542	542	539	541	544	542	540	532	528	527	531	535	537	539	539	536	537	544	537	536	536	536	542	545	545	545	541	540	548	547	539	538	540	540	539	534	538	542	545	550	550	539	538	535	543	537	534	541	538	540	537	544	552	546	543	548	543	541	542	542	546	546	545	550	550	547	547	554	557	553	546	553	558	558	569	569	566	563	558	551	552	548	551	552	553	556	561	562	562	557	560	559	556	557	560	555	549	549	545	549	549	552	555	562	565	563	560	554	555	550	553	559	559	558	557	557	557	556	550	544	549	548	556	558	561	564	560	555	558	556	556	560	561	553	553	555	554	554	552	555	555	554	556	561	565	564	564	556	552	553	553	553	554	554	557	562	562	561	567	569	566	562	561	559	558	558	554	555	0	0	0
491	493	500	500	502	491	486	486	484	482	489	496	496	498	506	507	499	504	500	497	497	497	497	499	497	496	499	498	495	490	483	480	489	489	495	495	494	492	496	492	499	502	502	500	500	501	501	499	501	502	505	506	497	497	496	501	503	504	504	501	501	498	498	497	496	497	501	502	499	499	500	500	505	507	504	504	507	513	514	518	517	513	508	508	503	497	497	497	498	499	502	502	503	504	502	497	492	493	494	494	494	499	493	504	503	502	501	499	497	493	492	493	493	490	494	498	496	496	497	503	502	497	493	493	498	502	497	494	494	496	495	495	497	500	505	508	508	506	503	500	497	500	504	506	508	509	506	504	502	498	497	495	493	499	501	502	498	500	505	506	501	504	501	498	501	502	505	508	506	511	503	491	491	503	509	510	503	493	496	497	504	504	504	503	503	507	512	515	515	517	505	512	513	514	508	507	507	505	506	510	511	508	505	508	512	521	519	513	512	511	511	510	512	519	517	512	506	504	514	512	519	506	506	521	516	515	506	503	503	504	508	517	518	506	511	514	518	523	522	517	517	518	513	515	511	518	520	522	523	522	521	510	513	513	514	514	518	525	527	524	517	518	519	518	519	517	514	513	514	514	510	509	512	514	515	515	518	511	521	513	515	514	515	513	507	508	508	511	514	514	513	515	519	521	518	522	522	517	518	518	514	515	519	528	528	524	520	520	516	518	515	515	515	509	509	521	527	528	528	522	515	533	520	521	512	506	526	532	524	524	524	526	530	527	527	527	526	523	521	518	520	522	530	532	528	532	533	527	518	517	519	519	518	512	515	517	521	520	520	516	514	520	530	530	527	527	528	530	532	534	535	530	528	530	529	534	539	533	529	529	527	528	530	529	520	520	521	524	524	523	523	518	516	514	521	521	526	535	539	537	534	530	524	528	531	528	519	518	515	521	521	520	521	524	526	528	531	533	534	535	536	535	529	528	529	528	529	528	529	527	531	535	537	542	537	529	527	534	530	532	530	529	530	532	535	538	541	544	542	549	543	539	536	530	533	537	536	530	532	531	530	530	533	535	536	537	539	542	538	540	538	537	537	542	541	535	530	525	528	527	531	536	536	537	536	537	536	534	532	533	535	540	542	542	539	537	534	534	535	535	534	534	538	537	536	536	541	547	548	548	542	532	527	534	535	534	539	540	539	538	533	546	543	539	539	538	539	541	541	538	538	543	545	547	549	550	553	547	546	541	535	531	531	551	564	563	559	550	552	554	556	552	548	547	547	549	553	547	548	552	550	549	551	553	558	553	547	548	544	541	544	547	559	558	555	549	547	553	551	549	557	556	554	553	553	552	550	547	542	545	549	554	556	556	555	558	557	554	554	554	555	553	553	551	553	552	554	551	554	549	552	554	559	561	561	558	554	555	552	552	551	551	549	547	557	560	560	563	563	559	556	553	555	555	555	552	551	0	0	0
489	492	502	502	499	491	482	482	478	477	486	492	492	493	496	499	496	496	495	492	488	489	489	497	497	497	498	495	492	485	480	490	495	495	494	491	486	489	492	499	496	494	495	495	499	499	499	498	500	500	500	499	497	500	500	501	502	502	499	498	497	496	496	495	496	498	501	497	494	494	497	501	501	504	504	500	503	509	512	509	508	507	508	498	498	495	493	496	499	498	498	505	507	511	499	496	495	493	490	491	491	490	486	491	499	502	501	498	494	491	489	489	489	490	493	498	489	493	495	500	504	499	496	492	491	492	492	492	498	492	492	493	493	497	502	507	508	501	499	497	493	496	501	503	505	506	505	504	501	499	496	494	488	488	496	502	501	500	503	504	500	503	499	497	494	501	504	507	511	505	507	496	497	500	502	500	497	497	497	502	504	504	492	492	497	501	501	502	504	505	502	501	499	491	503	502	505	505	509	503	505	511	504	501	499	502	509	510	509	506	505	505	508	507	507	506	505	501	503	510	515	511	507	519	511	506	508	504	505	502	498	511	512	507	510	513	518	518	515	517	509	507	501	510	508	513	515	515	510	510	513	511	513	512	512	511	514	517	521	521	516	517	516	517	513	511	514	512	514	508	505	507	508	512	511	517	508	518	511	511	511	514	515	517	513	509	510	511	512	513	510	513	522	524	523	517	516	516	517	517	515	520	524	519	520	521	525	520	518	516	515	513	513	511	513	521	524	527	527	525	509	510	507	504	509	519	513	520	520	518	515	516	522	525	526	528	524	519	516	516	514	519	520	521	527	521	531	527	521	516	515	515	511	511	512	516	518	521	517	513	513	512	517	522	523	523	516	517	504	506	508	527	526	523	525	527	533	534	533	528	527	529	527	534	528	524	523	524	524	523	523	522	521	518	519	519	522	530	533	533	530	526	523	523	522	521	521	524	527	528	523	522	523	525	526	529	530	530	535	537	537	536	535	532	525	528	531	527	529	525	530	535	537	540	538	524	526	530	530	532	531	531	537	537	535	537	535	539	549	548	542	540	530	527	525	527	531	530	530	529	529	528	528	536	537	537	533	536	533	535	537	539	541	539	537	532	530	530	528	527	525	531	534	534	533	534	532	528	527	531	535	539	539	534	527	533	535	532	531	529	531	534	536	535	531	539	537	542	534	535	538	529	524	524	535	540	543	538	537	537	534	543	539	539	538	536	537	537	540	540	540	542	542	543	545	541	540	541	543	540	537	534	531	534	537	549	548	550	553	552	550	551	544	542	541	543	533	530	535	548	544	543	545	554	555	552	551	548	547	546	548	552	556	555	554	551	550	549	550	547	546	539	550	550	549	548	546	544	544	543	548	555	553	554	555	555	554	553	549	550	551	551	542	542	549	553	554	556	551	550	545	545	551	554	554	553	558	557	550	550	548	548	546	547	547	549	555	557	541	548	547	547	547	549	551	550	551	0	0	0
488	489	498	498	496	487	480	475	475	487	486	488	488	484	489	494	496	492	491	487	488	491	495	495	496	497	495	492	493	490	492	493	494	491	491	483	485	488	492	496	494	496	495	495	494	496	497	497	498	497	496	490	492	499	498	498	498	499	498	494	496	495	494	494	495	495	497	496	493	491	490	495	499	499	501	498	501	504	508	508	506	504	502	488	491	491	491	491	494	494	494	493	492	493	493	492	489	488	488	486	485	485	486	488	487	485	485	485	492	489	488	488	488	485	484	483	487	489	497	500	501	496	494	493	492	488	489	490	492	493	493	489	491	494	496	499	494	492	494	496	497	494	499	499	496	499	504	504	495	498	497	490	486	488	496	500	500	501	502	502	502	498	504	496	493	491	492	494	507	500	504	496	495	495	497	496	495	493	499	503	499	498	496	493	496	498	500	499	498	501	501	499	499	496	488	490	498	505	504	502	506	511	505	503	501	501	502	496	498	496	494	495	497	500	501	502	513	509	506	511	516	519	508	502	505	506	507	507	500	496	502	505	507	505	512	513	517	506	506	504	495	496	498	502	510	518	519	519	516	513	512	508	504	501	502	506	507	506	519	510	505	506	510	508	508	510	509	507	506	503	502	505	512	514	513	513	506	503	505	508	509	515	516	514	512	508	507	506	510	505	504	516	521	520	519	514	514	516	517	505	514	518	521	523	517	519	520	520	518	516	513	513	512	513	513	511	510	510	516	515	509	512	505	510	511	512	511	506	501	499	501	509	512	502	505	518	519	519	516	514	513	518	518	514	520	517	525	524	520	514	516	509	511	509	513	522	517	523	518	517	520	517	510	515	518	519	517	521	519	520	519	518	526	525	525	529	531	533	532	520	527	527	528	523	522	519	518	516	523	523	522	522	522	515	516	518	520	517	513	515	520	523	522	521	520	520	523	528	528	527	526	515	524	524	526	531	528	527	531	531	529	531	533	530	528	534	531	528	527	525	526	532	533	536	531	525	521	522	525	528	527	532	534	532	532	534	533	535	529	529	535	528	524	522	525	529	533	537	533	529	522	523	523	525	526	529	530	531	532	534	535	531	525	525	522	528	528	529	530	529	526	528	528	527	527	529	530	527	526	527	527	527	525	520	524	534	531	529	525	524	528	531	531	535	534	535	536	535	531	531	534	528	524	531	533	544	545	536	535	532	534	539	544	539	538	533	535	537	538	541	539	539	541	541	546	545	543	544	544	542	537	534	535	535	535	539	542	548	550	551	549	547	545	540	537	535	535	532	533	541	542	542	544	540	539	539	541	546	543	541	541	544	550	551	550	550	550	548	542	543	535	532	532	527	529	533	537	538	542	547	547	553	552	543	548	551	552	541	541	546	546	540	538	540	549	554	554	556	555	550	546	539	542	542	544	547	548	547	544	545	544	543	544	546	545	543	543	540	536	537	541	544	544	545	545	549	550	0	0	0
485	486	495	493	493	483	480	488	488	488	486	479	479	479	480	485	492	488	488	488	490	492	493	493	492	493	493	493	493	489	486	491	489	488	488	487	489	492	493	494	496	490	482	493	491	493	494	494	494	493	492	490	492	497	497	497	497	498	492	491	489	492	493	495	495	496	497	496	489	486	479	481	488	489	489	489	489	490	490	493	491	482	484	488	488	489	489	487	481	485	487	491	496	493	493	489	488	489	486	485	485	486	485	490	490	488	482	482	484	487	488	486	484	485	484	484	489	490	497	498	497	493	488	488	482	482	486	477	482	493	494	490	489	490	488	487	488	489	492	494	497	503	498	494	493	496	497	486	491	493	494	498	497	486	491	496	497	495	497	498	500	499	505	496	492	490	491	493	497	498	502	494	492	493	494	495	496	497	501	503	502	500	500	497	494	494	498	495	496	497	499	499	498	494	492	493	493	497	498	502	495	499	506	501	500	501	501	494	496	497	496	495	494	496	501	500	502	503	501	499	501	503	504	500	492	494	496	499	499	499	500	504	506	504	495	493	495	500	505	505	499	492	499	497	508	514	514	514	513	510	504	501	504	498	503	506	507	507	503	499	498	499	498	499	495	495	503	504	498	493	499	505	515	515	517	503	506	502	504	504	506	512	513	511	510	506	508	508	499	498	504	498	508	502	522	513	512	512	511	504	511	508	517	511	513	518	521	521	520	516	511	509	507	504	509	505	505	506	510	509	509	510	511	510	504	496	496	497	498	498	493	501	500	506	505	509	516	517	509	505	507	509	509	518	514	514	522	520	520	513	507	504	504	496	496	504	506	511	517	515	509	509	505	516	518	515	515	512	514	516	517	521	514	528	529	532	527	529	526	519	524	524	522	518	519	513	508	511	517	521	521	520	509	510	510	509	514	517	510	512	518	517	519	517	515	514	519	523	523	524	517	511	517	523	527	535	533	528	526	526	525	526	529	522	526	533	530	529	525	522	521	523	532	531	528	526	523	520	523	521	522	525	528	527	525	523	521	521	521	518	519	518	515	511	525	531	535	536	536	526	522	512	510	514	516	527	528	528	530	530	530	521	524	522	518	524	526	528	530	530	527	524	523	518	515	521	523	528	528	526	525	525	520	522	531	532	533	530	523	522	519	522	528	530	531	531	530	530	528	527	525	525	522	521	525	516	532	532	535	534	533	530	531	539	531	530	529	532	529	529	529	528	528	531	535	540	541	539	537	534	529	530	532	536	530	530	533	540	544	547	542	536	531	539	535	534	537	536	539	539	539	537	535	537	538	541	538	544	542	540	538	536	536	536	528	536	545	535	533	535	532	532	530	527	534	536	529	528	534	541	540	534	531	528	542	545	540	539	533	533	528	530	535	540	542	547	529	556	549	542	540	539	539	536	539	538	541	541	541	542	543	541	541	544	544	543	538	534	530	529	541	541	543	545	545	547	550	0	0	0
483	488	490	486	486	481	483	488	485	485	485	478	480	480	482	486	489	488	491	494	495	495	495	495	492	491	493	488	489	484	487	489	488	484	483	483	484	486	481	483	490	491	483	492	489	490	492	489	489	491	490	490	498	497	497	499	499	488	487	481	485	489	488	494	494	495	492	493	481	480	480	481	484	486	486	486	485	489	487	485	486	486	484	487	484	485	485	476	478	484	487	490	487	487	490	489	485	485	484	482	482	485	487	487	490	487	482	481	478	482	482	479	485	486	484	485	489	484	486	498	489	484	480	478	479	477	473	470	477	488	497	494	493	489	487	482	488	488	489	491	495	499	499	491	487	488	488	483	486	491	494	494	489	485	485	489	492	492	494	495	499	499	498	496	491	491	495	494	494	498	495	491	489	489	493	489	493	494	499	502	503	503	500	497	492	489	492	495	494	492	493	494	491	492	493	493	494	495	497	497	495	487	490	497	493	499	495	493	493	494	497	502	500	502	501	501	498	501	500	489	489	498	499	492	491	493	496	500	499	497	496	498	501	497	496	484	485	493	505	504	499	502	496	501	505	506	502	512	506	506	503	499	500	498	502	503	505	506	494	493	493	498	499	499	495	496	498	500	491	489	493	494	507	511	519	503	501	500	501	501	501	500	498	503	500	500	508	508	506	506	501	503	503	498	505	509	510	512	512	511	508	510	505	508	505	509	519	516	512	507	503	503	499	503	501	501	501	500	505	500	502	504	508	504	500	495	497	499	497	497	492	493	498	502	504	503	509	513	509	503	502	505	505	512	512	514	515	513	510	498	495	492	493	496	496	498	499	500	493	505	505	505	505	505	510	508	504	505	504	508	508	510	513	509	511	527	520	518	516	519	519	517	519	518	514	512	510	507	512	513	512	508	507	509	508	509	516	518	512	515	519	521	515	513	512	515	519	524	524	519	519	514	521	526	526	534	533	525	525	522	525	527	520	518	520	523	529	523	516	516	521	524	524	533	529	517	516	516	523	521	521	522	522	523	521	520	522	522	516	521	520	519	514	510	521	525	523	521	518	514	516	514	514	518	521	523	523	524	526	528	528	524	519	515	523	523	523	527	530	531	524	523	517	515	516	516	520	527	528	528	526	525	530	525	531	531	530	528	526	525	519	522	526	527	528	528	531	529	525	522	522	526	523	517	514	514	516	526	534	534	533	530	530	526	526	523	524	527	524	524	527	525	518	520	531	536	539	537	534	530	528	529	529	526	527	519	523	526	531	539	537	533	529	525	529	529	529	538	539	538	538	534	533	535	534	540	533	535	537	533	534	533	533	531	524	523	524	525	527	527	531	530	529	527	533	536	528	525	528	542	534	531	528	528	536	534	536	534	534	531	530	532	533	534	532	526	525	524	531	535	536	536	535	531	537	536	534	537	540	541	540	539	541	541	545	541	537	532	529	526	537	537	542	540	542	545	547	0	0	0
484	486	488	482	479	479	478	484	479	479	481	473	481	485	485	487	488	491	494	488	481	480	478	478	478	479	483	484	484	484	488	486	481	479	481	481	478	486	481	484	491	483	495	487	488	492	491	492	490	490	488	492	493	497	489	486	486	483	482	482	481	484	490	492	494	494	489	487	483	481	481	481	482	483	484	484	483	484	486	485	486	486	486	486	483	482	479	479	478	481	486	485	482	482	484	487	486	483	482	478	479	484	483	486	483	483	481	477	477	482	484	492	491	493	494	491	485	481	482	482	481	479	478	477	477	475	470	471	476	475	478	481	484	484	482	480	478	475	475	477	478	487	489	491	488	476	482	486	489	488	489	490	487	486	492	493	497	492	494	495	496	495	494	492	493	495	492	493	493	490	488	488	485	482	483	489	487	488	491	495	500	501	500	494	489	486	490	493	494	490	489	490	491	492	496	498	494	495	495	494	493	484	486	488	488	491	493	493	492	490	498	500	499	500	499	495	493	493	495	489	487	491	492	490	490	490	494	498	501	499	494	495	494	494	494	495	497	500	500	506	506	506	494	498	499	504	499	501	498	502	502	500	500	497	499	500	501	495	495	495	495	500	502	497	495	495	496	494	493	493	486	488	499	506	504	504	499	496	497	498	499	497	496	496	497	498	503	507	504	503	507	503	500	496	497	503	507	499	501	506	507	508	500	503	504	502	513	508	505	503	499	500	501	497	498	499	498	498	505	499	499	500	503	498	495	495	499	503	501	498	491	493	499	506	504	499	502	509	505	502	501	497	501	502	507	501	502	500	502	499	489	481	484	495	493	497	498	497	492	491	509	510	507	505	506	502	497	496	500	506	506	505	503	499	503	503	509	513	514	516	517	516	516	519	518	511	510	509	509	511	504	506	508	508	508	508	508	509	513	514	519	518	517	515	510	509	509	501	511	517	518	516	513	507	510	511	510	512	527	529	531	530	516	516	517	516	514	511	510	510	513	514	530	534	529	516	514	514	521	521	520	516	518	520	520	513	514	515	516	518	520	517	514	510	519	521	521	518	515	515	513	512	514	515	516	521	519	519	522	525	525	525	521	525	523	521	522	523	530	530	518	516	512	516	516	512	518	529	530	527	526	527	525	523	528	524	525	528	528	523	523	521	522	524	525	532	532	529	522	517	517	518	519	513	515	512	514	522	532	517	523	526	526	526	522	521	525	524	522	524	530	530	513	513	523	534	537	537	530	531	531	530	524	519	518	515	520	523	526	534	534	529	525	525	522	524	529	532	534	535	535	532	534	533	538	535	535	531	536	535	528	526	529	530	527	522	522	523	523	524	525	529	527	525	530	530	525	523	525	526	526	524	520	520	529	534	534	533	533	533	532	533	534	533	530	525	519	522	529	528	529	529	525	526	536	536	535	537	538	539	539	539	539	538	540	539	537	533	532	529	529	529	541	541	540	545	544	0	0	0
487	487	479	477	474	474	474	476	479	468	468	472	473	479	479	482	483	489	488	481	483	482	475	471	471	470	475	479	482	488	479	479	474	477	476	477	477	480	492	499	501	495	485	484	486	488	488	487	484	484	483	486	491	495	489	476	477	477	479	480	483	483	490	492	491	491	491	487	483	482	483	482	481	481	481	480	480	479	486	486	480	485	487	485	478	471	468	464	464	467	478	479	476	478	485	485	483	479	481	476	476	478	483	480	479	473	473	472	476	484	491	489	487	485	482	484	481	478	478	480	485	484	484	482	480	477	475	474	475	475	476	475	478	481	481	482	481	478	476	475	477	478	481	472	480	478	482	483	483	484	484	482	482	485	492	493	493	493	488	493	494	493	493	491	490	490	496	499	493	481	482	481	480	480	480	487	486	483	487	488	487	489	490	489	488	488	487	496	496	493	489	489	490	490	497	499	496	496	496	493	491	488	487	483	484	486	488	490	492	488	498	497	497	499	489	487	492	493	494	494	487	488	489	490	489	488	491	492	493	493	489	491	490	492	493	491	495	496	493	500	501	502	502	500	497	494	493	497	498	498	498	497	499	497	492	494	497	492	492	494	493	499	496	494	491	493	493	490	490	489	490	486	487	499	500	499	495	494	484	486	487	489	490	492	495	497	497	498	501	503	504	501	499	494	497	497	500	501	497	501	506	491	499	499	502	499	499	506	504	500	500	501	499	500	499	498	497	497	496	497	497	490	490	497	491	487	486	495	497	493	491	495	501	505	501	497	492	497	502	500	502	497	493	497	502	485	499	500	499	498	490	484	484	491	497	497	491	490	487	494	505	509	503	500	501	503	493	494	493	494	496	498	505	504	501	501	501	509	503	506	502	509	514	520	519	512	508	507	507	500	503	504	503	506	504	493	495	498	510	513	513	511	515	514	509	505	504	497	494	507	510	507	506	506	509	509	511	509	507	509	510	512	511	509	506	508	507	508	508	504	502	513	517	517	519	513	511	512	516	517	511	517	518	520	511	505	504	511	518	515	515	516	514	512	517	513	513	514	516	514	513	513	511	514	517	511	518	516	517	519	524	525	526	526	524	521	521	523	527	528	523	521	515	518	517	513	514	519	515	525	520	522	522	521	518	517	519	523	528	523	525	522	524	525	521	524	534	525	514	513	514	515	521	519	516	512	511	517	523	512	521	521	527	528	526	521	521	521	524	521	522	524	519	513	511	527	528	529	531	532	533	529	520	513	513	519	522	523	521	522	532	525	523	524	519	517	515	514	514	529	535	535	536	532	534	536	533	530	531	530	528	528	529	530	524	522	522	522	524	522	520	525	525	524	523	523	523	517	519	526	529	520	520	523	527	532	532	532	534	534	534	533	535	534	530	530	519	522	524	523	523	518	515	523	537	536	533	533	535	537	537	539	535	534	538	538	541	534	530	530	527	527	530	530	531	544	543	543	0	0
476	476	473	473	470	471	471	473	472	469	469	470	473	474	475	475	478	477	481	483	482	477	474	469	470	470	470	475	478	479	479	471	468	470	473	475	475	479	484	487	486	485	484	479	479	480	479	488	486	483	483	485	485	484	475	475	473	479	479	482	482	481	487	485	484	482	482	483	483	480	480	480	480	480	479	476	476	476	475	476	479	482	486	478	478	470	468	468	470	470	476	476	474	472	473	478	478	477	477	474	474	476	481	469	471	471	475	475	474	474	474	479	477	475	469	472	481	477	481	483	483	480	477	473	472	473	475	475	476	473	471	473	475	479	480	480	480	483	481	468	473	471	471	471	480	479	484	484	484	482	481	479	481	484	488	491	488	483	483	485	487	489	490	488	485	484	484	494	483	480	481	480	475	475	479	482	484	480	478	486	486	484	484	483	482	488	483	485	495	489	488	489	490	490	495	495	494	498	497	492	482	480	482	482	483	484	484	481	479	484	491	489	489	486	486	486	485	484	484	491	488	486	487	487	488	487	491	490	492	492	487	485	486	486	486	489	490	491	492	493	497	498	501	497	494	486	486	486	484	484	487	491	497	496	493	491	494	494	493	497	500	496	491	487	486	487	490	490	489	489	489	484	495	495	495	490	494	485	484	488	490	488	488	491	492	495	497	498	497	497	502	500	500	497	498	496	497	500	497	500	504	493	498	499	500	498	492	502	500	499	500	501	496	498	494	497	494	493	493	494	492	487	492	492	488	486	485	486	491	490	489	495	490	498	497	497	495	488	492	499	498	496	492	488	491	491	492	498	490	490	490	492	490	487	486	486	486	486	487	494	498	494	493	491	492	493	493	493	490	491	490	494	499	505	500	496	498	499	502	494	494	507	514	514	509	508	505	505	497	500	501	503	500	498	495	493	495	500	503	511	507	507	508	507	509	506	501	494	494	504	503	504	504	504	502	509	506	506	505	504	504	503	505	505	506	506	504	505	504	501	501	506	508	504	501	501	501	508	510	504	505	513	515	515	505	501	501	504	509	515	510	508	508	511	507	509	512	514	515	516	516	518	514	510	509	507	508	514	513	513	518	524	526	525	524	522	521	517	521	524	519	516	513	512	504	505	505	506	504	512	520	517	520	518	517	516	519	529	529	528	527	528	523	524	520	522	519	514	512	511	513	513	519	521	521	515	512	515	514	508	508	519	522	524	521	519	518	518	522	519	519	523	523	519	520	514	526	526	527	531	532	525	512	510	509	519	523	523	520	520	519	518	519	522	516	516	517	514	513	514	517	522	525	525	524	521	519	530	530	528	525	517	526	525	522	521	521	517	523	521	519	520	523	519	518	518	518	518	520	522	526	521	522	524	523	522	522	523	526	529	531	529	529	533	532	530	527	524	521	521	517	513	513	521	523	534	531	531	533	527	527	533	527	527	538	538	530	528	527	527	524	526	530	530	530	539	540	540	0	0
469	465	465	465	467	470	470	473	473	469	470	470	471	472	474	474	475	474	479	482	473	472	471	468	467	467	468	470	473	475	471	472	470	472	472	473	477	477	477	483	484	482	479	473	470	469	470	484	487	488	488	480	470	472	475	475	479	477	477	477	478	479	478	481	481	480	478	478	477	476	478	479	480	478	474	474	473	473	471	471	475	476	472	472	474	468	469	470	474	476	476	478	477	474	469	473	473	475	478	474	474	474	471	466	468	465	463	463	463	469	475	479	479	477	472	468	467	468	468	469	469	466	465	467	471	473	472	473	474	466	465	466	468	470	475	479	478	481	481	468	474	466	473	471	481	492	489	482	475	474	476	481	481	479	480	482	468	470	478	476	479	480	479	483	482	480	481	487	479	480	482	482	475	480	474	478	475	475	475	475	481	480	478	477	475	482	480	482	481	476	486	487	489	487	489	489	485	483	485	486	485	477	474	479	481	484	484	477	477	474	479	479	483	483	484	480	478	479	480	481	481	479	480	484	486	491	489	489	489	491	488	487	486	484	484	481	485	489	483	484	483	484	486	485	485	488	490	485	485	481	478	470	467	477	477	486	491	494	486	494	494	492	490	485	483	485	485	487	490	493	493	490	489	493	492	489	491	487	484	486	490	490	491	491	491	490	493	497	496	494	496	493	498	497	496	492	482	492	495	497	500	491	493	499	499	487	496	498	502	500	498	496	495	497	494	494	494	493	494	493	492	493	497	495	486	487	486	487	483	487	487	492	492	490	490	489	493	492	490	494	496	499	493	489	488	489	490	487	489	489	492	491	490	490	486	485	490	486	490	492	496	494	492	493	493	492	494	492	491	487	484	484	494	501	499	493	491	498	495	490	489	490	503	507	507	502	502	502	498	501	502	499	499	496	495	493	493	495	499	501	503	500	502	500	502	500	500	501	500	501	508	504	503	497	497	506	505	505	503	503	503	502	503	506	508	505	501	501	498	499	498	506	506	497	493	490	492	498	502	500	500	505	513	517	502	501	500	501	504	509	510	507	507	507	506	508	511	514	512	515	516	521	520	512	510	504	499	501	504	507	509	521	516	513	510	508	514	518	520	520	519	516	512	515	510	507	510	505	503	504	508	506	513	517	514	512	510	512	526	528	526	525	520	515	498	500	504	512	515	518	519	520	523	521	518	516	513	506	511	509	508	517	519	520	520	517	514	515	518	523	519	515	513	522	517	511	509	515	516	524	524	524	510	509	508	516	519	522	520	518	513	511	511	516	515	514	518	517	513	514	518	511	496	495	495	503	506	513	519	520	519	514	519	519	519	521	522	520	521	524	520	520	514	514	512	516	511	518	520	518	519	521	524	528	528	528	522	516	521	524	527	518	519	520	523	522	526	522	522	523	520	514	518	519	516	519	524	525	530	530	531	525	526	527	527	525	524	523	523	522	521	526	533	528	530	529	529	536	0	0
469	462	462	464	460	470	470	474	473	470	470	467	468	469	472	473	473	472	471	473	472	466	467	461	457	463	463	465	470	475	472	470	475	475	472	472	473	473	471	473	476	473	473	470	470	461	472	474	472	472	468	468	469	473	477	479	479	473	471	471	472	474	476	481	479	476	476	472	472	476	473	466	467	468	474	475	475	467	467	467	468	465	466	470	472	463	474	475	475	476	476	476	477	472	466	463	469	471	474	474	465	467	467	465	464	462	461	463	467	467	474	478	482	479	473	469	469	468	468	468	467	465	465	467	471	465	463	464	464	463	464	468	471	472	471	474	476	477	477	476	472	474	475	474	477	479	478	473	473	476	480	482	482	481	476	469	467	470	476	479	479	476	478	478	469	465	462	466	470	471	468	475	467	476	471	474	474	474	473	478	478	474	472	471	473	476	474	474	473	473	478	481	478	481	485	485	481	474	478	474	478	471	471	472	467	463	463	465	468	471	474	477	481	487	488	483	479	475	474	476	474	474	476	477	483	481	480	475	482	488	486	484	486	480	478	479	481	483	484	485	482	481	480	479	479	487	486	486	490	479	474	474	472	474	475	477	478	482	484	477	476	482	485	489	485	487	485	486	489	491	494	486	489	489	491	490	491	487	486	488	488	490	488	492	487	490	484	494	495	494	492	491	486	486	491	495	491	489	494	498	498	488	489	491	492	491	487	496	491	494	495	491	494	476	482	482	485	486	486	482	482	486	492	487	487	485	486	491	491	493	494	490	490	490	491	489	493	493	496	489	487	490	485	484	486	491	489	485	481	487	489	488	485	491	493	493	485	495	493	494	495	492	494	497	493	498	492	491	483	481	485	483	488	492	501	496	493	493	487	487	488	487	483	486	492	501	497	497	503	501	501	498	495	493	492	490	489	492	497	498	501	499	500	498	496	500	491	493	493	493	494	494	493	491	487	489	493	499	499	499	500	500	503	503	504	498	495	496	495	500	502	497	496	494	490	488	486	486	495	498	500	500	506	507	497	497	498	500	502	504	506	506	506	504	502	509	502	505	501	501	511	513	507	509	515	505	500	497	495	502	508	511	510	509	510	508	508	512	520	520	519	516	512	511	509	508	509	506	505	504	505	506	508	510	509	511	512	512	510	511	523	508	505	505	499	500	502	506	513	515	517	504	508	522	512	503	507	516	513	511	512	515	518	516	515	511	511	512	518	522	518	510	511	513	511	508	508	513	515	518	513	508	509	504	504	503	508	516	515	509	510	510	513	514	514	514	511	516	513	514	516	498	496	497	504	502	503	505	517	519	519	517	514	514	514	515	510	506	504	507	506	504	501	503	503	512	511	515	520	522	522	520	517	519	519	527	524	517	520	523	519	518	517	521	522	522	519	519	519	523	521	526	520	516	515	517	520	522	522	522	531	525	525	524	517	519	520	520	520	520	520	526	530	530	529	529	530	523	0	0
465	462	466	466	462	462	467	467	471	471	467	466	463	461	464	463	463	469	467	468	466	466	461	461	464	463	463	472	475	476	476	475	475	475	473	469	470	467	467	467	467	470	470	470	466	461	469	470	471	469	469	469	469	470	476	479	479	467	473	473	470	471	472	472	470	466	465	466	466	468	461	462	462	467	466	478	476	464	460	460	462	460	461	461	459	456	468	474	476	479	476	476	474	466	463	462	463	466	466	459	462	465	465	461	465	464	461	461	466	472	472	476	478	475	473	471	470	471	468	465	462	460	460	462	472	459	462	463	461	463	463	470	473	473	472	471	475	474	465	462	462	464	470	472	472	471	470	471	470	469	475	478	478	478	469	468	468	470	478	474	471	463	466	467	460	458	460	465	466	461	464	474	465	478	473	470	470	474	468	467	478	476	470	471	471	472	472	471	470	470	469	469	472	474	479	481	478	471	471	470	469	471	471	470	469	463	467	466	466	467	476	475	478	482	482	485	483	476	473	474	476	476	476	483	481	480	476	473	475	481	483	482	484	476	477	477	477	485	487	482	482	474	464	473	482	482	484	483	488	479	475	474	472	473	475	476	479	480	478	478	475	479	484	487	485	486	485	479	489	493	485	479	477	487	490	490	485	484	484	487	488	486	485	484	484	487	485	485	489	491	491	491	492	493	496	496	491	489	495	495	494	484	485	489	490	489	486	486	490	493	492	484	488	475	481	482	484	483	484	481	479	478	481	482	484	480	478	491	491	489	492	491	490	488	479	479	493	495	492	489	488	491	485	484	482	488	486	481	478	478	483	487	491	489	490	496	496	490	491	490	494	492	489	487	490	491	491	490	486	488	480	477	477	478	482	482	484	483	486	489	487	485	483	479	479	480	487	490	493	501	497	493	488	487	487	488	486	491	493	493	496	495	499	499	494	492	489	490	487	498	498	497	495	488	488	482	485	493	494	498	498	501	503	501	499	496	493	502	504	505	507	506	501	496	491	488	485	489	486	488	492	496	499	494	493	495	496	498	501	501	504	506	504	503	501	499	496	497	497	497	497	507	508	508	514	506	495	498	498	502	506	511	509	507	510	508	507	506	509	519	518	515	510	512	508	507	507	509	508	507	505	504	508	509	510	507	508	507	510	514	508	506	506	502	501	499	498	505	511	514	513	503	509	509	511	508	519	514	515	511	510	511	512	509	508	501	501	510	513	515	516	506	506	506	505	504	512	511	513	512	506	503	496	496	497	500	506	510	509	508	508	510	512	508	510	512	509	510	513	513	515	515	497	501	499	500	498	507	514	514	513	513	513	512	509	506	502	500	498	497	502	500	500	500	500	502	510	513	516	516	516	513	512	512	515	523	518	518	520	518	515	515	513	513	513	519	519	519	518	519	524	522	516	511	509	509	514	516	516	518	526	532	524	517	513	516	516	516	516	518	517	524	529	530	526	526	517	514	0	0
462	465	467	467	468	459	459	459	464	466	466	463	459	455	455	454	461	461	463	469	467	461	462	467	467	467	470	470	474	471	468	467	475	467	472	468	468	463	464	464	466	468	468	466	461	458	457	469	472	470	473	468	468	473	470	468	467	460	463	468	468	470	473	472	467	464	462	462	464	464	461	458	459	461	462	470	463	460	458	458	457	457	456	452	454	456	464	473	472	470	469	466	466	463	462	461	461	458	457	456	459	463	463	454	457	465	466	461	462	465	475	475	476	474	466	469	470	470	465	465	464	464	461	459	459	457	463	466	465	465	464	466	477	477	474	470	470	467	465	464	462	464	469	470	470	470	470	470	470	471	473	475	475	473	468	468	467	466	464	461	460	460	461	461	459	457	465	467	460	460	460	461	465	469	469	469	469	465	468	478	478	476	468	469	473	472	472	470	468	466	466	467	468	474	476	480	479	464	469	471	471	471	472	472	472	471	469	468	467	469	468	467	470	480	477	475	472	469	469	472	475	481	481	482	480	480	480	471	472	473	472	471	470	473	475	472	478	484	484	482	471	473	464	473	479	475	466	469	479	481	481	481	477	472	471	474	478	479	476	475	478	479	482	484	485	485	484	479	487	487	483	482	476	477	480	482	481	480	483	481	484	482	483	476	473	481	483	484	486	486	488	491	491	495	496	493	489	488	488	491	489	483	481	481	481	482	485	486	492	490	488	484	479	485	485	486	481	480	482	481	478	476	480	482	481	482	481	484	481	481	481	491	486	482	482	489	486	490	489	491	489	491	482	479	481	486	484	480	474	476	478	479	482	486	489	496	495	488	471	471	483	484	484	486	487	486	480	476	486	487	478	477	477	477	481	477	480	484	490	489	488	485	483	480	487	491	487	485	486	488	486	485	484	481	480	477	477	482	491	493	496	492	495	493	489	488	488	490	488	498	500	496	494	488	488	489	489	485	493	497	498	498	499	502	499	497	495	500	502	497	504	503	500	498	490	484	486	487	487	493	501	501	494	491	499	485	485	497	497	499	501	496	500	500	497	496	496	496	497	496	494	504	505	506	506	502	501	503	512	510	506	498	498	497	507	507	507	503	508	515	514	510	511	512	510	509	510	509	509	507	506	500	506	506	506	498	502	504	501	504	499	497	497	499	499	499	500	503	504	507	511	508	510	517	507	515	515	508	504	500	504	509	508	506	502	496	496	497	509	515	508	503	500	498	498	501	504	511	499	507	501	501	500	499	495	500	507	512	509	508	506	507	505	502	503	511	512	509	511	513	515	514	512	500	500	501	501	498	500	496	496	508	504	503	508	506	501	498	495	499	500	501	502	505	507	510	512	515	515	518	518	512	512	515	520	514	512	512	511	509	508	509	509	510	510	511	511	509	510	515	520	519	511	509	509	509	511	511	510	514	522	522	519	516	510	506	506	506	505	512	515	518	514	524	524	520	516	513	0	0
