2004	2026	2061	2061	2076	2052	2045	2055	2055	2053	2035	2019	2028	2032	2032	2030	2025	2044	2055	2067	2067	2078	2096	2103	2102	2001	2005	2005	2034	2042	2052	2073	2078	2086	2083	2083	2086	2094	2104	2110	2090	2073	2071	2077	2077	2065	2076	2075	2069	2075	2096	2102	2090	2077	2117	2126	2126	2125	2117	2108	2113	2128	2145	2156	2130	2092	2087	2084	2090	2106	2113	2182	2182	2193	2201	2158	2112	2102	2098	2117	2117	2126	2133	2102	2067	2055	2102	2103	2108	2090	1982	1886	1661	1494	1475	1452	1440	1426	1411	1406	1403	1402	1406	1398	1394	1388	1388	1392	1391	1382	1385	1387	1398	1410	1416	1409	1404	1412	1419	1423	1417	1407	1402	1404	1410	1415	1407	1408	1415	1443	1448	1447	1436	1424	1427	1431	1435	1434	1407	1400	1409	1408	1411	1417	1447	1440	1430	1483	1475	1447	1443	1451	1463	1462	1462	1467	1481	1509	1519	1521	1528	1538	1533	1543	1644	1703	1760	1805	1838	1856	1855	1848	1844	1841	1845	1846	1847	1859	1891	1906	1863	1810	1823	1814	1786	1806	1828	1866	1909	1929	1939	1947	1957	1990	2012	1985	2004	2032	2113	2251	2293	2319	2330	2340	2335	2342	2342	2345	2318	2273	2294	2319	2351	2364	2369	2362	2368	2373	2390	2414	2414	2424	2410	2433	2418	2418	2433	2436	2377	2372	2383	2398	2429	2440	2425	2403	2407	2429	2353	2003	1899	1504	1465	1474	1502	1494	1462	1443	1444	1458	1470	1473	1479	1488	1487	1477	1470	1461	1449	1452	1458	1479	1500	1509	1504	1488	1480	1484	1481	1465	1462	1459	1467	1470	1465	1461	1453	1452	1436	1456	1475	1476	1475	1478	1487	1473	1486	1498	1500	1493	1494	1501	1503	1494	1493	1483	1495	1484	1490	1497	1474	1487	1493	1493	1496	1484	1471	1465	1465	1467	1483	1482	1491	1498	1502	1505	1477	1481	1490	1513	1541	1533	1594	1818	2199	2472	2580	2723	2777	2814	2812	2816	2805	2839	2874	2869	2848	2842	2811	2781	2821	2882	2896	2905	2894	2881	2859	2865	2908	2913	2901	2877	2840	2783	2651	2464	0	0	2435	2439	2454	2534	2529	2540	2543	2545	2539	2450	2210	2127	0	0	0	0	2068	2039	2010	1973	1917	1861	1914	1982	2012	2018	2010	2008	1981	2008	2026	2042	2052	2056	2051	2044	2042	1743	1687	1643	1644	1653	1648	1599	1542	1510	1534	1530	1535	1561	1533	1534	1558	1563	1531	1530	1554	1555	1562	1547	1546	1541	1566	1563	1556	1553	1547	1548	1556	1557	1546	1540	1524	1526	1539	1557	1570	1555	1548	1542	1543	1551	1553	1570	1582	1580	1577	1571	1565	1556	1541	1525	1517	1525	1560	1600	1651	1760	2108	2834	3079	3320	3443	3499	3499	3486	3400	3287	3202	3162	3153	3136	3132	3119	3094	3063	3038	3020	3008	3049	3120	3134	3130	3151	3158	3153	3167	3166	3160	3148	3124	3095	3090	3093	3096	3103	3097	3093	3075	3058	3061	3044	3028	3035	3032	3042	3001	2889	2699	2677	2705	2680	2646	2608	2519	2514	2507	2424	2276	2229	2215	2207	2205	2204	2189	2188	2186	2174	2184	2144	2134	2146	2177	2188	2175	2134	2105	2094	2096	2109	2095	2071	2047	2032	2021	2016	2004	1994	1999	2001	2007	1992	1979	1976	1984	1987	1959	1949	1955	1962	1947	1917	1893	1883	1886	1889	1885	1893	1910	1899	1882	1865	1847	1850	1847	1832	1823	1810	1801	1790	1785	1780	1788	1794	1799	1803	1794	1782	1773	1777	1781	1778	1774	1753	1746	1739	1728	1718	1715	1710	1699	1681	1670	1673	1676	1675	1671	1655	1640	1633	1628	1625	1615	1617	1617	1617	1610	1590	1570	1566	1570	1574	1585	1594	1599	1595	1583	1560	1536	1528	1532	1533	1535	1535	0	0	0	0	0	0	0	0
1980	1995	2005	2005	2003	1998	1988	2010	2010	2014	2004	1979	1978	1987	1987	1967	1961	1994	1996	1998	1998	2033	2045	2026	1965	1976	1983	1983	1999	2022	2024	2037	2045	2044	2029	2029	2029	2039	2042	2009	1991	1976	1988	1998	1998	2023	2039	2053	2060	2071	2068	2063	2049	2021	2034	2059	2059	2063	2069	2070	2050	2050	2049	2038	2047	2043	2051	2057	2066	2077	2070	2073	2059	2059	2041	2030	2037	2031	2011	2037	2043	2062	2081	2062	2031	2002	2002	2039	2048	2035	1947	1842	1640	1486	1471	1450	1433	1429	1418	1417	1415	1408	1407	1403	1398	1393	1385	1376	1374	1375	1387	1401	1423	1438	1425	1413	1402	1396	1398	1412	1419	1410	1393	1385	1387	1407	1403	1408	1411	1440	1452	1455	1442	1423	1419	1424	1424	1422	1401	1392	1406	1407	1408	1437	1445	1425	1429	1494	1469	1452	1454	1475	1482	1475	1477	1483	1494	1500	1506	1514	1540	1554	1553	1552	1637	1701	1758	1798	1823	1836	1834	1832	1832	1839	1846	1854	1853	1860	1882	1883	1826	1805	1811	1808	1781	1795	1812	1857	1894	1905	1931	1956	1971	1999	2015	2017	2043	2107	2186	2265	2299	2310	2319	2299	2298	2297	2298	2294	2282	2256	2251	2262	2272	2274	2265	2271	2291	2309	2324	2327	2340	2359	2369	2343	2355	2366	2368	2350	2309	2287	2304	2342	2380	2397	2379	2348	2317	2319	2309	1965	1853	1506	1472	1480	1511	1502	1465	1441	1452	1453	1468	1475	1485	1498	1504	1483	1475	1461	1453	1454	1463	1478	1488	1499	1490	1471	1451	1452	1474	1480	1477	1475	1484	1480	1471	1462	1448	1445	1449	1468	1467	1479	1487	1488	1479	1488	1491	1477	1467	1478	1488	1511	1511	1507	1488	1495	1474	1480	1491	1483	1487	1497	1501	1501	1497	1496	1500	1497	1479	1496	1485	1480	1479	1496	1499	1508	1484	1497	1502	1525	1560	1555	1595	1769	2120	2439	2506	2562	2611	2645	2696	2696	2673	2680	2672	2675	2657	2637	2639	2665	2698	2721	2766	2792	2787	2795	2777	2774	2780	2768	2779	2769	2746	2710	2654	2553	2471	2450	2437	2407	2404	2497	2552	2550	2566	2583	2581	2489	2207	2141	2111	2110	2090	2053	2029	2007	1979	1941	1914	1891	1912	1967	1988	2000	2020	2023	2009	1999	2015	2032	2038	2044	2038	2028	2020	1757	1687	1644	1640	1650	1650	1626	1622	1590	1582	1565	1555	1552	1519	1515	1546	1558	1555	1541	1546	1552	1564	1549	1558	1562	1566	1555	1550	1560	1569	1570	1566	1572	1558	1544	1525	1527	1543	1564	1568	1558	1547	1544	1542	1548	1553	1567	1579	1580	1582	1585	1582	1572	1543	1511	1516	1538	1543	1582	1642	1739	2054	2696	3064	3237	3295	3334	3325	3290	3237	3203	3174	3143	3134	3149	3102	3104	3106	3051	3011	2997	3006	3043	3112	3155	3164	3175	3168	3167	3181	3154	3154	3144	3120	3107	3091	3097	3094	3109	3122	3127	3128	3115	3083	3051	3053	3069	3081	3082	3115	3128	3139	3130	3110	3090	3046	2988	2933	2787	2655	2507	2319	2233	2216	2206	2203	2204	2206	2201	2194	2199	2190	2185	2191	2207	2204	2205	2206	2207	2170	2151	2136	2111	2110	2109	2108	2103	2095	2083	2060	2053	2053	2030	2023	2008	1989	1975	1982	1986	1983	1962	1977	1971	1955	1923	1899	1886	1888	1894	1908	1917	1926	1904	1891	1880	1859	1854	1844	1822	1817	1813	1803	1804	1816	1830	1822	1816	1801	1784	1773	1763	1758	1763	1768	1772	1774	1770	1749	1736	1737	1732	1721	1706	1690	1677	1668	1671	1676	1672	1661	1645	1646	1634	1629	1627	1617	1616	1617	1617	1609	1588	1568	1565	1569	1574	1575	1573	1573	1579	1584	1587	1582	1555	1535	1521	1508	1508	0	0	0	0	0	0	0	0
1949	1954	1957	1957	1968	1951	1944	1949	1949	1958	1948	1934	1927	1935	1935	1945	1952	1946	1938	1935	1950	1950	1963	1973	1938	1958	1964	1965	1965	1988	1973	1972	1977	1983	1996	1996	2003	2004	1999	1976	1956	1950	1952	1966	1986	1986	2005	2014	2016	2006	1999	2000	2007	2001	2009	1997	1997	1971	1963	1977	1986	2001	2007	1999	2004	2012	2031	2047	2058	2048	2035	2014	1989	1989	1971	1971	1973	1965	1967	1981	1997	2015	2009	2027	2011	2000	1982	1971	1998	1984	1921	1835	1608	1470	1457	1444	1424	1414	1416	1421	1413	1409	1406	1410	1409	1403	1386	1371	1370	1379	1400	1417	1437	1441	1430	1414	1402	1390	1397	1411	1414	1406	1385	1366	1363	1378	1412	1412	1419	1438	1449	1457	1447	1424	1421	1429	1428	1421	1418	1397	1414	1412	1414	1438	1420	1418	1436	1488	1460	1447	1457	1474	1482	1481	1487	1501	1504	1504	1513	1529	1564	1582	1579	1578	1645	1707	1770	1802	1824	1834	1833	1819	1818	1827	1842	1853	1863	1874	1873	1842	1815	1796	1799	1815	1808	1810	1825	1861	1892	1905	1928	1963	1988	2005	2016	2018	2045	2098	2171	2181	2229	2237	2267	2253	2245	2241	2241	2234	2239	2227	2229	2230	2234	2239	2228	2228	2241	2259	2266	2268	2260	2251	2249	2265	2293	2323	2313	2285	2261	2232	2242	2293	2336	2358	2339	2302	2265	2239	2239	1946	1869	1531	1484	1492	1510	1496	1462	1449	1462	1457	1461	1471	1486	1501	1490	1482	1477	1469	1464	1471	1466	1476	1480	1484	1472	1458	1448	1436	1437	1458	1479	1489	1491	1496	1487	1464	1453	1447	1445	1446	1471	1482	1500	1486	1488	1496	1503	1491	1480	1486	1497	1503	1492	1503	1473	1467	1463	1471	1484	1498	1501	1507	1504	1505	1500	1497	1502	1501	1491	1506	1498	1490	1481	1501	1506	1516	1513	1509	1523	1539	1562	1550	1597	1779	2118	2312	2468	2508	2522	2535	2589	2591	2590	2587	2602	2602	2596	2577	2573	2583	2610	2635	2647	2638	2609	2623	2629	2670	2674	2656	2664	2662	2659	2671	2669	2645	2588	2475	2416	2371	2427	2471	2538	2558	2579	2597	2616	2511	2222	2158	2128	2091	2076	2035	2008	1991	1981	1956	1939	1915	1917	1956	1965	1970	2018	2020	2018	2003	2007	2012	2020	2027	2022	2017	1994	1720	1672	1644	1631	1646	1648	1657	1644	1630	1607	1591	1571	1553	1526	1515	1544	1555	1556	1548	1541	1544	1545	1531	1547	1557	1558	1553	1553	1558	1571	1571	1572	1573	1566	1536	1523	1525	1538	1556	1569	1559	1548	1533	1535	1534	1543	1559	1559	1579	1591	1595	1594	1571	1560	1536	1535	1550	1561	1577	1637	1732	2037	2655	2845	3175	3242	3250	3244	3187	3163	3155	3131	3105	3087	3124	3082	3084	3082	3052	3002	2983	2996	3036	3114	3128	3147	3170	3170	3167	3160	3148	3133	3142	3131	3123	3117	3111	3110	3121	3131	3150	3149	3131	3096	3065	3069	3089	3110	3108	3150	3172	3180	3183	3177	3167	3162	3155	3009	2847	2711	2537	2340	2228	2214	2212	2201	2203	2210	2211	2213	2222	2193	2191	2205	2209	2211	2205	2208	2222	2221	2184	2164	2162	2163	2168	2185	2182	2164	2146	2166	2179	2178	2148	2089	2071	2074	2075	2086	2086	2076	2040	2007	1993	1983	1958	1934	1923	1918	1917	1910	1911	1931	1928	1922	1918	1901	1871	1852	1813	1794	1806	1803	1822	1833	1832	1824	1814	1801	1784	1767	1755	1756	1761	1765	1770	1775	1765	1744	1729	1727	1722	1711	1701	1683	1670	1663	1658	1664	1665	1643	1637	1627	1634	1642	1644	1640	1632	1624	1624	1624	1614	1608	1590	1573	1572	1570	1563	1562	1572	1579	1588	1582	1557	1531	1511	1511	1501	0	0	0	0	0	0	0	0
1917	1916	1932	1932	1934	1927	1909	1900	1883	1883	1876	1885	1909	1914	1914	1907	1913	1910	1905	1905	1919	1919	1932	1922	1903	1856	1855	1869	1869	1907	1898	1877	1849	1851	1909	1909	1952	1969	1960	1930	1891	1887	1920	1944	1959	1959	1958	1965	1960	1949	1937	1925	1942	1972	1984	1973	1973	1940	1917	1925	1957	1978	1977	1956	1946	1946	1962	1988	2019	2005	1958	1930	1920	1920	1927	1934	1941	1941	1941	1950	1965	1974	1994	1997	2000	1998	1968	1949	1942	1932	1861	1785	1613	1455	1444	1426	1409	1416	1422	1419	1412	1407	1408	1418	1426	1421	1400	1379	1381	1396	1410	1422	1432	1437	1432	1423	1421	1424	1416	1416	1413	1406	1387	1364	1364	1379	1414	1416	1433	1443	1446	1451	1444	1422	1423	1437	1439	1433	1427	1418	1430	1425	1432	1443	1428	1422	1441	1469	1444	1442	1454	1466	1480	1483	1491	1502	1520	1518	1519	1538	1558	1577	1581	1585	1646	1718	1789	1827	1833	1825	1814	1812	1805	1814	1841	1856	1875	1887	1882	1861	1830	1804	1805	1834	1847	1838	1853	1880	1910	1910	1936	1959	1973	1991	2002	2013	2052	2109	2134	2119	2099	2084	2081	2194	2196	2189	2188	2190	2184	2177	2191	2210	2198	2201	2199	2179	2187	2201	2219	2215	2189	2179	2170	2180	2202	2235	2237	2244	2203	2151	2181	2208	2245	2255	2253	2210	2183	2159	2155	1963	1897	1548	1497	1498	1506	1486	1452	1462	1488	1463	1455	1470	1485	1495	1486	1480	1478	1471	1469	1475	1483	1471	1470	1472	1461	1455	1448	1441	1437	1438	1475	1488	1503	1503	1495	1473	1453	1446	1447	1448	1447	1455	1488	1506	1507	1511	1511	1495	1495	1485	1489	1490	1486	1479	1468	1445	1445	1478	1496	1505	1510	1511	1509	1504	1499	1496	1490	1495	1493	1508	1509	1503	1482	1497	1502	1505	1503	1514	1532	1544	1552	1536	1604	1791	2117	2216	2364	2391	2421	2453	2491	2498	2490	2481	2468	2522	2519	2492	2468	2484	2498	2515	2536	2555	2556	2548	2558	2554	2546	2517	2532	2515	2524	2519	2547	2583	2559	2503	2430	2397	2411	2467	2498	2526	2561	2584	2587	2482	2222	2155	2129	2081	2042	2050	2035	2019	2006	2000	1989	1937	1920	1965	1969	1969	2021	2026	2018	2003	1997	2001	2006	2008	2011	2010	1847	1699	1674	1658	1665	1649	1635	1641	1646	1640	1625	1611	1583	1569	1545	1520	1517	1523	1539	1546	1520	1516	1524	1513	1518	1540	1545	1543	1547	1554	1568	1580	1580	1577	1574	1543	1526	1520	1535	1553	1564	1568	1553	1534	1527	1527	1532	1538	1557	1578	1595	1601	1602	1582	1561	1559	1553	1559	1569	1576	1644	1755	2068	2597	2787	3038	3179	3187	3190	3090	2985	3025	3045	3070	3028	3026	3016	3035	3046	3023	2981	2966	2955	2964	2974	2956	2953	2997	3062	3102	3093	3108	3126	3141	3139	3138	3128	3128	3112	3131	3182	3189	3187	3151	3100	3086	3102	3134	3137	3148	3150	3188	3204	3209	3186	3160	3163	3165	3062	2873	2707	2545	2312	2246	2229	2221	2214	2207	2214	2212	2216	2220	2181	2191	2201	2206	2205	2205	2211	2227	2217	2186	2170	2176	2179	2185	2194	2191	2191	2177	2172	2198	2195	2170	2152	2143	2147	2160	2160	2114	2094	2074	2049	2031	2014	1988	1974	1969	1964	1954	1939	1938	1936	1929	1922	1920	1912	1892	1882	1814	1778	1783	1785	1803	1827	1835	1827	1805	1785	1766	1762	1767	1770	1770	1770	1768	1763	1750	1727	1719	1716	1708	1696	1685	1676	1669	1660	1662	1665	1669	1650	1631	1627	1624	1637	1633	1627	1618	1612	1612	1609	1608	1613	1622	1620	1615	1604	1587	1563	1553	1561	1560	1553	1535	1519	1503	1503	1493	0	0	0	0	0	0	0	0
1867	1867	1885	1885	1906	1907	1892	1881	1862	1862	1859	1863	1873	1858	1858	1887	1910	1907	1891	1890	1904	1904	1910	1898	1866	1840	1817	1827	1827	1842	1832	1813	1797	1821	1874	1920	1920	1941	1895	1870	1858	1858	1872	1893	1902	1902	1883	1877	1896	1908	1911	1916	1933	1921	1934	1932	1932	1904	1887	1903	1927	1952	1948	1929	1909	1896	1910	1928	1939	1934	1917	1894	1910	1910	1914	1920	1926	1935	1933	1933	1928	1931	1943	1960	1965	1950	1939	1923	1920	1911	1810	1731	1644	1444	1417	1399	1392	1408	1409	1411	1410	1413	1418	1434	1438	1432	1412	1399	1399	1412	1417	1422	1421	1426	1423	1426	1434	1438	1433	1428	1425	1419	1404	1381	1387	1395	1407	1415	1435	1443	1443	1442	1440	1436	1425	1441	1443	1441	1430	1426	1452	1446	1445	1448	1447	1431	1462	1456	1444	1445	1451	1462	1475	1483	1491	1509	1535	1539	1525	1529	1534	1550	1563	1577	1639	1738	1816	1835	1833	1828	1806	1793	1800	1815	1842	1872	1889	1906	1893	1873	1854	1843	1829	1864	1877	1860	1864	1894	1929	1917	1927	1930	1942	1953	1961	1977	2010	2027	2047	2045	2028	2016	2027	2054	2083	2136	2146	2146	2132	2117	2107	2157	2172	2181	2181	2163	2148	2159	2172	2172	2159	2149	2145	2147	2164	2181	2181	2186	2164	2126	2123	2146	2170	2176	2170	2145	2143	2120	2089	1923	1878	1556	1497	1490	1488	1475	1448	1467	1482	1464	1463	1468	1482	1494	1478	1472	1475	1468	1464	1466	1467	1466	1465	1463	1457	1456	1460	1454	1438	1443	1452	1473	1483	1484	1484	1476	1468	1461	1457	1463	1453	1457	1500	1500	1505	1509	1505	1502	1474	1483	1488	1487	1475	1468	1462	1458	1498	1517	1512	1506	1511	1513	1507	1499	1492	1489	1489	1496	1492	1509	1515	1511	1502	1490	1498	1500	1496	1505	1524	1531	1529	1521	1612	1799	2071	2207	2282	2310	2347	2382	2412	2440	2443	2422	2415	2389	2345	2354	2381	2399	2422	2448	2475	2479	2483	2479	2478	2460	2433	2404	2407	2423	2433	2413	2429	2432	2434	2437	2403	2379	2390	2417	2451	2469	2510	2538	2539	2409	2222	2150	2093	2069	2078	2085	2093	2089	2050	2035	2015	1959	1939	1973	1987	1993	2033	2032	2016	1994	1982	1993	1995	1998	2000	1999	1845	1697	1713	1690	1674	1648	1628	1642	1644	1638	1628	1608	1602	1578	1564	1521	1500	1516	1528	1545	1529	1524	1520	1515	1525	1519	1524	1530	1541	1555	1567	1577	1580	1577	1577	1554	1537	1526	1527	1553	1568	1575	1563	1547	1530	1532	1526	1537	1555	1573	1582	1585	1583	1572	1561	1557	1568	1564	1557	1568	1641	1782	2109	2571	2724	2895	2949	3096	3011	2910	2908	2950	3002	3035	2964	2944	2934	2930	2942	2938	2863	2881	2916	2933	2928	2896	2863	2848	2878	2984	2985	2973	2969	3008	3038	3058	3080	3074	3093	3079	3026	3045	3058	3091	3060	3039	3025	3033	3042	3028	3048	3067	3118	3164	3156	3118	3125	3133	3034	2870	2692	2543	2309	2256	2244	2223	2211	2206	2212	2203	2218	2189	2186	2181	2189	2192	2188	2191	2195	2195	2186	2170	2171	2176	2186	2200	2177	2184	2189	2191	2177	2201	2204	2186	2167	2162	2164	2174	2174	2168	2130	2141	2197	2177	2153	2124	2115	2102	2088	2076	2056	2040	2016	1986	1971	1955	1930	1896	1855	1821	1816	1795	1777	1776	1810	1823	1821	1799	1796	1783	1782	1786	1784	1776	1766	1758	1746	1737	1721	1722	1716	1703	1694	1696	1703	1676	1666	1663	1668	1676	1667	1645	1643	1636	1635	1625	1616	1604	1604	1599	1600	1606	1612	1618	1620	1617	1604	1592	1585	1577	1575	1572	1570	1559	1546	1533	1533	1516	0	0	0	0	0	0	0	0
1792	1815	1845	1845	1871	1882	1870	1862	1848	1848	1821	1803	1792	1824	1867	1867	1890	1890	1876	1872	1896	1896	1886	1874	1850	1817	1804	1813	1813	1828	1829	1813	1812	1822	1849	1880	1880	1878	1862	1857	1848	1855	1868	1879	1878	1878	1864	1855	1861	1874	1890	1900	1876	1873	1880	1888	1888	1889	1882	1882	1905	1931	1929	1912	1875	1847	1847	1858	1874	1890	1889	1883	1889	1889	1908	1916	1918	1928	1924	1918	1916	1901	1908	1918	1915	1920	1914	1897	1881	1884	1790	1722	1647	1462	1395	1369	1378	1397	1405	1409	1418	1422	1428	1438	1440	1442	1430	1412	1407	1418	1421	1419	1412	1403	1410	1420	1432	1442	1447	1444	1440	1433	1427	1415	1416	1417	1410	1414	1421	1441	1446	1446	1446	1446	1440	1444	1452	1449	1440	1427	1451	1443	1437	1434	1440	1433	1459	1475	1445	1447	1456	1463	1474	1481	1494	1520	1541	1547	1529	1517	1506	1512	1534	1569	1648	1767	1836	1841	1831	1820	1815	1810	1806	1829	1848	1880	1899	1913	1900	1878	1867	1872	1858	1890	1894	1879	1878	1892	1916	1911	1913	1905	1903	1913	1933	2013	2008	2008	2013	2010	1993	1981	1981	1988	2005	2027	2051	2047	2079	2068	2060	2085	2140	2162	2155	2146	2149	2152	2153	2141	2128	2118	2120	2125	2127	2135	2127	2107	2089	2077	2091	2116	2126	2104	2099	2100	2101	2096	2062	1905	1865	1554	1484	1464	1462	1457	1447	1460	1473	1472	1465	1459	1476	1484	1481	1478	1472	1470	1460	1464	1464	1461	1454	1455	1451	1457	1465	1471	1455	1451	1459	1463	1473	1477	1477	1479	1475	1475	1472	1473	1467	1481	1496	1491	1492	1487	1514	1517	1497	1496	1491	1489	1485	1477	1480	1501	1520	1516	1510	1498	1518	1530	1528	1494	1484	1493	1500	1500	1497	1512	1520	1516	1505	1496	1501	1510	1495	1499	1520	1519	1507	1508	1596	1808	2082	2207	2239	2275	2292	2321	2340	2380	2387	2381	2336	2282	2275	2291	2303	2318	2326	2299	2327	2356	2347	2340	2350	2369	2360	2339	2333	2342	2348	2342	2338	2346	2364	2380	2366	2342	2337	2349	2376	2405	2432	2463	2477	2379	2236	2145	2099	2089	2089	2105	2113	2104	2074	2037	2008	1969	1959	1997	2017	2018	2039	2042	2029	2004	1967	1977	1987	1976	1986	1935	1818	1766	1739	1718	1698	1672	1646	1652	1645	1638	1617	1608	1600	1559	1555	1534	1501	1525	1547	1544	1534	1530	1525	1534	1523	1501	1508	1517	1538	1560	1570	1577	1579	1575	1570	1560	1551	1544	1546	1559	1571	1572	1559	1542	1536	1534	1538	1545	1555	1562	1565	1569	1565	1564	1563	1562	1577	1567	1553	1568	1633	1784	2154	2432	2656	2789	2904	2922	2900	2840	2843	2891	2943	2932	2857	2857	2868	2762	2730	2735	2793	2839	2859	2867	2846	2825	2812	2815	2846	2933	2911	2899	2906	2901	2907	2910	2931	2923	2922	2909	2912	2930	2959	2975	2979	2953	2938	2935	2927	2918	2919	2933	2949	2970	3012	3022	2988	3001	2912	2829	2598	2487	2297	2266	2235	2212	2187	2190	2196	2200	2208	2197	2197	2185	2182	2178	2169	2179	2172	2175	2162	2163	2168	2176	2184	2189	2185	2182	2191	2185	2191	2202	2202	2198	2173	2179	2174	2177	2175	2175	2202	2244	2484	2494	2468	2396	2328	2241	2136	2096	2091	2219	2335	2397	2409	2364	2291	2219	2152	2105	2054	2020	1983	1976	1980	1966	1931	1891	1816	1778	1789	1807	1796	1779	1762	1752	1744	1725	1726	1732	1729	1716	1701	1696	1704	1707	1678	1669	1674	1678	1680	1660	1653	1651	1641	1623	1599	1593	1593	1602	1609	1616	1615	1615	1620	1615	1606	1596	1589	1584	1580	1576	1573	1563	1548	1533	1533	1523	0	0	0	0	0	0	0	0
1744	1769	1806	1806	1833	1844	1840	1836	1815	1815	1765	1751	1755	1789	1829	1829	1849	1838	1824	1837	1868	1817	1827	1826	1806	1797	1790	1782	1782	1789	1807	1803	1818	1831	1836	1834	1834	1843	1838	1837	1843	1848	1852	1853	1851	1851	1840	1830	1835	1849	1855	1855	1859	1835	1819	1811	1827	1827	1839	1851	1859	1872	1874	1867	1848	1824	1818	1820	1838	1835	1847	1854	1861	1861	1886	1886	1885	1875	1883	1886	1896	1889	1868	1862	1873	1886	1880	1867	1850	1860	1779	1710	1640	1486	1387	1363	1371	1394	1404	1420	1423	1433	1436	1437	1437	1436	1428	1413	1407	1410	1415	1412	1407	1394	1394	1411	1425	1436	1445	1442	1440	1441	1439	1442	1438	1431	1414	1414	1415	1422	1438	1449	1454	1455	1451	1450	1454	1451	1443	1433	1445	1431	1425	1421	1423	1434	1458	1472	1448	1450	1454	1460	1469	1471	1487	1513	1539	1546	1533	1516	1496	1504	1530	1563	1590	1789	1832	1837	1828	1825	1832	1829	1838	1844	1863	1880	1908	1914	1900	1878	1887	1900	1892	1904	1915	1901	1890	1897	1917	1917	1914	1920	1971	1990	2013	2018	2004	1997	1992	1979	1964	1952	1946	1945	1963	1982	2004	2007	2016	1999	2027	2023	2050	2084	2100	2104	2102	2110	2100	2076	2055	2048	2059	2069	2078	2075	2060	2039	2026	2030	2068	2077	2075	2058	2050	2055	2064	2076	2038	1860	1821	1538	1465	1447	1451	1440	1431	1439	1457	1471	1460	1462	1467	1473	1464	1482	1481	1475	1473	1471	1472	1466	1462	1453	1454	1459	1469	1484	1472	1466	1459	1457	1464	1474	1492	1497	1482	1473	1477	1480	1488	1482	1492	1489	1487	1478	1482	1487	1494	1494	1496	1490	1490	1486	1482	1504	1513	1512	1500	1492	1497	1497	1525	1516	1506	1502	1520	1519	1511	1512	1520	1510	1506	1493	1502	1517	1502	1502	1520	1518	1500	1495	1596	1832	2032	2167	2222	2241	2265	2245	2235	2228	2257	2280	2248	2232	2243	2259	2267	2253	2240	2238	2263	2290	2301	2284	2256	2243	2236	2238	2253	2291	2300	2304	2299	2296	2290	2280	2256	2245	2258	2288	2334	2353	2366	2392	2428	2362	2282	2176	2133	2110	2103	2109	2127	2102	2063	2017	1988	1969	1973	2010	2033	2023	2026	2027	2011	1980	1967	1981	1967	1985	1985	1904	1843	1796	1772	1751	1748	1728	1698	1673	1655	1632	1603	1588	1579	1539	1546	1548	1534	1548	1561	1547	1546	1537	1527	1532	1512	1503	1501	1517	1543	1567	1579	1575	1571	1566	1562	1569	1567	1564	1562	1566	1569	1562	1546	1535	1531	1538	1545	1561	1568	1560	1561	1564	1559	1564	1565	1567	1572	1565	1566	1574	1626	1772	1997	2313	2580	2693	2758	2767	2734	2722	2740	2810	2889	2822	2789	2685	2692	2678	2669	2666	2687	2729	2760	2754	2747	2728	2704	2724	2766	2813	2810	2812	2813	2797	2769	2736	2763	2775	2788	2783	2787	2810	2874	2869	2855	2833	2827	2825	2821	2814	2801	2805	2817	2838	2866	2883	2875	2874	2830	2754	2676	2387	2269	2264	2227	2206	2188	2185	2194	2209	2209	2192	2203	2200	2170	2171	2165	2170	2171	2171	2159	2157	2163	2174	2181	2196	2191	2197	2207	2195	2191	2196	2199	2208	2202	2189	2181	2176	2172	2181	2282	2490	2548	2645	2662	2599	2473	2323	2170	2092	2087	2234	2396	2520	2492	2515	2591	2591	2593	2596	2575	2537	2470	2458	2459	2451	2383	2247	1972	1879	1824	1795	1780	1779	1786	1787	1756	1720	1721	1723	1728	1728	1705	1674	1669	1681	1703	1698	1692	1688	1668	1661	1652	1658	1652	1627	1608	1602	1602	1603	1612	1618	1623	1621	1618	1616	1612	1603	1598	1588	1583	1581	1576	1570	1554	1539	1539	1527	0	0	0	0	0	0	0	0
1730	1743	1767	1793	1793	1807	1805	1791	1758	1758	1752	1742	1741	1757	1786	1786	1795	1773	1772	1779	1817	1746	1752	1749	1749	1747	1747	1745	1745	1747	1742	1755	1760	1770	1780	1789	1789	1775	1790	1805	1819	1815	1822	1809	1807	1807	1808	1813	1804	1815	1826	1836	1833	1808	1777	1770	1792	1792	1806	1825	1832	1840	1838	1833	1820	1811	1800	1800	1804	1793	1782	1758	1763	1793	1793	1816	1834	1842	1850	1837	1824	1817	1809	1789	1791	1798	1811	1823	1818	1833	1741	1668	1609	1483	1393	1377	1388	1396	1411	1423	1431	1437	1445	1438	1431	1426	1414	1403	1395	1397	1401	1409	1399	1396	1398	1406	1415	1426	1434	1441	1436	1438	1444	1450	1442	1426	1407	1408	1411	1418	1432	1445	1441	1445	1435	1437	1439	1443	1444	1442	1425	1411	1414	1410	1419	1433	1450	1443	1448	1450	1448	1452	1461	1469	1486	1510	1531	1539	1534	1523	1506	1503	1521	1550	1585	1783	1818	1825	1824	1835	1848	1860	1850	1853	1863	1897	1906	1904	1879	1856	1888	1890	1884	1901	1909	1918	1946	1954	1965	1976	1982	1986	1981	1980	1993	1993	1980	1967	1951	1937	1930	1934	1925	1920	1930	1951	1976	1964	1940	1945	1938	1966	2001	2017	2047	2049	2037	2041	2030	2010	2001	1987	1988	1993	2010	2032	2027	2003	1995	2010	2069	2070	2049	2019	2017	2015	2026	2051	2035	1842	1791	1529	1455	1445	1448	1430	1420	1433	1452	1467	1465	1464	1456	1450	1452	1490	1483	1473	1470	1471	1479	1476	1463	1456	1454	1460	1470	1485	1485	1469	1466	1473	1484	1485	1500	1503	1505	1502	1501	1493	1490	1479	1488	1482	1472	1465	1461	1466	1498	1501	1494	1478	1481	1483	1487	1490	1496	1496	1490	1489	1491	1492	1492	1519	1516	1511	1504	1505	1509	1530	1515	1509	1492	1491	1494	1506	1504	1492	1518	1518	1494	1482	1619	1726	1974	2139	2215	2225	2215	2159	2132	2128	2136	2156	2194	2194	2194	2176	2182	2209	2211	2218	2236	2263	2264	2250	2225	2213	2204	2200	2211	2236	2266	2286	2270	2250	2246	2249	2233	2225	2238	2260	2281	2292	2297	2294	2325	2333	2269	2196	2135	2108	2085	2094	2116	2090	2051	2003	1976	1963	1985	2017	2023	2029	2017	2014	1988	1976	1973	1981	2001	2002	1959	1917	1870	1822	1796	1772	1761	1739	1704	1668	1642	1622	1591	1576	1567	1532	1531	1556	1546	1546	1560	1575	1538	1540	1526	1523	1510	1503	1509	1523	1546	1566	1557	1551	1559	1561	1554	1567	1580	1579	1575	1576	1574	1565	1544	1531	1529	1541	1550	1554	1562	1574	1578	1572	1573	1571	1576	1577	1576	1574	1577	1584	1619	1762	2028	2253	2430	2626	2678	2680	2672	2646	2642	2640	2743	2570	2556	2561	2598	2612	2617	2611	2623	2659	2672	2653	2657	2632	2596	2591	2647	2700	2708	2714	2717	2689	2635	2599	2598	2635	2650	2668	2696	2696	2708	2694	2674	2659	2652	2667	2661	2645	2649	2666	2673	2700	2727	2717	2738	2750	2736	2680	2548	2334	2248	2257	2243	2218	2195	2184	2193	2204	2222	2203	2188	2180	2168	2165	2165	2171	2173	2172	2163	2161	2164	2171	2176	2174	2184	2197	2211	2191	2183	2184	2185	2205	2207	2193	2174	2164	2159	2202	2327	2483	2629	2652	2623	2584	2471	2334	2186	2052	1992	2113	2286	2639	2676	2661	2669	2674	2681	2714	2722	2690	2663	2644	2650	2670	2688	2676	2662	2584	2460	2375	2412	2486	2529	1932	1905	1881	1870	1863	1856	1831	1807	1762	1723	1708	1710	1710	1689	1628	1663	1637	1650	1651	1642	1627	1602	1591	1591	1585	1592	1622	1629	1628	1621	1608	1607	1597	1594	1590	1584	1572	1565	1561	1547	1537	1537	1529	0	0	0	0	0	0	0	0
1696	1706	1728	1749	1749	1757	1753	1743	1744	1744	1751	1749	1750	1752	1766	1766	1760	1749	1736	1740	1726	1726	1726	1728	1736	1734	1732	1724	1724	1723	1722	1714	1725	1736	1751	1752	1752	1733	1725	1726	1744	1746	1754	1767	1766	1766	1758	1749	1755	1772	1793	1809	1807	1788	1769	1760	1763	1763	1770	1778	1783	1789	1803	1807	1797	1794	1793	1791	1780	1762	1736	1728	1726	1739	1739	1746	1770	1788	1804	1766	1791	1781	1771	1761	1757	1766	1779	1784	1782	1800	1726	1624	1565	1445	1406	1399	1388	1393	1417	1420	1425	1437	1444	1431	1424	1414	1402	1390	1383	1387	1396	1402	1399	1396	1397	1405	1414	1422	1430	1439	1436	1439	1439	1436	1423	1410	1394	1402	1412	1418	1430	1434	1428	1421	1420	1425	1431	1439	1443	1445	1425	1406	1404	1400	1424	1438	1453	1442	1435	1441	1442	1462	1477	1486	1502	1525	1533	1533	1531	1520	1504	1498	1517	1541	1600	1789	1813	1821	1839	1850	1863	1861	1853	1848	1872	1889	1900	1874	1827	1820	1831	1872	1859	1858	1874	1908	1951	1968	1959	1963	1972	1980	1968	1952	1953	1949	1882	1876	1879	1891	1888	1874	1880	1888	1910	1929	1935	1904	1891	1884	1911	1958	1986	1973	1962	1988	1982	1950	1945	1965	1967	1970	1976	1981	1989	2005	1998	1970	1960	1984	2066	2055	2023	1999	1976	1979	1977	2017	2013	1816	1766	1537	1455	1445	1448	1427	1415	1433	1457	1460	1474	1478	1473	1450	1470	1490	1489	1481	1470	1479	1487	1485	1473	1462	1457	1461	1473	1480	1482	1475	1475	1486	1492	1491	1488	1502	1501	1494	1490	1489	1484	1482	1491	1495	1477	1471	1470	1468	1472	1502	1490	1482	1491	1483	1485	1489	1486	1472	1474	1483	1486	1490	1489	1507	1497	1501	1506	1508	1510	1532	1500	1501	1491	1490	1486	1480	1476	1479	1508	1510	1491	1474	1639	1756	1892	2088	2172	2180	2150	2129	2115	2102	2112	2104	2113	2134	2122	2129	2145	2157	2172	2186	2211	2224	2217	2203	2187	2177	2170	2177	2188	2204	2220	2246	2206	2198	2202	2219	2217	2216	2217	2225	2220	2233	2230	2229	2245	2260	2241	2194	2125	2078	2063	2062	2070	2069	2034	1999	1970	1951	1995	2015	2007	2023	2018	2012	1972	1974	1986	1992	2003	2003	1982	1941	1886	1839	1800	1775	1747	1721	1694	1663	1636	1627	1613	1592	1575	1521	1526	1575	1561	1539	1554	1577	1552	1542	1535	1519	1514	1512	1518	1539	1543	1542	1530	1537	1546	1563	1565	1568	1580	1581	1586	1583	1577	1567	1556	1541	1537	1545	1552	1552	1560	1574	1580	1576	1572	1576	1582	1568	1569	1575	1587	1592	1626	1753	2035	2167	2329	2493	2533	2539	2528	2509	2449	2469	2468	2455	2468	2453	2468	2515	2551	2552	2553	2555	2553	2582	2576	2551	2511	2498	2527	2609	2612	2616	2615	2602	2565	2542	2513	2545	2577	2606	2635	2646	2643	2601	2576	2569	2571	2584	2579	2549	2547	2573	2586	2606	2618	2627	2628	2638	2627	2595	2501	2329	2231	2247	2233	2216	2195	2178	2186	2200	2221	2187	2170	2170	2161	2180	2177	2177	2177	2179	2173	2164	2154	2158	2157	2159	2166	2179	2199	2182	2165	2168	2193	2204	2206	2193	2169	2170	2184	2209	2304	2439	2565	2569	2577	2533	2432	2312	2191	2090	1952	2043	2163	2473	2595	2588	2612	2638	2653	2692	2737	2734	2694	2657	2646	2648	2677	2697	2681	2638	2542	2472	2461	2510	2559	2579	2547	2530	2520	2515	2491	2420	2388	2171	2082	1968	1894	1829	1629	1692	1619	1627	1628	1633	1622	1606	1595	1595	1585	1590	1604	1608	1625	1628	1618	1601	1588	1578	1585	1584	1576	1564	1553	1550	1546	1538	1538	1533	0	0	0	0	0	0	0	0
1644	1666	1687	1706	1706	1711	1702	1699	1714	1714	1732	1753	1748	1749	1747	1747	1744	1737	1717	1710	1713	1713	1712	1708	1707	1705	1713	1705	1705	1700	1680	1676	1690	1701	1711	1718	1718	1708	1692	1693	1704	1717	1721	1717	1714	1720	1720	1714	1720	1721	1731	1739	1744	1747	1746	1745	1747	1747	1745	1730	1716	1734	1752	1776	1764	1766	1778	1776	1768	1740	1723	1712	1708	1718	1718	1709	1712	1730	1734	1746	1753	1754	1748	1741	1742	1746	1750	1742	1744	1766	1710	1589	1544	1447	1416	1421	1390	1396	1414	1405	1421	1423	1427	1424	1419	1408	1401	1392	1384	1392	1403	1409	1404	1397	1400	1407	1412	1425	1431	1442	1439	1439	1431	1426	1414	1392	1386	1394	1404	1415	1422	1424	1412	1409	1411	1419	1429	1443	1455	1457	1419	1415	1408	1406	1433	1443	1449	1458	1422	1435	1449	1478	1492	1507	1525	1529	1529	1521	1524	1512	1482	1496	1523	1546	1585	1796	1805	1833	1833	1848	1847	1846	1846	1848	1846	1851	1847	1831	1817	1812	1813	1804	1797	1812	1837	1863	1877	1892	1907	1901	1901	1901	1880	1854	1852	1857	1870	1868	1838	1805	1805	1820	1821	1827	1835	1844	1838	1824	1829	1850	1893	1933	1946	1930	1903	1842	1818	1898	1908	1917	1942	1955	1963	1965	1968	1973	1968	1934	1896	1897	1972	2022	1981	1956	1937	1931	1936	1962	1954	1761	1682	1571	1499	1459	1444	1426	1422	1445	1485	1466	1482	1485	1483	1468	1481	1494	1494	1488	1489	1494	1499	1486	1480	1473	1468	1466	1467	1477	1477	1473	1475	1480	1489	1484	1488	1483	1494	1479	1485	1486	1483	1487	1506	1485	1487	1480	1478	1472	1471	1509	1510	1509	1501	1489	1485	1479	1464	1456	1457	1465	1473	1479	1484	1491	1492	1500	1501	1505	1506	1506	1510	1507	1484	1485	1464	1440	1467	1476	1501	1506	1487	1486	1655	1755	1873	1990	2150	2143	2132	2110	2090	2076	2069	2073	2074	2088	2085	2100	2123	2135	2115	2104	2096	2105	2124	2153	2144	2129	2133	2150	2165	2186	2190	2173	2132	2124	2143	2166	2184	2185	2189	2190	2168	2142	2141	2151	2155	2182	2195	2175	2140	2091	2058	2069	2083	2071	2029	2002	1957	1950	1990	2019	2004	2029	2020	2003	2000	1990	1986	1995	2001	2015	2013	1963	1876	1830	1797	1755	1722	1697	1677	1666	1658	1636	1622	1608	1584	1511	1531	1582	1556	1539	1522	1516	1547	1544	1545	1526	1531	1531	1533	1539	1534	1526	1515	1521	1534	1561	1560	1565	1568	1577	1583	1587	1585	1580	1568	1556	1547	1547	1549	1553	1562	1575	1575	1567	1564	1564	1568	1559	1557	1565	1590	1605	1644	1782	2085	2191	2281	2353	2413	2436	2398	2409	2424	2435	2392	2383	2375	2364	2376	2392	2473	2483	2479	2456	2446	2447	2472	2458	2445	2427	2444	2459	2473	2503	2514	2501	2502	2475	2467	2487	2523	2567	2596	2630	2632	2576	2538	2514	2512	2515	2520	2493	2483	2489	2516	2528	2541	2543	2535	2549	2550	2529	2417	2319	2224	2232	2224	2209	2186	2177	2177	2193	2203	2185	2155	2164	2175	2171	2184	2181	2179	2181	2173	2161	2149	2143	2146	2151	2162	2194	2199	2179	2161	2167	2193	2206	2196	2190	2180	2168	2182	2193	2278	2397	2543	2541	2535	2497	2416	2301	2210	2151	1956	2000	2079	2280	2410	2466	2529	2583	2625	2665	2744	2760	2699	2634	2619	2607	2634	2648	2665	2656	2588	2517	2483	2481	2501	2528	2506	2504	2502	2495	2500	2502	2479	2463	2454	2448	2372	2269	2148	1639	1613	1620	1621	1619	1606	1595	1588	1588	1579	1586	1600	1601	1600	1599	1589	1577	1568	1564	1566	1569	1531	1526	1538	1548	1548	1548	1543	1540	0	0	0	0	0	0	0	0
1623	1640	1662	1671	1671	1669	1670	1663	1674	1674	1687	1695	1698	1706	1708	1708	1705	1716	1701	1701	1700	1689	1689	1680	1663	1665	1681	1671	1659	1659	1646	1626	1631	1640	1662	1676	1676	1686	1688	1686	1686	1683	1688	1684	1695	1700	1700	1701	1694	1686	1671	1664	1669	1689	1710	1735	1741	1741	1736	1716	1696	1691	1699	1713	1717	1730	1733	1727	1711	1704	1701	1698	1694	1693	1693	1692	1694	1703	1709	1723	1733	1741	1732	1732	1733	1735	1731	1722	1723	1730	1694	1578	1534	1456	1420	1421	1410	1416	1402	1381	1379	1391	1408	1414	1413	1407	1407	1410	1415	1419	1420	1424	1418	1414	1406	1405	1405	1408	1410	1403	1401	1402	1402	1401	1400	1406	1402	1397	1396	1401	1402	1409	1402	1403	1406	1418	1430	1442	1454	1448	1423	1420	1429	1427	1442	1449	1451	1446	1412	1428	1470	1501	1511	1520	1524	1528	1534	1530	1518	1485	1470	1490	1520	1550	1587	1786	1810	1814	1827	1824	1827	1829	1831	1828	1820	1821	1818	1811	1805	1802	1807	1804	1797	1796	1799	1795	1797	1801	1827	1835	1849	1838	1821	1820	1819	1823	1825	1827	1827	1798	1775	1783	1788	1795	1804	1805	1802	1801	1806	1829	1855	1840	1835	1853	1838	1793	1767	1750	1761	1882	1905	1919	1929	1932	1947	1937	1904	1871	1846	1835	1829	1865	1891	1911	1904	1891	1895	1914	1909	1699	1632	1567	1504	1450	1434	1430	1438	1471	1492	1472	1477	1485	1490	1475	1478	1487	1493	1492	1487	1474	1474	1475	1479	1476	1471	1473	1481	1477	1474	1473	1473	1478	1480	1471	1465	1472	1461	1462	1475	1494	1486	1486	1500	1492	1490	1483	1480	1481	1469	1473	1510	1503	1502	1499	1482	1476	1470	1446	1455	1466	1473	1475	1470	1478	1484	1497	1501	1502	1491	1503	1517	1517	1510	1470	1463	1444	1474	1488	1498	1502	1500	1516	1679	1755	1845	1937	2023	2057	2038	2016	2004	2010	2018	2020	2027	2033	2050	2072	2103	2115	2095	2068	2051	2051	2058	2059	2064	2062	2065	2087	2098	2120	2112	2114	2081	2074	2078	2091	2099	2102	2108	2110	2090	2069	2068	2099	2128	2150	2158	2136	2115	2099	2109	2099	2104	2084	2028	1981	1944	1946	1976	2017	2037	2064	2043	2032	2020	2011	2001	1990	1994	2024	2033	1971	1858	1828	1789	1750	1707	1685	1676	1679	1670	1652	1633	1615	1582	1514	1547	1583	1553	1543	1526	1519	1540	1541	1549	1537	1541	1543	1541	1534	1532	1519	1510	1513	1523	1548	1549	1552	1555	1562	1566	1572	1577	1576	1569	1558	1549	1545	1547	1556	1562	1566	1555	1556	1554	1548	1554	1546	1557	1558	1572	1618	1659	1768	2037	2194	2276	2333	2339	2365	2367	2367	2362	2354	2338	2318	2321	2345	2348	2363	2381	2416	2416	2405	2400	2386	2378	2371	2366	2360	2368	2370	2380	2369	2371	2355	2368	2365	2370	2401	2438	2467	2506	2577	2591	2544	2517	2479	2464	2462	2420	2377	2369	2425	2434	2454	2464	2476	2475	2483	2477	2388	2352	2287	2230	2220	2216	2202	2171	2164	2174	2187	2191	2184	2151	2157	2161	2176	2173	2174	2171	2169	2164	2146	2139	2157	2161	2165	2185	2207	2197	2179	2176	2178	2186	2194	2200	2196	2182	2167	2162	2173	2239	2342	2464	2519	2511	2464	2406	2319	2226	2150	2076	1964	2010	2100	2296	2368	2443	2511	2561	2643	2697	2709	2659	2557	2555	2541	2556	2556	2576	2581	2555	2500	2471	2472	2478	2482	2458	2445	2454	2480	2506	2529	2527	2509	2489	2468	2398	2307	2179	1705	1614	1606	1603	1609	1596	1591	1588	1588	1566	1566	1591	1593	1588	1576	1569	1569	1562	1553	1547	1523	1527	1532	1549	1567	1568	1568	1560	1550	0	0	0	0	0	0	0	0
1606	1632	1641	1646	1646	1645	1628	1617	1622	1622	1643	1656	1666	1669	1662	1662	1666	1675	1689	1663	1666	1667	1667	1654	1653	1639	1651	1651	1635	1635	1620	1598	1588	1589	1596	1629	1657	1657	1673	1676	1664	1653	1654	1667	1673	1682	1682	1687	1681	1672	1651	1633	1631	1643	1658	1690	1709	1709	1720	1703	1680	1664	1660	1666	1666	1666	1676	1682	1689	1690	1691	1683	1680	1673	1678	1678	1686	1687	1688	1698	1704	1706	1714	1719	1722	1726	1721	1713	1705	1664	1628	1541	1510	1457	1421	1411	1411	1407	1387	1376	1381	1399	1411	1411	1398	1398	1412	1417	1421	1415	1423	1430	1428	1424	1418	1411	1405	1402	1399	1390	1390	1394	1397	1401	1408	1419	1420	1413	1403	1397	1389	1394	1404	1410	1412	1411	1408	1409	1413	1414	1438	1438	1437	1447	1454	1456	1451	1435	1408	1430	1498	1527	1528	1517	1512	1521	1533	1539	1528	1466	1463	1487	1514	1545	1583	1760	1778	1784	1799	1796	1799	1803	1808	1797	1792	1788	1789	1783	1781	1785	1792	1791	1779	1771	1768	1760	1750	1754	1758	1769	1772	1773	1757	1767	1776	1793	1774	1779	1788	1781	1769	1756	1760	1761	1775	1787	1792	1788	1770	1781	1795	1794	1774	1769	1770	1767	1771	1769	1783	1782	1771	1814	1815	1812	1801	1785	1767	1789	1792	1791	1798	1811	1813	1840	1862	1876	1875	1877	1865	1682	1611	1529	1497	1449	1431	1435	1433	1465	1486	1469	1469	1479	1488	1482	1461	1469	1487	1488	1479	1466	1467	1472	1475	1471	1473	1485	1485	1483	1477	1473	1483	1487	1492	1489	1466	1448	1449	1451	1457	1465	1487	1493	1474	1471	1487	1485	1489	1467	1469	1500	1511	1515	1501	1499	1490	1478	1474	1470	1460	1472	1476	1481	1476	1473	1475	1480	1497	1490	1491	1506	1510	1502	1494	1483	1469	1484	1506	1509	1493	1496	1518	1547	1688	1759	1839	1909	1972	1996	1998	1996	1998	1998	1992	2000	2003	2007	2009	2029	2055	2076	2077	2063	2051	2040	2028	2022	2026	2034	2047	2060	2044	2043	2040	2049	2046	2047	2055	2070	2072	2076	2082	2080	2067	2057	2052	2068	2082	2101	2110	2100	2085	2061	2054	2068	2090	2077	2038	1995	1936	1949	1985	2031	2039	2051	2036	2025	2020	2022	2018	2002	2001	2026	2028	1949	1825	1817	1790	1746	1705	1685	1671	1672	1659	1638	1628	1602	1589	1543	1575	1596	1561	1540	1536	1543	1538	1540	1552	1541	1543	1539	1523	1534	1536	1535	1528	1519	1540	1541	1548	1550	1551	1554	1550	1552	1560	1567	1561	1556	1547	1551	1557	1564	1568	1562	1547	1546	1554	1546	1543	1539	1538	1549	1562	1636	1646	1763	2046	2162	2196	2263	2321	2345	2347	2346	2340	2327	2303	2301	2310	2334	2348	2335	2331	2336	2356	2369	2352	2331	2323	2323	2331	2341	2304	2297	2310	2311	2303	2293	2302	2309	2310	2310	2299	2303	2363	2428	2482	2488	2454	2421	2404	2365	2340	2322	2304	2291	2273	2283	2300	2328	2371	2394	2371	2325	2268	2232	2215	2214	2207	2190	2177	2170	2173	2187	2201	2186	2156	2156	2153	2162	2167	2168	2176	2182	2154	2161	2184	2182	2179	2181	2181	2189	2188	2177	2163	2175	2203	2210	2207	2198	2183	2163	2149	2164	2223	2286	2303	2425	2460	2381	2334	2293	2242	2163	2074	1935	1951	1987	2091	2295	2385	2457	2494	2542	2629	2581	2500	2478	2452	2445	2433	2458	2499	2516	2492	2460	2436	2439	2445	2439	2418	2390	2404	2432	2473	2516	2527	2497	2463	2429	2377	2281	2032	1704	1617	1601	1589	1590	1595	1589	1590	1581	1574	1577	1592	1590	1578	1573	1568	1566	1550	1539	1517	1526	1551	1555	1561	1568	1574	1574	1567	1556	0	0	0	0	0	0	0	0
1595	1601	1601	1595	1595	1579	1581	1582	1598	1605	1605	1625	1633	1641	1635	1635	1635	1647	1626	1635	1638	1636	1636	1625	1619	1608	1602	1618	1620	1620	1604	1584	1563	1559	1571	1595	1628	1628	1651	1649	1639	1623	1637	1652	1662	1657	1657	1660	1658	1656	1633	1611	1607	1618	1622	1638	1655	1663	1663	1658	1662	1643	1634	1634	1642	1645	1654	1664	1680	1688	1686	1677	1660	1659	1666	1666	1676	1676	1670	1675	1676	1673	1687	1703	1699	1703	1682	1656	1626	1623	1592	1524	1500	1459	1431	1407	1397	1385	1378	1383	1401	1415	1422	1419	1406	1406	1419	1412	1420	1415	1419	1420	1420	1427	1422	1421	1414	1412	1405	1394	1393	1394	1398	1400	1413	1422	1427	1419	1407	1383	1383	1394	1412	1420	1413	1400	1392	1392	1395	1401	1425	1436	1434	1434	1440	1434	1441	1426	1419	1445	1510	1541	1528	1515	1506	1511	1535	1542	1523	1475	1480	1492	1513	1538	1562	1635	1756	1768	1765	1761	1760	1770	1776	1774	1761	1759	1765	1761	1743	1758	1768	1769	1747	1736	1732	1735	1723	1734	1738	1743	1738	1735	1727	1724	1715	1719	1715	1748	1751	1742	1734	1728	1731	1731	1731	1723	1718	1715	1702	1711	1727	1739	1734	1735	1737	1745	1749	1744	1764	1768	1753	1734	1729	1720	1748	1733	1731	1735	1740	1765	1768	1775	1769	1778	1792	1825	1831	1836	1832	1638	1581	1520	1499	1452	1439	1434	1433	1457	1484	1463	1461	1465	1478	1457	1452	1453	1473	1482	1486	1473	1472	1471	1471	1466	1470	1477	1489	1484	1474	1482	1488	1488	1509	1493	1476	1460	1449	1451	1450	1466	1487	1495	1454	1453	1466	1476	1469	1471	1478	1492	1503	1510	1505	1499	1497	1484	1475	1466	1461	1472	1479	1483	1485	1489	1492	1489	1482	1481	1485	1490	1482	1482	1487	1478	1485	1515	1559	1521	1487	1495	1526	1562	1696	1757	1823	1891	1946	1970	1973	1982	1982	1976	1972	1972	1987	1988	1984	1993	2005	2018	2034	2045	2042	2034	2006	1995	1991	2003	2014	2029	2018	2001	2008	2020	2027	2031	2034	2051	2045	2064	2070	2077	2053	2050	2054	2056	2053	2045	2056	2049	2045	2025	2012	2000	2037	2057	2053	2034	1988	1975	1983	2005	2022	2025	2018	2013	2011	2020	2022	2020	2017	2035	2042	1939	1778	1787	1780	1753	1718	1695	1665	1657	1641	1627	1616	1616	1607	1587	1597	1596	1560	1543	1535	1542	1541	1542	1551	1526	1523	1522	1517	1524	1534	1544	1542	1534	1533	1541	1555	1564	1561	1547	1538	1540	1547	1553	1552	1553	1554	1562	1572	1588	1577	1563	1551	1552	1550	1547	1542	1543	1548	1573	1593	1629	1627	1782	1965	2103	2182	2242	2264	2279	2310	2307	2308	2296	2235	2246	2264	2268	2234	2240	2251	2271	2296	2326	2337	2321	2321	2313	2305	2301	2278	2288	2302	2300	2294	2299	2321	2336	2326	2299	2278	2262	2264	2273	2325	2390	2383	2357	2343	2330	2306	2298	2287	2278	2271	2267	2277	2288	2296	2323	2294	2263	2245	2224	2216	2206	2194	2192	2180	2177	2177	2191	2190	2173	2154	2160	2159	2162	2164	2187	2197	2202	2205	2196	2188	2180	2174	2174	2174	2172	2165	2144	2149	2176	2202	2213	2205	2195	2179	2172	2168	2177	2200	2181	2233	2247	2257	2282	2303	2269	2246	2193	2093	1910	1905	1911	1960	2103	2240	2344	2419	2481	2494	2490	2446	2432	2399	2364	2338	2354	2389	2412	2417	2406	2401	2401	2406	2396	2374	2359	2361	2383	2439	2480	2491	2454	2386	2336	2278	2120	2036	1715	1630	1612	1606	1605	1609	1612	1612	1604	1601	1593	1595	1591	1579	1573	1569	1558	1553	1554	1532	1533	1537	1550	1553	1565	1572	1572	1569	1562	0	0	0	0	0	0	0	0
1584	1579	1561	1556	1556	1553	1563	1577	1586	1593	1593	1605	1622	1624	1621	1614	1614	1607	1583	1605	1617	1616	1616	1606	1587	1574	1573	1576	1598	1598	1589	1573	1554	1540	1546	1571	1603	1603	1625	1614	1587	1596	1619	1629	1637	1584	1584	1602	1628	1629	1612	1594	1587	1591	1597	1607	1615	1622	1622	1607	1600	1598	1603	1607	1619	1629	1636	1656	1672	1685	1682	1668	1653	1647	1654	1654	1658	1648	1643	1640	1616	1616	1617	1626	1648	1659	1651	1629	1602	1594	1572	1523	1493	1471	1434	1398	1390	1378	1387	1398	1412	1424	1430	1432	1436	1433	1425	1416	1414	1407	1405	1404	1403	1419	1425	1420	1415	1412	1403	1395	1393	1395	1401	1406	1408	1415	1421	1418	1400	1377	1385	1399	1419	1430	1424	1413	1401	1402	1399	1400	1414	1421	1424	1421	1422	1420	1424	1443	1448	1451	1488	1508	1514	1481	1485	1501	1521	1516	1507	1475	1494	1513	1533	1547	1575	1642	1738	1747	1741	1722	1712	1701	1709	1714	1716	1719	1736	1733	1720	1723	1730	1739	1711	1717	1719	1717	1712	1705	1708	1717	1717	1708	1700	1683	1677	1682	1687	1718	1715	1696	1690	1704	1703	1708	1705	1694	1676	1662	1663	1672	1686	1695	1692	1693	1691	1701	1701	1700	1706	1711	1717	1708	1701	1707	1703	1706	1727	1722	1714	1711	1698	1715	1732	1745	1759	1772	1769	1779	1776	1624	1561	1516	1505	1476	1441	1438	1431	1442	1484	1473	1451	1459	1445	1446	1451	1445	1448	1475	1490	1496	1493	1485	1469	1452	1455	1471	1473	1469	1472	1475	1481	1489	1501	1495	1472	1461	1450	1452	1458	1477	1490	1486	1466	1448	1476	1473	1469	1475	1481	1497	1499	1518	1504	1499	1496	1487	1477	1465	1457	1470	1478	1488	1488	1488	1487	1471	1467	1480	1481	1464	1467	1471	1471	1471	1473	1519	1540	1493	1484	1500	1526	1546	1687	1744	1804	1866	1916	1949	1944	1935	1946	1944	1935	1950	1965	1968	1958	1954	1951	1964	1981	2000	2009	2003	1987	1970	1967	1974	1965	1957	1958	1965	1977	1993	2002	1987	1963	1965	1988	2020	2007	2006	2014	2029	2053	2064	2055	2034	2023	2014	2016	2000	1986	1976	1976	1948	1961	1981	1975	1952	1945	1965	1997	2013	2011	2006	2011	2018	2023	2028	2033	2042	2042	1940	1796	1770	1766	1743	1718	1692	1666	1637	1634	1620	1631	1640	1627	1623	1605	1572	1541	1527	1531	1534	1543	1546	1543	1522	1514	1504	1499	1506	1524	1533	1538	1527	1531	1547	1553	1568	1564	1545	1536	1536	1539	1549	1552	1560	1558	1568	1589	1593	1587	1550	1537	1536	1543	1547	1538	1543	1551	1571	1607	1623	1649	1831	1948	2065	2131	2160	2151	2173	2232	2248	2264	2248	2218	2208	2204	2198	2191	2198	2211	2228	2246	2261	2252	2237	2244	2249	2250	2249	2229	2230	2237	2230	2239	2254	2289	2346	2340	2313	2272	2251	2240	2249	2278	2284	2290	2290	2279	2265	2264	2262	2269	2269	2269	2267	2260	2249	2246	2220	2204	2208	2235	2236	2225	2198	2185	2180	2183	2163	2155	2133	2122	2118	2137	2150	2157	2172	2188	2193	2191	2188	2177	2158	2153	2154	2153	2163	2165	2161	2137	2129	2141	2172	2206	2217	2217	2197	2194	2181	2189	2188	2197	2164	2146	2156	2167	2188	2174	2148	2120	2094	2065	1914	1890	1883	1903	1966	2083	2138	2174	2197	2212	2199	2202	2223	2229	2229	2212	2177	2153	2148	2153	2152	2145	2149	2184	2230	2258	2248	2238	2231	2209	2198	2203	2210	2196	2192	2182	2128	2131	1757	1649	1628	1622	1619	1623	1630	1630	1627	1617	1605	1604	1603	1599	1582	1575	1570	1563	1548	1535	1528	1534	1538	1546	1559	1570	1570	1562	1561	0	0	0	0	0	0	0	0
1564	1559	1529	1502	1502	1505	1537	1555	1571	1574	1574	1579	1607	1615	1607	1583	1583	1557	1543	1584	1595	1589	1589	1584	1556	1549	1553	1553	1565	1565	1576	1574	1558	1540	1531	1525	1524	1524	1528	1549	1561	1577	1601	1608	1575	1563	1563	1567	1581	1600	1585	1566	1568	1577	1581	1579	1579	1575	1575	1567	1561	1564	1579	1601	1612	1619	1620	1629	1646	1655	1653	1642	1633	1633	1634	1634	1638	1614	1609	1606	1602	1596	1595	1602	1606	1609	1607	1601	1602	1594	1569	1513	1482	1467	1434	1407	1403	1390	1392	1412	1419	1427	1423	1430	1432	1433	1425	1416	1410	1401	1390	1390	1394	1400	1403	1401	1403	1403	1402	1391	1393	1400	1405	1410	1412	1416	1415	1412	1397	1382	1383	1394	1416	1435	1441	1437	1425	1418	1403	1396	1416	1421	1422	1414	1410	1413	1409	1423	1433	1448	1498	1511	1481	1473	1480	1490	1499	1501	1495	1482	1501	1528	1558	1581	1618	1670	1706	1718	1713	1696	1673	1680	1690	1691	1694	1690	1690	1688	1688	1683	1683	1674	1670	1675	1688	1693	1673	1661	1671	1681	1684	1679	1673	1659	1654	1663	1678	1698	1698	1672	1670	1678	1683	1683	1682	1667	1647	1637	1641	1651	1662	1671	1676	1676	1675	1675	1661	1667	1673	1681	1682	1677	1682	1688	1693	1689	1688	1679	1687	1674	1663	1663	1692	1717	1740	1753	1736	1716	1712	1621	1564	1528	1517	1496	1458	1438	1424	1442	1480	1484	1442	1434	1444	1447	1455	1449	1448	1456	1476	1485	1486	1443	1432	1429	1444	1450	1464	1461	1470	1475	1483	1488	1493	1492	1478	1454	1450	1457	1471	1480	1485	1492	1465	1465	1472	1484	1483	1481	1482	1496	1515	1514	1501	1493	1492	1491	1480	1463	1458	1469	1495	1493	1487	1485	1488	1493	1494	1489	1479	1477	1488	1484	1469	1464	1454	1499	1520	1487	1489	1507	1506	1513	1660	1710	1779	1833	1870	1881	1864	1875	1895	1893	1901	1926	1940	1946	1928	1909	1904	1912	1924	1946	1965	1965	1950	1941	1929	1933	1891	1871	1865	1871	1907	1931	1953	1950	1937	1933	1942	1956	1969	1973	1986	1994	2001	1995	1983	1973	1984	1986	1976	1972	1937	1930	1929	1932	1947	1959	1958	1939	1934	1960	1987	1998	2004	2016	2018	2022	2018	2000	2006	2020	2038	1970	1855	1756	1740	1725	1708	1688	1663	1654	1648	1657	1659	1659	1643	1624	1592	1551	1510	1505	1512	1529	1536	1535	1531	1506	1493	1490	1493	1500	1515	1529	1523	1520	1530	1546	1566	1568	1554	1536	1533	1538	1546	1553	1560	1567	1567	1567	1592	1596	1568	1540	1540	1533	1536	1542	1545	1545	1552	1572	1597	1635	1667	1826	1915	2020	2086	2109	2119	2131	2165	2205	2215	2197	2193	2192	2179	2162	2154	2155	2186	2189	2191	2192	2169	2184	2191	2195	2204	2182	2166	2153	2168	2170	2173	2187	2217	2285	2310	2289	2260	2240	2227	2248	2273	2246	2213	2199	2214	2220	2211	2226	2239	2257	2260	2253	2234	2222	2196	2200	2191	2198	2218	2228	2216	2198	2168	2159	2163	2155	2141	2114	2102	2095	2093	2103	2112	2125	2127	2115	2092	2087	2086	2094	2092	2099	2107	2112	2114	2106	2064	2057	2077	2139	2140	2141	2143	2155	2175	2186	2198	2195	2189	2150	2149	2168	2162	2168	2160	2136	2113	2097	2091	1994	1932	1905	1909	1974	2049	2108	2160	2176	2174	2164	2175	2200	2215	2212	2199	2182	2164	2152	2154	2166	2184	2188	2191	2184	2165	2167	2181	2173	2162	2147	2142	2144	2152	2150	2158	2161	2117	1790	1656	1647	1638	1629	1628	1635	1635	1642	1632	1612	1608	1606	1608	1602	1595	1573	1559	1539	1524	1528	1532	1533	1538	1550	1550	1554	1547	1549	0	0	0	0	0	0	0	0
1531	1511	1493	1479	1482	1482	1495	1523	1542	1562	1562	1571	1587	1599	1576	1542	1542	1536	1534	1558	1576	1568	1568	1543	1524	1514	1521	1522	1530	1530	1538	1545	1545	1540	1528	1523	1530	1530	1536	1538	1547	1559	1576	1566	1557	1550	1545	1545	1558	1564	1556	1551	1555	1556	1556	1548	1556	1557	1557	1550	1542	1550	1570	1583	1589	1594	1597	1599	1601	1603	1612	1617	1614	1612	1581	1568	1568	1562	1558	1576	1588	1585	1576	1571	1579	1583	1580	1577	1582	1581	1537	1483	1460	1442	1428	1420	1423	1415	1403	1411	1423	1424	1414	1411	1414	1419	1418	1416	1408	1396	1382	1377	1385	1394	1397	1397	1399	1400	1399	1401	1398	1406	1412	1417	1423	1422	1417	1403	1397	1394	1391	1396	1412	1416	1418	1422	1426	1417	1408	1406	1429	1429	1426	1414	1422	1411	1391	1396	1394	1476	1511	1529	1515	1499	1496	1494	1497	1495	1493	1495	1521	1543	1604	1630	1647	1648	1645	1655	1653	1646	1641	1652	1662	1668	1661	1646	1654	1669	1670	1668	1659	1647	1631	1640	1646	1648	1635	1627	1635	1641	1649	1651	1646	1636	1632	1648	1666	1680	1678	1666	1671	1669	1669	1666	1654	1648	1633	1622	1628	1633	1644	1653	1658	1658	1671	1662	1656	1645	1649	1653	1649	1649	1662	1662	1655	1649	1644	1650	1655	1655	1647	1655	1694	1701	1715	1718	1702	1682	1670	1591	1550	1521	1503	1509	1473	1448	1419	1447	1475	1475	1451	1432	1438	1447	1462	1455	1454	1462	1457	1452	1444	1436	1438	1440	1447	1473	1479	1477	1484	1485	1497	1485	1482	1482	1464	1447	1444	1463	1477	1483	1481	1489	1496	1492	1496	1500	1501	1504	1507	1507	1498	1495	1508	1493	1491	1486	1469	1462	1464	1479	1490	1497	1490	1486	1482	1477	1476	1483	1485	1485	1491	1487	1474	1465	1457	1463	1495	1485	1491	1503	1500	1498	1592	1673	1730	1783	1795	1800	1808	1813	1820	1847	1862	1891	1889	1870	1865	1860	1865	1867	1884	1892	1899	1905	1905	1901	1867	1840	1828	1826	1827	1833	1867	1885	1912	1908	1906	1910	1916	1917	1922	1933	1935	1945	1960	1958	1952	1937	1955	1874	1863	1856	1863	1888	1900	1914	1932	1944	1938	1927	1926	1942	1948	1969	1977	1987	1990	2003	1987	1983	1981	1982	2001	1998	1876	1743	1715	1698	1692	1683	1670	1674	1685	1698	1683	1665	1633	1601	1575	1544	1488	1480	1507	1535	1532	1534	1520	1493	1486	1486	1492	1502	1510	1517	1512	1514	1525	1547	1561	1563	1549	1536	1530	1537	1544	1553	1562	1569	1568	1556	1545	1535	1534	1538	1542	1546	1542	1551	1554	1555	1551	1552	1581	1627	1670	1821	1898	1986	2054	2086	2096	2109	2131	2146	2153	2142	2149	2155	2150	2130	2128	2142	2160	2156	2148	2134	2119	2135	2135	2155	2136	2113	2110	2105	2117	2115	2121	2128	2155	2179	2202	2220	2231	2211	2181	2183	2228	2209	2176	2157	2160	2162	2163	2162	2167	2177	2195	2206	2213	2203	2179	2171	2171	2182	2139	2176	2178	2171	2154	2149	2150	2140	2134	2129	2114	2087	2078	2081	2084	2092	2075	2067	2057	2056	2067	2073	2086	2087	2085	2076	2047	2029	2009	2000	1993	1978	1996	2015	2033	2047	2056	2064	2078	2091	2102	2120	2140	2157	2148	2141	2130	2124	2114	2104	2090	2063	1972	1905	1900	1927	2024	2111	2169	2190	2185	2171	2172	2199	2204	2196	2185	2176	2164	2163	2170	2178	2187	2190	2183	2182	2181	2181	2179	2170	2160	2153	2151	2152	2147	2157	2156	2138	2109	1788	1639	1651	1647	1633	1623	1631	1631	1639	1632	1612	1599	1600	1602	1603	1595	1580	1563	1551	1523	1528	1531	1533	1535	1540	1540	1536	1530	1536	0	0	0	0	0	0	0	0
1513	1494	1481	1462	1463	1463	1474	1498	1525	1539	1539	1555	1562	1563	1530	1515	1515	1501	1520	1548	1560	1549	1549	1526	1504	1490	1489	1495	1510	1510	1517	1529	1531	1534	1532	1534	1534	1534	1541	1542	1543	1548	1532	1535	1537	1530	1521	1521	1532	1538	1539	1539	1538	1533	1523	1520	1520	1530	1530	1537	1537	1538	1535	1531	1539	1551	1560	1555	1546	1554	1570	1558	1579	1573	1559	1549	1549	1536	1532	1523	1526	1529	1541	1549	1556	1559	1560	1555	1545	1556	1494	1453	1429	1416	1408	1418	1422	1413	1400	1405	1422	1417	1409	1409	1407	1411	1411	1412	1408	1396	1382	1372	1379	1392	1397	1402	1406	1408	1398	1399	1402	1415	1424	1430	1433	1432	1426	1401	1396	1400	1403	1394	1400	1395	1394	1405	1409	1416	1418	1433	1434	1432	1424	1419	1422	1407	1374	1380	1405	1507	1524	1536	1535	1521	1497	1499	1496	1502	1519	1525	1503	1542	1581	1576	1558	1573	1593	1599	1606	1598	1590	1590	1602	1621	1622	1619	1618	1637	1655	1648	1639	1622	1589	1592	1603	1619	1623	1623	1617	1616	1619	1626	1628	1616	1601	1612	1646	1657	1653	1651	1669	1663	1657	1647	1640	1639	1623	1616	1616	1621	1630	1634	1643	1653	1664	1647	1631	1621	1630	1630	1629	1621	1614	1619	1608	1604	1614	1627	1640	1651	1660	1653	1667	1685	1678	1674	1652	1637	1632	1554	1524	1497	1480	1504	1465	1434	1410	1446	1470	1470	1454	1437	1431	1447	1464	1467	1461	1462	1461	1452	1445	1442	1445	1455	1465	1482	1492	1495	1491	1507	1502	1494	1470	1477	1448	1442	1450	1468	1478	1474	1472	1491	1497	1490	1487	1484	1473	1468	1473	1484	1482	1485	1479	1504	1498	1479	1468	1461	1464	1470	1486	1494	1515	1509	1488	1475	1481	1485	1489	1493	1491	1493	1492	1503	1490	1468	1482	1483	1496	1507	1514	1509	1543	1598	1679	1728	1769	1778	1771	1768	1774	1780	1794	1820	1821	1794	1792	1805	1840	1837	1837	1839	1840	1825	1819	1814	1804	1793	1791	1802	1803	1802	1813	1833	1838	1856	1875	1868	1873	1872	1882	1888	1889	1887	1907	1873	1865	1841	1843	1826	1825	1824	1824	1820	1838	1854	1868	1866	1859	1862	1868	1873	1903	1933	1937	1945	1942	1906	1907	1913	1921	1953	1963	1966	1876	1748	1713	1679	1674	1677	1677	1688	1695	1690	1669	1648	1630	1578	1561	1540	1475	1461	1497	1548	1538	1534	1528	1517	1493	1496	1509	1519	1537	1526	1509	1509	1514	1530	1535	1537	1543	1538	1529	1525	1527	1538	1550	1556	1558	1548	1536	1530	1534	1547	1557	1564	1565	1548	1537	1534	1537	1544	1561	1613	1676	1798	1873	1955	2034	2073	2085	2092	2088	2078	2078	2091	2101	2098	2117	2113	2112	2121	2136	2139	2123	2090	2061	2062	2080	2093	2087	2079	2087	2080	2075	2077	2090	2106	2133	2144	2155	2176	2173	2156	2153	2151	2167	2167	2148	2122	2139	2144	2133	2144	2139	2136	2128	2124	2164	2165	2126	2109	2104	2100	2107	2116	2123	2123	2107	2086	2087	2097	2126	2120	2099	2053	2051	2054	2061	2049	2035	2023	2019	2026	2033	2021	2040	2058	2051	2035	2017	2005	1991	1978	1967	1960	1980	2003	2021	2023	2018	2022	2004	1957	1961	1968	1975	2006	2042	2066	2069	2062	2059	2052	2049	1976	1973	1922	1905	1895	1907	2006	2127	2152	2168	2168	2169	2175	2159	2160	2162	2159	2165	2175	2180	2191	2195	2183	2173	2175	2184	2182	2177	2167	2157	2156	2152	2156	2153	2147	2138	2113	2068	1770	1630	1647	1655	1625	1612	1612	1608	1618	1615	1603	1590	1593	1598	1600	1595	1585	1575	1565	1536	1541	1539	1539	1538	1536	1536	1533	1531	1535	0	0	0	0	0	0	0	0
1499	1489	1472	1450	1446	1446	1448	1472	1504	1518	1518	1516	1517	1494	1484	1492	1492	1474	1496	1515	1526	1529	1492	1492	1461	1469	1479	1483	1482	1478	1478	1476	1475	1489	1494	1518	1529	1533	1533	1538	1531	1506	1501	1491	1500	1503	1504	1504	1515	1524	1524	1524	1523	1514	1504	1497	1499	1507	1526	1526	1539	1543	1520	1518	1521	1531	1535	1523	1512	1496	1506	1520	1543	1544	1538	1538	1538	1526	1507	1505	1506	1517	1526	1533	1540	1534	1540	1524	1522	1524	1483	1426	1408	1399	1403	1414	1411	1392	1388	1397	1412	1415	1410	1419	1416	1415	1408	1409	1408	1393	1383	1375	1386	1400	1406	1415	1420	1420	1412	1405	1407	1416	1420	1422	1424	1424	1424	1401	1395	1397	1401	1397	1389	1383	1388	1398	1409	1416	1428	1440	1434	1427	1416	1428	1432	1400	1380	1405	1435	1501	1525	1529	1522	1509	1495	1482	1494	1538	1574	1570	1543	1557	1560	1553	1546	1550	1556	1574	1595	1591	1579	1566	1569	1584	1593	1596	1598	1606	1610	1605	1598	1582	1556	1564	1579	1590	1597	1610	1606	1604	1603	1607	1605	1599	1589	1585	1589	1607	1613	1631	1640	1632	1628	1636	1639	1632	1621	1600	1597	1594	1600	1596	1590	1595	1580	1589	1590	1600	1615	1630	1614	1602	1593	1590	1573	1582	1588	1605	1622	1637	1644	1634	1631	1643	1659	1637	1609	1595	1596	1529	1496	1479	1459	1489	1478	1440	1419	1444	1463	1462	1456	1438	1439	1453	1463	1471	1467	1467	1463	1456	1449	1449	1453	1457	1466	1474	1488	1499	1495	1502	1509	1477	1469	1470	1448	1442	1450	1465	1478	1478	1485	1493	1494	1489	1477	1466	1457	1452	1451	1462	1485	1485	1476	1466	1475	1471	1470	1474	1473	1477	1510	1517	1533	1520	1496	1482	1486	1491	1490	1498	1499	1506	1514	1510	1505	1494	1468	1478	1493	1517	1529	1539	1561	1604	1679	1717	1738	1750	1746	1733	1743	1737	1742	1756	1768	1773	1770	1787	1800	1802	1785	1783	1783	1766	1751	1744	1743	1753	1761	1775	1775	1772	1779	1790	1807	1815	1828	1835	1837	1839	1838	1796	1783	1795	1799	1802	1791	1809	1809	1797	1795	1800	1797	1799	1809	1823	1823	1812	1808	1807	1821	1821	1848	1891	1900	1886	1852	1863	1864	1874	1884	1900	1921	1920	1836	1743	1703	1664	1657	1655	1660	1675	1681	1667	1648	1626	1612	1573	1555	1534	1476	1454	1481	1524	1537	1535	1532	1521	1517	1527	1537	1545	1541	1529	1506	1502	1495	1500	1502	1515	1541	1547	1536	1521	1519	1522	1529	1540	1544	1539	1531	1525	1532	1556	1573	1578	1571	1554	1552	1544	1543	1546	1554	1601	1664	1786	1849	1920	2016	2045	2051	2048	2046	2046	2044	2040	2056	2068	2089	2105	2092	2068	2051	2051	2072	2056	2028	2018	2030	2054	2051	2055	2063	2049	2028	2045	2053	2087	2117	2112	2109	2123	2124	2127	2103	2070	2087	2099	2107	2097	2099	2082	2092	2117	2114	2101	2092	2066	2063	2022	2010	2044	2055	2070	2056	2052	2084	2095	2082	2056	2049	2055	2064	2049	2028	2019	2025	2032	2032	2018	2000	1996	2002	2017	2020	1997	1996	1995	1986	1995	1985	1978	1982	1978	1973	1973	1958	1936	1962	1983	1981	1979	1974	1929	1912	1908	1927	1984	2021	2040	2041	2031	2025	2019	1986	1943	1952	1932	1903	1884	1884	1909	1944	1972	2001	2023	2038	2057	2081	2099	2106	2107	2097	2093	2138	2139	2120	2120	2125	2128	2140	2154	2163	2162	2168	2166	2159	2152	2149	2133	2117	2060	2041	1775	1623	1643	1651	1625	1604	1604	1601	1601	1598	1587	1580	1582	1586	1590	1588	1584	1581	1581	1552	1559	1553	1550	1543	1544	1544	1545	1538	1540	0	0	0	0	0	0	0	0
1465	1463	1451	1440	1434	1434	1438	1457	1472	1470	1470	1465	1451	1429	1440	1454	1454	1447	1462	1466	1449	1434	1429	1429	1425	1445	1466	1476	1473	1464	1464	1454	1459	1463	1462	1460	1490	1523	1523	1521	1498	1485	1476	1454	1446	1462	1466	1466	1482	1503	1508	1513	1506	1495	1484	1476	1475	1473	1493	1493	1520	1519	1503	1485	1492	1498	1502	1473	1470	1466	1477	1491	1512	1524	1525	1526	1526	1510	1490	1485	1495	1509	1521	1525	1522	1509	1499	1496	1502	1503	1476	1437	1405	1402	1407	1414	1410	1387	1386	1390	1400	1415	1427	1425	1422	1417	1413	1412	1411	1398	1384	1386	1405	1418	1421	1426	1429	1430	1419	1412	1415	1413	1413	1414	1419	1425	1426	1406	1391	1388	1393	1397	1393	1388	1392	1397	1410	1423	1433	1435	1433	1419	1428	1455	1442	1411	1401	1436	1460	1513	1513	1505	1497	1480	1475	1510	1569	1548	1533	1531	1537	1541	1541	1525	1511	1511	1527	1545	1547	1557	1559	1547	1545	1558	1570	1575	1580	1587	1588	1586	1576	1552	1537	1546	1560	1570	1585	1598	1599	1590	1579	1575	1579	1577	1571	1558	1554	1554	1568	1582	1583	1583	1592	1594	1615	1603	1588	1575	1567	1564	1566	1552	1549	1550	1545	1576	1584	1599	1595	1575	1560	1570	1577	1571	1565	1570	1576	1588	1598	1610	1618	1614	1611	1617	1616	1600	1597	1582	1575	1535	1479	1463	1438	1463	1478	1452	1429	1454	1456	1454	1451	1454	1452	1450	1456	1462	1470	1468	1467	1454	1450	1450	1449	1453	1463	1474	1490	1490	1482	1480	1485	1472	1467	1462	1453	1449	1453	1464	1473	1489	1494	1500	1494	1486	1477	1488	1484	1483	1478	1464	1463	1484	1477	1463	1466	1488	1482	1482	1484	1502	1519	1526	1532	1526	1519	1499	1492	1480	1493	1502	1510	1516	1509	1496	1489	1485	1484	1492	1494	1503	1505	1522	1557	1598	1665	1708	1725	1734	1729	1726	1717	1719	1710	1708	1704	1722	1740	1763	1772	1771	1754	1741	1742	1724	1713	1701	1690	1701	1733	1732	1736	1741	1756	1772	1790	1791	1788	1796	1803	1802	1787	1766	1760	1751	1739	1738	1745	1756	1766	1771	1762	1737	1755	1776	1794	1802	1805	1791	1769	1769	1785	1804	1802	1791	1787	1796	1830	1843	1852	1847	1845	1858	1851	1801	1811	1735	1671	1656	1650	1643	1643	1646	1647	1642	1618	1600	1599	1581	1567	1538	1484	1458	1482	1528	1535	1538	1541	1531	1524	1525	1533	1542	1542	1520	1503	1482	1479	1476	1485	1499	1538	1554	1549	1535	1524	1523	1527	1534	1537	1538	1534	1526	1532	1560	1565	1561	1552	1549	1551	1550	1550	1536	1539	1579	1662	1744	1818	1900	1985	1988	2000	2003	1997	1992	1973	1988	1998	2013	2042	2044	2029	1998	2000	2012	2006	2000	1992	1980	1987	2001	2017	2022	2011	2000	1963	1978	1992	2024	2036	2034	2025	2041	2071	2087	2037	2031	2033	2053	2055	2041	2022	2031	2058	2080	2038	2021	2005	2011	2000	1991	1968	1981	2004	2018	2018	2027	2036	2058	2052	2020	1998	1969	1948	1949	1949	1999	2010	1997	1997	1995	1983	1990	2009	2021	2024	1997	1982	1968	1959	1953	1955	1960	1978	1973	1964	1961	1942	1915	1912	1922	1936	1936	1920	1893	1873	1868	1896	1937	1951	1959	1946	1958	1979	1987	1952	1913	1926	1919	1895	1876	1871	1887	1906	1924	1950	1970	1985	1997	2025	2053	2059	2045	2027	2031	2040	2051	2066	2083	2083	2086	2100	2117	2115	2107	2117	2134	2136	2120	2097	2125	2103	2051	1942	1803	1643	1634	1641	1634	1611	1611	1601	1592	1586	1577	1571	1576	1579	1581	1577	1578	1579	1577	1562	1574	1566	1557	1562	1556	1556	1562	1559	1551	0	0	0	0	0	0	0	0
1430	1433	1434	1418	1419	1419	1427	1444	1444	1431	1412	1412	1393	1396	1404	1414	1414	1412	1423	1411	1400	1394	1392	1392	1399	1416	1445	1461	1469	1463	1463	1456	1451	1449	1440	1433	1429	1430	1430	1443	1465	1470	1457	1448	1430	1427	1428	1428	1450	1472	1482	1485	1483	1475	1465	1458	1453	1460	1472	1472	1480	1467	1464	1465	1475	1458	1457	1454	1452	1446	1453	1474	1493	1509	1509	1505	1488	1488	1475	1474	1483	1495	1503	1493	1487	1485	1486	1491	1491	1488	1474	1444	1419	1414	1417	1418	1403	1390	1386	1392	1409	1427	1429	1426	1422	1411	1403	1409	1406	1402	1393	1397	1410	1423	1431	1433	1437	1436	1424	1417	1420	1417	1414	1410	1415	1428	1434	1418	1398	1384	1383	1390	1402	1406	1413	1411	1417	1427	1434	1432	1434	1427	1448	1474	1458	1443	1427	1439	1482	1505	1532	1526	1490	1465	1472	1525	1551	1493	1479	1484	1514	1527	1522	1497	1491	1494	1491	1521	1542	1554	1549	1532	1503	1492	1491	1544	1537	1534	1560	1564	1558	1543	1529	1536	1543	1556	1565	1578	1569	1556	1546	1557	1569	1565	1550	1539	1526	1528	1533	1549	1560	1572	1576	1584	1581	1577	1556	1540	1546	1553	1546	1543	1538	1529	1527	1552	1572	1572	1553	1539	1541	1542	1538	1545	1558	1563	1568	1570	1572	1578	1571	1571	1570	1569	1573	1571	1558	1556	1560	1521	1461	1451	1427	1439	1460	1456	1450	1459	1453	1452	1452	1466	1462	1450	1450	1455	1468	1464	1449	1436	1436	1447	1451	1459	1465	1477	1484	1483	1473	1464	1462	1455	1456	1458	1458	1466	1460	1464	1469	1488	1497	1494	1492	1484	1483	1476	1488	1492	1495	1480	1466	1472	1483	1481	1466	1488	1475	1471	1480	1493	1521	1528	1526	1514	1505	1499	1489	1492	1494	1497	1504	1507	1509	1480	1476	1476	1497	1500	1490	1489	1494	1523	1554	1595	1664	1691	1710	1723	1723	1719	1717	1698	1696	1669	1663	1673	1711	1731	1749	1744	1734	1721	1710	1696	1684	1681	1681	1684	1685	1679	1676	1679	1713	1728	1738	1773	1787	1807	1813	1793	1751	1718	1719	1722	1715	1703	1698	1696	1716	1704	1704	1710	1713	1742	1761	1772	1770	1743	1741	1732	1739	1730	1726	1727	1732	1741	1777	1779	1808	1816	1825	1819	1798	1775	1743	1720	1647	1623	1639	1636	1627	1626	1634	1638	1620	1611	1606	1580	1576	1550	1494	1476	1500	1535	1522	1527	1541	1533	1524	1525	1527	1538	1534	1518	1494	1474	1468	1480	1482	1508	1530	1558	1558	1549	1540	1531	1535	1534	1536	1537	1532	1537	1561	1575	1572	1558	1546	1554	1562	1560	1545	1537	1535	1564	1609	1719	1780	1883	1944	1940	1949	1969	1976	1972	1952	1946	1952	1963	1962	1954	1962	1971	1967	1974	1969	1962	1960	1967	1974	1980	1950	1962	1975	1973	1968	1964	1967	1985	2005	2002	1992	1985	2007	2020	2004	1999	2005	1999	1995	2003	1992	1956	1978	1998	1992	1978	1961	1953	1957	1972	1963	1965	1971	1987	1987	1991	1993	1990	1985	1971	1957	1948	1942	1938	1941	1963	1975	1972	1984	1986	1987	1987	2006	2022	2021	2001	1976	1964	1948	1946	1947	1953	1972	1965	1953	1919	1893	1887	1889	1905	1924	1926	1915	1894	1875	1874	1870	1867	1871	1876	1869	1887	1889	1875	1851	1845	1854	1841	1826	1839	1851	1857	1859	1882	1902	1917	1922	1929	1947	1980	2003	1992	1982	1977	1974	1985	1996	1996	1993	2012	2042	2077	2082	2058	2028	2038	2079	2053	2064	2074	2059	1950	1884	1836	1674	1640	1633	1635	1635	1620	1609	1600	1592	1584	1576	1575	1579	1573	1573	1568	1568	1559	1560	1580	1573	1562	1562	1562	1564	1561	1561	1554	0	0	0	0	0	0	0	0
1411	1415	1415	1411	1401	1401	1401	1404	1407	1405	1394	1394	1389	1390	1395	1400	1404	1404	1412	1413	1394	1385	1379	1379	1388	1413	1432	1439	1446	1449	1449	1442	1427	1412	1415	1410	1408	1412	1412	1423	1430	1440	1436	1435	1434	1437	1441	1441	1437	1436	1440	1454	1466	1466	1458	1453	1454	1455	1467	1467	1450	1446	1443	1436	1432	1435	1442	1439	1439	1437	1444	1451	1463	1473	1478	1480	1454	1454	1446	1436	1431	1439	1447	1447	1444	1445	1456	1471	1483	1486	1477	1453	1436	1429	1427	1419	1413	1399	1394	1408	1431	1431	1422	1424	1422	1400	1381	1394	1394	1401	1398	1399	1407	1418	1427	1428	1431	1437	1437	1423	1423	1420	1418	1420	1424	1435	1445	1426	1410	1390	1384	1389	1407	1424	1436	1432	1429	1435	1440	1443	1438	1433	1456	1466	1452	1441	1429	1423	1435	1443	1471	1466	1447	1444	1458	1466	1446	1445	1453	1464	1479	1492	1471	1473	1481	1496	1512	1520	1520	1526	1527	1511	1495	1482	1477	1481	1483	1485	1500	1519	1529	1536	1530	1523	1529	1514	1513	1518	1522	1502	1511	1519	1558	1563	1552	1542	1527	1528	1533	1553	1555	1556	1563	1556	1542	1536	1532	1535	1544	1549	1546	1538	1526	1517	1509	1541	1555	1539	1527	1528	1531	1534	1525	1512	1509	1508	1518	1520	1522	1529	1537	1539	1536	1539	1552	1546	1526	1535	1542	1506	1450	1426	1422	1428	1447	1459	1458	1457	1449	1450	1454	1459	1452	1446	1445	1454	1468	1471	1457	1443	1450	1459	1462	1468	1470	1470	1471	1474	1475	1479	1479	1481	1460	1458	1463	1467	1477	1485	1493	1497	1500	1508	1486	1485	1471	1470	1487	1494	1494	1494	1492	1498	1492	1472	1477	1479	1469	1459	1470	1483	1503	1511	1499	1485	1481	1488	1494	1493	1495	1492	1493	1495	1499	1466	1467	1485	1517	1504	1487	1478	1492	1528	1556	1593	1643	1663	1679	1696	1703	1705	1681	1640	1635	1619	1598	1606	1625	1650	1676	1688	1683	1665	1665	1674	1677	1680	1681	1684	1685	1681	1683	1687	1700	1706	1704	1700	1706	1745	1736	1707	1695	1684	1688	1696	1697	1687	1687	1689	1695	1700	1702	1700	1693	1696	1712	1726	1712	1700	1704	1715	1713	1708	1711	1711	1705	1689	1690	1699	1731	1756	1784	1796	1784	1737	1714	1695	1651	1609	1655	1650	1627	1623	1621	1627	1618	1611	1607	1569	1546	1533	1515	1498	1520	1534	1512	1514	1538	1539	1533	1527	1527	1532	1532	1520	1497	1478	1490	1489	1502	1517	1531	1543	1555	1558	1557	1548	1539	1536	1538	1539	1557	1558	1576	1584	1580	1566	1554	1563	1569	1559	1545	1538	1533	1559	1614	1695	1745	1864	1915	1905	1901	1922	1937	1936	1930	1926	1923	1934	1936	1934	1931	1937	1942	1943	1943	1941	1947	1956	1964	1966	1940	1943	1953	1953	1948	1940	1952	1962	1975	1961	1950	1950	1960	1958	1980	1980	1976	1967	1939	1931	1932	1927	1930	1930	1928	1924	1919	1926	1934	1967	1962	1960	1953	1951	1939	1934	1948	1961	1963	1963	1952	1945	1945	1943	1938	1938	1950	1963	1975	1969	1957	1966	1982	1987	1962	1898	1905	1931	1942	1951	1949	1954	1959	1945	1929	1896	1877	1868	1881	1898	1900	1898	1893	1883	1876	1872	1872	1868	1869	1858	1860	1859	1864	1870	1868	1843	1823	1811	1787	1797	1818	1799	1761	1756	1767	1817	1812	1810	1820	1841	1837	1815	1851	1858	1864	1851	1860	1877	1890	1893	1893	1910	1943	1981	1944	1932	1937	1993	2055	2039	2043	1941	1888	1847	1677	1643	1626	1630	1630	1626	1596	1601	1594	1585	1574	1569	1570	1569	1566	1560	1564	1559	1555	1578	1574	1571	1555	1555	1556	1555	1549	1545	0	0	0	0	0	0	0	0
1395	1397	1394	1394	1390	1390	1383	1382	1395	1397	1392	1392	1391	1396	1399	1403	1376	1376	1375	1380	1386	1390	1384	1384	1388	1402	1416	1426	1431	1428	1428	1425	1410	1398	1393	1396	1400	1404	1404	1412	1424	1430	1432	1428	1426	1427	1434	1430	1430	1429	1434	1440	1451	1455	1450	1440	1433	1436	1443	1443	1444	1434	1426	1418	1411	1415	1437	1437	1429	1423	1417	1410	1410	1416	1424	1429	1424	1424	1417	1415	1412	1418	1416	1413	1413	1424	1439	1453	1460	1462	1463	1462	1452	1439	1441	1439	1434	1425	1425	1428	1438	1419	1416	1418	1415	1409	1377	1364	1368	1385	1393	1393	1398	1403	1409	1414	1425	1442	1448	1437	1423	1418	1420	1423	1431	1440	1444	1450	1436	1415	1392	1397	1417	1439	1445	1438	1429	1433	1439	1445	1445	1438	1441	1444	1438	1416	1401	1398	1410	1425	1438	1439	1438	1440	1444	1445	1444	1445	1447	1455	1464	1454	1454	1458	1475	1498	1518	1508	1475	1479	1499	1498	1485	1474	1468	1466	1467	1472	1479	1485	1485	1516	1518	1495	1487	1488	1492	1484	1472	1475	1487	1502	1508	1533	1539	1532	1515	1498	1494	1514	1532	1541	1545	1542	1534	1529	1527	1524	1538	1542	1538	1524	1506	1492	1498	1511	1532	1523	1519	1526	1530	1533	1524	1507	1495	1490	1486	1481	1489	1508	1522	1520	1521	1520	1512	1499	1495	1507	1509	1495	1447	1414	1414	1426	1450	1454	1453	1454	1454	1452	1453	1453	1447	1445	1449	1460	1474	1468	1464	1459	1461	1471	1477	1477	1479	1477	1473	1472	1475	1482	1485	1489	1492	1490	1475	1478	1480	1486	1480	1468	1465	1449	1439	1449	1451	1467	1486	1486	1469	1465	1477	1497	1505	1501	1476	1467	1452	1450	1463	1465	1467	1467	1458	1449	1449	1483	1494	1497	1495	1492	1490	1490	1493	1467	1469	1488	1528	1505	1490	1479	1490	1529	1558	1593	1595	1619	1633	1640	1637	1632	1605	1587	1601	1615	1636	1632	1610	1607	1654	1663	1658	1631	1632	1635	1644	1648	1656	1682	1692	1692	1682	1679	1684	1681	1655	1641	1660	1653	1660	1666	1654	1660	1654	1672	1682	1683	1677	1685	1692	1691	1690	1691	1672	1653	1663	1664	1648	1646	1672	1684	1684	1688	1692	1693	1688	1674	1676	1679	1687	1707	1736	1685	1674	1688	1688	1685	1665	1664	1667	1657	1657	1647	1620	1595	1582	1579	1554	1526	1498	1491	1524	1531	1529	1533	1520	1519	1541	1543	1543	1534	1527	1527	1526	1534	1532	1520	1508	1499	1507	1524	1536	1539	1540	1555	1560	1560	1542	1539	1545	1567	1576	1579	1584	1577	1568	1550	1556	1563	1562	1556	1552	1550	1548	1564	1638	1682	1723	1862	1892	1881	1872	1862	1861	1912	1914	1882	1894	1907	1916	1923	1930	1929	1914	1910	1911	1923	1932	1934	1940	1939	1941	1942	1938	1914	1875	1877	1910	1908	1924	1914	1910	1914	1928	1935	1951	1921	1934	1941	1936	1926	1909	1903	1915	1917	1916	1897	1904	1914	1926	1953	1958	1949	1947	1929	1906	1897	1924	1927	1950	1954	1949	1944	1950	1964	1941	1929	1938	1951	1957	1943	1913	1909	1897	1874	1872	1876	1890	1913	1932	1942	1942	1908	1896	1881	1875	1858	1851	1871	1891	1900	1894	1898	1886	1876	1870	1866	1868	1873	1872	1869	1863	1861	1864	1870	1864	1806	1801	1809	1820	1806	1811	1810	1804	1779	1809	1800	1752	1715	1729	1766	1786	1783	1783	1782	1774	1783	1807	1810	1825	1828	1841	1836	1829	1855	1861	1858	1845	1839	1940	1962	1923	1876	1858	1774	1655	1634	1632	1624	1624	1622	1604	1596	1595	1590	1579	1570	1558	1553	1561	1566	1556	1557	1556	1573	1569	1564	1551	1551	1552	1555	1552	1544	0	0	0	0	0	0	0	0
1386	1379	1382	1378	1377	1371	1371	1372	1375	1386	1388	1388	1395	1402	1405	1394	1376	1376	1373	1375	1369	1377	1376	1376	1384	1392	1410	1410	1410	1408	1408	1404	1394	1386	1385	1389	1394	1396	1399	1399	1410	1421	1419	1418	1415	1419	1424	1427	1427	1423	1422	1422	1421	1418	1415	1406	1406	1414	1423	1426	1414	1420	1412	1389	1394	1405	1421	1423	1421	1417	1407	1399	1392	1394	1396	1404	1404	1410	1410	1412	1411	1403	1398	1391	1407	1418	1432	1447	1450	1446	1439	1428	1419	1408	1406	1419	1436	1444	1450	1437	1420	1407	1400	1406	1409	1405	1393	1385	1380	1373	1381	1384	1386	1388	1393	1392	1395	1408	1423	1439	1434	1422	1408	1402	1402	1414	1425	1455	1452	1431	1421	1415	1422	1443	1448	1435	1424	1424	1426	1431	1438	1444	1442	1434	1418	1405	1411	1427	1438	1433	1420	1423	1424	1439	1454	1460	1459	1454	1450	1451	1452	1449	1451	1457	1463	1483	1508	1500	1448	1462	1472	1483	1475	1466	1458	1463	1473	1482	1482	1470	1452	1446	1442	1433	1460	1477	1482	1466	1445	1446	1458	1473	1495	1509	1516	1504	1484	1467	1473	1488	1490	1499	1517	1523	1522	1506	1501	1496	1499	1511	1525	1514	1488	1456	1457	1468	1514	1523	1519	1522	1525	1525	1517	1500	1485	1476	1480	1475	1481	1489	1497	1506	1508	1510	1499	1478	1485	1493	1496	1474	1429	1415	1409	1426	1445	1443	1444	1443	1459	1455	1447	1437	1442	1450	1460	1471	1474	1462	1465	1468	1472	1478	1484	1488	1482	1483	1480	1473	1477	1482	1487	1492	1491	1481	1471	1469	1473	1480	1469	1469	1469	1469	1480	1484	1483	1480	1476	1469	1461	1455	1457	1473	1489	1484	1475	1458	1441	1464	1452	1455	1462	1474	1485	1489	1486	1468	1483	1496	1497	1494	1496	1490	1490	1490	1471	1509	1527	1504	1497	1499	1488	1515	1546	1559	1576	1605	1616	1606	1595	1572	1558	1560	1582	1608	1619	1617	1607	1593	1596	1607	1611	1606	1596	1594	1597	1598	1603	1621	1623	1604	1596	1599	1609	1609	1602	1589	1601	1602	1613	1617	1611	1592	1598	1630	1633	1636	1636	1646	1662	1668	1665	1654	1649	1628	1611	1611	1615	1628	1623	1621	1617	1632	1670	1681	1670	1667	1668	1665	1663	1674	1660	1656	1657	1661	1669	1677	1657	1636	1622	1638	1693	1668	1593	1562	1548	1539	1511	1488	1475	1481	1532	1545	1548	1531	1526	1519	1530	1537	1538	1532	1526	1523	1526	1533	1534	1519	1504	1500	1512	1530	1537	1543	1540	1547	1556	1541	1530	1542	1562	1573	1580	1583	1576	1560	1545	1538	1540	1548	1550	1555	1557	1561	1564	1576	1642	1676	1742	1866	1862	1856	1841	1844	1851	1864	1862	1854	1863	1877	1893	1902	1905	1900	1886	1880	1887	1908	1904	1880	1875	1900	1921	1927	1913	1857	1851	1853	1867	1884	1884	1872	1870	1884	1893	1863	1867	1881	1899	1894	1896	1894	1878	1875	1890	1894	1897	1888	1871	1855	1868	1894	1907	1912	1903	1896	1886	1883	1897	1916	1931	1930	1932	1939	1937	1923	1915	1914	1915	1937	1942	1915	1872	1854	1852	1854	1861	1859	1875	1899	1916	1927	1922	1887	1872	1865	1854	1850	1843	1856	1893	1910	1909	1902	1892	1885	1877	1874	1872	1863	1870	1865	1859	1861	1863	1858	1860	1801	1798	1807	1822	1822	1787	1764	1766	1760	1777	1791	1780	1754	1750	1759	1774	1779	1753	1733	1721	1734	1720	1701	1671	1734	1752	1769	1770	1796	1800	1800	1786	1765	1759	1776	1797	1809	1799	1688	1645	1633	1624	1624	1619	1611	1610	1609	1612	1604	1588	1567	1559	1549	1551	1548	1544	1555	1553	1568	1571	1567	1564	1564	1559	1557	1560	1558	0	0	0	0	0	0	0	0
1369	1369	1370	1359	1330	1327	1327	1330	1344	1362	1376	1376	1386	1392	1387	1372	1365	1365	1368	1358	1357	1360	1359	1360	1360	1364	1369	1383	1384	1381	1378	1378	1382	1383	1386	1380	1384	1376	1378	1378	1383	1399	1406	1402	1402	1407	1415	1417	1417	1396	1385	1387	1395	1390	1394	1387	1389	1403	1409	1404	1404	1392	1389	1381	1387	1395	1405	1410	1408	1403	1395	1385	1382	1381	1379	1380	1382	1383	1383	1389	1393	1392	1388	1390	1402	1420	1432	1438	1428	1421	1426	1422	1407	1396	1386	1381	1397	1423	1431	1406	1388	1379	1377	1390	1390	1377	1373	1374	1379	1385	1384	1371	1376	1380	1379	1372	1380	1383	1397	1416	1427	1425	1423	1408	1392	1386	1386	1447	1445	1426	1413	1405	1412	1423	1428	1426	1419	1411	1409	1415	1425	1435	1442	1444	1433	1425	1425	1432	1431	1425	1401	1390	1401	1427	1454	1461	1452	1444	1441	1442	1458	1458	1453	1452	1455	1461	1464	1452	1427	1438	1455	1468	1460	1461	1465	1470	1473	1479	1458	1442	1435	1429	1431	1431	1435	1440	1450	1453	1445	1442	1447	1457	1476	1496	1501	1491	1472	1459	1458	1469	1484	1478	1485	1475	1465	1466	1475	1478	1485	1490	1494	1477	1455	1454	1477	1491	1478	1479	1493	1496	1490	1484	1478	1468	1450	1451	1447	1450	1457	1470	1478	1474	1475	1486	1486	1460	1466	1472	1459	1442	1422	1426	1429	1443	1440	1436	1432	1452	1463	1459	1448	1438	1442	1454	1462	1468	1467	1464	1468	1471	1463	1467	1484	1498	1494	1488	1478	1466	1471	1479	1486	1486	1483	1468	1461	1462	1465	1473	1472	1476	1480	1480	1486	1488	1486	1479	1473	1464	1459	1455	1456	1466	1473	1471	1470	1472	1471	1468	1452	1452	1461	1472	1485	1490	1488	1486	1492	1497	1507	1504	1497	1491	1488	1480	1491	1513	1494	1492	1499	1506	1511	1513	1516	1527	1548	1568	1575	1579	1564	1534	1528	1538	1553	1586	1595	1579	1574	1570	1570	1572	1573	1575	1576	1568	1555	1548	1546	1543	1561	1570	1572	1568	1568	1570	1572	1568	1569	1575	1571	1574	1561	1564	1559	1587	1594	1595	1601	1610	1610	1596	1577	1557	1544	1553	1576	1604	1621	1621	1606	1595	1598	1596	1625	1648	1679	1678	1667	1654	1645	1638	1638	1640	1641	1644	1655	1667	1660	1652	1640	1650	1672	1640	1617	1616	1569	1528	1513	1488	1481	1499	1542	1552	1567	1550	1523	1522	1506	1515	1514	1522	1526	1522	1522	1538	1534	1529	1514	1511	1521	1529	1532	1538	1535	1543	1539	1541	1540	1546	1554	1564	1574	1573	1568	1550	1545	1541	1536	1538	1543	1552	1560	1567	1589	1579	1634	1667	1724	1826	1828	1821	1819	1832	1850	1856	1834	1827	1825	1829	1845	1864	1863	1862	1855	1847	1847	1879	1850	1823	1804	1820	1848	1858	1845	1833	1827	1836	1850	1862	1859	1840	1819	1814	1827	1825	1843	1853	1854	1839	1837	1822	1804	1813	1829	1843	1863	1849	1833	1836	1837	1863	1865	1840	1831	1844	1845	1844	1875	1883	1882	1852	1854	1858	1854	1856	1856	1867	1883	1897	1905	1891	1865	1850	1841	1843	1845	1851	1846	1866	1885	1894	1889	1849	1833	1840	1840	1836	1834	1845	1861	1865	1854	1860	1877	1894	1888	1878	1868	1857	1852	1852	1855	1867	1855	1838	1818	1811	1815	1816	1821	1825	1801	1772	1768	1765	1748	1737	1737	1740	1738	1737	1735	1753	1751	1728	1686	1674	1656	1656	1647	1648	1672	1710	1723	1755	1775	1771	1752	1744	1742	1747	1752	1744	1653	1651	1639	1634	1581	1581	1588	1606	1621	1626	1627	1617	1589	1567	1556	1545	1548	1549	1545	1543	1550	1560	1571	1571	1571	1569	1566	1559	1557	1559	0	0	0	0	0	0	0	0
1357	1357	1357	1337	1325	1318	1318	1327	1339	1352	1364	1364	1346	1347	1356	1366	1357	1357	1336	1337	1344	1350	1353	1347	1347	1338	1340	1336	1338	1353	1359	1359	1365	1374	1368	1366	1361	1355	1355	1355	1363	1372	1380	1381	1380	1372	1374	1370	1370	1364	1364	1370	1381	1385	1382	1378	1377	1367	1354	1374	1374	1380	1377	1361	1369	1377	1380	1385	1376	1380	1370	1365	1366	1367	1366	1357	1365	1367	1367	1375	1376	1375	1372	1376	1392	1408	1422	1414	1411	1386	1390	1399	1407	1392	1384	1378	1380	1378	1377	1377	1384	1377	1365	1358	1353	1348	1354	1363	1370	1380	1384	1365	1360	1364	1364	1368	1375	1387	1395	1407	1416	1415	1410	1395	1390	1390	1388	1389	1392	1387	1382	1384	1396	1413	1410	1406	1404	1405	1399	1392	1387	1393	1408	1434	1443	1435	1423	1410	1401	1391	1376	1377	1380	1400	1432	1445	1437	1429	1433	1438	1445	1458	1443	1435	1443	1444	1441	1428	1409	1420	1431	1421	1427	1442	1461	1468	1472	1445	1430	1419	1429	1435	1436	1435	1437	1438	1428	1425	1419	1409	1429	1415	1427	1445	1465	1466	1461	1455	1461	1467	1481	1472	1469	1462	1449	1443	1454	1471	1474	1472	1466	1459	1449	1452	1471	1478	1471	1467	1475	1465	1457	1443	1439	1442	1443	1442	1436	1433	1436	1448	1459	1448	1439	1448	1458	1452	1458	1459	1438	1443	1442	1446	1451	1448	1444	1445	1454	1462	1467	1464	1458	1446	1445	1451	1454	1458	1455	1451	1457	1442	1434	1427	1443	1451	1464	1471	1471	1469	1473	1477	1481	1481	1473	1456	1422	1414	1413	1441	1472	1490	1494	1492	1493	1493	1484	1470	1465	1464	1461	1460	1469	1473	1474	1467	1466	1476	1478	1470	1459	1451	1456	1469	1486	1485	1486	1487	1494	1500	1508	1511	1506	1497	1482	1477	1486	1494	1490	1480	1495	1485	1484	1477	1475	1480	1489	1489	1496	1500	1498	1500	1516	1533	1539	1536	1532	1516	1504	1514	1530	1558	1560	1550	1550	1547	1543	1529	1517	1520	1534	1537	1546	1546	1547	1542	1546	1552	1555	1559	1562	1565	1546	1537	1539	1547	1554	1568	1583	1596	1598	1587	1562	1538	1534	1545	1568	1595	1605	1598	1589	1578	1577	1585	1580	1607	1624	1623	1611	1610	1600	1602	1622	1630	1625	1620	1615	1594	1604	1613	1611	1606	1607	1601	1646	1650	1618	1548	1510	1503	1519	1542	1553	1547	1568	1564	1531	1527	1492	1492	1497	1510	1519	1527	1526	1538	1550	1546	1537	1530	1532	1526	1520	1520	1530	1537	1545	1550	1562	1563	1554	1557	1566	1570	1565	1561	1567	1552	1540	1541	1543	1556	1565	1573	1567	1555	1573	1635	1709	1778	1782	1786	1793	1812	1818	1807	1793	1778	1764	1769	1794	1814	1836	1833	1833	1824	1816	1815	1816	1810	1798	1799	1804	1800	1793	1799	1801	1802	1812	1789	1795	1799	1810	1808	1787	1770	1777	1761	1774	1787	1792	1784	1775	1768	1786	1798	1817	1811	1796	1807	1839	1837	1834	1818	1812	1828	1824	1830	1834	1828	1804	1809	1824	1823	1824	1817	1804	1805	1842	1862	1861	1853	1856	1849	1841	1837	1833	1821	1812	1835	1831	1804	1802	1784	1779	1778	1795	1813	1832	1849	1859	1854	1842	1840	1858	1879	1892	1872	1856	1845	1844	1852	1858	1870	1850	1823	1801	1812	1817	1820	1823	1827	1822	1816	1807	1786	1765	1747	1745	1747	1752	1753	1747	1750	1742	1733	1673	1630	1621	1558	1558	1596	1631	1667	1693	1678	1683	1690	1696	1709	1717	1713	1675	1615	1606	1642	1631	1591	1594	1594	1597	1610	1625	1639	1637	1618	1583	1555	1544	1546	1552	1553	1547	1547	1545	1545	1567	1565	1565	1560	1547	1556	1553	1553	0	0	0	0	0	0	0	0
1317	1317	1323	1317	1308	1312	1312	1324	1334	1338	1334	1331	1331	1334	1338	1342	1305	1305	1303	1309	1333	1346	1353	1344	1344	1327	1312	1303	1312	1329	1342	1342	1350	1356	1352	1349	1347	1345	1348	1348	1352	1362	1370	1364	1358	1354	1353	1344	1349	1349	1349	1358	1368	1375	1379	1371	1346	1333	1338	1347	1347	1359	1352	1349	1339	1337	1342	1345	1352	1354	1347	1353	1354	1357	1354	1344	1347	1350	1356	1356	1361	1362	1355	1350	1359	1361	1374	1380	1376	1368	1372	1376	1386	1379	1368	1366	1369	1362	1355	1359	1374	1371	1363	1354	1345	1347	1357	1361	1366	1374	1377	1371	1353	1353	1357	1365	1370	1379	1391	1399	1401	1398	1388	1387	1385	1386	1380	1369	1370	1369	1365	1369	1377	1379	1374	1372	1381	1387	1383	1368	1364	1368	1386	1404	1415	1421	1412	1398	1379	1366	1365	1371	1376	1391	1406	1405	1418	1425	1429	1439	1433	1421	1412	1413	1411	1420	1415	1399	1393	1399	1400	1402	1404	1410	1429	1432	1432	1433	1420	1406	1401	1422	1432	1424	1410	1406	1410	1408	1398	1389	1393	1399	1408	1423	1428	1436	1448	1441	1429	1419	1413	1398	1400	1399	1392	1391	1396	1410	1414	1418	1420	1423	1427	1431	1432	1426	1409	1408	1411	1408	1402	1403	1416	1432	1434	1431	1420	1413	1412	1394	1400	1403	1411	1418	1425	1427	1432	1424	1425	1422	1433	1434	1432	1443	1443	1440	1445	1442	1440	1440	1454	1449	1440	1441	1418	1420	1426	1435	1438	1437	1423	1422	1429	1442	1455	1467	1470	1469	1470	1471	1472	1466	1447	1430	1406	1391	1397	1423	1451	1467	1474	1479	1473	1472	1465	1462	1461	1465	1464	1462	1467	1475	1478	1473	1467	1471	1477	1476	1447	1449	1453	1464	1472	1478	1470	1468	1468	1485	1496	1504	1500	1490	1479	1478	1481	1484	1482	1475	1468	1468	1471	1477	1481	1481	1473	1466	1467	1474	1475	1482	1491	1506	1501	1510	1494	1477	1465	1470	1484	1494	1497	1509	1529	1536	1527	1513	1497	1491	1497	1519	1521	1502	1500	1508	1516	1516	1519	1513	1516	1516	1520	1521	1522	1532	1536	1546	1565	1574	1577	1566	1541	1524	1522	1535	1566	1587	1584	1564	1545	1531	1521	1521	1526	1549	1547	1538	1526	1529	1557	1583	1587	1588	1586	1576	1564	1570	1588	1603	1608	1604	1600	1600	1599	1586	1595	1573	1511	1503	1512	1536	1537	1547	1557	1531	1550	1506	1496	1483	1493	1504	1527	1526	1529	1533	1540	1557	1556	1550	1543	1536	1550	1542	1530	1543	1549	1560	1570	1576	1566	1575	1574	1577	1577	1579	1579	1567	1557	1552	1562	1577	1580	1578	1555	1539	1553	1586	1710	1731	1744	1747	1747	1753	1764	1763	1758	1754	1755	1752	1754	1742	1749	1784	1793	1791	1784	1788	1802	1808	1797	1787	1784	1774	1773	1769	1773	1776	1772	1771	1770	1772	1777	1762	1752	1730	1726	1733	1746	1753	1755	1757	1753	1742	1734	1733	1741	1752	1744	1750	1797	1795	1788	1787	1794	1793	1799	1807	1812	1794	1783	1788	1800	1799	1789	1781	1779	1777	1785	1802	1816	1795	1804	1825	1838	1825	1796	1786	1775	1771	1767	1769	1781	1765	1737	1738	1755	1777	1807	1830	1836	1823	1808	1820	1840	1872	1886	1872	1851	1841	1844	1845	1832	1811	1807	1781	1747	1804	1811	1811	1815	1819	1815	1805	1793	1785	1786	1791	1795	1776	1764	1758	1751	1750	1744	1726	1677	1599	1546	1537	1537	1546	1573	1637	1665	1673	1621	1624	1635	1658	1640	1615	1597	1593	1612	1630	1632	1600	1600	1600	1610	1615	1622	1619	1611	1586	1572	1558	1556	1563	1561	1560	1554	1544	1525	1521	1542	1541	1541	1544	1546	1543	1546	1550	0	0	0	0	0	0	0	0
1289	1289	1292	1291	1296	1298	1298	1303	1307	1318	1323	1321	1321	1318	1322	1317	1291	1281	1281	1299	1315	1333	1339	1333	1333	1319	1301	1290	1294	1314	1327	1327	1336	1331	1329	1319	1322	1330	1335	1335	1341	1351	1356	1352	1334	1313	1313	1319	1334	1334	1341	1344	1354	1358	1361	1331	1321	1318	1320	1333	1333	1333	1327	1323	1319	1317	1314	1313	1316	1322	1333	1342	1347	1337	1323	1312	1319	1326	1332	1332	1338	1340	1338	1336	1332	1333	1339	1352	1355	1354	1358	1358	1351	1348	1347	1351	1337	1327	1313	1331	1345	1352	1348	1344	1345	1349	1356	1362	1364	1367	1374	1368	1357	1352	1350	1350	1356	1361	1376	1381	1389	1382	1380	1377	1378	1377	1372	1345	1346	1350	1356	1354	1359	1355	1350	1354	1359	1364	1363	1359	1354	1356	1364	1374	1395	1406	1402	1383	1366	1356	1352	1371	1379	1388	1394	1394	1393	1407	1416	1413	1404	1387	1383	1379	1386	1385	1392	1390	1386	1392	1393	1392	1393	1396	1400	1403	1417	1420	1407	1391	1381	1381	1387	1388	1382	1386	1392	1384	1376	1378	1387	1389	1393	1392	1387	1400	1394	1388	1387	1386	1387	1384	1383	1386	1388	1387	1385	1389	1389	1399	1405	1413	1405	1397	1384	1374	1375	1390	1398	1388	1386	1389	1400	1417	1421	1413	1398	1388	1383	1385	1402	1406	1414	1416	1411	1405	1408	1410	1412	1412	1424	1425	1424	1420	1418	1419	1420	1425	1418	1417	1407	1403	1419	1410	1406	1403	1411	1417	1422	1427	1426	1427	1428	1435	1442	1448	1444	1449	1457	1453	1441	1427	1412	1401	1390	1385	1391	1409	1435	1449	1452	1457	1461	1453	1438	1445	1449	1452	1461	1460	1469	1471	1473	1464	1455	1448	1456	1459	1445	1440	1441	1442	1450	1452	1448	1446	1453	1467	1476	1482	1479	1473	1464	1458	1465	1472	1470	1470	1467	1461	1456	1459	1462	1464	1461	1454	1448	1449	1457	1469	1463	1463	1460	1470	1468	1457	1452	1455	1467	1479	1486	1497	1501	1506	1497	1485	1476	1471	1477	1480	1477	1482	1482	1484	1486	1481	1471	1468	1467	1469	1472	1483	1495	1505	1522	1532	1540	1546	1535	1521	1509	1507	1512	1537	1560	1570	1557	1543	1527	1516	1517	1518	1522	1519	1520	1514	1514	1512	1507	1501	1507	1531	1560	1574	1576	1577	1581	1594	1601	1583	1573	1569	1553	1540	1555	1563	1558	1530	1521	1527	1536	1537	1518	1515	1516	1506	1504	1503	1508	1520	1522	1518	1518	1522	1535	1556	1567	1565	1559	1549	1550	1551	1560	1555	1548	1561	1566	1570	1574	1579	1575	1575	1578	1589	1582	1573	1573	1575	1588	1597	1593	1582	1566	1546	1559	1640	1682	1701	1712	1723	1732	1733	1744	1746	1744	1743	1736	1716	1697	1693	1695	1711	1725	1741	1759	1764	1782	1798	1775	1763	1756	1755	1741	1751	1758	1766	1756	1750	1750	1735	1733	1733	1728	1716	1720	1733	1748	1748	1736	1727	1719	1709	1711	1711	1722	1724	1723	1724	1735	1742	1747	1741	1736	1744	1755	1762	1757	1761	1763	1754	1741	1745	1749	1752	1747	1736	1720	1712	1716	1723	1740	1765	1775	1759	1755	1755	1751	1747	1736	1739	1741	1754	1745	1719	1729	1739	1761	1768	1779	1784	1760	1749	1757	1775	1786	1797	1811	1819	1817	1816	1800	1785	1772	1755	1746	1739	1779	1788	1793	1794	1767	1780	1775	1770	1774	1782	1788	1769	1760	1749	1738	1735	1728	1715	1680	1594	1530	1521	1536	1534	1536	1588	1662	1628	1619	1625	1641	1661	1651	1613	1590	1596	1617	1637	1626	1612	1612	1609	1610	1615	1622	1622	1607	1585	1573	1556	1557	1566	1566	1558	1551	1541	1525	1505	1527	1529	1529	1537	1543	1553	1553	1552	0	0	0	0	0	0	0	0
1275	1275	1285	1286	1284	1281	1281	1281	1285	1297	1304	1308	1308	1309	1307	1296	1276	1275	1275	1283	1296	1310	1315	1316	1316	1300	1285	1282	1285	1298	1315	1315	1315	1311	1303	1297	1289	1291	1299	1318	1318	1337	1341	1333	1314	1297	1288	1296	1315	1315	1331	1337	1336	1334	1319	1310	1305	1304	1310	1326	1322	1322	1310	1293	1285	1291	1299	1299	1305	1292	1293	1310	1337	1322	1301	1298	1299	1307	1310	1310	1325	1333	1327	1326	1314	1312	1320	1332	1333	1337	1340	1341	1335	1330	1324	1321	1309	1300	1302	1307	1324	1327	1332	1333	1334	1341	1351	1356	1355	1359	1360	1359	1353	1347	1341	1340	1340	1343	1345	1349	1351	1359	1362	1364	1369	1369	1361	1337	1330	1335	1339	1339	1339	1336	1337	1338	1347	1356	1356	1353	1353	1350	1346	1349	1361	1366	1368	1367	1359	1348	1353	1376	1385	1391	1390	1382	1374	1365	1363	1361	1353	1360	1354	1340	1352	1365	1377	1378	1380	1379	1380	1388	1391	1386	1384	1383	1390	1400	1395	1383	1369	1362	1366	1369	1363	1372	1366	1362	1360	1361	1370	1375	1376	1373	1363	1354	1349	1350	1367	1374	1375	1374	1372	1371	1378	1378	1379	1388	1389	1398	1406	1403	1394	1383	1367	1363	1363	1367	1379	1381	1377	1383	1395	1404	1406	1394	1381	1384	1384	1380	1386	1403	1414	1408	1400	1392	1392	1404	1407	1414	1417	1421	1415	1406	1398	1393	1402	1408	1404	1399	1392	1377	1375	1381	1404	1393	1395	1407	1409	1416	1432	1433	1430	1430	1430	1432	1429	1434	1438	1434	1422	1405	1394	1387	1380	1383	1397	1414	1424	1435	1442	1452	1457	1445	1435	1419	1418	1420	1433	1448	1457	1463	1460	1444	1434	1426	1433	1437	1441	1430	1423	1422	1431	1436	1437	1434	1431	1444	1451	1454	1452	1445	1442	1441	1431	1437	1443	1453	1455	1453	1449	1446	1448	1448	1445	1437	1436	1441	1447	1445	1442	1441	1437	1436	1449	1451	1451	1453	1461	1472	1478	1479	1465	1464	1467	1468	1465	1463	1474	1482	1477	1473	1470	1468	1470	1473	1464	1469	1466	1460	1457	1460	1471	1473	1476	1485	1487	1489	1490	1484	1480	1484	1488	1496	1509	1530	1530	1515	1507	1505	1509	1517	1515	1509	1509	1508	1502	1496	1493	1492	1497	1516	1539	1558	1564	1554	1548	1549	1540	1539	1529	1524	1525	1523	1523	1533	1537	1538	1532	1538	1539	1529	1522	1509	1514	1513	1515	1519	1533	1547	1513	1511	1519	1524	1526	1546	1527	1520	1516	1526	1541	1552	1563	1565	1563	1562	1566	1577	1588	1579	1571	1567	1568	1573	1573	1567	1574	1579	1602	1611	1615	1608	1602	1603	1621	1640	1655	1666	1684	1702	1707	1714	1722	1726	1737	1739	1728	1713	1701	1689	1694	1699	1703	1691	1681	1699	1720	1754	1739	1736	1707	1707	1727	1742	1747	1729	1713	1712	1710	1700	1690	1696	1704	1710	1717	1736	1741	1736	1717	1701	1687	1679	1683	1692	1704	1702	1706	1706	1707	1713	1715	1706	1711	1719	1727	1726	1733	1738	1743	1722	1699	1675	1667	1713	1731	1732	1728	1710	1698	1691	1683	1680	1683	1689	1696	1718	1719	1714	1708	1706	1728	1728	1721	1716	1707	1713	1723	1731	1734	1740	1743	1745	1757	1766	1771	1772	1757	1741	1737	1759	1775	1763	1757	1748	1735	1714	1721	1763	1767	1745	1710	1702	1725	1737	1735	1735	1741	1743	1743	1738	1726	1722	1710	1686	1693	1629	1577	1530	1528	1537	1568	1581	1663	1630	1614	1629	1639	1646	1638	1629	1615	1616	1633	1638	1619	1619	1612	1613	1614	1617	1618	1617	1611	1591	1573	1560	1564	1568	1566	1561	1552	1544	1539	1531	1500	1500	1522	1531	1549	1563	1564	1551	0	0	0	0	0	0	0	0
1268	1268	1275	1275	1275	1271	1262	1262	1261	1274	1285	1292	1292	1295	1290	1285	1252	1258	1258	1270	1284	1290	1293	1293	1282	1282	1277	1271	1277	1288	1300	1303	1303	1279	1281	1276	1276	1282	1296	1312	1312	1320	1316	1306	1289	1284	1285	1292	1307	1307	1315	1315	1316	1307	1307	1297	1293	1297	1308	1311	1306	1306	1292	1275	1265	1272	1278	1288	1286	1278	1277	1284	1300	1302	1292	1289	1290	1295	1295	1296	1296	1304	1322	1316	1290	1286	1294	1307	1313	1316	1323	1321	1326	1321	1315	1304	1290	1289	1292	1304	1307	1313	1313	1312	1315	1327	1334	1346	1345	1346	1348	1346	1348	1346	1339	1332	1320	1316	1324	1326	1328	1333	1341	1347	1347	1345	1346	1336	1320	1321	1326	1327	1326	1326	1328	1328	1339	1345	1347	1350	1350	1345	1334	1335	1338	1346	1346	1347	1343	1342	1350	1368	1371	1364	1351	1342	1330	1328	1332	1327	1330	1318	1308	1314	1330	1347	1359	1363	1369	1363	1366	1373	1383	1379	1372	1359	1367	1370	1384	1376	1365	1353	1355	1349	1351	1349	1347	1348	1344	1346	1357	1359	1361	1356	1348	1343	1341	1347	1351	1358	1367	1361	1352	1352	1358	1356	1378	1390	1399	1400	1398	1385	1371	1355	1350	1349	1354	1357	1368	1374	1375	1383	1393	1396	1389	1382	1384	1387	1388	1377	1369	1379	1388	1397	1385	1378	1380	1392	1404	1407	1412	1416	1404	1389	1366	1367	1380	1384	1396	1391	1381	1364	1360	1366	1370	1378	1390	1398	1401	1403	1417	1436	1428	1422	1418	1414	1409	1411	1413	1411	1401	1389	1383	1378	1379	1384	1409	1426	1432	1426	1419	1434	1439	1435	1429	1417	1414	1409	1403	1415	1422	1425	1425	1417	1408	1407	1414	1418	1424	1423	1405	1402	1410	1417	1418	1402	1407	1421	1426	1429	1423	1409	1412	1414	1413	1416	1427	1436	1431	1437	1436	1437	1440	1436	1435	1422	1413	1421	1428	1428	1424	1420	1414	1414	1426	1440	1446	1452	1452	1455	1459	1457	1452	1449	1446	1446	1448	1448	1454	1459	1457	1454	1445	1447	1451	1455	1459	1462	1465	1464	1452	1463	1461	1457	1441	1428	1423	1435	1456	1462	1469	1466	1462	1462	1469	1482	1476	1458	1463	1484	1492	1496	1486	1486	1498	1497	1485	1473	1466	1482	1488	1487	1492	1502	1509	1533	1536	1529	1521	1515	1522	1514	1511	1509	1509	1511	1512	1511	1510	1510	1518	1525	1531	1542	1550	1556	1550	1548	1557	1540	1512	1509	1515	1526	1549	1540	1523	1520	1521	1530	1536	1541	1542	1534	1527	1519	1547	1564	1582	1583	1577	1567	1559	1549	1555	1557	1574	1588	1594	1606	1607	1593	1591	1605	1618	1635	1644	1658	1663	1677	1682	1699	1700	1711	1717	1723	1714	1704	1696	1689	1685	1683	1672	1657	1646	1652	1665	1658	1583	1631	1647	1649	1675	1690	1695	1680	1675	1680	1680	1670	1665	1669	1673	1694	1703	1717	1721	1712	1698	1677	1661	1658	1660	1655	1668	1680	1681	1683	1681	1677	1671	1679	1693	1704	1702	1703	1707	1711	1710	1699	1685	1666	1659	1698	1717	1725	1720	1704	1683	1665	1660	1657	1661	1662	1663	1674	1682	1684	1683	1685	1697	1702	1699	1682	1690	1693	1695	1690	1691	1699	1706	1721	1742	1750	1755	1730	1695	1675	1672	1707	1737	1737	1735	1726	1717	1703	1704	1703	1700	1684	1673	1662	1664	1677	1688	1700	1692	1690	1680	1682	1698	1695	1692	1673	1667	1657	1600	1559	1550	1549	1557	1659	1643	1660	1624	1625	1641	1639	1637	1622	1619	1628	1634	1632	1626	1626	1608	1613	1611	1613	1613	1609	1601	1585	1563	1544	1541	1543	1542	1553	1556	1566	1559	1566	1571	1571	1566	1552	1536	1526	1521	1518	0	0	0	0	0	0	0	0
1257	1255	1255	1257	1259	1245	1240	1240	1243	1250	1259	1271	1271	1272	1277	1258	1219	1218	1218	1243	1262	1267	1263	1260	1257	1257	1251	1252	1256	1269	1274	1264	1264	1261	1267	1271	1275	1280	1295	1304	1304	1310	1290	1278	1271	1273	1278	1288	1298	1298	1304	1295	1277	1273	1269	1258	1250	1257	1260	1259	1270	1270	1274	1264	1255	1255	1253	1252	1256	1260	1266	1269	1268	1269	1280	1279	1276	1275	1274	1279	1279	1283	1286	1282	1272	1277	1285	1294	1301	1303	1303	1300	1313	1311	1299	1284	1269	1273	1286	1298	1303	1299	1289	1289	1291	1300	1314	1324	1330	1328	1324	1327	1334	1338	1332	1327	1308	1297	1302	1303	1306	1315	1324	1328	1326	1323	1315	1307	1300	1303	1302	1314	1312	1311	1316	1323	1327	1332	1330	1332	1334	1330	1322	1317	1320	1326	1333	1342	1332	1337	1345	1354	1354	1334	1332	1326	1318	1317	1317	1316	1314	1309	1303	1297	1301	1320	1334	1342	1350	1348	1347	1351	1355	1359	1342	1331	1331	1335	1343	1353	1347	1342	1330	1323	1324	1334	1334	1332	1334	1335	1338	1345	1352	1341	1336	1339	1339	1346	1340	1350	1353	1348	1329	1335	1339	1352	1369	1380	1394	1393	1387	1376	1363	1351	1349	1352	1353	1355	1363	1363	1370	1379	1389	1372	1359	1346	1354	1372	1381	1371	1361	1365	1382	1387	1378	1365	1358	1372	1388	1392	1384	1369	1364	1358	1344	1340	1356	1373	1379	1366	1360	1353	1345	1348	1356	1372	1386	1391	1397	1394	1403	1422	1422	1411	1406	1400	1391	1386	1388	1379	1376	1382	1377	1377	1376	1382	1403	1424	1424	1417	1404	1406	1421	1417	1412	1403	1395	1385	1381	1387	1391	1393	1387	1381	1380	1390	1399	1408	1409	1404	1388	1386	1392	1401	1401	1393	1390	1391	1402	1404	1386	1376	1383	1398	1406	1407	1407	1412	1415	1413	1417	1422	1422	1417	1412	1407	1402	1404	1414	1415	1403	1398	1400	1401	1416	1424	1419	1424	1432	1437	1445	1441	1431	1429	1428	1436	1448	1445	1443	1443	1446	1436	1432	1420	1413	1435	1449	1456	1460	1448	1453	1453	1450	1438	1421	1415	1413	1424	1437	1447	1451	1450	1447	1444	1433	1423	1424	1433	1447	1460	1473	1454	1446	1447	1441	1439	1433	1441	1451	1464	1477	1482	1479	1480	1487	1496	1504	1509	1498	1491	1478	1475	1486	1502	1505	1514	1508	1507	1504	1512	1524	1542	1550	1550	1553	1538	1520	1519	1514	1505	1493	1508	1509	1512	1519	1532	1543	1543	1549	1549	1544	1539	1532	1525	1518	1511	1513	1533	1552	1554	1537	1514	1531	1518	1521	1534	1570	1586	1590	1584	1577	1578	1568	1591	1613	1629	1637	1648	1644	1653	1658	1671	1676	1682	1694	1698	1687	1663	1672	1677	1674	1659	1629	1628	1621	1584	1575	1562	1570	1586	1610	1624	1620	1630	1647	1644	1644	1648	1658	1658	1656	1656	1661	1664	1676	1682	1690	1696	1676	1658	1647	1644	1649	1644	1646	1647	1655	1664	1659	1657	1651	1664	1681	1690	1682	1675	1684	1683	1688	1678	1663	1648	1647	1679	1694	1698	1688	1684	1665	1645	1632	1631	1632	1634	1630	1645	1655	1666	1656	1666	1657	1639	1628	1621	1623	1631	1641	1645	1639	1651	1656	1670	1689	1687	1665	1654	1655	1650	1642	1648	1668	1681	1679	1678	1669	1660	1668	1678	1676	1670	1651	1639	1650	1666	1674	1677	1671	1666	1665	1651	1641	1637	1646	1644	1653	1637	1573	1559	1574	1593	1631	1636	1643	1627	1615	1630	1648	1637	1625	1607	1607	1616	1630	1630	1620	1620	1612	1613	1610	1607	1605	1599	1590	1571	1553	1533	1531	1536	1543	1544	1550	1555	1568	1585	1595	1595	1596	1573	1552	1532	1521	1511	0	0	0	0	0	0	0	0
