0	0	0	0	0	0	0	0	0	0	0	0	0	0	0	0	0	0	0	0	0	0	0	0	0	0	0	0	0	0	0	0	0	0	0	0	0	0	0	0	0	0	0	0	0	0	0	0	0	0	0	0	0	0	0	0	0	0	0	0	0	0	0	0	0	0	0	0	0	0	0	0	0	0	0	0	0	0	0	0	0	0	0	0	0	0	0	0	0	0	0	0	0	1417	1433	1421	1404	1398	1398	1402	1404	1400	1404	1412	1412	1418	1427	1434	1442	1438	1437	1422	1403	1378	1377	1392	1407	1411	1409	1411	1418	1427	1423	1411	1394	1397	1413	1416	1415	1407	1400	1400	1399	1403	1403	1413	1418	1417	1411	1404	1416	1408	1389	1394	1436	1427	1430	1433	1432	1421	1421	1422	1434	1442	1443	1438	1434	1436	1437	1433	1431	1421	1427	1437	1453	1465	1471	1483	1449	1440	1425	1405	1400	1411	1433	1463	1475	1458	1453	1462	1476	1476	1473	1455	1437	1434	1454	1459	1465	1467	1459	1450	1460	1476	1481	1477	1472	1464	1460	1459	1468	1479	1474	1472	1474	1496	1493	1471	1456	1454	1463	1472	1478	1472	1479	1477	1480	1477	1475	1460	1457	1462	1459	1459	1454	1465	1464	1465	1468	1468	1452	1447	1444	1450	1462	1485	1493	1499	1501	1495	1484	1444	1433	1441	1442	1436	1452	1450	1462	1475	1466	1469	1496	1488	1470	1462	1455	1482	1507	1513	1510	1495	1466	1456	1458	1462	1472	1491	1496	1496	1500	1501	1477	1474	1480	1473	1476	1484	1487	1471	1466	1459	1467	1466	1471	1474	1475	1477	1496	1496	1513	1504	1502	1496	1494	1484	1487	1500	1499	1496	1490	1483	1489	1500	1521	1526	1530	1525	1527	1510	1506	1507	1527	1510	1528	1519	1490	1469	1464	1511	1514	1535	1528	1512	1505	1507	1513	1515	1500	1462	1472	1501	1537	1558	1565	1538	1538	1532	1527	1523	1523	1517	1508	1502	1497	1509	1516	1524	1548	1565	1568	1556	1544	1549	1538	1544	1545	1534	1510	1500	1498	1505	1521	1538	1544	1542	1540	1530	1527	1538	1548	1550	1535	1522	1518	1520	1515	1509	1500	1499	1516	1522	1530	1518	1504	1505	1506	1513	1511	1530	1548	1566	1572	1563	1555	1556	1563	1575	1582	1586	1582	1548	1537	1535	1536	1552	1575	1592	1599	1584	1566	1547	1546	1546	1554	1560	1566	1577	1593	1611	1593	1562	1536	1536	1545	1565	1556	1541	1621	1564	1542	1632	1615	1637	1573	1583	1591	1586	1575	1579	1588	1586	1583	1574	1584	1594	1607	1618	1612	1598	1592	1605	1636	1629	1605	1778	2025	2531	3027	3101	3102	3114	3116	3117	3106	3074	3070	3046	3020	2995	3021	3065	3082	3056	3032	3009	2988	2994	3008	2986	2958	2931	2907	2899	2927	2964	3044	3034	3009	3021	3058	3065	2910	2632	2544	2488	2461	2450	2432	2398	2381	2371	2358	2328	2292	2280	2295	2307	2301	2295	2273	2260	2253	2255	2266	2255	2252	2231	2215	2214	2209	2195	2185	2179	2156	2162	2170	2190	2197	2166	2153	2145	2133	2117	2103	2106	2107	2105	2094	2084	2082	2079	2080	2074	2060	2048	1985	1978	1975	1975	1972	1960	1967	1973	1966	1956	1950	1953	1954	1947	1930	1904	1884	1877	1877	1886	1879	1864	1866	1859	1855	1857	1852	1854	1853	1841	1825	1820	1809	1804	1794	1791	1792	1791	1794	1792	1783	1768	1757	1750	1740	1735	1724	1719	1725	1731	1732	1727	1712	1697	1677	1669	1665	1669	1671	1665	1654	1649	1644	1632	1623	1620	1606	1600	1602	1602	1605	1605	1600	1595	1596	1599	1610	1602	1585	1573	1567	1563	1527	1523	1530	0	0	0	0	0	0	0	0	0
0	0	0	0	0	0	0	0	0	0	0	0	0	0	0	0	0	0	0	0	0	0	0	0	0	0	0	0	0	0	0	0	0	0	0	0	0	0	0	0	0	0	0	0	0	0	0	0	0	0	0	0	0	0	0	0	0	0	0	0	0	0	0	0	0	0	0	0	0	0	0	0	0	0	0	0	0	0	0	0	0	0	0	0	0	0	0	0	0	0	0	0	0	1483	1458	1428	1427	1404	1404	1415	1419	1421	1421	1423	1419	1413	1421	1430	1438	1440	1429	1409	1397	1393	1423	1451	1461	1460	1431	1420	1412	1409	1408	1409	1395	1397	1401	1406	1407	1404	1404	1399	1402	1402	1409	1413	1421	1422	1403	1397	1403	1399	1395	1396	1422	1417	1423	1422	1419	1418	1413	1418	1424	1430	1439	1435	1432	1436	1437	1434	1435	1433	1438	1458	1470	1471	1475	1478	1452	1437	1422	1414	1409	1415	1428	1449	1464	1453	1457	1467	1475	1477	1463	1457	1449	1453	1461	1458	1465	1467	1466	1461	1472	1477	1484	1480	1470	1466	1458	1455	1459	1472	1461	1462	1467	1489	1495	1491	1466	1468	1475	1482	1486	1487	1481	1483	1491	1486	1478	1462	1453	1460	1458	1447	1449	1463	1472	1473	1477	1476	1474	1459	1449	1446	1461	1479	1495	1494	1497	1495	1475	1454	1456	1444	1442	1428	1460	1468	1468	1414	1448	1413	1466	1453	1450	1429	1430	1459	1484	1509	1506	1489	1477	1461	1460	1469	1493	1504	1496	1484	1500	1489	1487	1488	1478	1475	1474	1477	1479	1482	1475	1464	1455	1461	1462	1463	1474	1481	1498	1492	1500	1504	1502	1505	1506	1499	1482	1486	1493	1487	1481	1473	1480	1485	1507	1520	1511	1488	1493	1498	1500	1522	1523	1528	1511	1501	1498	1463	1472	1478	1482	1502	1507	1500	1507	1506	1505	1496	1480	1506	1519	1539	1535	1531	1539	1545	1544	1542	1535	1524	1510	1494	1504	1494	1491	1499	1516	1529	1546	1570	1574	1565	1546	1534	1529	1532	1530	1521	1505	1506	1509	1505	1504	1512	1533	1542	1544	1532	1524	1530	1555	1565	1551	1539	1529	1536	1529	1512	1497	1488	1497	1505	1507	1500	1498	1515	1514	1513	1508	1520	1542	1563	1569	1563	1555	1549	1546	1545	1551	1557	1558	1559	1547	1543	1544	1557	1577	1589	1599	1589	1565	1553	1552	1550	1535	1512	1507	1493	1518	1543	1556	1554	1547	1541	1542	1557	1556	1542	1546	1544	1530	1502	1552	1573	1566	1575	1581	1567	1568	1570	1571	1572	1574	1567	1569	1581	1588	1600	1605	1597	1586	1582	1603	1628	1608	1755	2015	2557	2983	3078	3111	3116	3117	3111	3103	3069	3069	3033	3016	3009	3045	3105	3143	3104	3033	2979	2956	2965	2978	2988	2950	2901	2888	2929	2971	3031	3046	3033	3025	3026	3051	3058	2864	2640	2548	2501	2477	2469	2446	2409	2393	2377	2364	2348	2321	2297	2290	2307	2313	2304	2291	2281	2258	2261	2267	2241	2229	2219	2201	2194	2198	2199	2175	2166	2157	2156	2173	2189	2197	2164	2151	2143	2132	2120	2113	2108	2106	2099	2092	2086	2081	2076	2073	2058	2050	2007	1984	1968	1972	1961	1953	1950	1964	1969	1966	1961	1960	1958	1956	1946	1929	1906	1894	1902	1915	1902	1895	1880	1881	1878	1874	1863	1849	1843	1841	1838	1823	1814	1806	1795	1789	1784	1779	1770	1760	1754	1756	1771	1768	1756	1733	1727	1722	1716	1706	1710	1727	1727	1713	1695	1673	1656	1653	1662	1667	1665	1662	1662	1655	1645	1638	1618	1607	1601	1607	1607	1614	1617	1610	1602	1605	1600	1596	1586	1571	1560	1558	1543	1517	1501	1519	0	0	0	0	0	0	0	0	0
0	0	0	0	0	0	0	0	0	0	0	0	0	0	0	0	0	0	0	0	0	0	0	0	0	0	0	0	0	0	0	0	0	0	0	0	0	0	0	0	0	0	0	0	0	0	0	0	0	0	0	0	0	0	0	0	0	0	0	0	0	0	0	0	0	0	0	0	0	0	0	0	0	0	0	0	0	0	0	0	0	0	0	0	0	0	0	0	0	0	0	0	0	1583	1492	1464	1442	1404	1404	1421	1430	1435	1436	1433	1427	1418	1416	1419	1425	1430	1421	1407	1398	1407	1430	1453	1456	1453	1434	1424	1413	1408	1406	1399	1397	1404	1409	1409	1402	1390	1392	1407	1415	1409	1417	1422	1427	1424	1409	1418	1416	1386	1400	1396	1412	1405	1405	1413	1413	1409	1414	1428	1440	1451	1453	1453	1453	1456	1446	1441	1444	1444	1449	1477	1473	1471	1471	1478	1448	1435	1425	1423	1425	1428	1437	1449	1458	1449	1456	1465	1472	1472	1464	1448	1457	1451	1441	1441	1455	1464	1468	1462	1466	1475	1478	1476	1473	1466	1463	1459	1462	1467	1447	1442	1454	1470	1488	1491	1493	1488	1488	1489	1482	1464	1454	1466	1488	1492	1485	1467	1448	1454	1461	1460	1462	1465	1471	1477	1481	1485	1481	1473	1461	1455	1458	1475	1488	1497	1492	1483	1473	1464	1470	1458	1448	1430	1452	1456	1459	1441	1416	1436	1435	1440	1430	1422	1423	1440	1462	1487	1484	1479	1470	1462	1459	1467	1470	1463	1475	1475	1480	1479	1502	1506	1488	1483	1474	1472	1479	1482	1473	1485	1496	1460	1459	1471	1486	1491	1498	1479	1495	1500	1505	1511	1504	1494	1494	1497	1504	1494	1478	1477	1481	1486	1493	1494	1487	1498	1509	1507	1507	1529	1489	1456	1511	1497	1454	1481	1473	1477	1484	1481	1511	1514	1513	1508	1505	1491	1495	1512	1519	1536	1536	1526	1531	1538	1545	1544	1541	1516	1496	1503	1504	1502	1497	1499	1510	1524	1535	1559	1567	1556	1544	1542	1540	1537	1533	1534	1531	1529	1509	1511	1506	1512	1523	1536	1540	1545	1537	1537	1548	1558	1558	1558	1560	1561	1551	1555	1554	1553	1563	1551	1536	1532	1536	1541	1538	1536	1538	1549	1563	1576	1564	1540	1532	1544	1559	1564	1571	1573	1565	1560	1570	1569	1560	1559	1560	1591	1603	1592	1554	1554	1557	1555	1553	1525	1511	1519	1514	1539	1551	1560	1571	1567	1562	1559	1561	1547	1544	1488	1482	1489	1540	1557	1548	1558	1552	1552	1550	1556	1567	1575	1564	1560	1555	1568	1589	1595	1596	1595	1578	1567	1585	1611	1615	1754	2007	2641	2989	3105	3106	3127	3117	3117	3117	3120	3093	3055	3040	3036	3074	3125	3164	3132	3029	2964	2941	2937	2974	2987	2970	2920	2918	2961	3008	3080	3038	3037	3028	3003	3009	3015	2870	2663	2580	2521	2487	2459	2432	2400	2383	2380	2376	2362	2343	2315	2299	2301	2320	2323	2310	2288	2266	2259	2252	2225	2213	2197	2194	2183	2182	2186	2153	2151	2149	2154	2164	2192	2204	2168	2150	2140	2128	2110	2101	2094	2084	2094	2083	2085	2083	2075	2061	2048	2045	2061	2052	2035	2001	1970	1951	1950	1961	1974	1975	1975	1971	1963	1953	1940	1927	1915	1910	1920	1928	1918	1912	1895	1900	1894	1885	1869	1856	1843	1839	1831	1815	1806	1796	1787	1785	1795	1800	1784	1765	1748	1750	1752	1746	1743	1733	1717	1710	1695	1678	1692	1703	1700	1693	1689	1686	1676	1681	1677	1678	1670	1669	1673	1672	1659	1643	1627	1606	1594	1602	1602	1623	1627	1621	1609	1600	1593	1587	1575	1561	1554	1553	1553	1531	1512	1500	0	0	0	0	0	0	0	0	0
0	0	0	0	0	0	0	0	0	0	0	0	0	0	0	0	0	0	0	0	0	0	0	0	0	0	0	0	0	0	0	0	0	0	0	0	0	0	0	0	0	0	0	0	0	0	0	0	0	0	0	2813	2817	2810	2810	2790	2796	2800	0	0	0	0	0	0	0	2781	0	0	0	0	0	0	0	0	0	0	0	0	0	0	0	0	0	0	0	0	0	0	0	0	0	0	1659	1531	1456	1459	1457	1412	1411	1421	1431	1438	1437	1438	1426	1419	1414	1415	1414	1417	1417	1413	1412	1417	1425	1431	1433	1429	1432	1428	1422	1416	1414	1405	1402	1413	1419	1414	1404	1393	1398	1410	1422	1429	1430	1425	1424	1421	1420	1426	1435	1412	1408	1403	1416	1399	1400	1408	1409	1410	1423	1447	1469	1481	1476	1485	1485	1471	1455	1449	1462	1471	1476	1471	1474	1492	1498	1482	1470	1452	1447	1456	1461	1460	1464	1471	1465	1442	1449	1462	1466	1469	1459	1455	1459	1463	1450	1420	1424	1445	1459	1460	1470	1472	1473	1472	1470	1470	1467	1464	1473	1463	1434	1424	1422	1438	1465	1482	1502	1504	1503	1498	1479	1459	1444	1457	1482	1490	1482	1449	1441	1449	1464	1476	1467	1463	1467	1480	1483	1488	1485	1482	1470	1464	1476	1481	1473	1482	1498	1489	1476	1515	1488	1473	1465	1426	1421	1444	1448	1464	1458	1471	1463	1453	1443	1433	1432	1438	1448	1466	1453	1460	1466	1460	1447	1457	1469	1469	1485	1484	1492	1490	1503	1499	1485	1480	1471	1471	1476	1478	1474	1475	1448	1445	1451	1466	1474	1484	1480	1484	1487	1494	1494	1503	1491	1500	1500	1502	1489	1480	1479	1487	1483	1489	1485	1497	1486	1498	1513	1524	1528	1532	1533	1505	1448	1454	1487	1487	1479	1477	1484	1495	1498	1524	1526	1523	1518	1506	1508	1521	1526	1536	1531	1526	1529	1543	1548	1545	1545	1516	1511	1515	1505	1491	1491	1511	1515	1518	1519	1532	1550	1548	1548	1553	1550	1546	1537	1542	1542	1518	1515	1521	1514	1515	1526	1537	1553	1553	1544	1542	1541	1549	1550	1553	1563	1567	1574	1562	1563	1568	1567	1559	1548	1541	1542	1542	1534	1535	1536	1552	1567	1576	1555	1554	1535	1543	1556	1566	1583	1585	1577	1567	1574	1578	1561	1563	1574	1593	1550	1535	1533	1542	1552	1554	1549	1554	1527	1531	1537	1540	1540	1546	1562	1569	1566	1565	1561	1536	1507	1468	1463	1495	1540	1539	1535	1542	1541	1537	1539	1541	1557	1572	1571	1565	1550	1558	1577	1581	1584	1587	1586	1561	1564	1595	1641	1764	2022	2611	3100	3141	3173	3127	3111	3113	3126	3122	3113	3114	3078	3076	3081	3131	3132	3113	3043	2968	2943	2933	2961	2999	2982	2953	2948	2980	3038	3079	3022	3017	3008	2985	2970	2976	2838	2684	2598	2533	2487	2441	2400	2370	2352	2376	2387	2378	2368	2326	2281	2286	2314	2326	2317	2296	2262	2237	2233	2223	2202	2201	2196	2184	2179	2181	2144	2137	2133	2139	2159	2190	2210	2174	2148	2127	2108	2086	2070	2072	2081	2077	2073	2070	2070	2067	2052	2047	2047	2061	2050	2030	2002	1980	1967	1966	1969	1976	1975	1969	1953	1944	1930	1923	1919	1917	1915	1923	1933	1925	1911	1904	1903	1886	1878	1869	1862	1839	1826	1814	1817	1809	1795	1789	1805	1801	1803	1785	1766	1744	1753	1752	1749	1750	1747	1735	1715	1699	1691	1696	1698	1686	1675	1673	1675	1672	1679	1686	1686	1680	1659	1663	1674	1673	1668	1653	1627	1610	1599	1599	1602	1608	1601	1593	1583	1582	1574	1565	1562	1560	1555	1552	1547	1536	1528	0	0	0	0	0	0	0	0	0
0	0	0	0	0	0	0	0	0	0	0	0	0	0	0	0	0	0	0	0	0	0	0	0	0	0	0	0	2682	2729	0	0	0	0	0	0	0	0	0	0	2771	2811	0	0	0	2934	2964	2937	2904	2816	2764	2774	2810	2819	2819	2821	2815	2797	2783	2774	2791	2809	2830	2823	2787	2766	2756	2757	2757	2795	2873	2873	2942	2955	2905	2858	2867	0	0	0	0	2796	2745	2724	2723	2739	2746	0	0	0	0	0	1606	1486	1439	1452	1459	1428	1416	1414	1417	1424	1435	1429	1428	1418	1412	1407	1399	1400	1404	1407	1405	1405	1403	1407	1409	1419	1428	1431	1426	1425	1425	1420	1414	1422	1423	1415	1406	1397	1404	1412	1424	1427	1418	1411	1408	1414	1421	1425	1427	1437	1433	1437	1468	1455	1442	1404	1394	1400	1424	1448	1464	1466	1477	1489	1491	1474	1469	1478	1495	1508	1487	1476	1478	1530	1563	1574	1574	1581	1573	1557	1556	1547	1523	1520	1527	1583	1630	1592	1570	1550	1513	1473	1472	1474	1471	1459	1484	1497	1509	1514	1526	1506	1493	1483	1480	1481	1478	1477	1481	1479	1450	1443	1431	1466	1481	1479	1509	1492	1481	1467	1466	1463	1471	1474	1468	1463	1470	1479	1458	1454	1468	1511	1492	1469	1471	1484	1484	1483	1478	1468	1458	1468	1477	1472	1465	1506	1514	1517	1517	1502	1504	1498	1482	1441	1421	1431	1462	1461	1457	1454	1447	1471	1455	1446	1444	1444	1449	1458	1441	1442	1458	1457	1445	1456	1467	1494	1500	1474	1494	1487	1500	1483	1481	1482	1471	1466	1469	1460	1460	1468	1466	1446	1445	1462	1478	1494	1480	1477	1484	1484	1473	1493	1494	1501	1496	1504	1489	1484	1480	1487	1487	1491	1500	1481	1517	1496	1505	1528	1530	1531	1542	1454	1460	1463	1457	1476	1494	1485	1483	1513	1517	1541	1536	1531	1526	1521	1529	1527	1538	1538	1523	1520	1528	1545	1554	1555	1541	1524	1524	1526	1510	1485	1484	1521	1529	1524	1521	1530	1546	1537	1538	1537	1535	1523	1524	1531	1538	1526	1522	1528	1527	1523	1540	1547	1559	1556	1547	1539	1542	1541	1543	1546	1553	1558	1544	1544	1551	1560	1565	1564	1558	1547	1546	1543	1538	1534	1534	1545	1558	1564	1559	1555	1553	1559	1565	1576	1589	1587	1565	1562	1565	1563	1555	1558	1569	1561	1552	1541	1529	1526	1541	1549	1549	1562	1564	1545	1545	1542	1535	1531	1535	1546	1561	1563	1563	1521	1511	1496	1492	1491	1539	1533	1532	1546	1543	1538	1529	1543	1561	1577	1576	1574	1555	1541	1559	1566	1569	1571	1577	1577	1566	1601	1638	1780	2076	2657	3003	3150	3182	3145	3116	3113	3154	3151	3152	3149	3137	3134	3103	3104	3107	3089	3023	2981	2947	2956	2981	3002	3004	2975	2976	3003	3045	3075	3009	2997	2985	2969	2960	2966	2836	2696	2601	2538	2481	2431	2375	2348	2345	2350	2368	2378	2378	2330	2298	2294	2311	2326	2330	2303	2260	2222	2219	2218	2216	2200	2193	2188	2195	2189	2167	2148	2148	2153	2191	2212	2175	2145	2136	2130	2108	2084	2066	2065	2079	2090	2090	2080	2059	2037	2023	2029	2037	2049	2039	2018	1986	1972	1975	1983	1976	1980	1972	1967	1953	1938	1920	1914	1916	1912	1909	1911	1924	1919	1903	1877	1880	1876	1873	1874	1869	1846	1836	1825	1829	1816	1804	1795	1812	1809	1791	1769	1752	1745	1752	1748	1749	1756	1765	1755	1729	1708	1703	1704	1700	1686	1674	1671	1673	1672	1675	1682	1687	1681	1657	1654	1662	1669	1670	1657	1630	1612	1592	1592	1595	1602	1598	1589	1587	1579	1575	1569	1566	1563	1565	1570	1571	1560	1547	0	0	0	0	0	0	0	0	0
0	0	0	0	0	0	0	0	0	0	0	0	0	0	0	0	0	0	0	0	0	0	0	0	0	0	0	2709	2709	2731	2761	2754	2752	2785	2785	0	0	0	2775	2740	2737	2773	2832	2764	2778	2789	2813	2833	2822	2782	2717	2705	2722	2759	2782	2782	2785	2784	2769	2776	2808	2847	2845	2795	2757	2722	2708	2702	2733	2793	2880	2880	2940	2909	2860	2808	2793	2797	2821	2810	2806	2767	2733	2736	2719	2718	2720	2730	0	0	0	0	1581	1474	1426	1435	1457	1444	1421	1406	1405	1416	1427	1427	1419	1412	1407	1405	1400	1395	1394	1392	1389	1387	1387	1392	1398	1406	1411	1412	1416	1425	1431	1434	1430	1438	1424	1412	1404	1400	1405	1413	1422	1420	1408	1397	1394	1406	1421	1418	1424	1449	1444	1435	1472	1484	1456	1425	1399	1416	1427	1443	1455	1451	1457	1463	1466	1474	1492	1512	1518	1520	1505	1525	1546	1592	1632	1688	1729	1764	1778	1762	1741	1726	1713	1702	1681	1648	1682	1709	1703	1685	1696	1684	1665	1635	1617	1590	1613	1624	1606	1593	1604	1617	1600	1573	1545	1523	1518	1535	1556	1589	1680	1766	1873	1906	1840	1740	1547	1487	1451	1459	1491	1519	1536	1549	1554	1566	1587	1604	1605	1589	1575	1551	1511	1488	1484	1498	1478	1455	1448	1465	1481	1497	1501	1498	1521	1513	1494	1499	1498	1489	1498	1517	1495	1445	1428	1437	1464	1480	1465	1485	1456	1453	1464	1468	1458	1459	1465	1475	1477	1444	1456	1459	1454	1460	1472	1485	1491	1480	1488	1467	1475	1463	1481	1482	1483	1480	1479	1469	1459	1493	1466	1465	1464	1459	1492	1501	1498	1476	1472	1473	1465	1467	1473	1501	1496	1500	1489	1491	1478	1465	1485	1494	1502	1511	1514	1480	1490	1516	1519	1532	1453	1517	1501	1433	1471	1459	1476	1497	1492	1529	1534	1550	1537	1538	1532	1532	1534	1552	1543	1533	1523	1528	1550	1557	1556	1554	1541	1531	1528	1523	1504	1483	1493	1527	1539	1547	1533	1539	1547	1528	1530	1522	1498	1503	1510	1525	1541	1536	1530	1535	1532	1538	1546	1554	1561	1558	1548	1536	1531	1539	1543	1542	1543	1543	1533	1532	1543	1558	1559	1564	1558	1552	1550	1540	1539	1533	1539	1545	1546	1552	1565	1567	1569	1585	1581	1586	1589	1575	1555	1554	1554	1551	1549	1551	1566	1568	1569	1563	1548	1533	1539	1537	1547	1555	1568	1546	1552	1549	1543	1535	1543	1544	1545	1558	1557	1519	1608	1507	1497	1551	1527	1533	1541	1545	1549	1542	1537	1540	1557	1573	1581	1578	1561	1545	1544	1552	1554	1558	1576	1579	1581	1611	1632	1805	2223	2884	3039	3231	3255	3202	3166	3160	3188	3199	3188	3189	3202	3153	3118	3101	3099	3080	3044	2993	2968	2973	2995	3013	3002	2975	2982	3013	3036	3045	3000	2970	2970	2978	2992	3018	2852	2698	2579	2515	2481	2442	2375	2341	2321	2326	2344	2367	2376	2356	2310	2304	2311	2319	2325	2315	2238	2225	2219	2221	2207	2204	2206	2220	2224	2215	2191	2193	2189	2186	2180	2155	2150	2144	2139	2139	2122	2097	2088	2080	2090	2095	2094	2081	2069	2051	2013	2018	2018	2033	2017	1990	1970	1960	1959	1966	1973	1981	1999	1993	1988	1980	1957	1930	1912	1901	1888	1884	1891	1901	1893	1874	1870	1871	1876	1880	1878	1869	1855	1848	1836	1827	1813	1819	1824	1816	1796	1777	1768	1759	1754	1745	1742	1741	1764	1770	1743	1722	1706	1698	1696	1689	1690	1685	1670	1654	1657	1661	1663	1658	1648	1648	1655	1668	1669	1657	1629	1604	1590	1590	1590	1593	1593	1587	1582	1585	1585	1580	1572	1565	1565	1568	1566	1558	1545	0	0	0	0	0	0	0	0	0
0	0	0	0	2492	2531	0	0	0	0	0	0	2605	2605	2578	2544	2531	2540	2557	2557	0	0	2671	2694	2704	2698	2698	2700	2696	2691	2693	2673	2674	2708	2708	2775	2830	2766	2721	2693	2633	2661	2686	2686	2708	2710	2719	2729	2726	2691	2660	2647	2665	2682	2714	2714	2743	2746	2758	2760	2782	2785	2771	2684	2654	2638	2639	2650	2681	2731	2775	2775	2848	2836	2798	2769	2738	2736	2741	2726	2724	2714	2720	2721	2717	2700	2679	2691	0	0	0	0	1612	1493	1423	1425	1444	1448	1430	1413	1408	1410	1415	1412	1407	1408	1417	1421	1408	1398	1390	1387	1384	1380	1380	1382	1379	1381	1390	1393	1401	1418	1435	1442	1449	1453	1437	1406	1396	1400	1409	1420	1429	1423	1407	1395	1398	1411	1428	1433	1439	1441	1438	1432	1454	1470	1456	1423	1405	1418	1427	1432	1445	1464	1467	1459	1458	1460	1478	1505	1525	1531	1535	1556	1580	1615	1656	1708	1762	1794	1808	1802	1780	1769	1756	1741	1718	1698	1751	1775	1797	1765	1751	1741	1684	1664	1720	1744	1774	1814	1806	1798	1802	1847	1880	1880	1871	1890	1950	2013	2069	2108	2118	2106	2044	2090	2028	2100	2024	1961	1940	1937	1931	1910	1931	2060	2133	2161	2172	2121	2123	2190	2176	2096	1960	1957	2069	2050	2036	1993	1973	1903	1865	1912	1936	1911	1877	1851	1833	1685	1463	1473	1473	1488	1488	1460	1447	1458	1465	1483	1461	1457	1466	1474	1471	1469	1476	1479	1475	1483	1486	1480	1471	1475	1463	1450	1457	1463	1488	1516	1500	1475	1471	1483	1486	1484	1493	1496	1497	1467	1462	1502	1509	1469	1465	1472	1502	1504	1499	1490	1474	1471	1464	1462	1487	1489	1491	1495	1482	1488	1477	1464	1488	1495	1508	1516	1503	1475	1480	1494	1501	1506	1513	1464	1461	1486	1486	1470	1479	1517	1516	1536	1538	1541	1554	1538	1532	1531	1549	1551	1540	1544	1553	1558	1559	1559	1555	1560	1559	1546	1526	1510	1542	1540	1530	1525	1561	1570	1562	1556	1546	1521	1499	1477	1484	1498	1511	1519	1535	1553	1550	1538	1538	1539	1542	1557	1564	1555	1540	1524	1527	1541	1547	1548	1541	1533	1534	1533	1531	1543	1556	1556	1555	1558	1555	1548	1567	1560	1563	1553	1547	1551	1583	1583	1611	1610	1606	1602	1591	1559	1547	1538	1541	1547	1552	1561	1574	1586	1602	1598	1553	1543	1550	1537	1544	1545	1555	1549	1554	1559	1555	1549	1540	1537	1543	1558	1561	1555	1534	1599	1578	1530	1527	1537	1541	1547	1545	1535	1529	1530	1543	1557	1566	1571	1569	1550	1548	1558	1562	1566	1569	1580	1590	1618	1662	1823	2378	2899	3235	3402	3430	3355	3303	3266	3271	3254	3232	3212	3208	3166	3136	3113	3099	3077	3048	3009	2983	2974	2995	3007	3000	2995	2995	3009	3017	3014	2990	2982	2995	3014	3042	3055	3006	2676	2545	2491	2481	2446	2400	2343	2298	2304	2327	2348	2368	2367	2340	2316	2321	2324	2326	2313	2242	2216	2216	2236	2231	2229	2238	2246	2245	2229	2222	2212	2205	2195	2171	2138	2128	2132	2132	2139	2129	2116	2102	2102	2097	2087	2077	2065	2054	2046	2022	2023	2020	2017	2004	1981	1964	1956	1954	1950	1952	1985	1988	1996	1992	1972	1951	1927	1913	1902	1894	1890	1897	1905	1882	1865	1856	1858	1871	1886	1884	1876	1862	1849	1840	1833	1825	1824	1822	1816	1804	1790	1776	1766	1754	1744	1738	1741	1759	1767	1748	1723	1712	1699	1693	1687	1679	1674	1661	1657	1657	1664	1657	1652	1640	1632	1633	1641	1649	1636	1623	1612	1612	1608	1607	1601	1592	1580	1579	1581	1581	1575	1568	1558	1547	1541	1537	1537	1537	0	0	0	0	0	0	0	0	0
0	0	0	2482	2454	2459	2511	2511	2550	2549	2530	2551	2563	2563	2543	2507	2478	2482	2492	2527	2527	2573	2614	2635	2633	2635	2635	2648	2622	2600	2587	2570	2560	2586	2586	2660	2679	2647	2541	2489	2541	2566	2592	2592	2608	2610	2631	2629	2623	2610	2595	2597	2607	2634	2679	2679	2707	2730	2734	2731	2712	2675	2607	2544	2533	2560	2589	2619	2651	2688	2701	2701	2691	2666	2652	2650	2694	2680	2646	2627	2617	2650	2682	2702	2690	2675	2664	2663	2643	0	0	0	1639	1513	1443	1424	1431	1441	1454	1437	1421	1406	1399	1400	1404	1406	1420	1427	1420	1404	1393	1386	1375	1369	1370	1379	1378	1385	1384	1386	1397	1414	1434	1445	1449	1459	1441	1406	1396	1404	1417	1430	1436	1431	1415	1408	1412	1420	1430	1446	1445	1424	1423	1424	1450	1456	1456	1420	1402	1403	1410	1402	1423	1444	1462	1472	1474	1477	1488	1504	1525	1529	1537	1560	1590	1629	1679	1732	1777	1815	1839	1843	1838	1832	1810	1784	1765	1748	1850	1851	1852	1821	1800	1780	1729	1735	1773	1813	1846	1866	1863	1850	1839	1893	1933	1936	1932	1949	2009	2088	2143	2189	2204	2206	2216	2230	2233	2236	2087	2082	2120	2154	2160	2163	2198	2273	2317	2335	2394	2401	2367	2367	2379	2406	2515	2543	2394	2418	2449	2421	2519	2476	2457	2516	2584	2630	2600	2493	2330	0	1736	1464	1460	1483	1488	1462	1468	1463	1467	1461	1475	1476	1487	1495	1487	1478	1473	1477	1483	1494	1491	1487	1484	1482	1477	1460	1456	1443	1469	1488	1476	1495	1483	1500	1495	1489	1485	1495	1478	1465	1458	1495	1507	1477	1473	1473	1482	1505	1504	1500	1479	1476	1462	1475	1483	1498	1493	1495	1483	1485	1472	1483	1494	1497	1509	1515	1497	1473	1471	1474	1475	1497	1503	1474	1468	1484	1495	1476	1524	1550	1535	1530	1530	1545	1554	1573	1569	1562	1539	1527	1553	1586	1617	1628	1622	1601	1587	1595	1602	1581	1558	1564	1610	1604	1588	1560	1576	1596	1575	1544	1537	1507	1496	1515	1536	1554	1580	1589	1579	1569	1569	1595	1543	1517	1522	1570	1595	1601	1589	1576	1549	1525	1536	1555	1563	1592	1594	1598	1570	1574	1590	1592	1580	1573	1585	1591	1580	1582	1581	1578	1572	1586	1595	1598	1600	1624	1620	1606	1591	1556	1538	1534	1540	1554	1559	1570	1545	1579	1592	1587	1542	1544	1573	1545	1550	1547	1549	1550	1562	1563	1562	1559	1550	1545	1553	1572	1572	1571	1571	1575	1561	1535	1523	1531	1536	1548	1553	1541	1532	1526	1531	1543	1552	1560	1571	1557	1560	1573	1578	1581	1585	1582	1596	1621	1697	1831	2312	3055	3411	3599	3723	3759	3730	3662	3532	3308	3258	3217	3203	3163	3146	3127	3101	3055	3033	3025	3012	2995	2981	2985	2994	2996	2994	3005	2994	2987	3054	3046	3031	3050	3077	3081	3016	2681	2545	2489	2468	2443	2414	2377	2310	2307	2317	2336	2355	2353	2333	2313	2323	2335	2326	2304	2235	2211	2231	2260	2253	2249	2250	2249	2249	2242	2228	2222	2222	2216	2181	2138	2120	2115	2122	2122	2123	2116	2113	2108	2097	2078	2058	2045	2046	2036	2046	2042	2022	1998	1980	1969	1953	1954	1953	1942	1957	1981	1981	1989	1970	1956	1929	1919	1910	1906	1896	1893	1893	1894	1878	1864	1860	1860	1867	1879	1882	1876	1862	1851	1835	1824	1812	1785	1769	1765	1777	1792	1804	1787	1770	1764	1755	1750	1756	1752	1740	1730	1732	1731	1719	1698	1680	1665	1664	1661	1661	1661	1657	1649	1635	1620	1626	1643	1647	1644	1630	1616	1616	1613	1613	1601	1590	1579	1581	1584	1581	1573	1562	1553	1550	1545	1537	1537	1540	0	0	0	0	0	0	0	0	0
2421	2444	2444	2424	2401	2404	2423	2478	2478	2491	2475	2481	2492	2492	2501	2473	2447	2444	2458	2486	2486	2521	2550	2560	2574	2581	2578	2578	2552	2524	2513	2507	2489	2494	2494	2541	2512	2499	2454	2418	2438	2465	2478	2478	2518	2560	2589	2599	2579	2564	2559	2568	2575	2580	2619	2619	2652	2703	2690	2641	2592	2576	2544	2513	2496	2512	2524	2556	2615	2639	2654	2654	2636	2599	2569	2556	2581	2556	2544	2536	2545	2572	2599	2631	2647	2647	2645	2630	2597	0	0	0	1645	1508	1453	1427	1409	1416	1450	1452	1432	1412	1398	1393	1397	1397	1409	1419	1409	1401	1387	1378	1371	1367	1368	1379	1386	1392	1398	1402	1409	1422	1434	1439	1443	1449	1425	1411	1411	1413	1428	1428	1434	1435	1431	1417	1420	1421	1428	1449	1439	1404	1410	1443	1445	1428	1415	1406	1395	1397	1394	1393	1403	1436	1464	1480	1491	1497	1503	1514	1523	1527	1537	1567	1627	1671	1716	1748	1783	1812	1847	1877	1892	1879	1848	1828	1804	1794	1857	1865	1880	1854	1830	1792	1740	1763	1797	1845	1890	1903	1893	1891	1877	1934	1984	2001	1993	2025	2091	2192	2262	2295	2306	2302	2334	2378	2360	2302	2217	2184	2217	2259	2269	2282	2333	2403	2482	2507	2533	2548	2541	2546	2559	2589	2658	2664	2612	2599	2629	2682	2685	2644	2619	2643	2723	2756	2725	2652	0	0	0	1505	1478	1498	1489	1464	1468	1468	1467	1464	1467	1464	1488	1492	1491	1475	1478	1471	1487	1494	1488	1473	1484	1481	1492	1476	1483	1488	1466	1467	1480	1480	1493	1515	1522	1513	1490	1473	1471	1467	1455	1454	1484	1481	1481	1468	1484	1491	1491	1504	1481	1480	1482	1485	1500	1506	1501	1504	1496	1491	1480	1494	1497	1507	1511	1506	1494	1481	1472	1474	1480	1489	1486	1491	1496	1489	1504	1521	1539	1575	1553	1522	1539	1545	1689	1941	1902	1864	1796	1764	1798	1845	1866	1842	1805	1784	1786	1799	1793	1774	1764	1773	1791	1787	1772	1763	1751	1731	1673	1642	1638	1648	1646	1640	1623	1605	1610	1630	1660	1734	1845	1877	1853	1793	1740	1700	1697	1681	1662	1621	1554	1515	1519	1551	1596	1625	1625	1618	1575	1573	1624	1698	1723	1731	1755	1775	1757	1726	1691	1676	1663	1657	1681	1669	1646	1602	1596	1604	1603	1564	1551	1546	1544	1539	1533	1539	1576	1574	1562	1549	1511	1529	1570	1570	1534	1535	1546	1551	1560	1556	1559	1563	1561	1560	1570	1570	1586	1582	1568	1559	1550	1542	1536	1537	1546	1563	1566	1554	1538	1530	1528	1531	1542	1557	1563	1558	1555	1581	1597	1598	1589	1584	1591	1626	1660	1824	2331	3196	3457	3629	3770	3807	3778	3713	3624	3457	3266	3200	3169	3149	3140	3118	3072	3016	3008	3036	3045	3051	3051	3039	3019	3024	3019	3011	3011	3028	3087	3156	3172	3131	3104	3083	2898	2680	2549	2483	2445	2424	2406	2391	2332	2320	2327	2337	2345	2330	2306	2297	2306	2321	2282	2283	2192	2191	2204	2229	2262	2257	2258	2255	2255	2243	2229	2214	2213	2212	2179	2144	2106	2104	2100	2101	2099	2100	2107	2107	2095	2077	2055	2048	2046	2036	2053	2057	2050	1989	1979	1973	1957	1937	1935	1947	1961	1984	1976	1964	1949	1933	1919	1913	1907	1906	1889	1888	1888	1891	1880	1871	1866	1863	1866	1871	1875	1867	1851	1842	1830	1821	1804	1784	1774	1770	1778	1790	1793	1784	1768	1766	1756	1751	1751	1741	1735	1733	1739	1756	1764	1763	1742	1704	1670	1669	1675	1676	1668	1653	1626	1609	1600	1618	1636	1641	1625	1614	1614	1611	1615	1607	1594	1589	1582	1582	1583	1573	1561	1555	1549	1547	1542	1536	1540	0	0	0	0	0	0	0	0	0
2359	2357	2357	2349	2345	2358	2397	2435	2435	2437	2422	2397	2419	2419	2428	2433	2408	2399	2422	2465	2465	2486	2483	2483	2497	2511	2500	2500	2492	2466	2464	2469	2437	2432	2365	2407	2442	2456	2445	2422	2410	2401	2427	2466	2466	2510	2551	2550	2518	2504	2503	2510	2509	2501	2498	2498	2462	2460	2468	2498	2517	2525	2505	2474	2440	2450	2467	2488	2547	2570	2577	2577	2541	2496	2460	2464	2490	2500	2495	2500	2505	2520	2529	2538	2590	2618	2602	2583	2534	2383	0	1995	1620	1493	1452	1424	1396	1407	1436	1449	1438	1417	1406	1396	1390	1391	1399	1406	1408	1404	1395	1379	1368	1362	1368	1383	1390	1395	1405	1411	1421	1430	1428	1427	1423	1425	1425	1424	1422	1414	1420	1412	1419	1417	1419	1418	1420	1418	1420	1443	1433	1391	1398	1448	1448	1421	1397	1401	1411	1399	1397	1395	1411	1449	1474	1487	1502	1509	1508	1511	1518	1533	1541	1601	1658	1703	1741	1769	1785	1802	1832	1871	1910	1895	1870	1846	1841	1841	1860	1865	1881	1851	1819	1777	1754	1785	1803	1830	1881	1908	1920	1920	1924	1976	2010	2028	2034	2063	2150	2278	2335	2351	2351	2364	2401	2397	2386	2326	2264	2237	2269	2314	2325	2338	2391	2485	2586	2645	2675	2705	2722	2720	2727	2756	2770	2781	2736	2725	2730	2744	2753	2762	2767	2814	2845	2849	2806	2743	0	0	0	1551	1497	1506	1487	1451	1446	1447	1474	1475	1465	1469	1475	1483	1488	1471	1479	1490	1496	1486	1470	1451	1464	1474	1487	1472	1487	1493	1465	1466	1491	1495	1507	1537	1508	1502	1490	1489	1483	1465	1467	1469	1487	1487	1492	1468	1487	1497	1491	1482	1481	1479	1483	1498	1498	1493	1498	1529	1509	1485	1483	1463	1510	1519	1526	1505	1493	1482	1478	1478	1486	1487	1489	1491	1492	1482	1486	1513	1539	1564	1552	1524	1562	1736	2073	2073	2862	2868	2844	2805	2792	2815	2805	2781	2787	2795	2810	2789	2798	2787	2789	2820	2787	2743	2743	2718	2696	2656	2631	2623	2621	2601	2474	2315	2124	1969	1871	0	1925	2159	2020	2170	2167	2171	2295	2194	2148	2109	2004	1812	1731	1660	1631	1637	1675	1708	1743	1757	1758	1798	1836	1876	1806	1817	1814	1815	1799	1898	1898	1889	1889	1893	1890	1870	1780	1646	1600	1597	1613	1601	1589	1590	1585	1577	1571	1572	1578	1573	1543	1515	1489	1504	1537	1560	1549	1547	1546	1532	1530	1539	1546	1553	1558	1561	1567	1577	1582	1573	1561	1551	1544	1545	1547	1559	1574	1583	1579	1565	1547	1542	1543	1541	1551	1550	1559	1564	1574	1590	1605	1607	1593	1588	1598	1612	1659	1836	2360	3225	3462	3631	3755	3782	3780	3739	3657	3429	3238	3159	3134	3128	3157	3096	3005	2987	3005	3036	3060	3098	3090	3095	3084	3078	3075	3063	3058	3089	3136	3167	3174	3137	3111	3033	2801	2663	2552	2471	2424	2407	2393	2387	2349	2325	2335	2343	2343	2318	2267	2240	2255	2228	2234	2272	2183	2121	2137	2193	2245	2259	2257	2240	2235	2237	2208	2197	2196	2187	2167	2139	2107	2105	2093	2071	2066	2077	2096	2104	2094	2086	2067	2055	2047	2047	2056	2062	2058	1995	1983	1971	1964	1965	1958	1954	1974	2001	2015	1960	1921	1909	1898	1899	1907	1899	1885	1890	1887	1891	1888	1881	1872	1863	1867	1870	1864	1855	1842	1828	1819	1812	1805	1808	1805	1798	1777	1773	1766	1753	1759	1764	1760	1756	1743	1731	1733	1739	1748	1754	1766	1769	1736	1700	1666	1668	1671	1673	1662	1649	1629	1611	1605	1612	1615	1611	1608	1608	1608	1610	1619	1632	1633	1618	1599	1591	1594	1588	1580	1568	1560	1550	1542	1542	1560	0	0	0	0	0	0	0	0	0
2263	2272	2272	2281	2303	2318	2359	2387	2387	2390	2360	2332	2341	2358	2358	2362	2359	2357	2378	2386	2386	2407	2402	2407	2429	2440	2442	2442	2438	2432	2445	2416	2326	2315	2354	2354	2395	2422	2422	2403	2388	2374	2378	2414	2414	2458	2489	2486	2453	2431	2427	2426	2439	2426	2390	2390	2360	2358	2398	2425	2458	2481	2461	2448	2413	2411	2430	2455	2456	2469	2462	2454	2454	2423	2408	2415	2434	2445	2463	2481	2487	2488	2489	2484	2484	2506	2508	2525	2490	2387	2161	2014	1630	1470	1433	1405	1391	1402	1423	1432	1419	1404	1401	1398	1392	1391	1396	1401	1411	1411	1403	1386	1372	1365	1381	1390	1396	1394	1395	1408	1420	1428	1419	1412	1413	1426	1425	1432	1429	1420	1408	1393	1392	1400	1412	1411	1414	1411	1416	1430	1419	1389	1392	1448	1448	1425	1396	1408	1428	1416	1411	1405	1428	1459	1493	1503	1506	1511	1503	1502	1501	1520	1541	1618	1671	1723	1769	1791	1796	1799	1818	1847	1860	1863	1854	1843	1849	1851	1878	1881	1886	1835	1790	1763	1766	1785	1795	1810	1871	1922	1947	1964	1970	1986	2016	2022	2033	2058	2142	2277	2368	2386	2393	2388	2393	2390	2380	2297	2273	2235	2281	2328	2345	2370	2422	2492	2578	2655	2704	2741	2769	2774	2762	2730	2730	2768	2765	2764	2763	2773	2732	2669	2709	2773	2853	2871	2832	2782	2565	2322	2101	1575	1486	1483	1469	1434	1428	1428	1492	1487	1468	1464	1463	1463	1470	1473	1489	1495	1497	1478	1457	1444	1457	1471	1469	1467	1475	1490	1480	1487	1491	1502	1505	1502	1494	1500	1489	1488	1486	1479	1480	1486	1497	1514	1503	1494	1491	1499	1483	1484	1484	1496	1489	1492	1494	1488	1524	1527	1518	1478	1460	1494	1497	1500	1494	1501	1488	1486	1493	1499	1493	1493	1512	1495	1501	1478	1479	1504	1531	1545	1535	1533	1598	1784	2235	2861	2936	2950	2938	2906	2904	2923	2931	2920	2913	2948	2959	2895	2909	2890	2902	2939	2902	2878	2871	2849	2843	2812	2774	2775	2767	2752	2658	2485	0	0	0	0	0	2106	2240	2283	2319	2347	2361	2275	2237	2157	2042	2001	0	0	0	0	0	1917	1937	1973	1869	1834	1847	1879	1938	1903	1902	1880	1928	1942	1939	1926	1924	1925	1923	1893	1781	1841	1674	1656	1658	1655	1624	1607	1601	1597	1601	1602	1594	1568	1568	1504	1489	1488	1500	1557	1561	1580	1533	1520	1513	1524	1535	1540	1543	1546	1552	1560	1566	1570	1560	1549	1540	1537	1551	1574	1590	1595	1578	1558	1547	1543	1551	1554	1560	1561	1560	1564	1573	1586	1605	1595	1599	1596	1603	1623	1679	1839	2342	3222	3455	3608	3725	3765	3746	3715	3605	3397	3225	3146	3123	3138	3120	3068	3002	2974	2995	3029	3071	3119	3129	3130	3107	3096	3079	3078	3073	3114	3111	3110	3122	3107	3090	3025	2801	2668	2567	2471	2418	2401	2396	2388	2342	2326	2341	2356	2347	2305	2245	2215	2235	2240	2248	2266	2189	2108	2104	2144	2208	2249	2245	2242	2224	2221	2198	2187	2184	2175	2159	2151	2112	2115	2092	2083	2072	2072	2080	2095	2102	2102	2095	2078	2062	2059	2060	2065	2041	2012	1991	1971	1963	1965	1964	1962	1973	1996	2004	1968	1941	1908	1898	1893	1897	1898	1898	1896	1889	1876	1873	1868	1874	1868	1863	1860	1851	1833	1813	1799	1796	1806	1813	1814	1806	1797	1767	1752	1746	1748	1754	1765	1767	1761	1750	1733	1742	1742	1740	1734	1719	1703	1688	1671	1671	1673	1672	1667	1660	1649	1635	1623	1624	1621	1613	1614	1612	1610	1610	1609	1614	1625	1629	1619	1603	1587	1589	1590	1578	1573	1562	1552	1544	1544	1539	1539	0	0	0	0	0	0	0	0
2187	2215	2215	2229	2231	2241	2270	2320	2320	2328	2286	2255	2237	2264	2264	2271	2279	2288	2295	2297	2297	2320	2340	2341	2301	2301	2326	2326	2359	2389	2393	2287	2264	2252	2279	2279	2302	2353	2379	2369	2351	2320	2321	2355	2355	2393	2409	2414	2391	2366	2371	2390	2393	2383	2358	2358	2335	2341	2342	2367	2397	2398	2399	2405	2383	2382	2394	2391	2404	2401	2404	2396	2396	2381	2371	2377	2392	2417	2429	2442	2453	2448	2437	2433	2435	2439	2438	2449	2449	2362	2142	2021	1650	1467	1417	1400	1405	1411	1418	1412	1403	1407	1408	1407	1403	1404	1408	1414	1423	1428	1416	1399	1383	1372	1391	1399	1398	1390	1381	1392	1412	1411	1403	1401	1402	1433	1433	1437	1432	1422	1406	1383	1385	1393	1403	1403	1407	1412	1410	1427	1413	1388	1391	1433	1443	1431	1405	1417	1437	1434	1431	1429	1449	1476	1504	1519	1521	1512	1501	1493	1491	1500	1529	1620	1677	1730	1773	1801	1805	1802	1817	1834	1850	1851	1844	1843	1837	1843	1893	1901	1895	1833	1781	1774	1783	1786	1794	1834	1881	1943	1976	2004	2015	2019	2012	2009	2033	2063	2140	2300	2391	2408	2402	2389	2378	2368	2348	2297	2292	2216	2251	2297	2333	2367	2409	2472	2541	2610	2678	2734	2762	2732	2697	2671	2684	2699	2722	2734	2716	2683	2638	2614	2634	2673	2714	2810	2809	2727	2550	2269	2024	1563	1481	1473	1444	1421	1427	1429	1448	1483	1477	1469	1462	1462	1466	1481	1501	1501	1498	1475	1455	1445	1454	1458	1472	1464	1465	1486	1498	1485	1475	1490	1476	1493	1479	1481	1487	1488	1478	1480	1485	1486	1488	1502	1500	1499	1497	1491	1479	1466	1487	1491	1497	1494	1490	1490	1507	1508	1502	1483	1460	1480	1507	1508	1496	1487	1486	1484	1493	1498	1497	1497	1515	1497	1492	1485	1477	1499	1529	1537	1523	1535	1624	1833	2367	2865	2966	3017	3005	3003	2988	3014	3019	3012	3015	3066	3098	3078	3062	3028	3028	3064	3092	3078	3025	3011	2974	2970	2970	2959	2947	2930	2829	2673	0	0	0	0	0	2206	2317	2401	2482	2483	2465	2436	2372	2296	2150	0	0	0	0	0	0	0	1933	1959	1993	1950	1873	1901	1981	1968	1974	1966	1963	1962	1962	1953	1946	1950	1962	1958	1926	1745	1693	1603	1575	1612	1639	1642	1622	1583	1577	1583	1599	1584	1558	1516	1505	1503	1503	1594	1553	1547	1525	1527	1521	1506	1520	1525	1529	1528	1535	1539	1546	1556	1560	1549	1541	1542	1558	1576	1585	1587	1568	1547	1539	1544	1552	1561	1569	1569	1566	1560	1560	1563	1565	1575	1577	1594	1595	1621	1671	1836	2319	3119	3425	3582	3693	3742	3733	3696	3614	3484	3255	3177	3149	3135	3096	3052	2995	2973	3007	3038	3072	3126	3139	3126	3131	3103	3085	3087	3103	3125	3115	3108	3100	3083	3060	3005	2841	2685	2591	2510	2451	2429	2417	2446	2425	2426	2433	2433	2386	2337	2251	2226	2219	2248	2262	2266	2231	2189	2146	2154	2184	2228	2225	2224	2209	2212	2193	2163	2162	2162	2152	2143	2134	2121	2106	2088	2084	2084	2083	2095	2103	2100	2089	2081	2074	2064	2063	2070	2054	2031	2015	1995	1973	1965	1968	1965	1960	1962	1961	1963	1947	1926	1910	1902	1903	1896	1911	1912	1901	1884	1873	1874	1867	1856	1852	1849	1841	1823	1807	1789	1786	1802	1821	1831	1821	1788	1749	1728	1731	1743	1757	1771	1773	1767	1744	1730	1726	1727	1734	1725	1714	1696	1682	1675	1676	1681	1676	1672	1664	1650	1644	1638	1631	1612	1618	1621	1621	1610	1610	1600	1602	1612	1617	1606	1592	1581	1581	1576	1576	1571	1566	1559	1547	1541	1534	1534	0	0	0	0	0	0	0	0
2138	2163	2163	2178	2174	2163	2177	2213	2213	2205	2211	2200	2201	2208	2208	2207	2202	2206	2201	2247	2247	2263	2251	2219	2218	2218	2229	2229	2261	2184	2215	2223	2208	2215	2223	2223	2269	2304	2317	2316	2294	2288	2287	2300	2300	2309	2307	2304	2304	2335	2349	2358	2360	2347	2324	2324	2304	2304	2304	2305	2296	2302	2320	2318	2311	2315	2309	2317	2329	2351	2365	2361	2361	2354	2344	2352	2367	2379	2378	2377	2380	2384	2380	2376	2356	2335	2326	2333	2366	2314	2103	2015	1704	1467	1411	1405	1423	1413	1417	1413	1412	1417	1417	1419	1416	1417	1418	1425	1430	1430	1431	1418	1392	1392	1398	1411	1407	1396	1386	1390	1396	1398	1397	1394	1405	1433	1436	1432	1426	1422	1410	1391	1391	1399	1399	1401	1405	1410	1407	1423	1420	1408	1407	1431	1446	1437	1414	1427	1433	1433	1437	1448	1460	1490	1511	1512	1510	1509	1501	1491	1490	1499	1531	1622	1683	1737	1781	1808	1817	1812	1825	1834	1846	1853	1849	1844	1842	1842	1894	1900	1885	1871	1869	1823	1806	1785	1805	1848	1909	1963	1996	2016	2038	2043	2045	2053	2049	2070	2141	2273	2372	2398	2396	2379	2375	2352	2334	2307	2316	2214	2245	2289	2327	2384	2408	2470	2511	2545	2599	2692	2713	2678	2621	2621	2628	2653	2670	2678	2663	2630	2601	2565	2586	2628	2625	2619	2705	2675	2449	2181	1931	1502	1482	1483	1430	1410	1437	1452	1429	1481	1488	1477	1467	1461	1468	1497	1507	1505	1495	1469	1450	1443	1456	1466	1483	1473	1471	1476	1495	1496	1488	1481	1490	1493	1481	1486	1486	1478	1476	1482	1483	1471	1471	1476	1482	1500	1490	1486	1477	1475	1481	1473	1454	1480	1487	1488	1489	1493	1489	1485	1464	1474	1496	1505	1496	1497	1484	1486	1499	1501	1502	1500	1491	1468	1459	1474	1498	1526	1537	1531	1518	1539	1634	1840	2440	2640	2932	2984	3017	3029	3027	3020	3031	3035	3046	3084	3129	3146	3131	3111	3100	3141	3156	3146	3114	3073	3077	3072	3051	3013	2998	3026	3046	2851	0	0	0	0	0	2300	2390	2448	2515	2514	2526	2514	2477	2393	2212	0	0	0	0	0	0	0	0	1942	1969	1983	1916	1929	2000	1992	1991	1985	1974	1967	1971	1970	1958	1962	1983	2005	1969	1753	1664	1582	1573	1595	1640	1638	1628	1582	1550	1554	1552	1561	1540	1526	1522	1532	1555	1569	1554	1553	1562	1552	1535	1520	1516	1526	1531	1533	1532	1530	1539	1550	1556	1552	1546	1563	1573	1580	1581	1578	1567	1551	1536	1538	1543	1560	1570	1566	1561	1549	1549	1555	1558	1568	1576	1580	1591	1610	1660	1800	2244	2981	3429	3598	3695	3733	3730	3681	3609	3518	3289	3236	3200	3140	3068	3036	2991	3009	3039	3044	3056	3102	3150	3153	3127	3104	3091	3096	3109	3134	3120	3112	3095	3085	3076	3033	2914	2774	2663	2729	2683	2630	2579	2600	2595	2571	2560	2560	2546	2526	2473	2452	2454	2452	2414	2394	2390	2245	2221	2206	2186	2213	2216	2212	2204	2202	2195	2172	2154	2146	2151	2155	2149	2136	2125	2104	2094	2086	2087	2097	2090	2085	2075	2072	2073	2070	2070	2072	2046	2031	2026	2009	1990	1980	1978	1974	1972	1973	1970	1959	1940	1934	1930	1933	1929	1913	1905	1901	1898	1884	1863	1854	1855	1847	1835	1825	1821	1817	1812	1805	1803	1804	1823	1836	1826	1791	1741	1714	1715	1738	1753	1764	1767	1755	1738	1731	1718	1713	1723	1724	1713	1700	1686	1677	1683	1689	1684	1677	1667	1654	1645	1635	1630	1622	1622	1632	1624	1607	1607	1599	1602	1610	1610	1601	1596	1584	1580	1575	1569	1563	1562	1560	1558	1549	1539	1539	0	0	0	0	0	0	0	0
2088	2127	2141	2141	2134	2130	2135	2128	2128	2145	2180	2179	2187	2187	2187	2180	2158	2149	2194	2227	2227	2238	2226	2209	2195	2180	2183	2183	2133	2141	2156	2170	2181	2171	2200	2200	2215	2245	2248	2271	2258	2249	2257	2258	2258	2245	2222	2208	2204	2266	2302	2317	2299	2282	2276	2276	2272	2281	2267	2242	2234	2244	2260	2275	2260	2259	2260	2262	2265	2267	2254	2266	2266	2280	2301	2308	2320	2329	2309	2292	2312	2327	2329	2304	2243	2235	2232	2244	2269	2201	2041	1921	1689	1469	1410	1392	1398	1414	1416	1418	1422	1424	1424	1420	1418	1416	1420	1428	1431	1439	1428	1416	1413	1416	1422	1417	1412	1403	1405	1403	1403	1404	1407	1410	1421	1427	1421	1415	1413	1412	1409	1405	1402	1407	1410	1402	1405	1406	1404	1417	1434	1424	1419	1436	1458	1455	1442	1423	1426	1425	1426	1434	1448	1478	1491	1491	1480	1472	1486	1501	1503	1518	1537	1640	1700	1748	1792	1818	1834	1837	1846	1848	1856	1853	1861	1842	1843	1848	1863	1901	1889	1885	1895	1867	1781	1766	1796	1847	1920	1951	1964	1986	2007	2027	2046	2051	2060	2078	2132	2255	2346	2368	2352	2343	2342	2358	2340	2322	2325	2286	2290	2337	2372	2407	2439	2473	2500	2535	2575	2610	2595	2575	2560	2578	2589	2606	2594	2593	2572	2546	2522	2496	2512	2516	2522	2505	2523	2549	2377	2069	1881	1484	1480	1492	1448	1423	1449	1468	1440	1480	1482	1472	1463	1465	1469	1489	1498	1494	1481	1462	1447	1442	1454	1477	1492	1481	1472	1476	1490	1506	1500	1498	1505	1488	1471	1470	1473	1478	1476	1479	1478	1472	1495	1496	1487	1486	1488	1487	1487	1489	1488	1476	1457	1479	1478	1483	1485	1483	1484	1486	1473	1478	1488	1498	1500	1514	1491	1488	1495	1499	1502	1493	1479	1475	1472	1460	1498	1520	1531	1520	1511	1541	1630	1831	2400	2614	2756	2891	2955	2981	2983	2977	2971	2968	2984	3016	3051	3070	3072	3057	3041	3065	3144	3112	3001	2966	2937	2940	2959	2962	2960	3001	3062	2912	2710	0	0	0	2247	2338	2409	2469	2522	2532	2547	2560	2535	2459	2259	0	0	0	0	0	0	0	0	1942	1959	2002	1951	1961	1997	2001	1998	2001	1965	1963	1973	1984	1979	1981	2009	2030	2001	1769	1681	1592	1603	1617	1630	1636	1621	1590	1547	1534	1532	1535	1510	1539	1543	1522	1541	1541	1546	1552	1579	1566	1551	1537	1535	1539	1537	1540	1548	1547	1545	1549	1555	1557	1554	1579	1580	1577	1578	1576	1568	1552	1536	1532	1540	1553	1571	1574	1563	1563	1555	1567	1567	1566	1573	1580	1592	1598	1648	1795	2484	2873	3267	3438	3611	3729	3782	3734	3612	3420	3316	3253	3206	3124	3062	3048	3004	3040	3053	3056	3047	3068	3120	3140	3127	3106	3091	3099	3115	3123	3116	3087	3081	3096	3096	3084	3110	3068	3012	2914	2915	2929	2900	2719	2728	2728	2711	2692	2680	2653	2640	2616	2615	2615	2575	2549	2513	2338	2458	2317	2212	2248	2235	2198	2183	2177	2191	2179	2154	2143	2121	2150	2196	2204	2193	2156	2128	2111	2103	2098	2067	2046	2059	2070	2080	2085	2079	2070	2044	2034	2026	2016	2004	1998	1990	1984	1976	1973	1970	1956	1948	1946	1952	1947	1934	1914	1901	1895	1895	1876	1850	1845	1852	1847	1847	1848	1847	1852	1850	1845	1826	1823	1829	1837	1834	1819	1795	1758	1747	1733	1748	1756	1758	1750	1729	1708	1696	1704	1718	1720	1716	1698	1684	1680	1683	1694	1687	1682	1676	1665	1656	1639	1635	1633	1639	1634	1624	1609	1609	1601	1602	1606	1605	1596	1588	1586	1583	1576	1564	1562	1563	1567	1563	1552	1537	1537	0	0	0	0	0	0	0	0
2045	2079	2106	2106	2117	2120	2114	2114	2114	2127	2141	2133	2115	2114	2114	2110	2111	2131	2171	2221	2221	2221	2218	2204	2190	2177	2158	2128	2113	2098	2115	2121	2134	2146	2159	2159	2174	2148	2139	2165	2160	2178	2194	2194	2194	2178	2158	2148	2132	2160	2168	2186	2212	2220	2219	2219	2210	2217	2214	2182	2168	2183	2198	2179	2183	2194	2216	2219	2200	2186	2160	2142	2142	2155	2203	2215	2249	2272	2265	2232	2236	2263	2259	2225	2178	2171	2176	2193	2208	2150	1946	1823	1642	1464	1407	1375	1377	1402	1414	1422	1426	1425	1419	1412	1406	1413	1415	1421	1424	1433	1423	1420	1423	1423	1419	1406	1404	1398	1402	1405	1409	1414	1420	1424	1427	1419	1411	1402	1401	1412	1420	1412	1410	1407	1396	1402	1408	1408	1408	1427	1446	1443	1446	1445	1469	1470	1445	1409	1408	1415	1423	1434	1441	1456	1472	1468	1462	1457	1474	1507	1520	1538	1572	1644	1707	1761	1802	1834	1851	1863	1864	1859	1866	1866	1857	1846	1844	1846	1857	1887	1886	1885	1890	1883	1803	1790	1800	1847	1892	1915	1909	1919	1946	1979	2015	2033	2041	2067	2131	2237	2300	2318	2301	2293	2289	2310	2312	2325	2340	2341	2363	2392	2401	2421	2438	2418	2445	2508	2539	2556	2502	2450	2436	2420	2452	2476	2469	2463	2459	2487	2495	2481	2463	2436	2434	2447	2451	2449	2363	2011	1844	1453	1473	1491	1463	1443	1460	1468	1444	1470	1472	1467	1464	1463	1469	1468	1466	1471	1464	1455	1445	1439	1452	1468	1496	1499	1493	1489	1493	1507	1507	1501	1490	1464	1463	1458	1474	1476	1474	1472	1475	1482	1503	1480	1468	1486	1490	1489	1482	1493	1492	1475	1462	1482	1482	1481	1470	1470	1475	1477	1478	1481	1489	1496	1509	1506	1492	1480	1484	1481	1492	1481	1471	1483	1491	1498	1506	1512	1522	1517	1510	1533	1612	1816	2297	2608	2700	2762	2814	2896	2925	2909	2891	2886	2896	2893	2898	2915	2909	2963	2967	2912	2882	2874	2864	2837	2833	2854	2854	2873	2907	2931	2964	2906	2702	2492	0	2302	2280	2359	2426	2474	2534	2543	2558	2570	2564	2507	2236	0	0	0	0	0	0	0	0	1954	1971	1987	1966	1963	1987	2009	2002	2018	1972	1969	1981	2001	2008	2014	2015	2043	2009	1778	1642	1614	1625	1632	1632	1627	1615	1591	1556	1541	1532	1524	1491	1543	1555	1516	1508	1523	1527	1540	1566	1582	1576	1562	1551	1545	1547	1549	1561	1560	1559	1559	1559	1559	1562	1576	1573	1572	1576	1572	1567	1549	1536	1535	1539	1552	1573	1577	1576	1580	1578	1576	1565	1579	1585	1594	1582	1583	1629	1774	2197	2900	3013	3245	3334	3404	3468	3480	3429	3312	3244	3204	3169	3087	3091	3091	3040	3032	3059	3061	3040	3035	3086	3135	3102	3094	3086	3093	3115	3118	3088	3089	3102	3132	3128	3130	3119	3111	3119	3132	3127	3129	3116	3086	3081	3078	3054	3032	2925	2847	2808	2747	2729	2734	2714	2664	2621	2622	2558	2458	2242	2263	2223	2196	2167	2164	2173	2178	2163	2140	2153	2181	2168	2162	2171	2171	2163	2142	2102	2092	2089	2076	2075	2086	2097	2104	2094	2069	2054	2053	2042	2036	2028	2020	2005	1997	1975	1974	1969	1969	1965	1964	1957	1947	1934	1916	1898	1891	1885	1864	1841	1841	1852	1854	1851	1856	1861	1859	1853	1843	1820	1792	1789	1793	1797	1794	1794	1792	1778	1760	1742	1736	1731	1717	1711	1695	1685	1690	1698	1710	1706	1683	1674	1670	1679	1683	1679	1681	1679	1673	1666	1656	1648	1632	1644	1641	1631	1631	1619	1612	1607	1605	1594	1581	1581	1581	1584	1580	1577	1576	1576	1572	1567	1547	1525	1525	0	0	0	0	0	0	0	0
1979	2024	2080	2080	2101	2108	2109	2100	2100	2113	2114	2108	2076	2052	2052	2045	2046	2067	2102	2145	2145	2167	2183	2186	2184	2168	2082	2082	2064	2058	2074	2093	2113	2122	2122	2122	2092	2087	2087	2093	2100	2104	2114	2115	2115	2109	2104	2098	2095	2090	2103	2115	2122	2119	2103	2097	2097	2096	2099	2112	2128	2153	2171	2143	2120	2125	2140	2144	2135	2128	2094	2086	2086	2081	2087	2099	2156	2170	2168	2146	2144	2149	2151	2109	2088	2118	2151	2160	2154	2103	1881	1785	1601	1467	1417	1360	1365	1390	1412	1429	1430	1423	1410	1399	1395	1407	1415	1418	1418	1422	1414	1425	1428	1424	1411	1397	1394	1390	1397	1408	1415	1421	1425	1424	1424	1416	1409	1400	1406	1423	1419	1409	1403	1400	1393	1401	1409	1411	1425	1446	1453	1452	1449	1449	1462	1442	1427	1396	1415	1415	1426	1431	1433	1447	1462	1473	1463	1455	1475	1508	1538	1570	1577	1605	1691	1752	1799	1832	1860	1879	1880	1871	1864	1856	1849	1851	1847	1842	1849	1858	1854	1855	1861	1887	1845	1810	1811	1852	1886	1895	1890	1881	1902	1928	1992	2018	2032	2049	2158	2233	2277	2276	2268	2262	2274	2278	2289	2306	2341	2360	2411	2400	2396	2379	2349	2337	2337	2388	2442	2424	2388	2367	2338	2354	2385	2385	2393	2377	2414	2440	2458	2430	2399	2375	2371	2377	2396	2409	2371	1963	1828	1428	1464	1489	1472	1456	1462	1459	1450	1459	1470	1478	1469	1464	1462	1454	1444	1436	1441	1443	1442	1444	1455	1469	1471	1466	1463	1469	1491	1508	1504	1495	1486	1473	1474	1465	1463	1485	1476	1470	1469	1477	1491	1506	1474	1474	1485	1478	1479	1489	1489	1492	1504	1487	1491	1486	1485	1475	1478	1483	1480	1483	1487	1494	1506	1503	1482	1470	1469	1480	1482	1479	1479	1489	1501	1518	1507	1510	1524	1526	1517	1522	1599	1813	2290	2545	2663	2716	2755	2762	2832	2825	2808	2798	2802	2798	2797	2777	2773	2783	2825	2819	2785	2743	2727	2720	2734	2740	2763	2739	2775	2815	2830	2793	2703	2523	2399	2360	2428	2403	2441	2468	2532	2542	2554	2557	2573	2531	2237	0	0	0	2064	2037	2010	1998	1999	2003	1996	1950	1948	1954	1995	2042	2054	2061	2008	1989	1991	1996	2006	2018	2028	2049	2011	1807	1655	1632	1629	1638	1638	1646	1632	1615	1570	1559	1561	1552	1496	1538	1557	1520	1497	1513	1512	1512	1537	1579	1571	1563	1553	1550	1551	1554	1563	1563	1561	1557	1557	1557	1579	1573	1568	1573	1572	1564	1555	1546	1541	1544	1550	1563	1579	1583	1590	1592	1585	1573	1555	1572	1585	1590	1585	1588	1611	1732	2088	2708	3047	3177	3247	3274	3286	3252	3213	3166	3148	3125	3092	3079	3114	3111	3095	3024	3048	3042	3026	2992	3048	3078	3075	3074	3080	3103	3120	3104	3092	3109	3121	3127	3132	3144	3130	3123	3130	3122	3135	3136	3143	3123	3106	3103	3079	3060	3060	3079	3092	3087	3101	3109	3106	3087	2991	2808	2683	2571	2281	2266	2216	2186	2156	2155	2163	2161	2167	2168	2205	2200	2168	2164	2171	2174	2168	2163	2164	2177	2182	2180	2145	2147	2177	2168	2157	2154	2184	2200	2210	2120	2073	2066	2049	2010	1998	1998	2003	1992	1975	1970	1964	1941	1921	1910	1897	1890	1882	1874	1838	1828	1846	1857	1848	1862	1870	1870	1854	1837	1800	1785	1793	1809	1806	1797	1794	1801	1793	1774	1752	1740	1727	1720	1713	1707	1702	1696	1686	1685	1677	1668	1664	1662	1655	1644	1653	1665	1673	1677	1676	1670	1664	1642	1644	1642	1637	1637	1624	1624	1614	1606	1591	1575	1572	1579	1577	1575	1574	1579	1579	1575	1560	1538	1516	1516	0	0	0	0	0	0	0	0
1954	2000	2044	2044	2061	2032	2031	2050	2050	2060	2085	2084	2054	2020	2020	2003	1997	2032	2060	2083	2083	2099	2127	2130	2134	2029	2014	2014	2021	2034	2054	2078	2102	2060	2050	2050	2048	2048	2056	2076	2077	2052	2032	2038	2038	2052	2046	2054	2057	2064	2090	2094	2085	2055	2041	2021	2021	1997	1996	2012	2062	2106	2109	2092	2066	2062	2095	2084	2082	2054	2029	2026	2026	2033	2038	2045	2065	2095	2080	2065	2060	2071	2076	2060	2046	2057	2107	2108	2098	2066	1884	1799	1635	1483	1428	1366	1362	1370	1398	1421	1428	1418	1407	1395	1393	1404	1418	1422	1413	1405	1414	1420	1429	1423	1404	1390	1383	1390	1394	1404	1413	1419	1420	1418	1418	1415	1403	1402	1410	1428	1417	1407	1400	1393	1393	1397	1412	1423	1438	1458	1442	1442	1443	1441	1443	1425	1411	1405	1417	1420	1423	1427	1428	1441	1465	1475	1474	1468	1480	1515	1554	1585	1602	1605	1692	1742	1780	1814	1857	1885	1881	1865	1841	1840	1840	1835	1835	1839	1838	1850	1824	1812	1838	1883	1862	1837	1830	1850	1883	1904	1909	1916	1916	1928	1969	2006	2013	2037	2136	2213	2264	2267	2251	2248	2250	2253	2241	2253	2262	2290	2356	2368	2364	2343	2309	2292	2297	2307	2307	2323	2324	2317	2293	2330	2342	2339	2327	2322	2343	2366	2381	2359	2328	2328	2326	2334	2347	2363	2338	1925	1835	1420	1463	1481	1469	1461	1456	1450	1444	1451	1476	1481	1472	1465	1453	1445	1439	1434	1432	1436	1443	1455	1464	1472	1471	1468	1461	1462	1464	1488	1506	1497	1490	1488	1487	1487	1491	1482	1499	1486	1463	1464	1469	1473	1460	1475	1479	1486	1511	1511	1509	1489	1496	1521	1513	1497	1475	1480	1487	1483	1483	1485	1485	1488	1503	1500	1486	1470	1466	1478	1486	1485	1483	1501	1502	1510	1500	1512	1536	1541	1526	1514	1604	1830	2162	2476	2624	2660	2660	2644	2619	2608	2615	2678	2686	2656	2665	2669	2652	2640	2669	2697	2691	2660	2624	2637	2624	2642	2659	2651	2651	2689	2707	2680	2662	2628	2585	2542	2483	2485	2467	2475	2515	2543	2544	2539	2542	2509	2205	2138	0	2077	2072	2037	2010	2020	2020	2029	2015	1923	1885	1929	2000	2064	2064	2063	2020	2000	1996	1997	2002	2008	2017	2044	2011	1713	1666	1639	1634	1650	1657	1664	1654	1621	1570	1553	1550	1557	1507	1534	1547	1520	1496	1518	1513	1512	1536	1572	1563	1556	1560	1555	1553	1559	1550	1558	1555	1553	1552	1557	1576	1576	1569	1567	1573	1556	1546	1542	1539	1546	1552	1573	1592	1599	1596	1588	1571	1556	1543	1556	1582	1584	1593	1597	1610	1733	2062	2591	2949	3072	3145	3159	3163	3146	3119	3079	3065	3040	3011	2944	3100	3108	3091	3014	3011	3009	2976	2977	3007	3035	3044	3062	3084	3114	3130	3114	3104	3111	3105	3105	3125	3143	3139	3134	3136	3145	3137	3135	3133	3118	3108	3095	3063	3066	3070	3092	3108	3097	3115	3141	3156	3137	3096	2862	2749	2586	2319	2257	2220	2172	2154	2165	2164	2166	2162	2178	2205	2190	2182	2177	2184	2179	2169	2158	2155	2162	2169	2190	2199	2206	2207	2212	2192	2175	2185	2190	2201	2202	2199	2184	2174	2154	2114	2050	2047	2029	2002	1987	1976	1951	1934	1936	1946	1936	1895	1888	1862	1847	1841	1861	1880	1860	1874	1878	1865	1840	1808	1787	1801	1819	1811	1800	1810	1813	1803	1779	1756	1742	1737	1727	1724	1722	1718	1701	1690	1684	1671	1665	1663	1658	1646	1650	1660	1670	1674	1671	1670	1668	1660	1645	1628	1626	1620	1620	1605	1599	1598	1601	1600	1594	1592	1592	1586	1580	1571	1574	1579	1571	1554	1523	1498	1498	0	0	0	0	0	0	0	0
1939	1982	1987	1987	1989	1975	1950	1968	1968	1996	2024	2041	2008	1985	1985	1958	1969	2006	2026	2040	2040	2055	2064	2079	1986	1968	1955	1955	1971	2008	2034	2043	2012	1996	1994	1994	1998	2018	2022	1992	1981	1972	1961	1961	1961	1956	1984	1996	2029	2044	2042	2034	2016	1999	2000	1985	1985	1967	1969	1977	1992	2017	2057	2044	2029	2017	2046	2062	2052	2024	1983	1969	1984	1984	1998	2020	2032	2037	2022	2010	2011	2033	2044	2031	2022	2024	2046	2062	2039	2014	1860	1765	1631	1475	1419	1357	1348	1362	1392	1414	1419	1413	1402	1396	1395	1404	1416	1416	1405	1398	1403	1409	1414	1413	1407	1401	1409	1412	1411	1407	1411	1410	1411	1411	1414	1414	1405	1403	1409	1424	1417	1405	1392	1382	1386	1398	1412	1429	1442	1457	1432	1437	1438	1445	1434	1419	1410	1414	1423	1424	1428	1433	1427	1430	1443	1467	1481	1477	1479	1511	1548	1592	1605	1620	1683	1741	1768	1807	1843	1872	1867	1844	1831	1833	1834	1832	1835	1835	1841	1846	1813	1803	1824	1864	1834	1836	1833	1843	1890	1905	1926	1942	1937	1944	1968	1978	1990	2020	2117	2186	2227	2217	2213	2202	2201	2208	2203	2192	2196	2216	2326	2339	2328	2305	2274	2264	2265	2264	2253	2236	2254	2254	2263	2271	2265	2286	2291	2288	2255	2251	2242	2272	2280	2279	2280	2285	2296	2301	2287	1901	1821	1443	1475	1475	1462	1460	1451	1440	1428	1445	1471	1472	1466	1457	1458	1458	1448	1439	1435	1428	1443	1461	1473	1479	1478	1473	1467	1465	1466	1472	1494	1495	1494	1494	1495	1499	1490	1489	1488	1496	1480	1474	1458	1466	1469	1465	1498	1498	1508	1479	1486	1488	1489	1512	1510	1484	1472	1490	1511	1499	1485	1482	1482	1482	1502	1514	1493	1483	1478	1488	1494	1491	1489	1494	1498	1504	1513	1519	1539	1549	1534	1527	1614	1837	2148	2433	2506	2524	2478	2470	2467	2473	2473	2494	2490	2490	2480	2470	2486	2501	2505	2522	2515	2511	2532	2545	2548	2499	2484	2437	2401	2403	2455	2512	2567	2609	2643	2614	2568	2516	2473	2477	2494	2507	2515	2518	2506	2464	2197	2153	2107	2106	2104	2052	2021	2008	2018	2016	2002	1916	1874	1922	1995	2050	2049	2052	2011	2004	2001	1999	1996	1997	2001	2015	1994	1724	1679	1652	1640	1647	1658	1664	1630	1610	1588	1571	1567	1553	1516	1524	1528	1512	1516	1523	1524	1526	1542	1568	1562	1556	1561	1561	1559	1549	1545	1534	1533	1536	1533	1546	1575	1575	1562	1564	1562	1549	1535	1534	1532	1540	1551	1573	1592	1592	1585	1577	1560	1540	1527	1538	1559	1571	1590	1605	1623	1751	2061	2535	2833	2918	2972	2987	3047	3024	3022	3002	2997	2976	2911	2867	2906	3046	3007	2990	2975	2964	2933	2947	2948	2996	3020	2980	3015	3060	3045	3026	3047	3075	3067	3077	3060	3091	3112	3149	3151	3143	3141	3136	3118	3083	3058	3051	3041	3053	3086	3104	3108	3096	3113	3155	3172	3154	3088	2854	2725	2518	2302	2250	2198	2169	2167	2179	2184	2176	2165	2163	2178	2197	2195	2195	2181	2173	2158	2157	2154	2158	2162	2174	2195	2207	2219	2202	2181	2172	2171	2181	2193	2200	2198	2197	2195	2195	2177	2141	2102	2118	2127	2083	2060	2049	2038	2017	2001	1971	1938	1932	1947	1930	1914	1911	1927	1902	1874	1858	1841	1796	1785	1817	1856	1860	1850	1842	1825	1816	1797	1775	1762	1760	1758	1753	1736	1725	1716	1714	1692	1674	1659	1655	1658	1662	1661	1667	1673	1678	1667	1661	1668	1658	1647	1639	1623	1619	1616	1616	1600	1595	1596	1593	1594	1598	1613	1612	1603	1580	1564	1557	1556	1554	1544	1531	1529	1529	0	0	0	0	0	0	0	0
1922	1934	1944	1944	1926	1910	1902	1914	1914	1934	1963	1981	1957	1932	1932	1932	1940	1966	1989	2003	2012	2012	2023	2026	1925	1927	1934	1933	1933	1955	1960	1942	1922	1912	1907	1907	1920	1946	1963	1971	1960	1950	1937	1924	1912	1912	1906	1910	1959	1971	1984	1982	1949	1935	1946	1955	1955	1947	1947	1942	1923	1936	1961	1993	2005	2005	2014	2018	2014	1986	1950	1926	1935	1935	1963	1987	1985	1982	1967	1942	1944	1969	1976	1981	1989	1999	2001	1993	1986	1978	1818	1719	1621	1456	1410	1362	1339	1360	1383	1406	1409	1407	1393	1391	1396	1405	1414	1416	1408	1401	1400	1396	1395	1396	1396	1397	1413	1427	1431	1423	1412	1403	1399	1400	1401	1403	1401	1395	1400	1416	1413	1401	1387	1374	1378	1394	1410	1426	1437	1440	1429	1434	1441	1444	1422	1407	1405	1419	1419	1425	1430	1431	1421	1423	1432	1458	1473	1480	1485	1502	1540	1571	1605	1629	1707	1760	1773	1790	1819	1834	1840	1821	1816	1819	1826	1828	1834	1841	1855	1863	1825	1817	1827	1822	1797	1815	1830	1846	1903	1921	1943	1965	1960	1965	1978	2005	2018	2067	2120	2148	2174	2156	2154	2159	2164	2164	2156	2145	2155	2162	2189	2214	2245	2246	2228	2216	2214	2196	2169	2153	2152	2163	2179	2186	2181	2196	2199	2221	2227	2215	2193	2187	2205	2201	2202	2188	2175	2206	2193	1861	1797	1496	1482	1474	1461	1460	1443	1432	1434	1464	1466	1471	1478	1474	1472	1468	1460	1452	1439	1440	1442	1471	1485	1491	1494	1499	1486	1476	1473	1470	1472	1482	1483	1488	1493	1497	1492	1487	1486	1487	1495	1484	1478	1467	1470	1467	1482	1490	1479	1473	1474	1473	1486	1487	1485	1482	1496	1498	1500	1500	1484	1478	1471	1476	1483	1508	1511	1490	1489	1503	1500	1497	1500	1505	1507	1510	1529	1526	1531	1542	1539	1538	1628	1833	2147	2373	2444	2448	2409	2402	2415	2429	2432	2434	2431	2429	2426	2423	2423	2422	2423	2445	2446	2401	2379	2376	2390	2398	2390	2370	2355	2367	2412	2462	2480	2482	2482	2452	2444	2449	2450	2456	2459	2462	2471	2464	2455	2394	2233	2161	2133	2142	2137	2083	2026	1994	1994	1992	1993	1917	1894	1922	1983	2018	2024	2022	2005	2003	1995	1991	1982	1980	1977	1980	1957	1746	1707	1674	1658	1645	1649	1626	1620	1625	1618	1607	1579	1547	1506	1501	1505	1510	1528	1536	1536	1533	1545	1565	1557	1553	1556	1559	1555	1540	1529	1516	1517	1528	1528	1555	1566	1562	1554	1548	1550	1545	1533	1525	1529	1539	1553	1571	1570	1569	1566	1554	1543	1526	1538	1545	1567	1564	1579	1602	1634	1768	2090	2545	2690	2842	2871	2868	2871	2895	2915	2890	2871	2840	2816	2830	2848	2887	2926	2937	2918	2896	2892	2916	2927	2896	2908	2913	2896	2853	2826	2838	2863	2886	2911	2923	2888	2903	2919	2943	2983	2981	2958	2915	2967	2958	2937	2943	2943	2932	2982	2997	3036	3070	3102	3103	3084	3057	2946	2803	2660	2511	2285	2221	2202	2192	2180	2188	2191	2182	2171	2157	2171	2201	2210	2205	2195	2177	2164	2162	2168	2168	2165	2173	2182	2197	2210	2203	2174	2171	2178	2186	2189	2195	2198	2192	2198	2198	2204	2200	2205	2202	2355	2295	2248	2195	2174	2158	2119	2068	2057	2065	2138	2170	2172	2140	2082	1972	1938	1918	1918	1917	1907	1895	1884	1837	1825	1827	1837	1763	1746	1738	1746	1751	1754	1759	1744	1721	1708	1708	1710	1690	1677	1667	1667	1678	1686	1693	1702	1700	1662	1647	1640	1645	1638	1628	1612	1604	1598	1598	1603	1599	1597	1592	1590	1598	1611	1610	1599	1581	1566	1561	1558	1556	1554	1556	1556	1553	0	0	0	0	0	0	0	0
1877	1894	1899	1899	1874	1853	1846	1858	1881	1881	1904	1912	1923	1905	1905	1883	1886	1917	1955	1976	1983	1983	1984	1893	1879	1884	1895	1901	1901	1885	1890	1892	1882	1854	1842	1842	1855	1900	1933	1955	1953	1941	1928	1912	1899	1899	1882	1872	1868	1874	1899	1918	1912	1904	1919	1928	1928	1920	1910	1901	1898	1908	1932	1955	1968	1957	1950	1969	1976	1966	1929	1913	1910	1910	1932	1949	1945	1933	1913	1899	1903	1900	1908	1928	1948	1972	1971	1955	1942	1916	1794	1710	1640	1460	1408	1368	1346	1373	1392	1404	1401	1397	1382	1377	1393	1409	1417	1416	1414	1411	1406	1400	1396	1390	1393	1402	1419	1437	1438	1426	1412	1404	1394	1386	1382	1386	1392	1386	1399	1407	1406	1397	1383	1376	1377	1392	1407	1422	1429	1428	1433	1442	1450	1439	1410	1392	1393	1424	1420	1427	1433	1426	1430	1433	1443	1456	1481	1482	1485	1497	1514	1547	1571	1598	1718	1789	1787	1788	1795	1800	1799	1803	1802	1812	1822	1830	1839	1853	1881	1882	1847	1822	1814	1790	1776	1799	1827	1860	1920	1941	1967	1981	1973	1981	1989	2044	2056	2064	2072	2080	2100	2091	2089	2129	2131	2128	2112	2099	2084	2084	2094	2153	2171	2175	2172	2160	2162	2152	2135	2121	2119	2127	2135	2126	2140	2140	2124	2139	2161	2169	2160	2125	2123	2130	2128	2115	2111	2116	2094	1853	1809	1527	1468	1471	1479	1466	1436	1428	1456	1474	1478	1485	1485	1484	1481	1473	1469	1465	1458	1452	1468	1480	1489	1496	1502	1502	1496	1484	1479	1476	1470	1478	1481	1485	1487	1486	1481	1477	1479	1486	1503	1500	1487	1471	1467	1471	1506	1500	1490	1479	1472	1471	1474	1480	1482	1490	1480	1488	1496	1499	1497	1490	1479	1475	1481	1492	1499	1495	1494	1509	1504	1504	1509	1514	1518	1510	1531	1523	1519	1506	1514	1542	1628	1836	2125	2215	2344	2355	2358	2371	2388	2403	2399	2392	2386	2389	2383	2373	2366	2364	2358	2377	2363	2350	2326	2309	2297	2304	2333	2341	2338	2350	2376	2402	2421	2447	2437	2402	2377	2368	2359	2362	2394	2408	2408	2401	2377	2331	2243	2152	2141	2145	2120	2097	2034	1995	1974	1976	1979	1917	1905	1925	1966	1996	2001	1999	1996	1995	1983	1973	1970	1967	1967	1965	1835	1771	1746	1709	1707	1694	1670	1643	1631	1650	1652	1637	1588	1540	1502	1477	1487	1508	1531	1541	1547	1538	1559	1562	1543	1553	1553	1549	1540	1529	1511	1508	1515	1524	1531	1559	1560	1554	1547	1546	1541	1537	1529	1525	1537	1551	1559	1557	1552	1547	1544	1540	1548	1535	1538	1559	1568	1569	1568	1583	1635	1773	2096	2470	2670	2747	2764	2768	2797	2817	2848	2847	2849	2838	2819	2819	2823	2840	2870	2882	2869	2838	2759	2780	2791	2820	2834	2822	2805	2793	2734	2753	2772	2813	2823	2829	2830	2837	2837	2851	2872	2888	2856	2805	2812	2835	2843	2866	2842	2867	2883	2908	2912	2933	2931	2940	2943	2932	2773	2674	2586	2485	2268	2231	2219	2211	2198	2196	2195	2184	2168	2149	2163	2193	2208	2209	2197	2178	2166	2168	2173	2180	2178	2188	2195	2193	2199	2199	2190	2182	2182	2186	2189	2191	2199	2203	2200	2202	2209	2214	2260	2405	2499	2644	2553	2454	2362	2214	2119	2110	2121	2216	2345	2531	2628	2647	2612	2490	2247	2209	2207	2225	2220	2197	2143	2038	1952	1932	1931	1857	1758	1725	1746	1751	1755	1755	1758	1734	1702	1697	1709	1703	1695	1687	1710	1744	1749	1751	1744	1696	1680	1642	1638	1636	1642	1632	1618	1604	1602	1602	1606	1611	1609	1597	1588	1590	1599	1601	1597	1588	1582	1578	1565	1555	1561	1567	1567	1566	0	0	0	0	0	0	0	0
1841	1856	1852	1852	1827	1809	1795	1803	1816	1816	1851	1872	1876	1849	1849	1845	1859	1884	1915	1940	1939	1939	1851	1842	1822	1823	1830	1831	1831	1839	1848	1849	1854	1832	1822	1834	1834	1871	1902	1925	1931	1922	1904	1898	1889	1889	1884	1871	1863	1854	1858	1866	1873	1870	1882	1891	1891	1889	1891	1898	1892	1891	1894	1923	1932	1910	1904	1927	1945	1944	1921	1888	1887	1887	1890	1888	1885	1884	1866	1868	1876	1887	1884	1893	1918	1939	1947	1940	1917	1884	1795	1720	1645	1453	1400	1381	1374	1392	1397	1395	1397	1388	1369	1366	1383	1405	1415	1420	1416	1412	1408	1408	1403	1404	1401	1409	1424	1429	1428	1421	1414	1409	1399	1379	1370	1372	1375	1382	1400	1403	1391	1377	1376	1383	1391	1393	1406	1419	1427	1426	1444	1451	1456	1428	1395	1384	1394	1442	1432	1433	1432	1425	1448	1471	1478	1481	1492	1492	1496	1501	1501	1538	1561	1586	1664	1786	1782	1783	1791	1797	1793	1796	1810	1823	1833	1846	1858	1876	1896	1895	1845	1824	1809	1793	1772	1794	1826	1895	1929	1943	1967	1965	1947	1939	1944	1986	2006	2015	2020	2026	2034	2037	2049	2067	2069	2092	2076	2047	2031	2034	2054	2130	2143	2139	2130	2127	2120	2119	2103	2096	2084	2099	2110	2104	2104	2106	2096	2102	2119	2140	2116	2079	2073	2085	2103	2110	2102	2089	2062	1856	1816	1544	1450	1447	1485	1480	1437	1436	1458	1471	1481	1484	1486	1485	1477	1470	1475	1475	1469	1464	1463	1472	1486	1493	1496	1491	1487	1478	1477	1473	1474	1482	1489	1488	1480	1475	1474	1471	1470	1482	1506	1498	1470	1467	1467	1484	1492	1496	1486	1477	1470	1469	1476	1486	1493	1479	1478	1488	1498	1498	1501	1497	1479	1473	1477	1479	1486	1496	1494	1516	1510	1511	1513	1519	1524	1497	1475	1503	1500	1493	1507	1533	1623	1822	2100	2168	2224	2250	2273	2315	2320	2328	2332	2334	2319	2327	2321	2314	2320	2325	2317	2291	2280	2277	2280	2263	2241	2246	2255	2271	2289	2297	2297	2290	2292	2297	2333	2347	2348	2324	2307	2282	2267	2270	2277	2294	2284	2285	2259	2148	2119	2139	2142	2105	2055	2012	1989	1981	1949	1902	1904	1919	1939	1980	1992	1988	1981	1978	1961	1961	1960	1962	1971	1975	1864	1804	1794	1751	1725	1716	1695	1663	1648	1655	1657	1633	1575	1538	1518	1487	1498	1527	1542	1557	1571	1572	1590	1555	1556	1548	1544	1541	1530	1521	1506	1501	1505	1513	1525	1556	1555	1550	1538	1546	1544	1541	1535	1536	1545	1561	1564	1558	1547	1533	1533	1541	1553	1557	1554	1556	1569	1562	1557	1574	1634	1784	2122	2439	2599	2712	2727	2731	2701	2721	2756	2793	2819	2830	2818	2810	2787	2790	2825	2826	2710	2670	2662	2645	2656	2675	2682	2685	2703	2696	2679	2678	2680	2721	2743	2752	2749	2746	2757	2761	2765	2771	2750	2708	2712	2736	2744	2771	2764	2769	2810	2832	2861	2868	2867	2862	2874	2869	2767	2683	2584	2446	2278	2232	2225	2212	2207	2206	2199	2168	2162	2152	2158	2179	2188	2196	2186	2176	2168	2173	2180	2188	2196	2207	2208	2209	2199	2195	2186	2192	2181	2182	2189	2195	2197	2198	2204	2211	2217	2223	2279	2505	2656	2661	2713	2650	2521	2355	2125	2081	2094	2244	2455	2590	2707	2695	2692	2653	2724	2708	2669	2602	2568	2535	2546	2526	2492	2385	2279	2139	1963	1897	1892	1886	1874	1860	1854	1846	1798	1762	1742	1747	1759	1771	1796	1798	1768	1745	1717	1712	1669	1640	1643	1651	1644	1630	1614	1600	1600	1600	1608	1614	1610	1598	1585	1584	1593	1589	1584	1572	1573	1573	1561	1554	1555	1568	1568	1571	0	0	0	0	0	0	0	0
1789	1791	1782	1782	1779	1775	1770	1772	1781	1781	1790	1803	1801	1816	1829	1829	1824	1833	1836	1862	1869	1869	1833	1799	1799	1808	1803	1793	1793	1781	1761	1757	1779	1796	1792	1808	1808	1831	1861	1881	1890	1867	1877	1883	1884	1884	1872	1864	1859	1849	1845	1846	1843	1846	1847	1860	1860	1885	1897	1900	1892	1873	1853	1848	1853	1863	1875	1883	1915	1912	1889	1874	1866	1866	1870	1846	1825	1823	1832	1836	1842	1850	1869	1877	1889	1889	1901	1898	1889	1858	1782	1711	1639	1468	1407	1391	1400	1408	1402	1398	1395	1377	1357	1349	1378	1400	1412	1424	1419	1415	1409	1409	1407	1404	1412	1418	1426	1426	1425	1417	1414	1410	1402	1385	1375	1375	1387	1394	1401	1406	1389	1373	1371	1384	1396	1407	1417	1429	1435	1423	1445	1452	1458	1419	1395	1403	1415	1449	1448	1443	1435	1430	1474	1502	1516	1516	1508	1510	1519	1513	1513	1546	1572	1590	1655	1753	1784	1791	1792	1797	1807	1811	1832	1842	1861	1873	1887	1898	1891	1890	1826	1822	1817	1816	1815	1804	1851	1912	1919	1927	1933	1934	1939	1935	1937	1942	1955	1980	1995	2005	2003	2003	2016	2027	2028	2021	1991	1974	2005	2001	2017	2087	2101	2097	2082	2085	2090	2071	2053	2040	2025	2046	2071	2076	2066	2048	2051	2059	2077	2089	2068	2044	2036	2047	2065	2083	2083	2085	2059	1855	1815	1550	1446	1437	1474	1472	1447	1449	1466	1470	1482	1481	1491	1491	1473	1478	1475	1476	1470	1462	1458	1463	1473	1483	1479	1476	1474	1473	1475	1467	1479	1488	1493	1483	1472	1468	1469	1470	1470	1492	1507	1501	1465	1457	1460	1460	1485	1495	1494	1481	1467	1466	1476	1484	1486	1481	1477	1490	1497	1497	1496	1476	1475	1464	1463	1481	1495	1503	1498	1516	1514	1513	1507	1511	1514	1488	1470	1478	1485	1497	1502	1531	1626	1836	2063	2150	2181	2223	2243	2250	2236	2246	2248	2257	2239	2215	2237	2257	2260	2269	2268	2257	2258	2255	2245	2222	2212	2213	2212	2201	2197	2210	2246	2241	2217	2224	2224	2239	2239	2237	2210	2223	2247	2245	2251	2255	2247	2246	2253	2204	2103	2115	2123	2111	2071	2020	1985	1957	1911	1891	1900	1917	1932	1982	1989	1987	1981	1982	1956	1959	1963	1959	1982	1968	1942	1879	1818	1763	1747	1732	1706	1675	1646	1643	1636	1606	1561	1541	1554	1525	1524	1548	1550	1555	1568	1582	1569	1544	1535	1533	1535	1526	1521	1515	1510	1507	1501	1503	1534	1541	1546	1546	1547	1554	1558	1552	1540	1533	1543	1556	1562	1556	1550	1539	1535	1543	1552	1563	1571	1564	1551	1545	1547	1591	1644	1801	2168	2364	2543	2611	2651	2636	2642	2665	2697	2709	2750	2754	2739	2737	2717	2525	2599	2571	2510	2509	2533	2556	2573	2584	2586	2587	2604	2600	2593	2593	2611	2632	2607	2636	2654	2655	2660	2655	2668	2682	2660	2621	2610	2632	2641	2655	2671	2683	2704	2730	2748	2768	2757	2760	2752	2791	2749	2668	2537	2429	2265	2218	2209	2204	2195	2201	2186	2160	2140	2151	2154	2169	2181	2179	2170	2172	2165	2176	2180	2198	2217	2229	2227	2211	2202	2190	2176	2173	2175	2184	2188	2191	2177	2187	2192	2215	2222	2213	2281	2467	2625	2702	2724	2678	2559	2438	2281	2044	2060	2218	2492	2687	2714	2740	2741	2729	2705	2693	2644	2596	2574	2589	2602	2590	2550	2462	2356	2272	2231	2235	2238	2242	2234	2220	2225	2149	2104	2078	2041	2098	2089	2026	1970	1891	1792	1759	1734	1692	1675	1636	1627	1638	1640	1619	1598	1589	1589	1589	1594	1593	1591	1585	1578	1582	1581	1578	1571	1563	1554	1556	1555	1550	1553	1560	1560	1564	0	0	0	0	0	0	0	0
1753	1750	1748	1748	1752	1760	1758	1751	1737	1737	1734	1746	1768	1784	1799	1799	1786	1785	1803	1813	1818	1773	1762	1756	1771	1785	1784	1766	1766	1723	1717	1708	1714	1722	1735	1767	1767	1791	1817	1814	1812	1823	1837	1848	1837	1837	1834	1833	1836	1831	1832	1827	1836	1830	1826	1845	1873	1873	1888	1892	1882	1864	1824	1799	1797	1811	1815	1822	1856	1845	1840	1841	1843	1843	1852	1836	1845	1839	1835	1824	1810	1815	1842	1863	1875	1871	1854	1827	1809	1823	1746	1666	1601	1491	1420	1405	1405	1406	1402	1393	1384	1372	1356	1342	1378	1393	1410	1425	1418	1410	1406	1405	1410	1407	1412	1423	1425	1423	1414	1405	1404	1408	1400	1401	1400	1402	1411	1414	1421	1415	1402	1388	1380	1387	1407	1419	1426	1434	1436	1418	1427	1448	1455	1421	1408	1422	1433	1467	1465	1450	1436	1435	1485	1518	1531	1525	1523	1530	1533	1527	1517	1546	1578	1587	1609	1722	1782	1798	1800	1805	1816	1828	1850	1866	1885	1886	1895	1890	1884	1885	1879	1841	1829	1839	1857	1861	1878	1886	1896	1904	1897	1905	1922	1922	1935	1915	1906	1937	1961	1971	1968	1966	1962	1985	1987	1957	1942	1943	1945	1948	1988	2018	2024	2011	2006	2001	1974	1984	1994	1981	1986	1994	2030	2040	2017	1994	1972	1993	2015	2024	2023	2015	2009	2009	2026	2034	2033	2040	2024	1813	1781	1538	1435	1435	1457	1449	1437	1461	1472	1467	1478	1485	1487	1484	1473	1470	1472	1472	1474	1465	1461	1459	1466	1466	1468	1466	1464	1469	1475	1475	1483	1490	1490	1484	1472	1468	1463	1482	1490	1494	1479	1485	1476	1485	1484	1486	1490	1493	1488	1483	1462	1463	1474	1485	1487	1483	1491	1490	1482	1482	1480	1469	1458	1456	1485	1485	1491	1500	1505	1517	1516	1510	1497	1499	1503	1485	1475	1481	1486	1504	1512	1534	1655	1845	1988	2105	2139	2179	2202	2196	2200	2190	2196	2193	2168	2137	2156	2177	2184	2201	2216	2225	2236	2238	2223	2205	2190	2188	2174	2166	2156	2172	2190	2198	2197	2202	2199	2195	2186	2182	2195	2205	2238	2257	2257	2241	2233	2217	2220	2212	2168	2072	2057	2062	2053	2018	1970	1932	1914	1886	1897	1912	1964	1986	1989	1981	1979	1968	1965	1971	1951	1979	2000	2002	1951	1893	1827	1773	1752	1735	1704	1676	1637	1612	1607	1569	1541	1550	1589	1557	1544	1555	1535	1531	1556	1555	1535	1525	1525	1527	1524	1517	1517	1525	1524	1517	1508	1508	1536	1550	1554	1553	1553	1560	1562	1550	1538	1534	1540	1551	1554	1557	1553	1544	1545	1553	1555	1567	1575	1562	1532	1529	1543	1592	1654	1817	2058	2322	2474	2540	2570	2570	2580	2603	2599	2525	2504	2520	2548	2510	2476	2436	2411	2475	2486	2494	2492	2518	2535	2538	2535	2529	2529	2512	2504	2511	2509	2481	2502	2549	2580	2589	2585	2572	2580	2604	2602	2568	2537	2549	2556	2563	2566	2585	2609	2624	2631	2630	2621	2616	2644	2662	2648	2569	2494	2396	2222	2188	2186	2183	2180	2174	2166	2167	2127	2128	2144	2172	2161	2174	2168	2175	2177	2185	2186	2202	2221	2227	2216	2206	2189	2182	2178	2177	2180	2186	2186	2187	2179	2174	2186	2205	2204	2204	2275	2457	2576	2630	2659	2639	2558	2455	2321	2143	2023	2134	2330	2643	2701	2721	2727	2709	2670	2619	2580	2555	2544	2570	2595	2592	2572	2509	2421	2337	2294	2288	2306	2305	2328	2371	2392	2418	2403	2396	2386	2381	2380	2372	2342	2257	2130	1947	1745	1729	1666	1635	1627	1628	1622	1595	1577	1576	1576	1577	1581	1578	1573	1566	1556	1555	1565	1567	1556	1540	1542	1546	1544	1546	1544	1546	1546	1546	0	0	0	0	0	0	0	0
1724	1714	1718	1735	1735	1750	1753	1728	1709	1709	1719	1722	1730	1743	1749	1749	1758	1759	1767	1773	1773	1734	1726	1723	1734	1744	1742	1712	1712	1706	1698	1700	1706	1714	1732	1759	1759	1774	1781	1770	1768	1775	1778	1781	1786	1786	1802	1814	1800	1807	1796	1776	1788	1790	1805	1796	1807	1807	1843	1875	1869	1834	1790	1778	1782	1796	1795	1794	1794	1778	1760	1757	1772	1803	1803	1829	1834	1825	1816	1805	1803	1804	1815	1840	1854	1852	1832	1807	1775	1767	1729	1625	1576	1496	1444	1420	1404	1395	1392	1392	1388	1373	1372	1364	1382	1392	1405	1413	1410	1402	1400	1407	1411	1414	1413	1418	1416	1413	1406	1396	1392	1396	1393	1401	1411	1420	1429	1431	1428	1419	1407	1400	1400	1411	1417	1419	1422	1429	1430	1414	1418	1432	1447	1422	1427	1436	1450	1466	1466	1452	1438	1434	1481	1506	1524	1522	1520	1522	1524	1524	1516	1537	1576	1588	1604	1701	1769	1798	1817	1823	1834	1856	1872	1885	1875	1862	1865	1869	1874	1877	1897	1895	1871	1838	1812	1816	1836	1863	1881	1888	1882	1887	1894	1905	1915	1899	1877	1884	1917	1917	1922	1934	1917	1904	1902	1904	1913	1914	1910	1896	1898	1898	1901	1968	1955	1936	1934	1946	1963	1968	1967	1971	1990	1999	1969	1954	1937	1927	1933	1938	1967	1975	1975	1978	1993	1991	1978	1976	1939	1774	1743	1528	1425	1428	1436	1430	1427	1456	1480	1472	1483	1485	1487	1476	1456	1457	1460	1464	1459	1459	1465	1461	1461	1458	1460	1460	1460	1473	1481	1478	1488	1496	1493	1479	1480	1475	1490	1499	1500	1483	1478	1485	1484	1478	1495	1501	1506	1504	1497	1481	1464	1461	1475	1484	1484	1475	1478	1491	1480	1474	1470	1458	1452	1459	1476	1482	1482	1485	1495	1515	1515	1511	1492	1495	1505	1499	1493	1488	1498	1517	1519	1543	1699	1854	1938	2029	2079	2083	2114	2124	2149	2141	2156	2115	2092	2088	2100	2114	2143	2162	2182	2190	2191	2186	2179	2170	2157	2147	2125	2123	2132	2147	2161	2181	2180	2185	2178	2175	2157	2162	2165	2188	2221	2249	2250	2233	2211	2200	2189	2186	2171	2129	2047	2025	2023	2017	1962	1929	1916	1908	1894	1907	1966	1996	1989	1981	1975	1973	1970	1979	1989	1989	1997	1992	1927	1868	1814	1767	1742	1716	1696	1655	1604	1582	1568	1551	1543	1557	1587	1557	1544	1546	1524	1512	1513	1513	1515	1517	1523	1528	1525	1518	1519	1526	1533	1523	1518	1519	1537	1551	1564	1560	1553	1554	1556	1556	1542	1538	1538	1549	1555	1546	1542	1543	1554	1562	1566	1574	1577	1567	1529	1525	1537	1596	1662	1779	1966	2273	2415	2508	2506	2478	2419	2407	2428	2428	2426	2382	2426	2428	2405	2384	2364	2357	2368	2402	2422	2431	2437	2440	2462	2487	2469	2431	2424	2428	2412	2422	2453	2500	2532	2543	2527	2511	2528	2550	2559	2507	2505	2505	2507	2490	2487	2499	2525	2535	2523	2512	2517	2533	2547	2579	2473	2468	2441	2371	2191	2158	2163	2170	2164	2158	2157	2158	2157	2136	2159	2164	2163	2168	2168	2176	2178	2181	2180	2191	2203	2200	2192	2174	2172	2173	2182	2183	2185	2188	2175	2181	2174	2164	2167	2178	2180	2190	2299	2427	2521	2531	2501	2509	2475	2402	2285	2178	2041	2028	2073	2167	2416	2612	2630	2648	2621	2563	2508	2477	2462	2464	2481	2517	2531	2522	2474	2434	2401	2402	2405	2411	2409	2416	2435	2452	2451	2457	2459	2449	2438	2428	2383	2328	2258	2123	1933	1685	1666	1632	1631	1629	1617	1598	1566	1555	1555	1553	1562	1572	1570	1563	1556	1547	1555	1559	1535	1539	1549	1549	1546	1542	1538	1536	1536	1535	0	0	0	0	0	0	0	0
1694	1689	1698	1721	1721	1727	1708	1702	1705	1705	1710	1711	1713	1710	1711	1711	1717	1726	1724	1728	1712	1712	1690	1696	1706	1710	1690	1692	1692	1698	1696	1692	1705	1716	1729	1747	1747	1755	1758	1739	1705	1696	1708	1725	1757	1757	1775	1778	1748	1732	1728	1732	1740	1748	1764	1773	1775	1775	1767	1771	1764	1762	1757	1765	1782	1794	1791	1783	1772	1764	1756	1755	1755	1762	1762	1777	1801	1793	1787	1785	1785	1792	1802	1814	1828	1832	1802	1775	1755	1748	1694	1586	1539	1484	1439	1419	1400	1385	1390	1396	1395	1401	1400	1391	1394	1394	1402	1401	1397	1394	1395	1402	1409	1409	1410	1412	1416	1414	1407	1401	1398	1392	1386	1392	1407	1428	1439	1436	1427	1413	1407	1411	1419	1423	1423	1424	1424	1426	1423	1405	1430	1435	1448	1429	1441	1450	1459	1476	1455	1445	1432	1431	1471	1495	1514	1524	1520	1512	1509	1502	1499	1534	1565	1590	1609	1692	1766	1806	1814	1820	1838	1858	1874	1873	1832	1846	1853	1853	1851	1863	1882	1863	1835	1793	1777	1789	1807	1833	1848	1838	1806	1804	1815	1849	1869	1865	1857	1861	1838	1828	1821	1851	1855	1852	1857	1874	1878	1876	1865	1852	1846	1870	1863	1854	1850	1892	1906	1926	1935	1941	1941	1955	1970	1945	1932	1908	1892	1888	1887	1887	1911	1934	1945	1947	1939	1909	1885	1882	1869	1729	1686	1497	1414	1410	1426	1425	1422	1439	1473	1492	1485	1489	1486	1463	1460	1451	1451	1449	1444	1450	1462	1467	1466	1462	1458	1459	1463	1473	1480	1483	1489	1492	1491	1492	1479	1482	1484	1501	1499	1477	1479	1484	1472	1472	1475	1480	1473	1497	1480	1490	1486	1483	1488	1479	1479	1475	1483	1489	1485	1475	1463	1462	1460	1467	1461	1476	1479	1484	1487	1509	1512	1513	1503	1503	1503	1492	1483	1496	1517	1520	1526	1554	1733	1851	1929	1987	2014	2042	2052	2075	2086	2076	2063	2037	2007	2000	2024	2064	2104	2129	2151	2144	2115	2079	2079	2076	2077	2089	2091	2097	2108	2121	2134	2142	2155	2145	2122	2086	2085	2112	2141	2162	2165	2158	2146	2167	2163	2158	2119	2113	2124	2121	2086	2022	1980	1978	1982	1933	1921	1922	1885	1895	1966	1995	1989	1977	1970	1966	1961	1992	2000	2000	2002	1972	1878	1838	1788	1752	1717	1697	1661	1622	1597	1570	1562	1557	1565	1556	1554	1536	1530	1538	1533	1512	1507	1501	1509	1516	1522	1530	1529	1521	1518	1531	1537	1530	1523	1541	1556	1563	1570	1566	1557	1550	1548	1555	1550	1543	1547	1550	1543	1527	1521	1534	1556	1566	1574	1586	1589	1555	1533	1532	1532	1588	1659	1797	1983	2175	2357	2400	2417	2400	2388	2368	2330	2313	2292	2301	2334	2353	2368	2355	2338	2319	2315	2329	2371	2388	2386	2372	2370	2391	2388	2366	2357	2358	2375	2395	2421	2438	2460	2474	2476	2459	2484	2508	2505	2463	2470	2470	2466	2439	2414	2384	2336	2342	2355	2381	2407	2423	2406	2357	2364	2388	2353	2334	2170	2154	2151	2157	2158	2156	2158	2166	2175	2148	2178	2177	2166	2177	2169	2172	2167	2157	2153	2165	2174	2173	2165	2166	2176	2177	2184	2177	2166	2171	2187	2181	2179	2179	2165	2164	2157	2170	2218	2277	2399	2421	2425	2428	2418	2373	2285	2163	2066	1995	2023	2088	2288	2442	2556	2608	2597	2533	2489	2442	2431	2427	2444	2457	2468	2477	2448	2443	2439	2459	2450	2408	2372	2353	2382	2407	2436	2468	2476	2462	2432	2450	2426	2382	2319	2242	2053	1696	1672	1645	1638	1634	1619	1599	1579	1579	1560	1557	1569	1574	1575	1569	1560	1553	1560	1551	1533	1541	1559	1569	1566	1555	1545	1537	1537	1536	0	0	0	0	0	0	0	0
1659	1665	1676	1681	1681	1664	1673	1678	1688	1688	1700	1705	1699	1691	1700	1700	1698	1704	1705	1709	1667	1667	1652	1665	1677	1672	1668	1660	1660	1667	1672	1691	1707	1715	1721	1731	1731	1733	1719	1693	1676	1677	1686	1692	1705	1705	1705	1701	1696	1682	1695	1702	1708	1712	1730	1748	1741	1741	1736	1730	1737	1740	1747	1756	1769	1777	1775	1762	1753	1739	1738	1740	1732	1734	1734	1724	1727	1758	1758	1756	1756	1763	1769	1765	1761	1751	1745	1742	1733	1729	1644	1555	1514	1473	1428	1417	1403	1382	1387	1397	1420	1416	1413	1408	1408	1403	1407	1401	1399	1399	1403	1404	1403	1407	1408	1412	1415	1412	1408	1414	1413	1408	1398	1407	1422	1431	1441	1433	1414	1402	1402	1412	1423	1429	1427	1429	1433	1433	1430	1404	1428	1441	1446	1438	1443	1454	1462	1466	1448	1439	1433	1450	1474	1500	1530	1536	1530	1514	1489	1472	1502	1527	1570	1597	1612	1710	1754	1776	1747	1755	1767	1792	1808	1801	1796	1811	1826	1841	1810	1795	1787	1780	1762	1753	1755	1770	1777	1780	1783	1775	1768	1770	1792	1803	1809	1812	1808	1798	1788	1778	1781	1793	1804	1812	1811	1806	1811	1818	1817	1816	1819	1837	1838	1819	1798	1800	1808	1874	1876	1860	1858	1869	1893	1889	1868	1855	1855	1852	1847	1852	1851	1894	1919	1918	1898	1861	1843	1832	1821	1675	1635	1492	1414	1411	1421	1428	1436	1434	1465	1480	1475	1483	1475	1459	1459	1463	1445	1444	1446	1454	1461	1465	1463	1457	1449	1446	1457	1467	1476	1483	1489	1486	1486	1480	1498	1490	1489	1475	1492	1473	1479	1477	1463	1461	1464	1477	1468	1480	1488	1492	1492	1490	1493	1491	1488	1474	1476	1488	1497	1492	1486	1478	1472	1480	1464	1460	1475	1479	1504	1498	1500	1491	1487	1490	1484	1461	1479	1502	1524	1530	1531	1561	1737	1819	1907	1972	2004	2020	2038	2057	2059	2029	1997	1968	1958	1978	2004	2029	2068	2096	2084	2060	2058	2065	2067	2064	2057	2063	2075	2090	2085	2082	2075	2069	2054	2035	2031	2035	2031	2024	2043	2074	2087	2080	2071	2097	2101	2100	2090	2082	2082	2078	2089	2053	2006	1981	1972	1959	1934	1908	1894	1903	1943	1982	1983	1964	1945	1938	1967	2001	2008	2008	2016	1951	1821	1774	1757	1737	1716	1684	1650	1617	1592	1580	1576	1582	1582	1563	1529	1510	1518	1536	1544	1533	1517	1516	1514	1513	1525	1537	1538	1528	1520	1526	1534	1533	1530	1549	1560	1567	1566	1564	1560	1557	1561	1561	1554	1548	1547	1547	1537	1528	1528	1538	1551	1562	1576	1589	1591	1579	1580	1576	1549	1572	1659	1805	1980	2107	2254	2319	2360	2369	2346	2331	2312	2304	2272	2302	2291	2301	2299	2323	2314	2288	2293	2305	2309	2323	2339	2339	2342	2347	2322	2306	2289	2304	2325	2344	2361	2372	2390	2405	2407	2403	2393	2375	2385	2391	2389	2389	2373	2344	2321	2307	2304	2284	2273	2266	2281	2300	2299	2272	2277	2303	2320	2204	2168	2163	2168	2165	2163	2163	2165	2176	2181	2167	2186	2191	2185	2165	2166	2161	2154	2143	2135	2143	2154	2150	2156	2165	2173	2177	2190	2178	2160	2156	2172	2180	2179	2178	2168	2155	2156	2174	2193	2214	2214	2342	2366	2370	2358	2344	2277	2180	2074	1980	1991	2029	2108	2296	2436	2485	2500	2497	2464	2422	2387	2381	2399	2402	2395	2374	2381	2406	2456	2482	2462	2386	2319	2287	2266	2334	2368	2387	2405	2393	2347	2360	2361	2374	2328	2219	2034	1707	1680	1652	1641	1631	1618	1603	1587	1587	1564	1563	1582	1585	1582	1576	1562	1558	1567	1544	1525	1545	1551	1565	1572	1565	1546	1546	1538	1540	0	0	0	0	0	0	0	0
1648	1656	1660	1638	1638	1626	1639	1651	1665	1665	1693	1687	1672	1679	1694	1694	1701	1703	1696	1678	1651	1647	1647	1653	1655	1645	1632	1619	1630	1630	1657	1686	1701	1690	1697	1695	1695	1701	1685	1670	1662	1658	1663	1667	1661	1658	1658	1659	1659	1667	1672	1671	1665	1672	1690	1701	1708	1708	1700	1700	1707	1723	1718	1719	1737	1748	1746	1742	1727	1720	1715	1715	1705	1696	1696	1695	1708	1726	1726	1722	1718	1723	1733	1739	1737	1732	1726	1718	1713	1705	1630	1549	1503	1454	1412	1410	1390	1385	1389	1403	1415	1420	1413	1415	1411	1408	1410	1411	1417	1426	1422	1421	1404	1405	1412	1411	1397	1388	1390	1398	1411	1421	1426	1433	1432	1430	1422	1410	1400	1397	1395	1408	1417	1421	1423	1426	1430	1437	1423	1387	1400	1422	1425	1435	1434	1449	1455	1462	1442	1448	1452	1479	1496	1520	1541	1554	1544	1528	1485	1485	1511	1535	1557	1568	1583	1707	1730	1719	1724	1729	1744	1762	1770	1769	1768	1771	1781	1773	1761	1728	1736	1747	1751	1748	1750	1750	1744	1742	1738	1731	1752	1772	1780	1774	1763	1757	1764	1773	1772	1764	1754	1749	1740	1731	1729	1737	1759	1781	1781	1789	1795	1801	1814	1766	1765	1769	1775	1760	1762	1792	1776	1774	1767	1782	1803	1804	1807	1808	1807	1815	1821	1846	1862	1864	1851	1832	1824	1839	1814	1640	1581	1497	1427	1421	1421	1431	1438	1434	1452	1473	1472	1463	1464	1456	1460	1465	1469	1451	1450	1454	1460	1456	1447	1439	1436	1441	1450	1464	1474	1483	1485	1484	1485	1486	1488	1495	1500	1499	1480	1484	1475	1468	1455	1452	1454	1453	1477	1488	1479	1487	1511	1492	1495	1495	1488	1482	1472	1482	1505	1509	1505	1493	1481	1486	1493	1503	1507	1508	1507	1509	1499	1497	1494	1490	1480	1467	1489	1511	1516	1524	1536	1560	1705	1781	1864	1935	1984	2008	2023	2037	2032	2008	1975	1951	1949	1964	1977	1970	1995	2022	2036	2034	2037	2042	2045	2041	2032	2035	2038	2067	2069	2065	2052	2041	2014	2008	2011	2012	2014	2012	2023	2051	2050	2046	2048	2047	2062	2071	2076	2067	2066	2073	2076	2074	2069	2054	2022	1983	1930	1925	1908	1952	1972	2009	1986	1968	1946	1941	1969	1998	2014	2014	2020	1926	1763	1735	1725	1725	1710	1690	1655	1626	1609	1607	1603	1599	1587	1552	1520	1504	1514	1532	1548	1539	1534	1538	1520	1514	1523	1537	1542	1533	1528	1527	1535	1530	1534	1551	1559	1563	1562	1566	1565	1573	1573	1566	1555	1545	1549	1548	1539	1537	1542	1545	1540	1557	1572	1581	1596	1592	1606	1604	1593	1579	1674	1842	1964	2082	2182	2260	2226	2251	2238	2227	2212	2218	2246	2258	2254	2254	2237	2250	2249	2257	2267	2275	2270	2263	2259	2272	2282	2281	2272	2280	2268	2259	2288	2321	2342	2340	2334	2334	2359	2365	2345	2340	2360	2330	2305	2265	2273	2291	2299	2308	2297	2267	2243	2245	2257	2255	2252	2232	2213	2198	2198	2188	2182	2185	2189	2188	2169	2158	2163	2170	2172	2173	2183	2184	2173	2164	2151	2159	2153	2138	2122	2131	2160	2171	2181	2181	2185	2190	2195	2186	2177	2161	2163	2165	2168	2166	2159	2151	2170	2183	2173	2163	2180	2177	2183	2213	2235	2240	2221	2146	2081	1971	1967	1990	2036	2096	2154	2183	2198	2222	2237	2226	2211	2172	2182	2188	2197	2208	2234	2244	2243	2216	2207	2206	2230	2229	2209	2173	2157	2190	2240	2275	2270	2281	2271	2260	2189	2092	2016	1716	1664	1640	1618	1622	1614	1606	1593	1593	1575	1578	1597	1594	1585	1573	1567	1571	1565	1541	1529	1555	1552	1553	1563	1564	1551	1551	1546	1547	0	0	0	0	0	0	0	0
1624	1633	1617	1597	1597	1601	1608	1622	1632	1632	1631	1639	1642	1656	1683	1683	1706	1707	1699	1646	1618	1624	1624	1632	1643	1625	1612	1609	1618	1618	1654	1670	1667	1662	1647	1655	1648	1648	1646	1647	1647	1645	1640	1625	1622	1628	1628	1637	1645	1655	1658	1650	1636	1634	1641	1649	1654	1654	1664	1666	1678	1683	1680	1672	1698	1724	1727	1725	1713	1696	1686	1683	1674	1651	1662	1662	1686	1708	1709	1698	1684	1681	1697	1715	1719	1715	1710	1703	1697	1667	1604	1530	1499	1463	1426	1418	1396	1388	1395	1415	1415	1411	1415	1415	1409	1408	1408	1409	1407	1405	1413	1419	1412	1408	1411	1402	1390	1390	1393	1400	1412	1420	1427	1428	1429	1429	1417	1414	1410	1402	1396	1400	1402	1407	1414	1424	1429	1432	1420	1376	1387	1398	1415	1432	1433	1440	1446	1451	1443	1450	1477	1495	1509	1527	1547	1559	1545	1533	1493	1494	1517	1535	1545	1546	1547	1680	1707	1699	1700	1700	1718	1735	1740	1732	1735	1742	1735	1727	1715	1709	1718	1732	1728	1729	1708	1705	1705	1693	1701	1718	1741	1758	1759	1747	1729	1723	1724	1754	1756	1743	1725	1708	1706	1689	1703	1717	1736	1749	1752	1759	1749	1739	1727	1714	1709	1711	1718	1731	1750	1742	1731	1742	1742	1755	1766	1793	1789	1782	1756	1764	1783	1804	1819	1825	1826	1823	1813	1825	1827	1636	1573	1511	1453	1445	1432	1425	1425	1440	1440	1450	1473	1470	1468	1462	1473	1482	1480	1480	1469	1460	1456	1448	1433	1424	1428	1438	1450	1466	1473	1478	1484	1484	1486	1486	1487	1484	1485	1479	1476	1470	1482	1469	1503	1455	1452	1464	1487	1499	1502	1514	1520	1520	1496	1497	1491	1478	1474	1478	1502	1531	1521	1516	1495	1492	1499	1498	1510	1523	1522	1510	1510	1513	1502	1492	1486	1479	1508	1522	1511	1518	1538	1560	1670	1734	1811	1875	1939	1968	1989	1989	1981	1972	1958	1946	1941	1944	1949	1946	1962	1987	2011	2002	2002	2009	2011	1988	1959	1954	1958	1978	1979	1992	2004	2011	1996	1979	1970	1975	1995	2005	1997	1992	2022	2022	2021	2032	2017	2028	2060	2057	2050	2051	2059	2061	2054	2041	2022	1978	1962	1974	1975	2009	2004	1997	1989	1974	1966	1967	1983	2001	2009	2009	1995	1883	1730	1702	1691	1692	1705	1692	1658	1645	1633	1638	1630	1619	1607	1555	1517	1516	1521	1520	1537	1544	1543	1549	1530	1513	1523	1534	1534	1546	1538	1539	1542	1530	1541	1547	1552	1555	1558	1567	1574	1581	1578	1570	1555	1554	1556	1555	1549	1555	1579	1579	1553	1547	1566	1580	1596	1600	1600	1602	1595	1591	1685	1854	1963	2056	2145	2175	2155	2175	2184	2190	2183	2170	2204	2227	2236	2228	2213	2219	2220	2229	2241	2232	2196	2169	2149	2135	2156	2187	2237	2245	2237	2225	2229	2249	2269	2273	2265	2261	2275	2286	2269	2269	2267	2246	2223	2218	2222	2227	2242	2277	2273	2253	2234	2238	2240	2243	2235	2215	2215	2186	2182	2174	2177	2189	2193	2179	2165	2148	2142	2151	2163	2152	2165	2165	2147	2130	2109	2120	2143	2166	2154	2140	2133	2133	2142	2178	2199	2196	2194	2200	2174	2155	2155	2156	2158	2151	2147	2165	2188	2170	2170	2151	2140	2134	2135	2138	2136	2134	2136	2121	2103	1962	1957	1964	1999	2039	2121	2189	2190	2187	2176	2175	2172	2173	2181	2202	2218	2220	2220	2202	2167	2134	2121	2122	2132	2128	2112	2093	2084	2095	2106	2127	2144	2142	2126	2100	2075	2045	2003	1709	1638	1627	1595	1594	1599	1586	1580	1585	1578	1584	1590	1591	1584	1575	1571	1572	1562	1544	1539	1560	1559	1561	1559	1556	1544	1544	1544	1540	0	0	0	0	0	0	0	0
1573	1568	1567	1570	1570	1573	1578	1569	1565	1566	1566	1593	1602	1615	1639	1639	1674	1703	1614	1601	1582	1588	1588	1599	1607	1601	1597	1605	1634	1634	1653	1648	1631	1628	1621	1611	1606	1606	1610	1623	1633	1623	1609	1594	1595	1608	1608	1618	1637	1650	1650	1645	1632	1625	1621	1635	1632	1627	1627	1643	1663	1656	1638	1632	1648	1688	1716	1712	1699	1679	1650	1618	1606	1624	1637	1637	1654	1669	1685	1681	1663	1659	1672	1689	1664	1664	1641	1630	1612	1612	1597	1525	1497	1468	1441	1428	1401	1387	1390	1408	1412	1411	1417	1417	1415	1409	1407	1403	1405	1395	1404	1410	1405	1403	1403	1404	1406	1415	1420	1416	1418	1417	1416	1416	1423	1422	1424	1427	1426	1411	1401	1392	1396	1399	1408	1421	1431	1435	1429	1383	1389	1399	1415	1431	1436	1422	1428	1440	1447	1447	1474	1494	1504	1526	1541	1550	1544	1519	1491	1491	1519	1538	1543	1531	1530	1565	1683	1682	1671	1671	1679	1688	1702	1710	1704	1693	1689	1681	1683	1695	1705	1708	1702	1675	1667	1663	1658	1673	1685	1704	1724	1731	1719	1714	1710	1706	1710	1740	1735	1713	1696	1683	1670	1666	1678	1695	1698	1702	1707	1708	1708	1698	1684	1682	1675	1670	1687	1705	1732	1730	1709	1695	1698	1699	1736	1734	1734	1740	1734	1748	1748	1745	1758	1798	1802	1789	1761	1766	1787	1633	1555	1520	1478	1459	1438	1408	1427	1457	1436	1427	1444	1469	1470	1470	1467	1468	1473	1475	1489	1493	1499	1489	1477	1465	1455	1460	1463	1459	1459	1477	1482	1480	1492	1488	1484	1486	1482	1477	1467	1468	1483	1488	1473	1498	1498	1476	1493	1508	1512	1514	1522	1525	1506	1494	1494	1484	1463	1472	1493	1528	1531	1506	1505	1488	1468	1477	1485	1495	1502	1512	1527	1515	1508	1495	1493	1499	1540	1530	1512	1523	1552	1565	1639	1696	1757	1825	1886	1919	1923	1917	1917	1927	1932	1918	1928	1928	1930	1928	1944	1960	1965	1966	1958	1960	1939	1920	1908	1919	1938	1957	1959	1946	1941	1954	1953	1946	1942	1951	1950	1963	1957	1953	1958	1985	2003	2011	2004	1975	1988	2006	2008	2000	2006	2028	2030	2020	2006	1986	1984	1968	1965	1956	1956	1964	1977	1982	1988	2000	2005	2018	1984	1997	1981	1864	1738	1682	1668	1669	1683	1698	1686	1666	1658	1656	1646	1636	1624	1583	1526	1536	1532	1521	1526	1546	1547	1550	1534	1515	1517	1532	1541	1547	1550	1556	1556	1533	1540	1548	1543	1542	1552	1562	1575	1580	1577	1570	1557	1562	1568	1565	1564	1579	1598	1593	1575	1559	1558	1569	1584	1585	1585	1587	1591	1601	1661	1825	1916	2006	2132	2125	2118	2119	2125	2114	2119	2126	2145	2162	2175	2181	2186	2187	2189	2205	2201	2189	2175	2145	2129	2107	2096	2121	2180	2159	2140	2162	2168	2188	2208	2224	2206	2188	2191	2201	2204	2215	2227	2227	2228	2226	2223	2216	2213	2219	2221	2221	2221	2224	2235	2233	2222	2206	2204	2199	2191	2172	2167	2176	2178	2172	2152	2133	2127	2146	2143	2110	2037	2046	2058	2066	2073	2087	2090	2108	2130	2113	2096	2070	2081	2109	2112	2090	2068	2073	2096	2100	2097	2099	2092	2084	2081	2109	2132	2154	2154	2147	2138	2132	2128	2122	2116	2124	2134	2145	2141	2034	1954	1950	1958	2029	2135	2178	2193	2173	2158	2154	2139	2147	2151	2151	2159	2163	2164	2153	2143	2135	2121	2110	2102	2109	2121	2134	2139	2142	2146	2147	2147	2140	2134	2134	2116	2079	2040	1707	1625	1625	1608	1598	1596	1592	1592	1578	1580	1580	1582	1581	1573	1567	1568	1571	1567	1544	1538	1531	1545	1550	1545	1545	1529	1529	1531	1537	0	0	0	0	0	0	0	0
1573	1566	1564	1564	1564	1573	1577	1565	1556	1549	1549	1547	1558	1570	1590	1602	1602	1615	1575	1569	1564	1573	1573	1580	1587	1584	1582	1591	1609	1609	1627	1617	1605	1595	1596	1591	1576	1576	1583	1589	1589	1584	1572	1570	1584	1583	1583	1587	1612	1632	1639	1638	1638	1628	1626	1630	1628	1626	1626	1632	1643	1637	1613	1603	1602	1621	1673	1676	1643	1609	1587	1574	1574	1585	1603	1603	1613	1605	1606	1634	1588	1596	1597	1594	1593	1596	1591	1577	1570	1573	1563	1512	1490	1468	1453	1438	1399	1377	1379	1385	1405	1412	1421	1429	1424	1412	1406	1404	1403	1397	1403	1408	1403	1409	1413	1418	1427	1431	1431	1425	1416	1408	1410	1414	1409	1416	1423	1443	1431	1417	1406	1397	1396	1402	1410	1424	1434	1439	1438	1393	1403	1406	1415	1424	1433	1433	1425	1427	1435	1440	1453	1449	1487	1501	1527	1541	1532	1505	1484	1482	1515	1539	1551	1540	1533	1542	1652	1635	1631	1641	1644	1637	1640	1643	1649	1643	1651	1653	1656	1671	1679	1689	1667	1652	1642	1635	1639	1647	1664	1690	1690	1682	1670	1670	1677	1685	1684	1711	1703	1674	1658	1657	1642	1630	1627	1627	1636	1658	1668	1683	1691	1685	1670	1665	1649	1655	1665	1687	1706	1694	1685	1669	1667	1674	1665	1657	1700	1704	1720	1734	1720	1728	1717	1744	1749	1738	1718	1726	1731	1620	1555	1520	1483	1461	1409	1410	1456	1465	1432	1416	1433	1454	1466	1471	1466	1454	1454	1463	1475	1486	1486	1456	1464	1473	1473	1466	1459	1459	1460	1465	1475	1481	1488	1487	1477	1490	1483	1472	1463	1470	1486	1491	1482	1496	1504	1496	1489	1489	1501	1513	1527	1533	1515	1501	1495	1483	1459	1471	1492	1515	1502	1500	1488	1475	1468	1475	1479	1482	1488	1496	1511	1513	1502	1495	1493	1517	1540	1532	1519	1534	1561	1562	1631	1672	1719	1768	1805	1865	1872	1838	1852	1880	1882	1880	1881	1880	1878	1874	1875	1879	1879	1887	1910	1900	1890	1869	1878	1898	1915	1929	1929	1929	1915	1901	1907	1921	1919	1933	1945	1952	1943	1939	1939	1941	1934	1921	1940	1941	1954	1966	1974	1974	1966	1964	1979	1951	1964	1974	1971	1958	1953	1947	1944	1950	1956	1969	1979	1997	1998	1974	1967	1969	1979	1977	1870	1702	1679	1666	1678	1695	1701	1690	1675	1652	1643	1641	1623	1589	1552	1537	1526	1519	1540	1548	1547	1545	1531	1521	1521	1527	1534	1543	1555	1562	1566	1536	1544	1547	1523	1528	1540	1552	1566	1574	1571	1566	1561	1560	1556	1557	1555	1576	1593	1587	1571	1552	1547	1559	1566	1568	1567	1569	1584	1604	1637	1787	1845	1951	2079	2088	2090	2087	2081	2074	2087	2091	2099	2092	2102	2113	2124	2141	2154	2163	2160	2152	2137	2119	2095	2070	2063	2086	2073	2082	2097	2106	2133	2162	2181	2195	2181	2164	2152	2147	2154	2166	2210	2219	2222	2227	2231	2228	2217	2192	2183	2186	2202	2207	2212	2199	2172	2180	2196	2184	2175	2147	2134	2150	2159	2159	2140	2114	2109	2074	2066	2057	2045	2054	2054	2051	2055	2066	2070	2053	2045	2046	2040	2051	2068	2082	2074	2050	1990	1991	2006	2024	2033	2032	2034	2020	2009	1994	1994	1996	2022	2033	2038	2052	2052	2064	2085	2102	2122	2141	2141	2029	1971	1941	1927	1947	2063	2145	2163	2168	2155	2135	2130	2144	2140	2138	2142	2147	2149	2148	2149	2144	2130	2114	2101	2108	2122	2136	2146	2152	2154	2153	2147	2140	2124	2122	2124	2086	2042	1703	1625	1633	1616	1603	1595	1592	1592	1588	1590	1591	1593	1591	1579	1570	1574	1580	1575	1554	1535	1526	1531	1537	1535	1534	1532	1532	1524	1527	0	0	0	0	0	0	0	0
