784	786	791	800	800	803	809	814	810	810	797	787	785	792	792	793	791	796	788	793	793	819	832	834	835	828	828	827	821	812	806	808	807	807	811	814	815	807	808	811	788	788	798	806	819	815	813	820	827	832	832	835	834	831	826	819	823	843	850	852	852	834	830	826	823	827	838	836	824	819	821	827	837	838	838	831	820	812	805	805	818	821	817	818	819	810	813	812	806	801	805	810	812	812	806	824	828	823	823	823	823	828	832	830	824	821	832	844	844	843	816	828	830	830	830	832	830	813	811	811	814	817	819	815	808	810	814	819	815	810	810	830	838	838	830	820	819	812	811	812	815	814	816	823	840	845	843	844	841	834	838	836	831	833	838	838	826	818	821	819	814	809	817	822	821	819	834	837	833	832	833	838	840	850	854	858	861	852	839	835	833	830	830	837	849	857	859	852	857	861	863	858	844	843	855	861	854	846	837	839	838	843	845	850	852	855	874	875	872	867	860	853	851	849	851	855	857	862	869	874	867	856	848	852	860	867	863	857	861	866	872	867	868	865	869	872	873	872	867	871	869	866	867	864	858	857	863	872	875	878	879	887	877	872	875	879	882	880	876	869	876	879	878	881	869	865	882	889	882	870	865	868	875	871	871	869	872	871	856	857	859	862	866	879	880	886	900	885	888	890	899	898	887	882	883	896	897	893	882	869	873	882	897	901	893	875	880	879	884	887	892	894	887	881	888	890	895	890	889	889	882	876	881	885	899	899	900	894	886	883	888	900	905	906	903	908	909	910	910	917	917	913	910	906	900	902	909	912	914	918	922	922	917	914	913	917	913	916	922	924	925	914	905	906	911	914	907	905	909	916	926	928	922	918	908	900	900	901	905	904	904	910	913	923	932	930	920	924	928	926	915	911	914	912	892	899	906	909	911	911	911	907	884	875	883	892	897	897	906	905	908	909	914	911	909	909	910	915	912	905	903	910	919	923	922	921	921	924	929	929	928	927	926	920	922	922	922	929	942	951	956	955	951	926	937	943	926	924	926	926	931	936	943	942	923	924	924	926	927	927	926	912	907	918	929	932	941	936	933	933	936	943	943	934	934	938	935	933	936	932	938	941	945	936	939	939	933	930	935	939	944	938	944	964	963	957	947	923	909	921	936	940	944	946	945	932	925	919	943	950	955	961	964	968	973	976	976	967	965	964	966	969	976	967	956	953	950	951	955	963	972	978	977	971	965	956	959	972	982	989	987	974	961	954	955	961	967	975	976	972	973	974	970	965	966	967	970	967	962	957	957	970	970	971	970	969	964	971	968	962	973	982	989	989	992	1002	999	1002	999	997	993	987	961	969	983	989	994	991	999	998	995	990	982	977	982	978	972	975	978	988	990	995	997	994	989	981	977	978	986	997	992	980	980	969	977	998	998	997	1004	1007	1004	999	988	984	983	991	991	985	982	985	998	999	989	0	0	0	0	0	0	0
774	778	785	791	791	797	803	815	800	800	785	774	776	773	773	773	774	785	788	793	799	799	810	817	824	825	822	822	817	807	801	801	802	796	796	791	787	785	787	787	788	788	791	797	805	802	800	795	790	790	790	798	814	833	833	823	823	825	830	831	823	823	816	817	825	835	810	805	806	807	812	816	824	826	826	824	814	805	801	798	803	803	803	804	806	811	814	815	810	803	805	811	810	797	797	805	813	807	805	807	814	814	829	824	817	806	809	795	790	792	795	803	812	814	817	824	823	817	807	807	812	813	812	806	794	798	805	808	806	806	814	816	812	814	816	815	811	807	807	806	805	805	815	823	826	830	828	825	822	832	837	837	831	824	827	826	816	818	821	824	821	817	819	822	823	827	827	821	819	816	815	811	813	833	833	822	809	818	829	834	827	822	822	830	839	841	847	849	853	855	851	842	840	839	845	846	840	831	832	835	835	832	835	836	841	845	847	849	850	843	843	844	846	845	853	853	855	848	856	866	856	837	834	834	839	854	854	850	849	851	858	858	861	866	864	873	873	874	874	869	863	861	878	881	871	863	863	875	878	881	878	878	877	872	870	871	878	878	872	866	870	869	861	860	860	856	861	863	870	865	865	855	864	867	865	867	871	865	861	854	849	850	850	851	870	876	870	861	865	875	888	885	885	890	894	890	883	874	869	867	861	864	884	889	873	870	875	876	875	874	875	884	878	875	876	878	869	873	882	883	878	873	873	885	893	892	885	880	876	878	878	884	886	890	893	888	883	906	908	894	886	885	895	890	892	896	905	895	895	896	905	904	900	904	901	901	906	911	918	923	918	908	878	870	871	905	902	900	904	913	920	917	913	911	903	893	893	892	893	894	900	905	907	914	909	910	911	912	917	908	874	866	866	883	883	894	905	906	907	903	896	891	878	872	882	887	892	888	890	895	894	896	901	903	906	909	909	903	894	888	890	888	891	896	900	906	915	928	927	925	929	915	901	897	905	905	907	909	912	910	908	903	905	918	912	918	924	928	922	910	900	901	917	934	917	910	913	914	908	907	911	910	911	914	923	923	933	925	913	906	910	911	919	921	931	938	921	910	919	934	940	940	928	910	910	906	908	909	913	921	935	930	930	925	922	921	915	902	898	903	907	905	906	912	908	900	898	900	908	912	917	934	939	936	935	938	955	954	950	943	939	941	941	949	954	949	946	944	948	954	957	960	966	958	948	945	949	962	967	956	953	951	952	955	951	947	953	960	963	963	965	963	960	958	959	963	968	966	958	952	950	953	959	962	964	963	950	946	947	948	944	940	945	956	959	972	972	958	959	955	955	949	948	954	966	974	973	974	976	979	990	977	975	970	967	958	960	963	961	976	976	979	970	967	961	956	955	958	965	974	970	970	960	954	951	956	964	979	988	988	989	997	995	989	980	975	980	978	974	972	967	966	959	0	0	0	0	0	0	0
771	769	769	779	787	787	811	804	792	777	777	771	770	767	767	767	770	782	788	788	787	787	789	791	794	798	800	800	809	808	798	795	792	790	790	780	773	779	786	791	790	792	792	799	803	794	789	788	784	778	778	781	788	815	829	826	814	797	789	785	792	792	799	803	806	810	799	798	801	802	800	801	809	814	816	816	810	803	798	798	798	799	800	806	811	814	817	818	815	807	808	812	809	803	796	796	790	790	792	792	794	799	808	808	807	804	801	795	792	790	792	796	800	804	809	816	816	812	807	805	806	809	805	793	793	796	800	804	794	793	796	795	796	800	802	808	806	806	807	810	806	803	803	818	823	824	823	824	828	835	841	837	828	822	817	814	815	820	824	825	819	817	819	820	825	826	819	816	811	811	801	804	803	804	800	799	808	809	816	829	829	823	818	823	825	829	836	843	848	849	842	838	836	831	835	835	831	829	832	834	831	830	826	829	831	823	822	833	845	845	841	845	846	848	851	853	849	841	850	843	835	834	832	827	828	835	837	832	835	840	844	849	837	848	849	848	865	874	877	863	860	859	859	860	862	859	845	836	845	850	854	858	857	847	853	852	858	850	842	843	860	866	858	861	854	850	848	848	849	850	847	845	842	833	833	842	840	840	836	829	832	825	828	830	855	859	859	862	865	870	874	873	872	886	891	883	877	872	866	856	860	864	868	871	866	869	869	869	868	871	872	871	869	867	865	860	861	860	867	867	873	869	860	866	866	861	861	872	868	872	880	885	888	889	878	866	861	860	855	880	874	870	871	876	882	886	887	887	885	888	889	896	894	890	886	879	879	885	894	896	878	868	864	863	864	878	895	894	891	889	895	903	905	901	896	893	888	882	882	882	888	889	894	901	907	900	892	890	893	892	887	873	874	877	882	885	892	900	900	896	890	880	874	875	874	883	885	881	880	883	890	892	900	905	906	902	898	896	892	889	885	881	881	879	885	897	901	911	893	886	887	908	910	901	898	896	897	902	903	902	909	905	902	900	898	902	913	921	917	908	900	899	908	915	901	896	893	892	882	886	889	889	892	900	910	911	913	911	906	900	892	890	889	897	903	909	913	910	913	929	940	923	895	884	889	895	898	901	907	916	916	907	891	881	896	905	902	893	894	894	897	899	906	901	897	898	893	888	887	884	893	899	905	911	911	909	920	923	923	920	916	924	934	949	944	933	923	931	945	949	951	952	947	938	931	934	943	947	940	950	950	947	949	951	946	941	940	942	943	951	950	932	923	925	931	935	941	946	947	948	944	944	945	949	955	953	943	936	936	930	923	920	921	931	934	933	932	932	931	934	930	933	939	944	948	953	955	961	964	964	945	956	967	962	957	953	953	959	957	958	964	968	965	961	956	953	950	943	945	939	941	941	942	940	937	936	938	944	951	961	978	983	980	971	962	962	975	976	983	979	973	966	960	0	0	0	0	0	0	0
771	763	763	767	783	783	792	786	773	768	768	763	764	771	776	776	779	786	789	774	780	780	787	790	790	784	782	782	783	790	791	789	782	771	771	769	774	783	785	787	791	792	792	799	794	788	781	778	779	775	772	772	778	785	794	802	800	791	782	781	785	785	791	798	800	791	791	792	793	791	789	790	793	787	792	792	801	798	796	797	796	793	797	804	811	814	807	797	794	797	800	805	803	800	795	786	784	785	786	789	790	791	800	803	795	800	794	780	783	786	791	792	795	797	801	813	810	807	802	803	803	804	795	791	793	793	796	795	789	786	786	788	785	787	780	784	794	801	805	807	804	802	810	821	826	828	821	819	816	826	836	835	827	820	811	807	822	822	827	823	816	814	813	817	821	820	816	809	800	807	800	798	799	798	795	799	812	812	811	811	813	809	807	806	811	807	827	835	841	841	835	833	832	833	830	831	846	843	839	833	833	825	821	824	827	820	822	821	835	839	840	841	839	822	822	823	835	830	831	832	832	830	829	825	822	829	836	830	826	828	837	837	840	846	844	841	840	835	839	837	849	841	848	848	852	852	825	819	823	825	831	838	829	817	831	835	836	839	841	839	840	850	848	847	847	849	847	843	847	848	851	849	841	834	828	825	832	830	829	833	828	828	833	835	841	846	852	859	863	865	862	861	865	860	858	858	855	846	858	848	853	857	855	858	863	861	862	863	864	865	862	866	867	864	862	853	852	853	855	860	856	854	857	855	859	856	858	861	865	865	881	885	877	875	857	857	854	857	851	858	860	866	861	875	875	873	868	878	878	873	873	872	873	879	880	871	867	863	847	854	861	866	865	853	858	865	875	878	878	880	883	888	889	888	891	891	884	876	872	871	873	879	876	881	883	879	882	884	885	876	874	874	872	868	865	863	882	888	889	889	885	871	871	872	875	875	876	876	873	867	869	881	888	890	897	896	891	892	891	890	885	878	874	870	873	875	878	880	882	881	884	883	897	894	892	884	885	888	872	885	894	890	887	884	882	888	905	917	911	907	902	900	902	897	891	886	882	874	877	880	885	889	893	896	895	901	900	902	899	892	885	883	886	895	898	899	902	896	884	890	896	891	887	883	880	883	890	889	900	909	911	902	894	876	878	895	890	884	880	889	894	900	900	897	895	897	896	897	896	893	903	903	897	891	895	897	915	910	907	906	907	913	929	938	942	940	941	930	938	941	944	947	942	934	926	925	927	927	931	936	943	941	939	939	937	936	933	929	925	924	924	919	917	915	918	922	910	909	915	930	918	922	933	948	949	943	929	925	925	914	914	910	915	921	925	929	932	929	923	923	921	924	931	939	941	941	945	950	951	945	937	940	949	959	950	946	948	952	958	958	958	961	960	951	949	946	939	933	930	931	931	935	939	939	935	930	925	926	930	933	942	943	944	951	946	946	942	963	972	977	974	967	961	0	0	0	0	0	0	0
768	762	761	759	772	772	775	767	762	759	759	755	765	768	775	781	781	786	780	763	771	771	782	787	779	760	753	751	751	759	763	764	764	763	752	752	758	765	779	787	790	791	791	781	784	784	774	774	774	771	770	770	771	779	784	789	788	787	782	780	780	780	780	785	790	786	786	786	785	784	784	784	783	782	789	791	791	802	802	793	789	785	793	805	811	803	792	786	785	784	790	802	800	797	788	781	780	781	781	783	784	784	778	783	781	781	768	770	777	784	791	794	793	793	796	795	792	787	789	794	801	800	797	798	802	802	796	776	773	772	775	781	786	783	778	778	788	797	802	805	804	804	806	819	820	809	811	810	804	799	811	826	822	814	808	806	816	816	818	813	803	803	806	809	812	808	805	803	810	805	797	793	795	795	796	805	814	814	809	807	808	803	801	797	801	804	806	800	807	810	825	826	827	831	825	836	836	835	833	826	822	819	814	811	820	817	815	816	820	817	811	815	815	815	793	789	800	804	821	824	824	820	806	807	812	816	817	824	828	825	818	816	826	819	819	834	831	822	830	831	833	822	814	833	839	825	817	819	825	828	824	823	819	817	817	828	834	838	838	835	818	837	842	839	833	840	834	833	838	840	843	847	840	838	827	826	824	832	828	832	834	842	844	847	845	847	845	854	855	853	847	847	851	860	850	838	822	819	827	832	829	831	838	844	840	849	855	857	859	856	849	844	858	861	857	851	843	846	851	854	852	851	851	852	855	855	859	861	860	864	870	872	870	864	854	850	848	845	845	850	855	850	863	866	868	865	858	853	854	851	851	853	857	862	867	866	857	847	844	848	859	866	865	860	841	843	851	860	872	870	873	870	876	878	885	885	879	862	851	857	862	866	869	869	857	858	869	870	870	860	860	863	861	862	867	863	868	874	885	884	873	858	862	865	867	868	867	863	854	857	861	867	867	872	871	876	880	886	888	887	881	878	876	874	858	855	870	873	875	874	873	876	873	889	886	887	891	877	867	863	866	867	873	874	873	880	896	907	904	900	896	895	896	890	885	880	869	865	866	874	884	889	888	886	881	885	888	895	896	890	889	885	886	888	893	897	896	884	885	885	890	892	886	881	870	868	871	881	890	902	906	902	884	868	874	879	879	871	875	883	894	892	896	896	894	899	897	897	898	898	898	898	893	884	888	892	907	906	896	897	894	900	919	925	928	933	933	917	906	900	898	901	904	904	914	905	904	911	911	913	935	935	931	927	922	926	926	921	916	915	914	915	914	911	908	900	899	903	913	918	908	904	912	937	941	928	912	905	902	902	898	908	912	916	926	927	928	925	918	922	920	924	928	936	943	943	941	938	933	933	932	928	922	942	949	945	944	936	943	944	951	951	948	938	934	932	929	928	928	928	929	931	935	938	933	929	925	921	926	930	928	927	930	931	931	927	922	950	953	962	959	957	962	0	0	0	0	0	0	0
762	765	759	760	770	770	765	755	754	753	753	750	756	763	757	763	763	763	766	752	759	774	774	773	760	749	748	747	747	749	750	750	752	752	755	755	758	779	785	788	771	770	774	774	779	779	775	771	771	767	766	768	768	775	782	785	785	775	774	771	775	774	774	779	779	784	785	784	783	774	765	759	764	774	780	787	787	788	787	763	764	768	775	782	788	782	778	773	772	771	776	792	796	795	781	778	778	776	777	777	771	771	770	768	764	767	766	766	773	784	792	794	792	793	795	787	784	797	787	782	787	791	791	790	786	783	779	774	772	772	775	779	783	779	772	770	775	786	798	802	802	802	800	801	798	800	799	799	793	786	783	784	788	790	795	799	809	819	799	794	794	792	793	796	791	792	800	804	803	798	792	787	786	788	792	803	808	807	802	797	796	797	797	795	789	792	794	792	795	799	802	803	806	817	813	827	816	814	815	816	809	808	809	807	809	808	809	808	806	809	808	802	805	811	792	793	794	798	814	821	821	815	806	807	810	810	809	817	818	817	814	813	814	808	802	794	794	810	810	812	825	814	814	820	813	810	817	821	824	827	822	809	811	821	816	819	838	842	838	810	810	809	824	830	832	822	821	826	824	824	829	838	841	830	828	826	832	831	832	832	834	839	840	839	843	846	847	848	848	839	838	835	830	838	835	827	817	810	809	815	822	825	822	821	820	819	816	816	830	835	832	830	831	841	847	851	843	842	848	850	850	850	846	845	845	854	860	860	859	864	871	872	867	863	850	839	827	828	829	834	838	850	857	863	859	859	858	848	847	852	855	856	859	861	865	865	850	846	844	845	855	862	861	856	841	840	844	844	840	862	861	831	843	852	852	840	848	856	854	861	860	866	862	846	844	841	852	857	855	845	844	846	851	856	864	863	865	865	874	878	857	856	855	857	859	859	859	854	853	854	861	865	863	859	859	860	861	866	874	879	877	878	880	867	853	851	858	864	866	868	867	863	868	867	880	890	875	871	862	856	856	851	854	850	848	860	863	864	864	863	867	868	871	884	887	887	866	861	866	875	885	891	885	876	876	881	882	885	886	887	887	891	893	894	891	896	891	887	882	882	880	880	878	879	865	862	868	874	884	891	894	893	881	874	873	875	872	867	869	874	881	887	890	890	889	895	893	888	892	894	892	887	882	881	884	890	880	888	891	889	890	892	903	917	922	918	910	904	902	898	897	898	894	886	883	886	904	911	914	905	909	910	907	896	890	905	916	913	908	907	905	912	910	904	900	892	893	903	912	918	913	906	902	905	915	911	900	894	892	894	892	898	906	911	916	920	919	921	920	920	922	924	927	931	934	938	940	936	932	930	930	925	917	912	925	941	933	929	928	930	935	939	932	924	918	915	914	915	917	917	919	923	929	930	928	924	922	918	923	927	928	925	924	921	921	912	906	914	913	918	926	946	956	0	0	0	0	0	0	0
765	765	756	756	762	754	754	752	753	752	744	744	745	741	754	760	760	752	752	752	751	755	755	755	748	746	745	749	749	753	746	748	753	756	757	757	762	780	784	782	764	769	772	772	778	780	781	774	770	768	764	770	770	780	783	782	772	767	766	761	762	766	771	771	767	770	771	773	771	755	745	745	755	769	767	759	759	759	767	768	767	766	767	767	765	751	744	742	753	760	767	775	787	789	785	780	780	780	776	767	764	763	764	762	760	755	761	768	778	778	779	783	790	792	781	785	796	791	789	782	780	778	786	789	782	778	774	771	769	769	776	780	782	774	764	761	765	773	773	769	781	788	791	786	784	784	788	790	784	780	774	773	774	778	787	806	807	799	792	789	787	784	784	780	780	790	795	795	799	790	789	785	781	776	782	786	792	791	794	790	787	792	791	792	789	787	790	791	794	795	799	800	800	804	791	784	787	803	805	807	797	796	795	787	796	799	804	802	801	803	797	796	800	808	790	794	794	796	808	814	809	813	809	808	807	797	801	810	815	814	812	812	811	802	801	791	792	798	803	805	804	807	809	808	801	804	802	809	818	813	816	801	805	817	815	815	823	823	817	810	804	806	819	824	818	816	814	815	816	814	815	822	824	827	826	825	819	819	820	819	817	816	817	819	830	841	840	842	841	837	826	821	821	829	833	822	810	803	797	799	803	806	806	812	817	820	820	817	813	814	813	815	813	813	818	846	843	842	845	838	826	822	820	821	825	828	828	827	833	836	842	840	859	837	837	836	822	821	825	832	839	845	851	851	853	857	860	864	863	858	856	855	852	861	865	861	856	850	844	846	853	858	856	842	840	840	844	843	826	820	814	836	838	840	845	842	842	847	845	829	837	839	840	840	836	829	831	845	836	834	833	834	839	847	853	857	857	855	863	862	859	835	834	833	835	853	845	845	851	853	857	860	858	848	852	853	859	864	838	838	846	856	860	851	841	852	855	855	858	859	854	853	837	845	859	875	875	861	857	854	851	849	847	851	849	859	850	855	852	856	859	862	863	862	861	861	856	834	835	844	852	868	868	869	870	876	877	874	878	883	883	887	889	888	884	880	881	876	869	868	864	882	882	877	870	866	869	868	877	882	882	883	877	873	872	872	865	856	855	867	878	879	885	882	871	873	875	878	881	889	889	884	878	875	880	869	866	875	876	879	879	883	892	899	893	894	897	904	901	897	897	895	883	879	876	879	902	909	909	906	904	898	893	895	901	894	891	896	898	902	905	909	908	904	888	887	897	906	913	915	911	905	882	881	883	892	904	892	893	893	893	898	903	907	906	906	905	909	919	921	922	920	917	920	912	919	923	928	927	928	926	917	910	914	918	920	929	927	923	924	926	923	918	911	909	908	908	915	915	916	913	912	915	914	917	918	916	917	917	922	927	926	923	923	916	909	904	906	912	924	932	934	932	0	0	0	0	0	0	0
754	754	745	744	746	745	745	752	752	743	739	739	733	741	750	752	749	749	741	744	745	746	746	745	742	743	745	754	754	754	751	746	752	758	761	765	765	769	776	763	754	763	758	758	758	763	766	774	766	757	760	777	777	782	782	776	763	758	757	751	751	755	766	766	747	748	747	748	749	748	749	748	750	753	750	749	756	756	764	770	768	761	757	756	759	757	751	748	749	749	751	754	757	759	766	771	772	778	754	755	763	763	762	761	762	761	760	765	767	772	772	771	774	774	780	785	783	781	779	777	776	777	785	788	787	773	769	768	766	767	763	761	765	767	763	753	758	764	764	762	765	770	775	772	777	782	779	776	772	753	756	756	756	781	783	790	791	782	777	776	777	774	774	769	769	773	773	785	790	782	783	781	776	772	775	775	778	775	768	777	777	782	773	782	792	790	792	794	788	783	779	779	779	777	768	782	789	787	784	777	801	791	786	782	782	786	792	798	794	799	791	790	786	792	792	788	787	794	796	800	803	804	802	797	789	786	791	804	811	812	811	807	806	800	797	789	786	789	792	791	787	798	804	797	792	793	800	802	802	795	795	793	794	799	799	807	811	810	807	804	806	811	818	816	810	813	810	805	804	803	805	816	816	818	817	821	812	813	812	817	814	809	809	809	812	817	818	816	813	808	807	812	812	814	820	821	807	797	796	800	806	804	803	808	813	819	823	821	820	822	813	810	807	803	805	816	820	818	811	814	817	813	814	822	827	827	824	823	825	828	832	833	830	830	825	819	814	817	823	827	835	839	844	848	851	853	850	842	840	840	851	850	843	859	851	829	835	823	829	837	839	832	821	808	808	802	838	838	832	826	820	817	840	846	839	821	829	832	836	815	823	828	830	820	805	803	815	824	825	818	821	827	835	844	849	850	850	846	840	841	836	840	840	833	831	832	834	837	843	849	853	853	850	840	829	827	829	824	824	828	832	835	844	839	847	845	849	849	844	844	838	833	821	829	830	857	867	866	859	849	844	843	839	843	846	845	838	837	836	845	856	857	857	851	844	850	851	844	828	821	823	841	856	866	864	865	860	851	858	867	869	859	866	865	853	839	847	851	858	858	862	877	878	873	866	861	865	855	864	871	873	873	869	870	872	866	861	841	853	861	868	880	884	862	859	859	861	867	870	875	880	875	873	868	869	861	855	854	860	862	854	851	860	859	858	862	869	887	896	894	896	884	877	866	873	874	898	895	880	881	885	888	883	881	880	879	884	899	899	900	899	899	893	882	880	878	881	885	905	908	904	883	874	874	873	875	888	894	893	893	889	882	876	876	877	880	887	898	904	907	894	887	882	893	894	890	888	885	889	904	909	911	911	913	917	911	901	914	926	920	899	890	898	909	911	912	912	917	917	915	912	908	908	913	917	915	915	912	910	907	908	915	918	918	916	910	904	905	917	925	927	927	924	0	0	0	0	0	0	0
744	744	745	728	734	740	740	747	743	732	718	718	727	736	749	746	743	743	740	740	742	744	742	742	731	735	738	745	750	750	748	745	739	757	761	763	763	763	761	750	743	746	741	739	739	738	743	750	749	746	747	753	758	758	758	761	753	753	756	759	754	747	747	740	740	743	747	744	743	742	743	746	745	749	759	761	761	758	758	757	755	756	753	748	750	754	754	753	750	740	740	742	745	742	738	750	748	747	749	753	756	762	766	762	764	762	759	755	756	761	763	759	754	760	773	773	770	769	770	773	773	775	777	772	763	757	753	753	756	761	761	760	761	761	758	752	753	758	761	759	759	763	765	768	778	782	780	779	769	764	742	740	770	776	779	779	775	767	768	769	769	768	766	764	765	766	768	779	777	777	776	776	775	770	772	772	771	769	763	763	761	761	761	767	773	779	783	783	773	777	771	775	771	767	761	772	785	786	780	775	774	776	771	780	780	788	800	796	793	792	789	784	787	790	793	788	788	792	793	792	795	799	798	794	786	782	787	791	803	804	801	801	804	798	791	792	782	784	781	781	782	789	792	793	790	789	795	800	798	803	800	793	788	788	795	798	799	800	799	798	798	801	806	810	801	801	798	793	790	796	800	806	811	809	809	803	797	786	783	783	804	786	783	781	795	796	800	799	796	784	801	800	796	798	801	804	802	791	796	806	806	802	804	805	810	819	825	826	825	820	823	810	805	800	799	799	810	808	808	811	813	810	806	801	800	802	809	810	810	811	817	819	811	810	804	802	800	797	804	809	814	810	821	829	831	836	817	808	802	800	805	807	809	809	812	821	817	816	810	822	830	827	820	802	800	800	829	829	827	826	820	814	815	817	813	815	815	815	821	812	813	810	805	800	793	802	810	821	825	819	815	818	824	830	831	826	815	803	801	831	840	830	825	821	818	820	820	822	825	832	844	824	818	818	817	818	819	817	818	825	831	833	835	834	841	845	832	829	830	826	825	821	828	828	827	830	832	842	850	844	837	837	835	836	838	835	827	825	837	832	837	842	847	827	829	835	841	839	826	818	818	824	843	852	845	849	844	843	837	835	839	847	841	831	829	831	840	851	851	850	852	864	863	855	860	856	854	854	857	856	858	850	851	854	862	837	836	837	845	860	864	863	855	852	851	848	847	855	862	867	872	872	867	861	860	851	850	845	842	839	848	848	847	850	847	846	847	857	881	883	882	868	862	861	859	863	870	861	853	847	843	857	858	866	866	864	860	875	876	873	873	878	885	883	877	873	858	873	877	883	880	864	862	870	871	869	875	883	891	896	893	886	877	878	883	882	882	882	893	892	885	879	877	873	870	864	863	861	869	881	896	902	905	908	898	884	872	875	892	872	875	878	884	896	912	914	915	915	905	905	904	903	905	909	912	908	903	898	899	903	896	903	903	910	910	908	903	900	912	917	917	915	911	0	0	0	0	0	0	0
732	730	730	722	729	735	729	729	724	718	714	723	723	733	741	748	737	737	738	738	739	741	738	738	727	722	725	737	741	741	740	736	730	730	726	746	746	748	751	742	740	736	733	732	732	730	733	741	744	748	749	747	747	747	753	754	754	756	758	756	747	737	736	737	737	741	741	737	736	737	740	740	736	748	756	759	756	753	752	752	750	747	747	745	745	747	748	745	740	738	741	746	750	748	743	744	749	748	745	746	747	748	754	754	751	749	744	737	733	736	740	739	743	748	755	759	758	758	764	767	770	772	769	761	757	752	751	749	748	751	753	753	754	756	754	749	753	755	752	751	750	757	759	766	778	782	782	779	765	746	740	737	767	773	775	774	772	769	766	762	764	768	765	765	766	767	768	768	772	774	777	777	773	769	768	767	768	765	762	761	754	757	761	761	766	771	773	777	768	763	763	771	766	759	773	772	783	780	775	772	774	776	765	772	782	783	799	799	793	788	783	779	783	788	794	789	785	773	775	779	781	781	775	772	775	782	791	796	798	797	796	793	796	788	780	787	777	779	780	779	778	783	789	793	791	787	789	795	792	788	787	783	770	771	775	782	785	796	792	791	792	794	800	804	796	793	793	786	785	792	795	799	802	802	809	809	797	788	780	770	779	781	791	784	793	796	799	802	803	803	793	788	787	793	800	802	801	801	795	794	795	792	789	804	820	821	816	828	813	821	825	821	809	792	794	798	793	796	803	805	808	806	804	797	786	783	780	793	788	788	787	783	795	794	787	789	795	804	807	808	806	810	811	819	817	819	813	795	793	788	791	792	796	797	797	807	811	802	796	796	811	818	809	802	800	807	822	824	826	824	814	810	811	807	808	796	800	789	788	809	821	826	827	813	806	806	813	819	812	808	815	816	820	826	826	820	810	796	802	806	813	817	815	818	815	816	817	817	821	821	819	817	812	807	816	817	816	814	815	822	826	831	820	824	840	838	826	819	815	814	816	814	826	827	825	824	823	823	829	827	830	830	831	828	827	794	795	809	823	829	829	808	806	812	815	820	826	818	807	813	812	814	825	847	838	842	826	829	831	833	813	819	833	833	830	831	833	841	846	844	847	846	854	854	861	856	853	855	855	851	847	836	829	828	834	837	825	830	842	849	850	850	847	846	846	844	842	850	854	859	865	855	846	842	838	839	838	834	831	828	836	841	844	842	837	836	840	845	851	855	857	855	854	853	853	849	853	852	848	844	839	847	848	848	848	848	853	855	871	870	872	873	875	877	870	845	846	853	856	876	866	862	861	865	869	873	874	872	887	893	891	874	871	871	879	884	879	877	883	882	878	869	866	857	852	854	857	857	856	855	880	881	896	891	878	866	857	859	861	865	869	873	880	887	895	894	893	893	893	897	896	894	891	893	897	900	898	893	883	883	887	892	892	899	900	899	897	889	902	901	902	902	899	899	0	0	0	0	0	0
722	717	717	719	719	718	715	715	715	715	715	722	722	725	734	737	729	729	733	733	739	737	735	735	725	717	719	724	734	735	735	730	725	723	720	727	737	737	734	735	737	725	723	727	725	725	734	739	740	743	747	749	743	737	737	735	742	748	750	736	728	728	729	736	737	737	738	731	730	733	732	725	719	726	746	747	745	743	748	748	749	745	741	746	746	747	747	741	738	738	742	746	750	749	743	743	747	750	746	743	746	748	742	744	748	749	747	744	732	721	725	730	734	737	737	750	747	746	751	761	772	768	759	756	749	747	742	746	742	748	749	747	749	749	748	745	745	748	749	750	750	752	755	763	775	778	777	768	757	749	740	738	754	767	770	770	768	767	766	761	755	766	767	765	762	761	761	768	772	769	774	775	772	767	766	763	760	757	762	756	752	744	748	757	757	760	761	757	759	759	761	762	771	770	771	782	779	773	770	770	767	767	764	770	781	781	780	781	779	785	781	771	771	788	798	785	779	767	768	778	778	778	776	771	775	780	786	792	790	776	773	774	781	778	784	783	777	772	780	766	764	778	792	798	800	796	787	787	779	775	773	768	767	764	769	778	777	782	764	761	787	789	793	797	788	784	782	782	780	792	800	804	802	805	806	797	791	783	780	773	767	771	781	781	783	787	793	795	794	794	798	783	784	796	793	795	794	787	772	773	775	780	787	788	788	787	790	807	808	794	797	800	797	787	788	796	795	794	785	795	803	798	795	778	785	790	791	787	787	786	789	777	779	783	786	790	795	792	793	799	800	796	796	798	803	815	802	792	793	787	782	778	778	780	785	791	792	790	790	792	795	798	803	802	803	809	813	808	810	803	802	802	799	802	799	796	790	784	790	799	806	799	805	797	798	808	811	809	800	798	794	788	786	804	817	810	798	794	799	806	808	809	813	811	816	816	811	812	809	816	813	812	810	804	815	817	816	806	803	788	795	807	811	820	829	825	813	812	814	813	807	806	810	814	816	814	818	818	813	815	816	819	821	815	801	803	805	812	821	826	828	827	809	802	802	807	814	811	806	800	797	801	809	804	820	815	822	819	816	811	813	818	822	827	827	828	831	837	840	838	837	834	830	833	841	847	851	847	855	853	838	822	820	823	827	828	823	828	834	840	843	846	846	842	841	837	834	835	838	839	849	852	843	841	842	836	836	827	825	822	826	835	837	836	829	830	840	846	850	851	851	850	850	851	849	850	845	846	844	840	838	840	840	840	838	838	845	853	869	869	868	869	868	861	843	830	850	843	856	861	862	851	850	853	860	865	863	861	865	877	877	871	868	863	867	866	863	873	875	876	869	867	866	868	876	878	876	866	853	854	855	870	880	870	867	859	865	864	857	857	867	869	874	884	888	883	883	876	872	873	870	869	871	870	878	899	899	896	880	876	876	876	870	865	867	874	876	873	884	887	883	878	887	887	0	0	0	0	0	0
712	711	711	719	706	707	710	710	711	709	714	722	722	725	728	725	725	723	723	727	735	733	727	721	721	712	712	719	728	728	728	727	725	723	722	720	721	721	726	733	715	716	718	717	717	717	728	733	733	735	732	733	730	729	729	727	727	730	731	728	720	721	728	733	735	735	731	727	721	717	715	714	714	716	729	729	729	722	719	744	744	745	742	748	744	746	746	748	744	740	736	740	744	738	739	740	748	751	748	743	746	746	742	738	742	747	749	752	745	729	714	720	724	725	727	729	727	726	732	739	744	748	748	743	743	740	733	730	725	720	723	727	726	726	724	730	734	743	749	750	751	752	756	764	771	776	772	763	756	748	739	738	740	759	762	765	765	765	763	760	752	745	752	751	752	754	763	766	771	771	765	764	766	768	772	763	759	758	758	754	741	740	744	746	754	752	750	749	754	755	755	763	769	767	765	768	770	767	765	765	768	770	764	762	763	765	765	768	775	774	768	764	767	769	775	774	763	764	764	771	778	775	774	767	769	770	780	770	760	759	762	772	775	775	775	767	763	756	755	764	768	774	787	791	792	786	784	780	774	773	769	767	766	768	770	775	764	760	760	763	764	756	777	783	782	778	777	776	773	789	801	805	807	804	799	796	781	780	774	765	767	771	776	784	785	785	786	787	783	779	776	775	779	782	784	788	770	767	768	767	781	788	790	777	774	775	788	791	796	798	797	798	793	784	787	788	790	783	778	782	786	796	793	786	793	795	796	786	782	784	789	779	777	777	776	772	767	776	783	791	795	788	790	793	796	813	802	795	795	779	780	772	768	773	775	787	785	784	784	788	793	794	791	797	800	803	797	788	795	797	800	801	791	799	798	800	793	783	785	782	791	790	798	792	786	802	809	808	800	793	788	786	788	791	793	789	784	794	798	803	803	801	795	788	792	803	808	799	804	800	798	804	811	813	821	820	795	800	781	784	786	791	799	810	809	798	797	799	809	811	800	801	807	811	806	799	795	798	802	802	811	813	812	807	800	802	810	818	819	819	818	810	808	810	812	817	815	807	804	799	793	795	804	802	812	812	817	815	813	811	816	817	819	821	823	822	824	829	831	831	827	824	825	821	824	826	809	816	821	838	837	827	828	830	829	828	823	817	817	820	824	841	844	845	838	826	826	827	826	821	831	832	843	843	844	840	837	825	820	821	826	832	833	833	831	832	846	844	845	841	841	842	845	846	847	842	835	839	842	841	840	834	830	826	825	821	839	851	861	872	868	864	845	842	829	830	829	845	847	860	864	855	842	837	847	844	842	846	847	849	853	851	850	853	853	853	849	851	863	865	863	866	871	879	878	877	872	864	851	846	844	847	865	850	857	866	865	860	857	854	853	864	868	871	872	872	869	871	872	872	869	862	863	864	867	877	881	877	875	870	861	861	853	854	859	868	869	867	867	873	871	871	871	873	0	0	0	0	0	0
705	713	711	711	698	696	699	699	704	706	712	717	719	719	721	722	719	717	717	724	731	734	730	718	718	711	708	714	721	727	727	728	726	725	722	718	713	714	714	717	713	715	719	717	718	718	720	721	721	720	726	726	726	727	727	726	727	729	728	723	718	724	727	729	725	725	723	722	720	717	716	722	725	729	720	716	711	706	710	717	717	724	742	737	736	738	740	741	735	723	718	718	713	724	736	740	742	742	735	737	742	744	741	736	735	730	733	736	736	732	720	714	715	718	717	715	715	716	727	733	738	739	740	734	737	733	730	701	704	716	726	730	729	728	724	727	733	739	743	748	750	750	754	760	766	764	755	746	745	744	738	739	742	744	753	756	756	759	758	757	750	739	730	731	735	749	753	759	761	762	760	754	754	762	770	770	762	759	757	743	739	736	737	747	750	751	749	747	747	750	756	764	764	761	758	761	761	758	759	760	766	767	765	751	746	757	758	759	759	760	758	752	752	753	756	749	764	766	769	772	774	778	763	748	747	742	745	744	749	753	760	768	774	771	770	766	762	758	755	754	765	773	782	788	791	790	782	772	769	769	766	765	766	768	773	773	770	759	758	758	757	754	774	780	784	785	773	767	768	772	771	773	779	799	789	776	774	775	766	761	764	767	774	782	781	770	752	757	762	764	762	766	770	774	776	772	765	757	760	767	773	789	776	767	767	764	782	789	795	797	794	786	776	782	785	788	782	775	772	778	784	778	787	789	789	789	793	786	780	784	789	795	776	773	772	768	764	768	775	778	784	779	777	782	787	790	793	803	793	785	781	776	774	773	772	776	774	777	774	778	784	782	777	782	785	789	778	785	788	788	791	791	784	792	795	795	789	783	781	781	783	786	781	777	786	789	793	793	794	787	786	784	785	784	791	781	773	787	799	800	792	780	786	785	794	799	805	796	793	788	784	785	791	795	796	794	791	783	786	785	782	781	777	792	777	790	795	797	798	800	794	797	797	789	788	779	782	788	788	794	798	787	785	804	804	804	809	813	813	813	807	804	806	807	806	814	809	805	800	801	798	797	795	798	806	804	815	815	815	816	815	813	812	812	812	810	807	802	816	812	815	821	815	808	805	800	801	807	821	820	819	818	822	827	832	834	812	809	809	815	816	815	813	813	813	814	819	825	822	818	810	817	829	833	842	840	835	827	821	823	829	836	835	831	830	840	847	846	841	833	831	830	837	841	840	838	832	833	840	839	834	828	818	815	819	814	817	822	857	856	852	845	837	829	825	823	826	837	835	841	841	838	833	822	824	828	830	833	837	845	853	853	849	851	853	849	845	842	843	846	855	860	863	862	859	854	853	852	849	843	840	841	845	852	862	868	864	860	856	852	852	860	866	867	867	867	865	868	868	869	864	855	856	858	862	869	871	867	861	858	858	853	849	843	848	853	857	858	858	867	866	869	869	867	0	0	0	0	0	0
701	709	703	703	698	688	698	703	703	706	706	709	709	709	710	713	713	716	716	720	730	728	724	714	714	707	704	707	718	723	725	725	724	720	719	713	709	712	712	711	709	711	714	717	716	716	716	716	715	708	703	706	724	721	727	727	727	727	724	715	716	722	731	724	718	713	713	712	710	710	712	717	727	730	729	718	717	711	715	716	717	717	717	724	724	727	727	728	727	723	716	711	717	727	737	740	739	729	739	727	734	737	733	727	720	717	719	732	737	728	719	717	718	720	715	707	708	714	723	728	726	732	733	731	732	723	711	703	704	716	726	731	732	733	730	728	730	734	735	735	738	740	744	752	755	753	744	744	743	740	740	734	742	742	753	753	752	754	752	752	746	738	726	729	734	742	748	753	753	749	749	738	727	730	763	769	760	755	749	731	737	735	737	738	744	746	736	737	744	748	754	754	753	751	752	753	757	758	754	760	761	761	761	748	739	738	747	751	752	751	751	749	750	753	755	743	749	753	768	771	769	762	753	749	744	749	749	746	749	754	756	763	772	766	752	755	764	759	756	758	760	776	781	786	788	785	779	766	761	763	754	757	763	769	771	771	766	757	756	755	755	756	767	770	774	768	766	758	748	755	752	750	756	764	766	754	755	753	759	758	762	764	767	771	753	750	744	756	762	765	769	780	783	784	773	772	768	761	761	767	767	764	769	764	754	750	757	782	789	774	771	767	769	778	784	783	766	765	762	757	765	772	772	775	791	787	786	783	777	778	779	781	768	772	768	766	763	760	767	771	777	779	779	776	780	790	794	802	792	788	780	779	778	775	775	772	768	762	758	763	765	764	765	769	773	771	774	779	781	779	765	770	781	786	786	769	773	776	777	768	773	778	769	767	760	783	787	788	789	785	783	778	771	768	780	789	779	784	786	778	773	775	782	792	790	794	795	796	794	768	772	777	784	784	792	790	786	775	772	772	770	762	767	770	772	775	788	792	792	792	795	789	787	784	783	782	782	788	789	792	790	783	781	793	797	799	802	807	812	804	797	790	797	797	789	789	805	805	798	801	800	795	793	794	795	800	796	795	800	809	805	798	804	805	803	800	801	795	796	789	794	803	809	813	792	790	797	806	811	807	787	800	804	804	811	811	803	795	788	803	797	783	785	797	799	798	812	821	821	820	811	816	823	822	823	836	837	829	828	837	839	837	832	828	828	833	839	839	830	822	814	817	825	836	834	834	824	822	824	822	814	814	809	802	807	811	813	818	823	826	829	830	827	823	820	821	823	830	828	824	821	830	833	831	830	828	826	827	840	844	849	847	842	842	841	842	838	837	835	829	830	856	857	852	850	849	854	851	847	841	840	837	834	839	839	843	849	860	854	851	848	852	861	861	861	860	858	857	858	855	854	848	851	851	849	845	844	842	845	846	846	845	844	840	837	843	849	851	851	862	863	863	863	865	0	0	0	0	0	0
693	692	692	692	688	683	693	702	702	705	702	699	699	699	699	705	709	714	719	719	727	728	715	709	702	702	697	695	712	717	717	717	716	710	715	713	711	709	709	709	700	699	700	701	702	703	703	704	704	700	703	698	698	704	711	711	727	721	709	710	717	726	722	717	701	700	700	700	710	709	707	711	724	726	723	714	712	725	726	723	716	716	711	709	712	713	717	716	714	719	703	711	714	716	718	720	722	728	730	720	723	722	722	717	714	714	716	718	730	722	717	719	721	734	726	716	713	710	718	723	718	722	728	726	723	719	711	709	713	722	728	731	730	728	725	722	719	718	720	727	727	728	731	740	743	740	739	740	737	732	723	718	736	740	738	738	738	741	745	736	731	729	730	724	729	735	735	736	735	742	740	732	723	720	723	729	731	728	733	726	721	733	733	731	733	732	732	733	730	730	742	746	748	746	742	740	741	748	744	745	750	747	741	749	737	737	738	738	735	739	737	737	741	744	738	737	737	734	728	728	731	748	743	741	739	750	760	761	757	752	749	746	748	745	746	747	758	757	754	758	761	766	772	779	773	759	750	751	748	744	739	752	756	768	754	750	739	745	754	753	750	752	755	759	765	763	744	742	739	735	733	742	742	744	747	749	749	750	746	745	747	752	757	756	749	745	745	752	756	759	770	772	780	774	770	766	764	761	765	765	762	759	754	750	746	742	739	747	775	770	766	767	776	770	761	760	756	755	754	752	755	760	761	759	756	754	754	768	779	790	784	777	766	774	766	764	761	755	756	759	765	767	774	774	773	770	767	762	757	751	757	760	758	750	763	760	759	759	757	758	763	749	753	758	764	763	767	772	774	763	759	762	769	786	771	773	773	772	770	768	773	778	759	757	750	759	767	784	787	782	780	771	760	763	768	783	781	782	778	772	766	771	780	791	778	783	776	773	765	762	756	766	770	778	785	785	781	770	770	767	758	769	771	770	775	774	774	776	782	786	791	791	787	785	780	779	782	787	792	796	783	782	781	782	785	788	792	796	796	795	790	787	781	785	782	780	773	789	794	799	795	789	788	785	786	795	798	797	792	789	788	786	787	800	797	796	793	787	786	785	789	800	808	812	795	796	799	806	808	799	777	777	782	795	799	789	782	779	788	797	793	792	793	799	800	793	797	816	816	807	798	806	807	803	813	812	817	822	833	840	842	824	822	819	817	815	813	803	794	804	809	817	824	831	835	828	813	811	812	814	813	816	812	811	813	813	811	814	817	824	825	825	819	814	805	808	817	820	820	816	819	817	824	831	832	830	828	830	836	842	843	840	836	832	834	831	833	833	833	821	840	848	847	843	836	841	843	840	838	838	836	834	831	829	821	819	839	848	853	848	846	847	844	851	853	849	843	847	846	841	834	838	842	842	843	835	826	825	835	835	836	840	836	836	836	841	846	847	843	854	858	858	859	859	0	0	0	0	0	0
686	685	684	684	683	683	689	699	699	705	699	695	690	689	689	691	698	705	708	708	713	716	699	692	685	685	682	692	702	703	706	705	705	704	710	716	712	707	704	704	693	689	687	687	696	695	695	695	696	697	706	702	701	694	698	698	698	698	704	710	710	716	711	706	701	700	699	699	701	707	707	708	714	718	709	701	701	706	725	720	714	709	709	706	701	703	706	707	703	700	700	709	711	713	712	704	706	722	717	716	716	713	719	718	709	710	714	717	722	725	717	722	728	727	706	714	716	719	718	721	721	718	715	714	713	717	721	745	738	736	734	728	721	719	718	718	716	715	716	717	715	712	715	721	729	731	731	731	730	714	715	714	734	735	735	733	733	733	730	729	727	728	728	719	723	726	730	732	736	737	729	726	721	721	722	726	726	727	730	730	718	712	707	705	707	711	717	722	724	727	730	736	743	743	740	738	741	744	739	736	739	734	732	732	736	738	739	739	732	734	735	735	737	737	736	736	737	737	734	730	728	727	721	722	728	732	743	756	756	752	741	742	744	744	744	745	745	747	749	749	748	750	750	744	744	743	740	738	738	734	736	737	748	745	745	741	738	733	750	750	754	752	753	754	758	740	735	738	738	739	737	736	742	744	745	745	740	737	740	739	736	738	749	755	751	748	743	742	744	756	763	766	767	764	763	762	760	762	762	760	759	755	754	749	742	738	740	745	761	741	743	749	770	766	756	754	754	754	752	751	750	749	748	751	752	752	753	767	775	786	785	777	767	757	767	760	753	746	740	745	752	761	767	770	769	767	761	752	750	756	758	758	758	751	750	753	753	754	755	758	755	741	745	750	752	755	757	762	763	761	755	756	780	759	766	766	770	768	768	767	764	758	762	753	749	752	759	768	783	782	769	765	766	766	768	782	781	781	774	762	758	758	759	763	767	767	776	770	762	750	750	749	760	763	765	774	769	764	762	765	768	777	779	776	774	771	762	764	771	779	782	790	788	785	786	781	785	788	793	790	781	781	772	768	771	776	785	787	791	791	787	788	780	773	769	773	776	779	776	778	779	788	788	778	788	793	795	792	788	780	775	776	776	765	770	766	781	780	779	780	781	785	788	790	786	772	770	767	758	765	770	774	786	794	796	781	769	770	778	783	786	785	785	782	786	787	784	798	801	786	783	778	782	781	789	795	798	799	798	803	809	811	808	810	812	812	808	796	789	786	791	808	813	805	804	805	811	810	810	809	797	805	810	814	811	804	803	804	811	810	808	804	798	796	793	801	807	813	813	812	811	806	809	810	811	809	809	823	834	838	833	828	825	821	823	826	831	833	826	820	818	831	837	826	826	830	828	827	826	828	838	841	835	826	817	814	815	828	840	846	846	843	839	844	841	838	837	834	832	827	825	826	836	838	828	811	807	823	823	823	829	828	827	828	831	840	844	847	844	849	843	843	843	849	0	0	0	0	0	0
682	684	681	680	680	683	684	692	694	694	689	681	684	685	685	688	692	697	700	700	701	700	698	691	687	687	683	689	704	704	702	702	702	704	707	711	713	702	698	698	711	705	699	694	689	686	687	687	688	691	690	696	699	694	692	684	684	683	685	691	702	716	700	702	703	700	697	697	698	700	703	708	711	708	703	690	690	702	713	716	710	701	703	703	710	711	697	698	696	688	691	701	706	706	702	701	700	698	718	711	709	708	705	706	716	710	705	702	713	723	719	720	715	699	699	699	711	720	724	719	711	701	695	691	697	702	708	710	711	713	713	708	709	713	713	713	712	713	708	714	715	705	706	710	716	716	715	705	709	712	714	713	722	734	730	730	729	720	727	726	722	716	716	719	720	720	727	734	738	736	723	719	719	721	720	719	721	726	727	729	716	712	709	708	709	709	713	713	717	722	727	730	734	735	729	730	727	729	728	724	729	728	727	730	726	736	738	733	728	725	721	730	734	734	732	731	734	733	729	722	718	719	720	722	727	727	729	744	744	740	736	742	742	743	743	743	732	732	741	745	744	726	730	736	739	739	737	737	737	736	737	741	745	745	744	739	738	739	737	750	748	745	749	750	736	722	719	720	723	736	735	736	735	745	747	746	741	736	733	732	731	740	747	751	751	745	744	742	739	737	736	735	742	750	748	752	753	756	757	758	757	754	751	749	734	734	734	738	741	739	735	734	736	747	757	754	752	752	750	748	745	745	743	749	749	750	753	763	773	783	783	775	763	757	750	743	738	737	736	737	738	738	744	752	758	758	755	745	749	746	753	753	756	751	750	748	741	736	739	751	747	738	742	744	748	745	747	745	751	756	756	742	746	754	752	750	754	757	753	764	760	766	758	747	746	750	763	766	771	770	763	765	763	762	762	775	772	768	751	741	743	745	750	751	761	764	771	767	762	751	748	752	758	761	761	759	754	761	772	773	771	775	775	780	770	756	753	757	766	773	774	770	765	764	784	787	790	788	788	778	775	777	763	763	767	755	755	780	783	782	771	771	767	768	769	774	777	774	771	772	772	780	776	765	764	781	788	790	784	774	773	772	770	762	753	753	754	770	772	774	775	781	779	779	777	765	765	770	782	773	767	773	779	788	790	765	765	770	768	772	775	778	776	778	777	779	775	779	782	769	771	770	771	779	789	790	794	793	791	789	793	795	795	797	799	799	794	793	790	788	784	781	784	790	793	793	803	801	802	796	787	786	793	799	797	793	783	794	795	799	797	788	794	795	789	786	785	789	811	809	803	804	815	815	811	809	810	813	819	826	823	818	815	814	814	821	825	829	825	817	810	802	809	811	816	818	819	818	819	829	834	837	833	823	815	811	808	811	826	825	829	822	822	819	834	832	830	827	823	820	821	827	832	833	817	811	809	809	809	815	816	819	819	812	812	812	819	823	822	829	829	817	819	821	0	0	0	0	0	0
674	679	678	678	678	678	681	685	681	681	677	676	681	681	681	683	685	691	696	698	698	700	696	693	691	687	687	699	702	704	704	701	701	701	704	708	700	701	705	705	706	701	694	689	687	685	683	683	686	689	689	685	687	692	695	693	688	688	680	680	690	685	688	692	692	689	687	687	687	686	687	692	700	701	697	688	688	687	699	692	689	686	700	700	703	704	704	693	689	684	688	690	694	692	693	692	694	697	695	693	693	702	697	697	701	699	696	694	693	710	704	700	696	698	698	698	699	710	717	710	702	695	692	690	690	695	700	703	706	709	711	708	707	710	708	704	702	700	710	715	718	714	707	708	711	703	695	702	705	710	712	717	716	719	724	727	727	721	726	729	730	728	718	713	710	709	716	723	731	718	716	717	719	720	719	717	716	728	728	724	716	713	713	716	712	711	711	710	714	719	717	717	719	717	717	724	725	728	733	734	729	729	723	720	727	733	732	729	726	721	718	729	732	729	728	725	726	725	719	715	712	715	720	728	729	727	727	725	725	722	730	730	736	740	740	739	734	725	724	725	728	719	721	727	731	727	727	732	730	734	734	738	743	740	737	735	738	736	737	743	742	734	733	738	732	722	718	721	724	732	728	730	728	724	725	726	724	724	730	739	738	736	732	726	727	741	743	739	736	733	731	732	732	734	734	734	730	736	749	753	753	748	736	732	729	729	729	732	735	734	733	732	733	743	734	734	734	738	744	746	742	740	741	737	754	756	756	746	747	761	757	751	739	735	733	731	728	729	730	743	740	736	738	742	752	756	750	738	734	733	745	746	748	749	743	741	737	735	740	740	741	739	738	740	744	737	733	729	731	731	746	747	748	755	751	749	747	749	756	757	758	759	748	744	743	758	764	768	756	754	756	761	765	764	758	759	758	751	741	739	741	744	745	747	762	762	760	760	756	742	740	750	753	757	757	755	750	758	768	764	771	770	764	766	756	751	748	749	759	763	761	755	750	752	753	756	763	769	773	773	772	774	759	751	746	747	751	752	753	759	762	762	760	760	766	776	778	774	771	769	765	764	757	747	752	761	772	774	770	774	770	767	763	760	750	747	737	752	759	762	766	764	760	754	763	766	769	775	781	773	771	774	776	780	775	761	760	758	763	767	774	774	772	772	766	760	762	771	764	764	763	762	769	777	778	785	786	787	784	778	780	784	787	792	791	790	788	787	786	785	781	783	782	785	787	786	794	796	796	792	776	773	782	791	793	801	789	783	779	782	781	787	794	796	796	786	782	786	793	799	805	806	816	812	810	808	809	809	814	812	801	803	803	804	808	812	817	815	815	814	812	810	802	806	808	808	813	804	811	812	817	821	819	817	806	798	802	805	809	813	815	815	803	803	826	830	829	825	821	820	824	829	825	819	817	814	814	811	811	811	811	812	808	808	813	811	815	813	805	806	810	812	812	813	0	0	0	0	0	0
668	673	673	673	673	677	681	671	675	675	675	670	671	673	673	673	677	683	691	694	694	692	696	693	693	690	690	694	694	691	687	685	679	679	675	688	690	694	706	706	694	691	689	687	686	689	693	690	690	690	685	680	677	681	686	689	688	688	684	681	681	680	684	680	675	674	675	675	675	679	682	687	687	684	684	684	686	684	685	686	685	684	685	693	693	699	700	695	691	682	693	689	690	688	682	685	684	690	691	691	688	690	696	697	695	693	692	691	692	693	702	701	698	697	693	691	687	689	707	707	698	694	689	688	688	691	695	698	702	704	709	717	716	711	699	693	692	695	708	714	718	713	711	714	709	700	694	696	699	702	710	715	722	720	720	718	729	726	727	729	726	721	712	709	707	705	706	708	708	697	696	701	711	719	718	719	725	730	730	728	721	724	724	721	716	712	709	707	701	711	708	707	704	708	716	730	733	735	730	724	719	694	698	703	714	714	714	710	711	712	715	717	714	712	713	718	718	711	709	706	702	712	716	725	729	725	727	730	728	719	720	720	717	729	730	727	732	730	724	723	710	709	713	721	726	725	723	729	723	715	716	721	723	732	733	733	732	734	729	730	728	722	722	727	728	723	723	722	723	730	726	724	718	715	711	710	715	719	732	738	736	731	725	718	720	727	729	725	726	726	729	729	727	729	724	720	720	728	735	735	735	730	729	728	727	726	724	724	727	728	729	730	731	741	732	732	732	732	738	743	733	731	726	734	739	741	740	742	741	740	741	735	730	724	727	727	727	727	729	739	740	735	731	729	733	743	746	736	730	731	741	734	732	737	742	740	738	732	732	748	741	738	735	739	740	734	730	729	727	728	730	740	747	750	745	745	740	739	743	750	742	734	730	734	743	750	755	750	754	756	748	746	752	753	754	757	755	748	744	744	745	746	745	741	750	751	744	742	737	737	734	731	746	751	752	734	739	743	744	753	767	762	762	761	755	748	744	746	750	750	751	748	744	743	749	753	758	761	757	757	754	759	749	745	752	761	760	746	744	747	753	756	756	756	758	764	762	761	770	770	761	758	746	744	745	762	772	770	767	758	754	756	758	758	753	745	741	743	749	755	763	761	756	752	758	763	772	775	776	772	768	770	770	767	767	774	764	756	759	764	770	774	771	769	764	764	761	761	761	762	759	756	758	766	766	769	782	782	771	766	772	777	781	786	788	788	784	782	781	778	777	779	784	785	786	784	786	786	781	777	772	771	776	784	792	797	793	776	769	769	770	777	790	793	793	790	791	793	793	798	804	809	810	808	809	809	809	804	804	794	793	796	799	800	805	805	808	811	813	811	816	809	800	801	797	794	791	799	803	803	811	821	818	809	795	789	790	797	801	808	807	807	807	802	803	812	811	806	805	804	804	805	813	815	815	817	815	815	811	808	805	804	805	807	810	812	811	804	800	800	806	809	810	812	0	0	0	0	0	0
659	660	663	667	672	672	675	666	670	663	663	659	658	663	669	669	670	673	675	674	685	685	693	679	680	677	677	677	678	677	670	670	669	669	669	671	676	683	697	694	694	682	680	682	682	685	691	692	692	687	680	672	674	678	682	681	682	679	679	670	673	670	678	671	669	668	667	667	672	672	678	681	681	677	676	673	679	680	682	683	688	686	676	680	687	687	690	690	677	670	676	673	672	674	681	679	682	687	689	690	691	693	696	697	691	688	685	690	692	694	692	697	692	688	687	686	683	685	693	699	698	690	687	688	690	692	697	694	695	698	704	718	717	713	701	694	698	692	696	710	707	708	707	708	705	699	695	690	689	690	693	687	683	695	713	714	710	703	699	709	704	699	700	699	712	710	705	706	697	696	694	707	712	713	711	707	707	708	713	713	707	711	716	714	705	695	693	706	708	706	703	696	696	699	708	720	721	721	717	702	684	682	680	683	700	708	716	708	711	712	709	700	701	700	701	701	700	700	699	698	692	701	696	701	703	702	703	715	709	700	705	704	704	707	702	708	717	721	708	700	702	704	710	713	711	705	705	709	716	715	710	716	717	728	725	726	726	727	720	711	723	714	709	706	717	718	719	720	721	719	716	715	711	706	708	708	710	716	722	735	732	727	725	716	714	725	726	724	721	720	724	714	711	705	707	714	723	725	732	730	729	728	726	726	725	723	721	719	720	721	723	729	729	725	726	727	728	724	725	728	726	723	727	730	733	736	739	741	737	732	731	728	724	718	721	723	722	720	719	730	733	730	725	721	724	725	723	733	733	729	724	722	729	735	737	744	736	731	732	724	738	747	739	740	739	737	731	725	718	723	728	732	741	736	737	739	741	738	740	740	737	736	736	738	739	728	730	735	739	740	737	735	739	743	747	740	741	744	745	749	747	747	742	729	741	745	744	736	733	732	732	730	735	742	746	744	738	729	725	749	755	752	754	757	752	744	739	742	745	744	743	741	741	744	747	749	750	751	742	740	739	718	732	751	756	762	759	747	742	742	744	745	754	753	755	741	740	739	755	766	760	756	754	750	745	757	767	769	766	759	751	753	759	763	751	738	733	738	742	749	758	758	755	754	755	760	767	770	757	758	760	762	766	764	766	761	763	760	756	757	746	748	758	759	766	767	765	762	760	757	753	753	753	751	745	750	760	767	761	757	752	747	771	788	787	778	777	775	775	772	772	776	778	782	783	775	777	766	783	777	770	770	773	773	778	784	789	772	767	765	768	775	780	784	785	786	788	787	793	798	790	792	794	800	797	795	804	799	792	787	787	789	790	790	790	795	796	800	809	811	808	800	798	795	792	789	789	794	795	790	789	792	799	802	791	786	787	791	795	800	800	807	807	800	802	804	798	790	791	794	794	795	795	796	811	811	810	810	807	804	801	801	800	801	808	809	806	799	794	794	800	801	804	805	0	0	0	0	0	0
644	647	650	653	656	656	662	662	657	653	653	651	652	660	664	664	666	667	668	668	672	672	674	665	667	674	675	675	676	668	666	668	671	671	671	670	670	673	686	679	682	668	674	674	667	666	669	674	675	675	676	667	658	660	664	675	678	676	676	661	663	670	668	668	669	668	665	663	666	666	671	676	673	670	668	667	666	676	678	674	673	677	679	693	694	694	694	684	664	677	669	670	675	681	681	676	675	678	685	686	688	689	694	692	690	684	677	681	687	691	689	684	680	677	680	680	678	684	687	693	692	689	686	687	690	690	695	692	688	686	685	707	716	712	708	704	692	686	685	687	692	683	683	685	688	688	685	675	671	668	672	667	671	701	705	705	699	694	690	690	691	693	691	701	708	717	706	699	697	707	707	701	692	677	673	671	691	699	703	700	691	693	705	709	706	692	691	697	703	692	685	690	688	689	698	712	715	713	706	698	682	679	681	685	687	703	707	702	708	711	711	707	699	694	697	697	695	694	692	679	681	688	698	702	700	698	699	702	713	711	701	696	695	690	690	688	693	702	697	684	695	700	707	707	702	701	701	699	703	705	704	705	706	709	719	721	713	710	704	712	717	704	703	695	700	708	711	712	707	715	717	718	714	710	710	710	710	706	714	729	727	725	710	715	717	723	720	723	719	716	720	722	709	705	701	710	713	714	718	718	723	724	727	720	725	724	722	716	715	720	725	731	729	722	724	720	722	706	706	712	707	699	705	719	723	720	720	738	726	726	724	723	716	715	722	714	708	711	711	712	719	722	722	722	718	720	719	720	720	712	708	716	721	728	731	733	733	740	731	724	709	737	744	750	740	733	727	716	716	721	724	725	727	723	726	727	728	732	734	736	736	738	736	720	712	710	713	719	730	733	730	726	726	747	747	741	739	742	748	750	749	745	736	725	722	738	732	729	729	727	728	726	716	728	731	725	734	725	723	736	747	751	741	744	743	737	736	738	742	738	736	736	739	747	746	746	743	742	733	730	722	720	718	725	758	760	755	742	736	740	745	747	744	738	737	735	736	735	738	745	744	750	747	748	746	741	753	763	761	755	752	753	759	745	742	742	741	743	741	741	748	751	750	753	750	754	765	759	754	745	746	743	744	749	742	737	736	732	736	736	736	746	754	756	754	752	757	763	766	760	755	751	748	745	742	744	744	748	756	750	745	742	747	763	780	770	765	764	758	766	767	770	773	766	776	775	756	773	768	763	765	771	770	760	762	771	784	782	768	763	764	769	772	772	774	778	786	789	789	787	777	775	773	769	779	784	783	781	786	783	778	782	787	786	784	785	787	787	792	796	799	802	799	792	791	787	785	790	785	783	785	800	799	796	790	785	786	788	790	790	794	785	784	789	787	788	786	784	783	786	792	799	799	792	793	800	800	800	799	798	797	794	796	792	801	803	801	797	797	793	786	792	794	796	0	0	0	0	0	0
652	652	654	660	665	665	666	662	656	654	654	649	655	659	663	662	662	663	667	664	661	661	661	661	661	668	667	667	662	658	660	661	669	669	669	666	665	666	673	668	668	662	665	666	665	665	666	664	664	664	663	664	663	661	661	665	670	673	659	659	659	662	664	666	669	670	664	665	663	666	666	667	671	668	667	663	659	658	664	661	666	669	671	674	680	683	672	669	671	657	656	662	675	683	680	668	669	673	678	681	684	682	687	685	683	678	664	670	677	682	685	682	674	671	669	672	677	678	681	683	686	689	685	683	687	688	689	685	682	679	677	676	669	673	680	682	681	684	683	685	682	673	681	682	680	673	666	660	656	653	658	661	684	691	692	693	695	693	686	685	682	684	689	689	694	692	694	696	692	689	691	690	686	681	673	674	678	683	682	681	678	688	690	701	700	692	690	691	693	687	683	680	682	685	692	703	709	705	697	684	680	680	683	685	687	691	692	700	705	705	708	701	685	699	700	699	695	690	686	680	680	686	696	697	692	692	691	694	707	709	711	699	690	677	693	697	705	703	705	694	691	696	701	706	702	696	696	698	698	701	701	696	698	699	700	702	700	699	701	707	703	698	699	693	698	701	709	700	711	712	713	701	700	704	705	707	705	696	693	698	722	717	709	711	708	714	724	720	715	710	710	717	715	704	699	707	710	708	706	702	701	703	697	696	696	722	716	706	707	716	733	740	736	725	715	720	700	692	696	698	700	694	705	707	705	706	708	708	714	720	718	716	713	713	718	710	704	697	697	698	705	703	686	685	696	701	707	711	714	712	703	707	717	721	725	725	720	718	713	704	702	719	720	724	724	730	724	715	720	720	718	718	720	714	711	716	720	730	737	740	731	726	724	716	710	709	706	705	714	725	725	724	723	738	744	734	716	715	715	715	719	718	712	705	705	710	717	715	711	718	724	719	711	714	718	721	726	723	726	727	733	735	741	735	719	721	724	731	734	734	732	734	734	742	745	739	734	736	731	731	723	719	723	726	735	754	742	736	735	736	744	744	739	734	730	728	728	732	733	733	737	742	740	738	733	730	733	739	740	740	733	732	736	736	741	740	738	744	746	743	742	741	740	741	745	753	752	754	746	742	738	737	742	743	734	727	724	721	722	725	730	734	748	748	747	748	752	763	762	755	745	746	748	740	739	729	740	743	744	745	741	741	742	748	768	767	761	754	753	749	762	755	759	763	766	762	757	759	749	751	753	763	756	756	756	762	771	783	782	782	773	763	754	751	763	767	767	785	771	770	768	764	754	750	746	759	767	768	768	761	776	780	785	786	783	783	783	772	771	777	799	800	792	790	791	791	782	781	781	784	788	784	785	784	783	783	788	790	790	788	777	776	773	764	780	769	776	774	775	785	799	805	803	780	776	780	780	774	774	788	793	792	790	789	792	794	796	795	795	792	787	785	780	776	0	0	0	0	0	0
649	649	654	656	659	651	651	655	654	653	649	649	653	657	660	660	660	663	663	653	655	659	659	661	658	655	657	653	653	654	661	665	665	660	660	662	660	665	667	667	662	663	660	661	663	664	659	657	661	664	664	662	664	661	656	656	656	654	655	655	659	658	662	664	667	668	665	663	668	671	663	663	667	668	665	661	657	651	649	656	659	669	670	674	675	672	662	662	663	663	658	662	666	672	672	667	667	670	672	671	673	676	678	663	666	665	655	660	671	678	685	675	670	665	665	664	661	660	666	671	675	676	676	680	683	684	682	681	677	673	662	660	664	670	675	676	674	674	672	669	669	672	679	682	670	666	661	662	667	666	667	676	680	683	686	688	690	691	681	678	678	679	682	683	688	688	692	692	687	683	685	684	682	676	674	671	669	669	670	669	671	686	689	685	685	685	693	688	687	676	664	662	667	685	693	698	703	698	690	667	681	683	681	684	687	684	687	690	690	687	683	683	679	672	673	674	678	688	687	687	686	690	694	694	683	686	686	688	699	701	698	688	685	680	679	682	700	701	702	691	690	691	695	694	692	690	689	688	689	687	689	690	693	694	694	692	694	694	695	695	698	694	693	690	698	695	706	695	710	703	700	696	693	699	697	697	689	689	686	686	688	696	703	706	702	703	705	700	712	708	705	712	705	702	695	690	701	700	699	701	698	683	679	683	685	684	682	681	681	681	679	680	716	706	698	696	690	688	689	689	691	703	705	705	704	700	698	698	697	709	713	707	707	713	713	712	709	700	699	704	703	699	698	697	701	699	697	703	703	705	705	708	714	719	718	717	712	713	708	701	705	713	715	714	719	719	721	708	709	710	710	710	710	712	713	714	712	714	711	714	724	721	716	710	705	698	697	700	708	716	714	714	717	718	708	711	710	706	706	700	702	702	701	708	702	705	708	714	709	706	710	712	707	712	724	728	714	703	695	695	707	722	725	724	709	712	709	713	723	733	729	728	725	724	719	719	721	729	730	714	710	713	718	725	725	736	734	735	735	735	732	730	734	735	734	728	721	723	723	728	730	730	731	729	728	730	728	734	739	736	730	723	719	727	736	737	738	743	746	746	747	746	744	744	728	732	738	739	737	741	736	730	733	740	727	721	715	716	717	717	720	729	733	734	733	734	739	744	753	744	736	733	731	739	733	723	732	739	739	736	740	740	740	742	739	755	756	747	744	742	742	754	759	762	759	757	751	744	737	739	739	739	747	741	739	745	765	768	767	765	764	759	756	764	770	768	763	754	762	761	757	755	752	745	742	740	754	758	761	764	759	758	763	765	762	760	757	760	763	767	774	782	786	790	792	791	784	775	773	775	778	774	772	769	767	773	774	785	785	772	769	766	765	764	762	758	767	765	768	782	797	802	779	769	771	771	771	770	772	779	785	788	789	791	791	793	791	791	789	785	791	778	757	760	0	0	0	0	0	0
645	645	642	647	646	651	651	653	654	644	647	647	648	646	643	653	653	654	654	649	654	659	659	658	656	649	646	650	650	653	659	664	665	662	648	648	657	662	666	664	663	652	652	657	661	657	648	653	659	660	660	654	656	657	657	656	656	657	654	654	654	656	659	662	662	664	662	655	655	656	659	659	663	667	666	652	648	647	649	654	658	664	665	671	672	662	661	661	661	660	659	660	666	667	663	657	652	658	665	665	663	659	656	658	661	656	651	652	657	665	672	674	669	663	665	659	654	662	664	668	672	673	676	677	680	680	678	675	669	663	663	674	679	680	674	663	661	662	667	670	671	671	672	674	674	671	667	662	664	664	666	672	680	682	679	679	683	687	677	675	676	677	676	682	681	682	685	688	684	680	667	674	677	672	670	670	670	668	664	660	660	670	675	677	683	684	682	673	667	670	668	664	667	681	685	688	684	667	660	660	667	670	674	679	684	682	680	677	673	678	680	680	669	667	668	670	670	675	685	684	675	688	689	688	679	680	683	690	688	687	680	677	677	674	675	675	677	694	696	692	686	687	689	688	691	689	684	680	678	684	683	687	692	691	689	693	692	695	691	696	695	691	688	685	684	690	691	677	691	701	697	694	692	693	690	682	685	685	682	680	681	697	699	698	697	697	699	706	699	699	698	695	692	686	683	680	676	680	691	683	684	678	676	681	682	682	680	680	676	673	671	668	683	686	686	688	689	691	685	684	680	687	699	701	698	696	690	691	691	691	684	675	669	694	704	692	693	691	696	699	698	692	699	704	701	699	699	698	696	698	703	703	710	717	715	712	710	703	702	690	706	709	712	711	704	702	700	700	698	699	707	709	712	712	709	704	710	708	708	709	714	711	699	703	700	704	702	702	703	709	710	714	714	709	706	708	710	706	704	701	700	700	696	695	703	706	709	704	705	703	700	697	699	704	698	715	715	703	691	690	693	702	707	710	708	710	712	713	715	703	705	713	712	712	706	714	720	725	732	723	715	713	714	716	719	724	723	728	723	728	724	718	717	727	731	724	711	715	717	723	723	723	724	725	726	730	727	730	735	732	725	720	712	723	730	730	734	740	741	744	726	730	735	737	738	735	729	726	733	736	733	723	726	731	725	718	712	710	711	720	725	725	721	718	721	723	728	734	742	736	730	730	728	733	728	723	725	727	727	731	734	734	736	736	737	738	737	726	731	738	744	745	742	738	746	743	740	734	730	729	728	717	730	736	741	741	745	747	746	760	760	758	757	765	767	766	756	751	751	751	751	751	746	742	739	740	736	741	751	757	749	747	752	756	760	759	757	756	751	752	756	764	765	758	754	754	771	770	768	769	771	768	765	763	761	756	767	767	768	765	766	766	764	759	756	753	749	747	760	771	777	772	764	760	767	767	771	773	773	773	778	779	782	783	789	790	784	784	777	769	768	759	754	753	0	0	0	0	0	0
630	632	632	640	642	646	646	651	651	638	641	641	642	636	636	641	643	643	646	645	655	649	649	656	649	646	638	642	642	644	653	651	649	651	653	653	653	657	658	661	654	652	652	653	651	646	647	650	650	649	649	651	650	650	653	657	658	655	654	652	652	655	655	657	657	657	652	653	653	653	656	660	660	662	648	645	645	645	649	651	658	661	657	661	670	657	655	654	654	654	653	656	656	655	645	646	652	658	656	650	652	651	651	656	653	649	652	656	657	662	667	665	663	663	663	659	656	652	653	665	665	666	667	672	656	667	674	670	662	657	654	661	664	665	664	663	664	663	668	669	670	666	667	666	669	669	666	659	663	661	663	666	674	675	673	673	677	680	675	673	672	668	660	661	665	678	680	680	669	668	668	670	672	672	670	672	671	665	663	657	656	671	675	676	676	677	673	671	671	666	657	659	665	668	672	680	689	682	670	668	669	663	662	665	668	669	663	665	666	669	667	667	664	662	666	666	668	670	677	673	674	676	681	681	676	677	688	692	691	684	679	675	673	674	673	674	667	686	684	682	680	682	687	686	687	686	682	676	675	678	682	688	690	684	684	683	687	687	695	693	690	692	672	673	675	671	687	687	695	694	679	686	688	683	681	673	669	671	674	682	690	698	699	693	692	693	697	694	675	674	681	683	683	682	678	669	669	670	675	681	679	677	670	675	680	680	677	676	670	664	662	679	683	687	685	683	679	666	660	667	671	678	681	679	687	682	690	687	682	683	688	686	694	683	683	693	696	696	691	688	691	692	686	677	675	684	702	701	701	701	696	693	688	681	679	681	687	695	695	685	685	692	697	707	702	694	694	693	692	693	705	709	710	706	702	699	698	705	705	707	696	687	690	700	705	705	709	713	702	699	705	710	699	703	701	700	698	692	691	699	703	697	692	689	689	691	702	700	704	701	693	689	685	689	707	710	714	707	699	694	697	701	702	697	701	708	707	701	700	702	694	689	690	693	700	710	715	719	723	722	714	710	709	709	711	713	716	718	717	714	712	710	709	710	712	718	708	705	713	717	719	719	719	722	720	724	724	726	730	729	720	717	713	720	719	710	726	715	714	704	706	717	736	736	737	731	722	722	726	731	732	723	723	728	724	719	714	707	707	711	717	717	713	710	715	718	724	724	733	736	733	728	727	727	723	723	723	723	723	726	731	733	728	730	731	736	726	723	727	736	740	741	742	735	730	729	730	729	727	725	719	720	713	716	735	738	738	745	742	741	749	751	751	746	751	750	736	738	739	742	741	744	740	738	738	738	740	742	753	756	750	746	744	748	750	750	755	754	753	750	750	760	758	753	750	750	755	764	765	764	766	760	760	760	756	754	754	752	751	761	764	765	764	758	754	751	749	754	761	766	757	749	760	763	763	765	769	770	773	772	772	771	768	770	767	767	767	768	769	763	762	756	751	748	0	0	0	0	0	0
620	630	630	636	638	641	645	645	640	633	636	636	636	631	631	629	632	632	638	637	640	650	652	652	649	641	635	638	645	645	644	644	637	636	640	640	645	648	646	644	647	644	640	640	641	642	641	643	643	645	648	648	646	632	647	653	654	655	653	651	651	639	641	641	642	651	648	648	649	651	652	651	651	646	640	641	641	649	652	654	655	656	655	655	655	650	648	647	646	646	646	648	646	642	641	643	646	650	647	643	646	645	645	645	648	651	658	661	664	672	675	668	665	663	663	663	656	649	643	643	644	647	636	640	646	651	655	652	656	655	655	658	662	665	664	664	663	651	644	642	653	659	660	661	658	660	662	659	660	661	662	662	665	663	658	659	662	667	671	669	670	654	653	657	661	665	668	669	668	667	664	668	670	667	667	671	671	662	653	656	658	666	671	672	672	667	669	668	664	655	658	662	664	664	672	672	676	673	670	675	674	661	658	660	665	663	665	670	670	672	666	664	663	662	665	666	666	667	665	656	658	668	671	674	670	671	675	686	688	684	680	677	673	670	675	673	660	675	681	667	676	676	686	688	678	675	675	671	673	678	687	683	683	677	674	673	675	673	676	683	683	681	677	673	671	670	678	683	686	670	668	662	659	679	667	671	668	668	670	670	676	681	687	689	685	685	675	671	669	673	680	682	681	678	674	668	669	664	665	678	678	677	669	668	675	671	672	671	667	661	672	677	681	681	680	679	669	664	659	665	668	671	676	677	675	671	679	684	679	682	691	690	685	683	674	678	687	688	685	682	682	682	680	669	665	684	695	697	695	686	684	687	682	675	674	676	682	688	690	676	684	688	692	696	702	694	690	689	683	685	687	692	696	702	699	697	694	693	692	693	689	686	689	699	700	702	712	713	713	700	693	698	693	692	693	697	696	693	691	703	707	702	691	687	684	690	693	696	695	695	693	689	687	693	698	703	710	705	701	694	696	696	688	687	685	690	692	696	696	696	695	692	691	691	696	700	711	716	722	719	700	701	698	705	705	709	711	714	709	709	706	702	703	705	706	715	716	711	709	711	713	716	715	716	718	718	719	726	725	721	714	713	712	711	709	709	714	711	708	699	700	708	725	731	732	724	718	718	724	727	726	718	724	724	720	717	715	713	706	709	720	712	709	706	705	708	714	699	705	708	709	709	719	720	717	719	723	721	720	721	724	721	716	722	721	724	726	723	721	718	728	736	736	736	732	729	732	735	731	728	723	716	713	713	719	735	737	741	740	740	742	747	745	735	733	728	729	727	732	732	731	728	724	721	723	733	737	742	747	748	744	738	736	733	733	749	753	757	754	752	750	752	753	753	748	747	749	753	759	758	759	753	748	750	756	756	753	746	746	754	758	760	761	759	755	750	738	751	754	750	749	746	745	745	744	762	764	765	767	769	769	769	769	768	764	757	757	753	750	749	758	753	749	746	0	0	0	0	0	0
620	626	626	627	628	632	634	634	631	633	627	628	628	629	628	626	628	628	624	618	627	642	649	649	648	634	634	638	646	646	643	639	631	632	638	643	643	646	649	653	649	644	631	631	635	635	637	638	640	646	647	647	646	632	648	647	657	646	644	639	639	641	640	638	639	641	647	645	647	649	652	648	645	645	639	636	637	647	650	652	651	652	652	649	642	641	641	640	637	637	637	639	641	645	641	643	645	646	643	643	643	646	645	640	646	651	660	664	664	665	649	646	647	649	650	651	650	646	641	633	634	633	637	640	642	648	647	647	649	649	650	644	649	658	659	662	655	648	639	641	648	651	654	653	653	658	659	661	664	662	658	658	657	655	651	656	657	657	663	656	664	649	646	650	654	654	658	659	666	667	663	667	667	666	663	658	662	658	654	649	650	656	661	663	663	663	660	663	662	651	650	653	656	664	669	674	674	669	662	659	658	660	652	655	656	659	652	649	657	660	665	663	663	665	676	674	669	665	658	642	642	656	662	666	663	659	663	668	672	674	672	672	663	662	654	652	657	664	678	662	663	667	667	668	668	664	664	665	665	668	677	676	676	675	673	672	662	656	658	669	676	680	679	674	671	669	663	674	664	662	658	655	653	654	661	665	663	654	656	661	667	674	669	668	661	651	659	670	670	675	681	681	677	674	669	668	668	668	666	665	675	677	667	673	668	667	666	667	671	669	671	670	662	667	670	667	664	663	661	667	667	662	675	674	670	665	665	666	665	665	662	662	660	662	668	676	675	683	684	679	677	676	672	667	664	671	673	680	686	683	680	678	680	678	677	677	681	684	686	673	673	675	673	688	696	697	685	680	678	684	686	691	695	700	695	691	693	682	675	675	686	681	682	682	693	698	698	713	712	705	698	697	694	691	689	695	695	698	702	704	697	693	685	679	683	685	690	694	694	695	693	691	689	689	695	696	702	705	703	692	697	690	688	686	687	685	685	685	689	692	691	690	692	696	694	691	693	695	713	701	698	702	704	702	706	703	694	694	693	694	698	701	700	702	701	708	714	710	709	704	703	713	714	713	712	709	709	719	717	718	702	702	712	713	711	709	711	701	697	693	695	699	706	714	721	715	712	715	719	720	718	716	710	709	717	715	715	715	714	710	712	707	704	702	700	696	698	699	698	701	722	718	714	715	715	716	716	715	718	716	714	714	709	708	704	704	708	711	712	709	709	725	729	727	731	727	727	725	727	728	726	717	712	712	713	725	728	736	729	727	730	740	735	726	724	720	723	725	726	726	722	721	716	714	715	719	733	739	738	736	735	732	733	732	730	726	732	757	754	749	737	742	745	742	749	746	740	738	746	749	748	747	748	747	747	748	743	741	733	744	742	753	759	759	759	744	738	737	743	745	748	744	743	743	740	736	737	750	751	750	750	749	747	748	746	746	745	747	748	748	746	741	743	742	0	0	0	0	0	0
620	622	623	623	624	623	621	621	623	620	628	631	631	632	632	629	625	623	623	615	620	624	636	636	638	623	629	636	642	638	638	633	628	629	633	639	639	644	644	651	647	631	626	629	629	629	633	637	636	644	648	646	646	643	642	642	638	639	637	639	641	641	639	635	636	636	638	643	646	652	649	645	644	644	641	637	633	639	644	645	650	650	649	647	647	642	637	630	627	630	630	635	642	644	641	639	643	645	640	642	646	644	640	639	637	639	644	651	654	642	643	646	646	645	646	646	641	639	642	639	638	640	637	638	641	645	647	644	638	639	640	642	644	648	646	640	649	645	641	646	645	648	648	646	652	650	653	653	655	653	649	647	638	638	647	653	658	644	644	648	642	638	637	640	644	652	653	654	655	658	661	657	648	641	637	642	638	638	644	649	650	651	661	664	665	662	659	655	659	654	647	646	648	651	665	670	666	660	656	656	656	659	649	647	646	641	641	648	653	660	662	661	662	665	669	672	667	657	649	645	643	647	654	653	650	648	649	663	660	668	672	672	664	656	650	649	648	662	662	660	661	659	658	659	659	658	658	658	659	662	659	663	668	670	666	663	657	654	654	660	665	669	671	668	664	660	656	657	654	641	649	650	650	665	667	661	648	650	650	653	659	667	666	660	647	648	655	666	664	664	677	678	673	662	660	661	667	667	666	664	664	661	656	655	661	663	664	661	668	667	667	661	660	658	652	658	664	667	668	671	664	661	671	668	665	664	665	667	667	663	660	661	663	668	671	673	670	664	673	675	675	675	665	663	662	665	671	668	669	661	669	674	674	678	674	673	670	677	673	673	671	669	671	677	682	689	678	676	681	680	682	688	687	696	683	687	667	676	673	672	678	678	677	678	692	694	710	698	682	685	687	685	678	675	685	686	691	696	702	699	693	689	685	683	683	689	690	695	693	692	688	688	689	687	688	691	701	698	698	679	687	683	681	679	684	682	682	683	684	689	689	691	692	691	694	691	692	697	697	691	695	694	696	700	704	704	694	691	690	689	692	699	691	692	696	702	704	702	703	702	702	708	707	708	705	703	700	701	704	698	700	702	704	707	707	692	690	686	682	686	692	696	700	705	702	707	707	710	711	706	704	701	704	706	702	715	716	712	709	705	701	699	701	705	698	694	691	694	696	699	697	712	704	708	713	719	720	718	714	712	712	711	708	704	701	705	707	706	703	699	699	702	708	716	726	726	723	721	726	727	727	718	712	710	706	719	720	725	722	713	721	722	722	716	715	718	719	723	724	718	716	714	711	712	713	717	732	732	729	724	723	721	722	724	723	707	713	720	729	727	732	732	722	724	734	727	717	714	723	738	738	737	742	743	743	743	743	734	720	730	730	746	753	752	741	742	739	743	743	748	746	742	742	741	737	733	734	736	741	742	739	739	739	735	732	732	741	738	739	738	743	731	730	733	0	0	0	0	0	0
618	620	618	618	618	618	616	615	615	621	628	634	627	627	617	615	619	616	616	616	617	621	629	625	625	623	627	632	637	636	636	627	622	624	628	630	638	638	637	643	627	625	621	619	619	622	632	635	639	642	643	637	637	631	629	629	629	628	632	640	641	623	623	620	623	628	631	637	644	648	642	640	638	636	636	634	632	630	633	642	643	644	646	646	641	643	632	622	625	629	636	636	640	639	638	642	643	643	638	639	641	639	636	637	640	643	641	637	635	638	640	643	643	642	642	642	639	638	639	636	640	640	638	645	642	639	627	629	632	639	640	641	641	642	637	629	625	628	631	635	638	641	644	644	642	641	644	648	648	648	648	645	641	639	643	649	646	640	637	636	639	631	632	637	642	647	649	647	648	648	643	635	629	632	636	634	639	642	643	644	650	653	659	665	665	660	657	656	653	652	643	637	639	641	643	646	648	656	662	664	663	652	647	643	641	636	637	650	655	662	661	660	660	660	663	664	664	655	651	649	649	655	652	647	645	640	638	642	655	661	664	661	653	654	646	660	662	651	657	658	657	649	653	656	654	653	654	653	654	658	658	657	657	655	657	660	655	650	652	655	655	660	664	660	647	642	638	642	639	634	631	647	660	664	655	655	646	642	638	647	653	657	644	642	641	645	661	657	666	664	664	665	667	655	654	654	655	658	658	655	654	650	646	653	651	651	640	645	656	664	656	657	657	652	650	645	646	651	664	659	657	656	658	667	663	664	665	670	669	659	658	658	662	667	668	668	665	657	656	670	670	666	662	660	657	661	681	669	663	658	649	660	659	659	660	659	663	664	669	671	670	671	670	670	672	674	674	680	681	678	679	675	691	693	683	662	671	668	671	671	674	681	679	681	691	692	686	680	679	683	686	683	678	674	675	684	693	697	698	700	694	685	681	677	685	691	696	690	688	681	683	684	679	683	685	690	686	681	677	674	679	676	673	675	683	682	682	678	682	685	684	682	681	687	687	689	690	692	689	684	682	687	693	695	696	700	691	688	681	681	687	687	688	690	688	688	692	696	697	700	697	698	699	693	691	687	693	698	699	694	692	693	700	697	670	686	688	685	679	678	678	677	678	682	688	697	703	707	708	700	697	697	703	707	704	697	703	707	704	699	693	686	694	696	696	694	691	692	695	695	691	694	697	698	704	714	718	718	716	709	703	703	704	703	700	699	708	707	704	700	699	700	705	712	716	729	721	729	728	723	720	712	704	703	703	717	717	717	711	709	712	710	708	704	707	710	718	722	722	715	706	703	707	709	710	713	727	729	721	716	711	713	712	713	706	700	710	711	706	714	713	716	718	719	718	716	713	712	711	733	734	730	732	732	733	736	733	730	719	722	725	721	729	727	727	731	738	740	739	742	741	734	734	731	736	733	731	734	737	737	735	732	737	736	736	730	728	722	716	717	735	729	729	732	732	0	0	0	0	0
615	616	613	613	608	608	608	615	615	626	632	621	608	608	606	612	617	620	620	615	622	626	623	620	620	621	623	628	634	633	633	625	621	622	627	628	630	630	636	625	623	623	616	616	616	620	628	633	634	633	631	630	629	629	627	626	625	624	624	624	621	623	623	622	621	622	623	630	634	636	637	634	628	621	619	619	617	621	627	632	633	635	638	633	631	637	627	626	623	631	638	626	626	627	628	631	637	637	636	637	636	633	632	635	640	640	637	632	628	633	639	641	640	638	638	638	636	635	633	630	626	630	639	649	644	637	628	627	626	631	635	634	621	623	623	624	622	624	628	638	635	634	641	643	642	640	640	643	645	644	642	642	639	636	654	653	648	642	640	636	636	636	632	633	641	645	641	641	640	643	640	635	632	630	636	638	635	640	638	641	642	647	652	660	661	656	641	635	624	623	619	630	631	632	632	632	636	645	656	662	654	641	637	634	637	634	641	648	647	644	652	650	647	646	659	650	653	648	649	655	653	654	646	643	640	638	639	639	640	649	651	650	651	639	642	646	647	662	659	660	654	647	653	653	652	649	650	652	656	659	658	648	645	643	646	649	654	647	656	653	654	654	656	653	642	636	642	637	633	628	632	650	655	654	652	650	647	639	635	635	642	643	642	641	640	649	654	651	657	657	652	649	651	643	640	638	638	656	658	654	649	647	648	644	648	646	639	642	644	654	655	651	648	648	647	653	652	654	657	654	651	648	654	652	656	660	667	676	659	656	654	654	654	660	663	660	657	652	651	652	658	657	652	652	658	664	680	671	658	653	648	653	652	655	656	656	656	658	668	668	670	671	669	670	670	676	676	679	680	676	668	660	665	682	681	673	664	665	670	670	669	673	678	674	681	687	682	677	677	681	675	668	675	672	671	672	675	685	681	678	672	677	678	678	680	686	686	684	683	681	677	678	675	677	675	684	681	681	676	674	668	671	671	678	671	679	680	677	675	681	680	678	677	680	682	685	685	684	683	678	679	684	688	689	689	687	687	682	681	682	683	687	693	690	683	684	684	686	691	695	689	687	683	696	693	689	688	693	693	688	689	691	697	689	678	667	669	674	675	677	674	672	673	681	686	698	698	700	704	704	700	698	709	702	691	686	685	688	689	691	690	684	687	690	692	690	692	694	694	692	686	684	687	691	699	705	712	712	710	708	702	701	700	703	701	700	703	702	699	699	699	698	702	705	709	709	706	708	706	715	709	703	692	697	715	716	716	716	710	708	710	709	706	701	699	705	710	717	716	709	696	694	697	708	715	720	725	729	719	709	708	708	712	712	706	698	702	709	705	700	705	708	715	714	712	712	712	712	710	705	719	719	719	713	702	709	716	709	710	712	716	720	724	722	730	735	734	733	730	739	735	735	728	726	729	730	729	724	732	733	728	727	726	730	730	727	722	719	715	715	720	726	729	732	732	0	0	0	0	0
608	614	612	610	610	605	608	613	613	623	625	621	599	599	599	605	612	615	617	617	622	622	623	622	620	620	620	624	628	627	616	616	616	621	621	618	618	618	623	625	624	618	617	611	616	616	628	634	632	630	629	630	632	632	628	624	621	617	618	620	621	622	627	627	624	621	625	622	626	624	623	621	615	609	609	609	611	614	629	630	630	628	633	623	623	628	628	624	623	619	619	615	620	620	623	628	633	630	618	615	624	629	627	636	639	638	636	620	626	629	636	639	636	635	634	633	633	625	623	621	623	620	621	616	621	634	635	631	627	628	629	625	618	621	623	624	626	632	641	637	633	635	635	633	632	629	635	640	643	638	635	632	629	633	641	646	646	643	642	635	635	632	626	628	635	635	629	626	629	636	640	638	634	632	635	640	635	634	633	636	635	635	642	645	643	637	627	622	620	616	616	618	626	630	631	631	633	641	639	643	641	627	634	632	630	640	642	642	636	637	642	637	636	636	624	627	644	644	650	655	657	652	646	636	640	642	642	643	638	640	643	644	643	633	636	641	649	650	655	653	640	633	641	646	646	647	645	649	656	659	650	647	645	641	643	647	650	648	647	649	651	652	651	652	652	645	641	624	620	624	637	643	653	649	650	644	638	625	627	634	639	642	644	641	640	645	647	645	645	651	641	645	643	641	639	636	637	656	658	659	656	653	646	646	646	645	645	649	644	647	647	647	642	645	650	653	652	650	651	651	642	642	640	639	645	649	653	655	653	646	643	650	651	655	652	653	651	648	648	650	654	658	655	653	647	663	664	658	646	647	648	648	649	653	655	663	661	661	658	657	655	660	670	672	667	664	668	670	676	671	667	664	662	660	662	664	664	667	667	669	671	670	674	674	674	674	676	679	680	681	675	666	665	667	667	673	678	680	678	674	673	671	674	668	672	677	680	680	678	675	671	672	670	667	661	658	684	674	671	666	666	654	651	661	665	665	664	670	678	667	668	674	673	676	677	679	673	672	671	673	677	684	686	684	684	683	678	666	669	668	669	675	693	694	683	681	671	670	664	679	679	680	684	683	684	688	687	686	685	676	664	668	676	679	671	670	673	676	677	676	673	674	675	684	684	687	691	695	694	686	685	688	699	695	694	690	684	682	684	686	689	687	685	687	687	677	679	684	688	690	689	687	683	688	693	695	700	699	697	692	693	697	698	703	705	702	701	701	699	698	698	698	699	702	702	700	701	703	702	691	694	688	689	699	703	709	712	712	703	702	707	707	706	700	698	695	699	714	714	709	693	689	693	704	714	719	710	705	703	706	708	715	715	712	707	707	706	708	703	701	701	705	708	709	709	712	713	711	707	704	701	701	698	699	700	701	707	710	712	709	714	721	713	707	711	713	719	715	720	729	729	732	722	722	725	728	720	714	716	719	722	706	706	706	714	717	720	714	715	712	716	717	724	724	729	0	0	0	0	0
602	611	611	610	610	609	610	605	612	612	610	606	592	595	595	601	608	612	616	616	621	632	621	619	616	616	620	618	622	613	609	609	608	612	613	614	616	617	617	621	620	619	617	618	624	624	630	630	626	625	626	630	628	627	627	611	612	614	615	618	620	608	607	605	605	608	615	617	620	621	618	616	611	609	608	613	613	614	613	625	624	622	622	616	618	621	622	620	621	620	611	613	617	617	621	628	628	620	615	609	616	623	625	629	635	634	622	619	623	628	633	635	634	632	621	618	618	617	617	620	622	622	618	616	618	619	625	625	621	617	614	614	615	615	616	622	628	635	639	637	635	634	630	628	622	622	623	635	636	637	634	631	631	636	640	643	641	640	630	627	623	627	625	629	626	622	617	610	610	620	628	629	634	633	636	633	633	632	630	629	631	633	628	640	640	632	625	621	617	615	615	614	625	631	631	630	631	635	632	624	619	622	628	629	632	636	636	637	630	629	626	619	618	619	621	626	629	630	625	623	622	643	639	634	636	639	639	638	637	637	637	638	632	630	634	641	644	642	645	643	639	631	632	635	640	643	645	651	655	644	643	645	643	645	651	652	652	645	639	639	649	647	649	651	645	641	638	632	628	632	637	643	647	649	648	644	640	637	638	642	642	641	643	637	639	645	646	645	643	638	638	642	642	642	641	639	654	658	659	660	657	649	647	645	631	631	631	646	642	643	643	646	641	642	652	652	650	649	648	648	642	639	635	638	641	646	649	648	639	631	630	633	649	648	646	648	646	645	643	643	647	644	654	655	655	653	653	655	653	652	649	650	649	651	659	653	662	648	657	655	652	659	665	665	659	656	658	662	660	662	659	661	660	655	657	659	661	658	659	658	671	672	677	674	658	670	670	670	675	678	674	668	664	667	664	672	676	676	672	663	663	664	660	657	660	668	675	676	678	673	670	670	667	661	659	660	673	680	666	656	657	647	647	645	651	655	657	661	664	663	659	654	660	668	674	672	667	666	669	671	677	687	688	684	680	678	678	664	656	648	650	659	664	661	664	655	664	664	661	671	674	679	679	680	684	686	686	675	669	664	658	663	665	665	669	671	673	674	678	680	676	679	677	679	679	675	679	691	683	678	679	683	695	693	690	687	686	685	682	680	683	681	680	678	678	677	680	683	689	690	689	688	685	685	687	692	692	690	685	684	684	690	699	706	707	702	701	699	700	700	699	701	700	703	705	706	701	698	696	688	683	684	688	698	703	698	690	687	684	704	707	707	703	699	693	693	698	699	701	705	691	688	691	701	706	707	696	697	701	706	711	711	706	703	702	703	703	699	692	690	688	705	707	707	709	709	712	712	705	702	702	700	697	694	697	697	701	705	706	706	710	706	689	696	696	704	711	708	707	719	719	723	720	721	721	724	727	724	722	721	701	701	701	704	705	710	712	709	703	700	713	711	712	712	712	0	0	0	0	0
606	607	607	603	603	596	598	599	600	600	600	595	589	593	593	599	603	611	611	629	629	621	609	608	612	612	616	612	610	607	602	604	604	604	606	607	611	616	616	618	616	616	615	622	622	626	626	625	625	624	626	627	628	615	615	608	609	612	613	611	606	608	607	605	605	600	604	609	614	616	617	610	606	605	612	617	617	611	610	612	618	617	615	608	609	617	617	618	618	620	614	606	612	616	616	623	621	615	612	611	613	618	619	629	622	616	606	615	619	623	630	635	638	620	619	618	621	619	620	623	627	622	613	612	612	612	614	613	613	614	610	605	604	601	605	614	617	622	626	634	634	633	626	619	612	612	620	625	632	629	628	630	627	636	639	639	632	623	613	616	618	618	617	624	621	617	610	618	620	615	623	625	630	627	625	621	618	623	622	624	630	633	632	640	636	629	625	620	616	617	616	618	617	631	632	632	631	625	620	618	614	619	621	629	631	633	629	621	618	618	618	618	618	618	621	625	629	628	622	621	619	620	622	633	634	637	636	635	635	634	632	630	627	627	630	635	638	635	638	635	629	629	629	629	628	635	643	650	648	641	641	641	641	639	640	641	633	632	629	626	625	632	633	630	632	639	637	632	631	633	639	643	645	649	649	641	636	632	639	642	646	646	639	638	639	645	647	643	636	628	632	637	642	648	646	645	657	658	658	647	647	645	640	638	627	626	628	647	639	636	636	636	641	644	648	646	648	645	644	645	650	646	639	635	638	639	643	642	629	625	630	632	638	641	641	646	644	644	639	634	635	637	648	650	651	648	651	649	648	642	640	647	648	647	649	652	661	646	655	651	652	652	665	658	660	654	656	657	655	653	649	643	645	647	652	654	655	655	653	650	652	647	664	669	663	653	657	664	671	671	668	665	664	662	656	656	661	660	665	667	663	662	655	653	655	661	667	669	671	672	672	669	665	656	661	662	662	664	668	654	653	652	652	654	656	658	659	655	658	657	651	652	653	662	672	663	665	666	671	674	684	689	691	675	672	662	655	653	653	656	655	659	657	663	657	650	655	664	672	672	679	678	672	670	668	669	671	677	664	660	661	660	663	664	667	671	674	674	676	678	681	682	684	677	673	673	669	687	677	674	673	677	693	690	685	683	684	684	686	678	679	681	678	677	666	676	679	681	684	687	686	682	678	677	682	684	684	682	674	675	680	686	695	704	702	699	698	696	699	699	699	697	696	703	704	703	697	692	684	680	680	684	689	694	692	686	687	684	681	690	706	705	701	693	685	681	681	687	691	695	697	691	693	695	695	692	692	691	695	703	701	691	693	691	693	697	696	693	691	688	686	690	703	701	705	709	711	706	704	704	701	698	692	687	687	690	693	695	701	705	702	687	686	685	687	702	702	698	700	707	707	712	717	718	722	726	728	728	719	698	689	690	690	700	702	706	706	705	703	701	709	711	711	705	699	0	0	0	0	0
595	600	600	593	596	596	600	597	592	591	591	590	589	593	598	598	601	608	616	610	610	604	604	604	606	612	612	606	607	611	603	596	596	598	603	606	609	611	610	610	608	612	617	613	616	608	608	603	604	606	607	606	603	607	610	610	613	611	607	603	606	606	606	605	601	601	605	610	610	617	612	605	601	608	613	616	620	620	616	611	612	612	608	605	600	594	588	592	600	602	609	605	602	603	612	612	619	614	612	609	609	610	616	617	602	601	605	605	602	608	622	628	626	623	620	615	618	617	616	616	622	621	613	608	604	609	610	612	610	608	607	600	597	598	601	602	612	619	622	628	631	630	618	611	607	606	605	608	612	612	616	620	623	626	631	628	626	623	610	611	613	613	606	602	601	608	605	618	623	621	623	625	623	621	623	618	616	618	616	618	626	631	632	629	630	630	624	619	618	620	622	621	621	619	625	625	623	620	615	611	612	619	622	626	624	621	619	618	614	613	615	618	618	618	617	616	616	615	614	610	612	617	623	625	622	622	632	629	630	634	633	629	628	628	629	628	626	623	624	621	624	625	628	627	621	624	624	642	644	642	635	630	630	632	631	629	629	615	613	615	621	623	622	622	627	627	631	632	632	634	639	642	645	648	647	637	620	620	623	635	639	639	637	634	631	620	628	629	629	626	628	632	643	645	646	644	649	655	650	642	642	639	634	630	620	618	616	620	627	628	631	626	623	626	637	642	643	641	635	638	647	644	638	637	637	634	629	638	640	628	630	635	633	639	643	645	645	647	645	633	635	637	642	647	647	651	649	647	645	641	642	634	642	642	642	643	648	646	652	654	655	652	651	663	652	651	651	653	655	651	647	645	644	650	646	649	650	650	642	644	642	644	643	649	656	654	652	655	661	643	644	646	652	651	648	647	647	654	665	667	664	660	656	653	652	657	661	663	651	654	667	666	664	652	661	664	660	662	661	664	658	656	656	656	656	659	659	661	656	654	653	654	653	650	651	641	643	674	677	668	672	672	666	661	660	663	663	654	653	652	655	653	651	649	649	642	660	652	651	651	656	660	655	647	647	644	644	670	672	660	658	653	654	656	660	664	672	673	676	679	678	679	677	669	667	660	673	675	677	675	671	672	672	676	680	680	681	679	673	677	676	673	670	669	670	669	672	674	677	682	680	676	674	677	675	679	680	681	679	670	669	668	683	688	681	680	680	680	689	692	687	690	690	687	686	695	691	684	678	676	676	681	688	692	691	685	685	684	685	683	680	686	695	689	686	684	681	682	685	684	683	685	692	691	688	684	684	687	691	691	687	689	689	693	696	694	693	690	688	687	687	689	696	697	698	701	708	711	711	698	698	696	690	682	681	684	695	695	697	701	696	691	685	688	689	693	691	689	689	700	706	712	716	717	721	723	722	708	698	693	686	686	682	684	700	702	701	701	702	702	702	708	708	708	698	0	0	0	0	0
591	591	586	590	599	599	597	591	585	588	588	588	590	590	598	598	613	609	594	599	599	600	602	602	603	606	606	606	601	597	594	595	595	597	604	605	608	606	598	598	602	610	614	613	609	605	600	600	598	602	602	600	602	606	610	610	609	608	603	604	606	602	604	604	604	604	605	610	612	612	605	601	603	602	610	619	620	618	618	615	616	615	606	598	591	584	581	582	590	595	599	597	595	597	600	605	605	606	607	608	612	611	596	594	596	597	599	605	607	613	619	623	624	619	610	611	617	616	615	615	616	618	609	599	602	605	607	608	601	601	600	596	590	593	596	605	604	608	612	616	620	624	622	613	606	606	601	599	599	603	613	622	623	626	626	624	618	610	609	607	604	598	597	599	603	606	606	607	613	621	621	620	619	619	623	618	618	614	611	611	614	624	628	627	629	629	625	620	621	622	624	621	621	621	623	622	617	615	612	609	617	621	621	619	618	616	614	613	609	610	613	616	616	615	613	613	614	614	611	603	600	615	619	620	613	612	613	622	622	625	624	625	627	628	628	629	632	622	623	624	624	624	625	622	615	620	611	620	624	628	632	634	633	628	627	623	618	618	622	619	619	625	627	626	626	634	625	628	631	632	639	639	625	621	618	616	619	620	618	621	626	630	629	630	630	629	627	628	628	630	628	628	636	639	640	638	638	643	638	638	637	635	635	626	617	616	621	619	631	626	630	621	620	624	629	638	638	628	633	636	637	638	637	635	633	638	629	635	635	638	630	633	633	641	644	645	642	646	638	630	633	633	637	642	647	648	645	643	645	641	638	633	635	635	635	637	636	646	650	651	650	651	646	646	640	644	643	642	648	648	648	647	647	646	644	643	649	647	642	638	637	638	638	642	643	646	648	644	636	634	640	645	649	647	641	635	636	647	654	657	654	653	651	650	647	652	654	644	648	649	651	654	662	649	644	648	654	658	658	660	655	656	655	652	654	657	663	659	654	646	652	651	652	648	644	658	661	663	664	656	659	664	664	653	653	654	653	653	651	650	649	651	650	646	651	649	653	647	645	645	642	639	637	636	641	642	644	648	667	673	657	650	649	650	652	668	673	672	678	673	668	665	664	668	667	659	660	669	678	686	683	668	661	671	672	674	667	668	668	668	667	663	662	661	660	663	665	667	671	673	675	670	666	673	677	672	675	677	676	671	674	672	675	678	678	673	668	671	674	677	680	682	682	680	677	675	670	673	679	679	678	677	680	680	682	683	684	684	685	685	677	674	676	674	679	676	673	672	678	681	678	673	674	675	676	681	681	675	665	667	669	673	676	679	690	688	687	684	678	678	682	684	690	690	693	702	700	700	700	681	682	692	686	680	676	685	688	689	690	692	691	690	687	692	688	689	686	680	680	693	698	682	688	692	694	698	703	706	699	690	685	685	687	688	695	702	701	701	698	697	699	699	700	700	699	0	0	0	0	0
591	581	582	588	589	589	586	581	582	593	593	597	599	590	604	604	614	602	590	590	601	601	601	601	598	602	599	599	588	589	590	591	600	600	601	603	602	594	597	605	605	613	616	613	604	599	594	594	595	599	600	597	601	603	606	604	604	601	598	598	599	599	600	602	605	607	607	608	609	607	602	602	602	606	609	619	621	614	614	614	613	610	598	586	586	583	582	584	588	593	598	598	594	594	599	602	602	602	605	609	609	601	591	590	594	598	599	599	609	614	609	621	622	618	615	616	621	614	610	607	604	602	602	603	601	600	598	596	599	597	589	600	599	602	605	607	605	602	606	604	607	610	606	611	605	605	603	603	603	607	611	622	625	625	622	617	609	604	604	606	612	607	602	600	603	605	606	606	608	613	616	616	616	616	621	618	619	611	608	609	613	619	622	624	619	622	622	619	619	625	621	613	617	617	617	615	612	608	607	612	618	621	625	619	615	613	611	605	598	603	609	612	616	608	605	608	611	612	603	590	595	593	613	613	607	608	608	609	609	615	617	617	619	620	619	612	630	633	635	629	625	625	624	619	613	608	615	616	619	619	624	624	622	619	618	616	619	619	621	621	623	627	627	626	626	621	619	619	623	629	629	627	619	613	614	617	620	621	621	616	620	625	633	635	632	627	624	622	622	626	625	626	626	633	623	612	609	610	610	618	621	625	623	619	616	615	625	625	625	632	632	625	621	622	623	622	624	622	624	625	624	633	632	633	624	625	627	630	630	632	634	632	631	631	641	641	636	637	625	625	631	634	637	632	639	641	640	640	639	638	634	630	630	629	630	630	634	634	640	643	638	642	641	637	637	641	641	641	644	644	645	648	649	646	643	638	645	648	644	647	649	649	643	638	636	639	640	637	636	632	633	643	647	644	625	625	631	638	642	643	646	644	644	642	641	641	641	642	642	649	649	647	641	632	624	622	628	651	654	643	648	651	649	649	649	655	663	656	653	647	647	645	640	642	654	655	659	659	659	657	654	654	653	648	651	651	652	648	648	648	633	634	645	645	647	645	644	650	648	647	644	635	633	635	638	642	644	647	651	662	661	659	649	636	636	653	666	668	665	665	667	667	662	661	660	661	664	670	680	678	666	667	661	655	656	659	661	661	663	665	661	659	654	655	659	659	661	663	663	665	668	656	654	652	655	661	676	681	677	674	672	677	678	679	678	675	669	661	667	674	674	677	674	672	670	669	667	670	679	682	681	680	676	674	674	669	679	684	686	686	681	672	672	672	670	668	665	669	672	676	674	671	671	671	672	672	676	676	665	664	668	669	671	672	670	666	678	676	673	673	684	682	683	690	695	689	689	692	693	690	664	668	668	675	682	684	685	685	685	689	689	689	685	684	683	681	683	683	676	675	674	669	677	688	690	696	705	706	704	698	698	686	688	695	698	693	699	696	692	697	697	697	696	700	698	0	0	0	0	0
581	584	582	582	583	574	574	573	585	590	599	599	599	601	590	587	587	586	593	592	589	589	599	599	593	587	587	587	580	585	584	583	585	585	597	594	594	592	598	609	609	611	615	611	588	584	581	577	577	583	593	597	598	597	597	597	597	596	594	594	592	590	600	605	608	609	609	609	606	604	601	601	599	602	603	607	608	613	613	613	612	603	587	586	585	583	582	582	587	591	594	595	593	599	601	601	602	602	602	606	607	598	589	587	593	598	598	596	592	598	590	605	615	615	615	618	615	604	600	602	599	600	600	600	601	601	598	596	595	588	587	598	596	598	605	603	606	603	601	598	598	597	605	599	589	606	609	605	604	606	614	618	620	621	617	610	604	599	602	601	608	613	609	604	605	605	606	606	606	606	608	608	611	612	609	615	614	606	605	607	613	616	618	622	613	614	614	616	615	611	607	608	610	609	609	609	600	601	604	607	614	623	610	610	607	611	609	602	592	597	600	604	611	605	601	602	601	602	601	595	599	599	608	600	602	607	608	604	607	605	605	605	608	610	608	604	602	602	610	607	612	624	623	621	614	609	599	600	603	608	609	618	614	610	608	609	615	619	620	621	622	625	625	625	625	622	621	618	623	627	630	621	614	613	611	613	624	623	620	620	619	628	629	619	620	615	617	615	615	617	621	623	624	619	613	612	619	615	612	619	620	619	623	620	618	620	615	618	623	624	632	632	631	630	624	625	620	621	619	619	618	618	617	620	619	621	623	625	626	626	621	630	632	627	633	632	630	627	621	624	629	635	630	632	633	637	638	637	628	634	632	629	627	630	633	629	624	623	626	632	629	633	637	638	637	635	633	636	636	641	635	636	638	641	638	630	629	632	632	633	637	647	643	635	628	626	634	635	632	629	628	621	635	641	633	626	625	636	641	641	637	632	633	635	640	638	640	643	639	645	640	643	639	630	625	621	621	632	635	639	644	648	650	646	642	636	645	658	652	645	642	643	640	639	649	652	650	648	649	652	652	652	648	643	643	641	646	647	646	629	632	636	633	644	644	645	639	635	638	641	644	640	635	633	636	641	644	647	649	656	658	659	650	637	638	649	655	660	655	654	662	665	663	656	652	650	653	655	658	660	656	658	662	657	651	652	650	656	661	664	661	659	653	651	653	658	657	659	658	658	656	647	653	659	653	645	651	659	665	666	669	669	657	650	647	650	658	663	657	657	677	674	672	667	664	660	665	678	677	681	680	678	675	669	665	658	665	673	673	673	670	668	664	663	663	662	660	665	668	669	669	669	670	668	668	673	673	673	671	669	669	672	670	665	666	663	662	644	641	659	674	680	684	684	689	689	682	680	686	670	665	665	663	672	674	682	681	681	678	678	682	687	683	677	668	672	672	681	681	676	672	670	671	674	685	693	698	702	697	672	672	671	672	675	684	692	680	686	687	691	691	691	692	698	694	0	0	0	0	0
